ply
format ascii 1.0
comment VCGLIB generated
element vertex 775
property float x
property float y
property float z
property float nx
property float ny
property float nz
element face 0
property list uchar int vertex_indices
end_header
-17.886200000000002 -168.78033333333335 2432.52 0.0 0.0 1.0
-17.4899 -167.01766666666666 2422.67 0.0 0.0 1.0
-18.172033333333335 -157.527 2412.9 0.0 0.0 1.0
-17.058033333333334 -157.949 2422.67 0.0 0.0 1.0
-16.666666666666668 -149.57000000000002 2412.9 0.0 0.0 1.0
-17.173333333333332 -124.48000000000002 2393.6 0.0 0.0 1.0
-17.0751 -106.35033333333332 2365.22 0.0 0.0 1.0
-18.3399 -100.65899999999999 2365.22 0.0 0.0 1.0
-20.915033333333334 -84.6013 2346.67 0.0 0.0 1.0
-19.4226 -86.4042 2355.91 0.0 0.0 1.0
-19.895833333333332 -69.89583333333333 2337.5 0.0 0.0 1.0
-18.677066666666665 -62.15306666666667 2328.4 0.0 0.0 1.0
-18.677066666666665 -62.15306666666667 2328.4 0.0 0.0 1.0
-21.209766666666667 -41.287 2310.42 0.0 0.0 1.0
-21.209766666666667 -41.287 2310.42 0.0 0.0 1.0
-20.1802 -36.139 2310.42 0.0 0.0 1.0
-21.209766666666667 -33.66793333333333 2310.42 0.0 0.0 1.0
-22.477666666666668 -24.418900000000004 2292.72 0.0 0.0 1.0
-19.236633333333334 -15.165366666666669 2283.97 0.0 0.0 1.0
-28.162833333333335 8.536853333333333 1974.92 0.0 0.0 1.0
-20.69796666666667 22.8469 2200.02 0.6554604817268993 0.7124645622109994 0.2505310449581651
-8.446433333333333 36.8024 2707.69 0.0 0.0 1.0
-28.219166666666666 33.515966666666664 2049.32 0.0 0.0 1.0
-27.124866666666666 33.0813 2056.36 0.0 0.0 1.0
-22.639433333333333 33.19726666666667 2442.45 0.0 0.0 1.0
-18.947366666666664 83.9098 2249.62 0.0 0.0 1.0
-22.756899999999998 107.56866666666667 2249.62 0.0 0.0 1.0
-22.13836666666667 111.59766666666667 2258.11 0.0 0.0 1.0
-22.323233333333334 116.46499999999999 2266.67 0.0 0.0 1.0
-20.9308 118.44066666666667 2258.11 0.0 0.0 1.0
-20.9308 118.44066666666667 2258.11 0.0 0.0 1.0
-28.341033333333332 136.08533333333332 1909.79 9.795976588137417e-17 -0.9974703262922 0.0710840922185254
-18.666666666666668 -132.16 2393.6 0.0 0.0 1.0
-19.093333333333334 -130.02666666666667 2393.6 0.0 0.0 1.0
-18.453333333333333 -128.96 2393.6 0.0 0.0 1.0
-17.813333333333336 -127.25333333333333 2393.6 0.0 0.0 1.0
-15.343933333333334 -101.90500000000002 2374.6 0.0 0.0 1.0
-19.869266666666665 -73.93463333333334 2346.67 0.0 0.0 1.0
-20.3372 -56.757466666666666 2328.4 0.0 0.0 1.0
-20.568466666666666 -46.8217 2319.38 0.0 0.0 1.0
-21.188633333333335 -40.62016666666667 2319.38 0.0 0.0 1.0
-21.4157 -36.34493333333333 2310.42 0.0 0.0 1.0
-23.076933333333333 -28.410233333333334 2301.54 0.0 0.0 1.0
-23.333333333333332 -3.33333 2266.67 0.0 0.0 1.0
-25.35846666666667 2.515722333333333 2258.11 0.0 0.0 1.0
-22.885133333333332 4.114436666666667 2252.4500000000003 -1.1914350707802243e-16 0.9903108106132862 0.13886863714480605
-28.162833333333335 8.536853333333333 1974.92 0.0 0.0 1.0
-31.459699999999998 12.984766666666665 1955.5600000000002 4.9258136170804945e-28 3.940839369394141e-27 1.0
-26.574066666666667 27.129633333333334 2077.78 0.0 0.0 1.0
-22.78606666666667 47.064666666666675 2232.84 0.0 0.0 1.0
-13.546523333333333 52.4437 2895.5866666666666 -0.4798936377250575 0.7197011095419588 0.5017294185067134
-22.97126666666667 51.43573333333334 2241.2 0.0 0.0 1.0
-21.772766666666666 54.23223333333334 2241.2 0.0 0.0 1.0
-22.17226666666667 56.229733333333336 2241.2 0.0 0.0 1.0
-21.592033333333333 59.203966666666666 2232.84 0.0 0.0 1.0
-19.69696666666667 95.25253333333335 2266.67 0.0 0.0 1.0
-21.9371 97.7106 2258.11 0.0 0.0 1.0
-23.157899999999998 106.36566666666666 2249.62 0.0 0.0 1.0
-22.323233333333334 116.46499999999999 2266.67 0.0 0.0 1.0
-34.6667 108.68666666666667 1813.33 0.0 0.0 1.0
-20.296899999999997 -173.71133333333333 2422.67 0.0 0.0 1.0
-17.058033333333334 -157.949 2422.67 0.0 0.0 1.0
-19.892500000000002 -142.47299999999998 2412.9 0.0 0.0 1.0
-18.240000000000002 -134.72 2393.6 0.0 0.0 1.0
-19.733333333333334 -130.45333333333335 2393.6 0.0 0.0 1.0
-19.336 -112.50999999999999 2384.06 0.0 0.0 1.0
-19.241833333333332 -76.86273333333334 2346.67 0.0 0.0 1.0
-22.604166666666668 -74.27083333333333 2337.5 0.0 0.0 1.0
-19.660133333333334 -72.05226666666667 2346.67 0.0 0.0 1.0
-20.729166666666668 -67.1875 2337.5 0.0 0.0 1.0
-22.477666666666668 -24.418900000000004 2292.72 0.0 0.0 1.0
-23.523466666666664 -14.296566666666665 2275.29 0.0 0.0 1.0
-29.586433333333332 13.968166666666667 1947.08 4.626791311701613e-15 0.9520216757547847 0.3060306012363001
-17.457686666666664 35.20506666666667 2359.013333333333 0.8848350452292962 -0.45505515658308204 0.0999587274889798
-23.970033333333333 81.19853333333333 2241.2 0.0 0.0 1.0
-22.9434 100.72940000000001 2258.11 0.0 0.0 1.0
-33.46893333333333 109.59633333333333 1809.6766666666665 0.16457888921317057 -0.9862151908780254 -0.01712852903138326
-28.20526666666667 120.58733333333333 1877.8266666666666 0.701558509541684 0.22156261712821348 0.6772928940871502
-29.732866666666666 138.165 2085.02 0.0 0.0 1.0
-43.24766666666667 128.23366666666666 1742.9233333333332 5.525218765172458e-16 -0.9996192508020842 0.027592633543750845
-20.5128 -170.04033333333334 2422.67 0.0 0.0 1.0
-19.865033333333333 -169.17666666666665 2422.67 0.0 0.0 1.0
-18.0611 -123.55900000000001 2384.06 0.0 0.0 1.0
-22.1164 -112.91000000000001 2374.6 0.0 0.0 1.0
-19.336 -112.50999999999999 2384.06 0.0 0.0 1.0
-21.522333333333332 -86.19423333333334 2355.91 0.0 0.0 1.0
-20.915033333333334 -84.6013 2346.67 0.0 0.0 1.0
-21.770833333333332 -71.14583333333333 2337.5 0.0 0.0 1.0
-20.9375 -70.3125 2337.5 0.0 0.0 1.0
-20.520833333333332 -65.3125 2337.5 0.0 0.0 1.0
-19.6875 -60.729166666666664 2337.5 0.0 0.0 1.0
-20.3372 -56.757466666666666 2328.4 0.0 0.0 1.0
-22.8275 -49.701699999999995 2328.4 0.0 0.0 1.0
-22.428933333333333 -46.61496666666667 2319.38 0.0 0.0 1.0
-23.6923 -26.974333333333334 2301.54 0.0 0.0 1.0
-23.295033333333333 -22.579833333333337 2292.72 0.0 0.0 1.0
-22.0865 -18.625966666666667 2283.97 0.0 0.0 1.0
-23.726233333333337 -13.282633333333335 2275.29 0.0 0.0 1.0
-23.333333333333332 -3.33333 2266.67 0.0 0.0 1.0
-26.16543333333333 4.51128 2249.62 0.0 0.0 1.0
-29.459666666666664 26.239666666666665 2065.83 0.9863229300444623 0.1643888102838148 0.011974837033499441
-5.2 59.06666666666666 2992.0 0.0 0.0 1.0
-21.796433333333336 35.55686666666667 2412.98 -0.7966714597698183 0.3676915854155645 0.4797056214000578
-21.79103333333333 71.74133333333333 2232.84 0.0 0.0 1.0
-23.970033333333333 81.19853333333333 2241.2 0.0 0.0 1.0
-24.962400000000002 92.9323 2249.62 0.0 0.0 1.0
-22.540899999999997 102.94333333333333 2258.11 0.0 0.0 1.0
-23.7594 108.37066666666665 2249.62 0.0 0.0 1.0
-22.138366666666666 111.59766666666667 2258.11 0.0 0.0 1.0
-24.1414 115.657 2266.67 0.0 0.0 1.0
-25.363400000000002 118.79700000000001 2249.62 0.0 0.0 1.0
-34.6667 108.68666666666667 1813.33 0.0 0.0 1.0
-33.432833333333335 113.75133333333333 1786.2699999999998 -1.2394029313370746e-28 -5.312746551821963e-29 1.0
-39.96053333333333 135.379 1860.3166666666668 -0.04522084858915708 -0.9946402986664854 0.09298253127078071
-18.9702 -174.851 2432.52 0.0 0.0 1.0
-18.78543333333333 -156.65333333333334 2422.67 0.0 0.0 1.0
-20.562233333333335 -146.61333333333334 2403.21 0.0 0.0 1.0
-20.58666666666667 -130.88 2393.6 0.0 0.0 1.0
-20.869566666666667 -102.13466666666666 2365.22 0.0 0.0 1.0
-22.1344 -99.18313333333333 2365.22 0.0 0.0 1.0
-21.960766666666668 -83.3464 2346.67 0.0 0.0 1.0
-21.770833333333332 -71.14583333333333 2337.5 0.0 0.0 1.0
-21.209766666666667 -41.287 2310.42 0.0 0.0 1.0
-22.857133333333337 -36.55086666666667 2310.42 0.0 0.0 1.0
-21.209766666666667 -33.66793333333333 2310.42 0.0 0.0 1.0
-24.141433333333328 -9.797993333333332 2266.67 0.0 0.0 1.0
-24.343433333333333 -8.9899 2266.67 0.0 0.0 1.0
-31.459699999999998 12.984766666666665 1955.5600000000002 4.9258136170804945e-28 3.940839369394141e-27 1.0
-20.69796666666667 22.8469 2200.02 0.6554604817268993 0.7124645622109994 0.2505310449581651
-28.981466666666666 27.5 2077.78 0.0 0.0 1.0
-22.97126666666667 51.43573333333334 2241.2 0.0 0.0 1.0
-25.5762 67.31103333333333 2224.54 0.0 0.0 1.0
-25.972733333333334 74.05203333333334 2224.54 0.0 0.0 1.0
-23.970033333333333 81.19853333333333 2241.2 0.0 0.0 1.0
-24.962400000000002 92.9323 2249.62 0.0 0.0 1.0
-24.1414 115.657 2266.67 0.0 0.0 1.0
-30.9091 136.364 1942.86 0.0 0.0 1.0
-34.5337 133.633 1831.8400000000001 -2.3453728281685135e-17 -0.9873746480090314 0.15840234994797675
-20.704600000000003 -178.97 2432.52 0.0 0.0 1.0
-20.7046 -178.97 2432.52 0.0 0.0 1.0
-20.512800000000002 -169.17666666666665 2422.67 0.0 0.0 1.0
-21.866666666666664 -131.09333333333333 2393.6 0.0 0.0 1.0
-21.866666666666664 -129.17333333333332 2393.6 0.0 0.0 1.0
-22.345200000000002 -102.97766666666666 2365.22 0.0 0.0 1.0
-22.992100000000004 -91.8635 2355.91 0.0 0.0 1.0
-21.960766666666668 -83.3464 2346.67 0.0 0.0 1.0
-20.496733333333335 -69.96076666666667 2346.67 0.0 0.0 1.0
-22.8275 -49.701699999999995 2328.4 0.0 0.0 1.0
-21.188633333333332 -40.62016666666667 2319.38 0.0 0.0 1.0
-25.13993333333333 -18.829533333333334 2283.97 0.0 0.0 1.0
-24.141433333333328 -9.797993333333332 2266.67 0.0 0.0 1.0
-24.54546666666667 -7.9798 2266.67 0.0 0.0 1.0
-24.141433333333335 -4.545453333333333 2266.67 0.0 0.0 1.0
-31.15693333333333 31.065299999999997 2056.36 0.0 0.0 1.0
-21.79103333333333 52.636799999999994 2232.84 0.0 0.0 1.0
-25.5762 67.31103333333333 2224.54 0.0 0.0 1.0
-25.774466666666665 72.46593333333334 2224.54 0.0 0.0 1.0
-25.5639 99.14763333333333 2249.62 0.0 0.0 1.0
-25.9649 100.35066666666667 2249.62 0.0 0.0 1.0
-24.3609 105.96466666666667 2249.62 0.0 0.0 1.0
-37.86783333333333 106.86666666666667 1871.9766666666667 -0.49220047281171725 0.8672858406836537 -0.07452492947711867
-34.6667 108.68666666666667 1813.33 0.0 0.0 1.0
-36.50106666666667 111.73 1784.4966666666667 0.8134216571924732 -0.5810502295470004 0.026941387373874706
-29.4248 137.85866666666666 2044.6533333333334 -1.5478766878700248e-16 0.9999410664346468 0.010856503007003639
-20.704600000000003 -178.97 2432.52 0.0 0.0 1.0
-20.5128 -170.04033333333334 2422.67 0.0 0.0 1.0
-23.118266666666667 -162.47299999999998 2412.9 0.0 0.0 1.0
-21.376500000000004 -162.26733333333334 2422.67 0.0 0.0 1.0
-23.9893 -133.33333333333334 2403.21 0.0 0.0 1.0
-22.328033333333334 -113.968 2374.6 0.0 0.0 1.0
-23.2021 -89.76376666666665 2355.91 0.0 0.0 1.0
-21.333333333333332 -75.60783333333335 2346.67 0.0 0.0 1.0
-23.865099999999998 -49.286633333333334 2328.4 0.0 0.0 1.0
-23.462533333333337 -47.648566666666675 2319.38 0.0 0.0 1.0
-24.72543333333333 -25.03193333333333 2292.72 0.0 0.0 1.0
-24.72543333333333 -25.03193333333333 2292.72 0.0 0.0 1.0
-24.3346 -14.296566666666665 2275.29 0.0 0.0 1.0
-24.54546666666667 -7.9798 2266.67 0.0 0.0 1.0
-31.459699999999998 12.984766666666665 1955.5600000000002 4.9258136170804945e-28 3.940839369394141e-27 1.0
-17.457686666666664 35.20506666666667 2359.013333333333 0.8848350452292962 -0.45505515658308204 0.0999587274889798
-26.880433333333333 42.41480000000001 2667.4733333333334 0.08115162018389245 0.42379081246360706 0.902117376959875
-32.47983333333334 28.696633333333335 2070.59 0.0 0.0 1.0
-29.701166666666666 30.2529 2063.45 0.0 0.0 1.0
-30.3982 33.5836 2042.32 0.0 0.0 1.0
-23.383066666666664 60.398 2232.84 0.0 0.0 1.0
-25.5762 67.31103333333333 2224.54 0.0 0.0 1.0
-25.5639 106.96733333333333 2249.62 0.0 0.0 1.0
-24.1414 115.657 2266.67 0.0 0.0 1.0
-25.3634 120.60166666666667 2249.62 0.0 0.0 1.0
-22.473133333333333 -160.96766666666667 2412.9 0.0 0.0 1.0
-23.5484 -155.16133333333332 2412.9 0.0 0.0 1.0
-23.5609 -139.11666666666667 2403.21 0.0 0.0 1.0
-22.96296666666667 -111.64033333333333 2374.6 0.0 0.0 1.0
-23.386233333333333 -109.94733333333333 2374.6 0.0 0.0 1.0
-22.345200000000002 -102.97766666666666 2365.22 0.0 0.0 1.0
-23.1884 -97.9183 2365.22 0.0 0.0 1.0
-23.412066666666664 -93.54326666666667 2355.91 0.0 0.0 1.0
-24.895833333333332 -69.47916666666667 2337.5 0.0 0.0 1.0
-25.736433333333334 -53.85016666666667 2319.38 0.0 0.0 1.0
-23.462533333333337 -47.648566666666675 2319.38 0.0 0.0 1.0
-25.740033333333333 -44.99356666666667 2310.42 0.0 0.0 1.0
-23.474866666666667 -35.315333333333335 2310.42 0.0 0.0 1.0
-25.7436 -32.923066666666664 2301.54 0.0 0.0 1.0
-24.72543333333333 -25.03193333333333 2292.72 0.0 0.0 1.0
-24.5374 -13.485433333333333 2275.29 0.0 0.0 1.0
-20.779866666666667 9.664976666666666 2189.273333333333 0.5811255326909793 -0.6063914478356216 0.5427545736762098
-34.5254 8.211920000000001 1981.46 0.0 0.0 1.0
-8.446433333333333 36.8024 2707.69 0.0 0.0 1.0
-16.797533333333334 35.8939 2493.3633333333332 0.3130415186177672 -0.8763028064581628 0.3661944825021671
-8.666666666666666 59.333333333333336 2992.0 0.0 0.0 1.0
-23.607933333333335 49.70633333333333 2663.5166666666664 0.05296170285276955 0.42368431332965223 0.9042602836956382
-27.162333333333333 71.0781 2224.54 0.0 0.0 1.0
-25.76776666666667 82.79653333333333 2241.2 0.0 0.0 1.0
-25.76776666666667 82.79653333333333 2241.2 0.0 0.0 1.0
-26.566399999999998 100.75166666666667 2249.62 0.0 0.0 1.0
-26.1654 108.57133333333333 2249.62 0.0 0.0 1.0
-27.572333333333333 116.22633333333334 2258.11 0.0 0.0 1.0
-38.0668 135.71433333333334 1885.72 0.08290797244702448 -0.9963432688831716 0.020648454080614845
4.133333333333333 221.19999999999996 2992.0 0.0 0.0 1.0
-23.319866666666666 -175.00699999999998 2422.67 0.0 0.0 1.0
-22.240233333333332 -172.84766666666667 2422.67 0.0 0.0 1.0
-23.9893 -133.33333333333334 2403.21 0.0 0.0 1.0
-23.36 -131.30666666666667 2393.6 0.0 0.0 1.0
-23.36 -131.30666666666667 2393.6 0.0 0.0 1.0
-23.36 -130.24 2393.6 0.0 0.0 1.0
-23.573333333333334 -129.17333333333332 2393.6 0.0 0.0 1.0
-24.43563333333333 -126.32133333333333 2384.06 0.0 0.0 1.0
-24.43563333333333 -126.32133333333333 2384.06 0.0 0.0 1.0
-24.860566666666667 -117.822 2384.06 0.0 0.0 1.0
-23.174599999999998 -113.33333333333333 2374.6 0.0 0.0 1.0
-23.386233333333333 -109.94733333333333 2374.6 0.0 0.0 1.0
-23.1884 -104.875 2365.22 0.0 0.0 1.0
-23.412066666666664 -93.54326666666667 2355.91 0.0 0.0 1.0
-25.301833333333335 -87.66403333333334 2355.91 0.0 0.0 1.0
-25.729166666666668 -75.9375 2337.5 0.0 0.0 1.0
-25.110233333333337 -56.75743333333333 2328.4 0.0 0.0 1.0
-25.736433333333334 -53.85016666666667 2319.38 0.0 0.0 1.0
-23.865099999999998 -49.286633333333334 2328.4 0.0 0.0 1.0
-25.740033333333333 -44.99356666666667 2310.42 0.0 0.0 1.0
-25.948733333333333 -31.89743333333333 2301.54 0.0 0.0 1.0
-25.948733333333333 -31.89743333333333 2301.54 0.0 0.0 1.0
-27.974833333333333 -0.7044009999999999 2258.11 0.0 0.0 1.0
-31.15693333333333 31.065299999999997 2056.36 0.0 0.0 1.0
-28.219166666666666 33.515966666666664 2049.32 0.0 0.0 1.0
-14.716980666666666 53.71066666666667 2822.64 0.0 0.0 1.0
-27.9554 60.371766666666666 2224.54 0.0 0.0 1.0
-28.351933333333335 61.95783333333333 2224.54 0.0 0.0 1.0
-25.972733333333334 74.05203333333333 2224.54 0.0 0.0 1.0
-27.565533333333335 86.39203333333334 2241.2 0.0 0.0 1.0
-26.5664 93.5338 2249.62 0.0 0.0 1.0
-26.566399999999998 100.75166666666667 2249.62 0.0 0.0 1.0
-26.566399999999998 100.75166666666667 2249.62 0.0 0.0 1.0
-28.1704 110.37600000000002 2249.62 0.0 0.0 1.0
-26.3659 118.39566666666667 2249.62 0.0 0.0 1.0
-26.967399999999998 120.802 2249.62 0.0 0.0 1.0
-40.765966666666664 110.06633333333333 1901.71 -0.4055308935784913 0.6589765105464606 0.6334782181744223
-36.843333333333334 107.44900000000001 1817.0033333333333 0.6991230565128105 -0.6995546139551068 0.1478184492758164
-36.50106666666667 111.73000000000002 1784.4966666666667 0.8134216571924731 -0.5810502295470004 0.02694138737387474
-35.15153333333333 111.111 1813.33 0.0 0.0 1.0
-31.2195 138.165 2085.02 0.0 0.0 1.0
-32.9271 138.08100000000002 2075.3833333333337 1.6706965555967823e-16 0.9999455999485094 0.010430586925747854
-23.118266666666667 -162.47299999999998 2412.9 0.0 0.0 1.0
-19.892500000000002 -142.47299999999998 2412.9 0.0 0.0 1.0
-23.573333333333334 -129.17333333333332 2393.6 0.0 0.0 1.0
-23.1884 -97.9183 2365.22 0.0 0.0 1.0
-25.729166666666668 -75.9375 2337.5 0.0 0.0 1.0
-24.895833333333332 -69.47916666666667 2337.5 0.0 0.0 1.0
-24.895833333333332 -69.47916666666667 2337.5 0.0 0.0 1.0
-24.504466666666662 -41.90476666666667 2310.42 0.0 0.0 1.0
-28.396933333333333 -14.961833333333331 2283.97 0.0 0.0 1.0
-28.1761 3.119499 2258.11 0.0 0.0 1.0
-34.571133333333336 16.7644 1949.1899999999998 -1.8667808447436004e-26 -1.6519920674870495e-27 1.0
-34.571133333333336 16.7644 1949.1899999999998 -1.866780844743601e-26 -1.651992067487048e-27 1.0
-28.981466666666666 27.5 2077.78 0.0 0.0 1.0
-27.9554 60.371766666666666 2224.54 0.0 0.0 1.0
-28.153666666666666 62.7509 2224.54 0.0 0.0 1.0
-29.72836666666667 70.8148 2216.3 0.0 0.0 1.0
-25.559766666666665 114.415 2258.11 0.0 0.0 1.0
-27.168366666666667 123.29566666666666 2208.14 0.1642766335768932 -0.9860379545310792 0.027245915011404262
-40.88476666666667 125.617 2056.3766666666666 0.3865771309561682 0.42088882698930236 0.8206160595170355
-38.2927 106.26033333333334 1824.39 0.0 0.0 1.0
-31.2195 138.165 2085.02 0.0 0.0 1.0
-33.910500000000006 137.5426666666667 2023.9033333333334 2.900717771911075e-17 0.9999384573839817 0.01109420770236537
-34.653 136.92833333333334 1983.6533333333334 5.109890829996517e-16 0.9999315371355068 0.011701326498394239
-21.788600000000002 -178.31966666666665 2432.52 0.0 0.0 1.0
-23.535766666666664 -168.961 2422.67 0.0 0.0 1.0
-24.39946666666667 -167.44966666666667 2422.67 0.0 0.0 1.0
-23.118266666666667 -162.47299999999998 2412.9 0.0 0.0 1.0
-25.060233333333333 -151.75333333333333 2403.21 0.0 0.0 1.0
-25.060233333333333 -149.39766666666665 2403.21 0.0 0.0 1.0
-24.6481 -123.34666666666668 2384.06 0.0 0.0 1.0
-25.301833333333335 -87.66403333333334 2355.91 0.0 0.0 1.0
-27.393 -59.0402 2328.4 0.0 0.0 1.0
-25.7436 -32.923066666666664 2301.54 0.0 0.0 1.0
-33.795366666666666 9.768973333333335 1974.92 0.0 0.0 1.0
-32.978899999999996 12.998766666666667 1957.6966666666667 0.43826980947671357 0.87662345021002 0.19862250789657704
-34.571133333333336 16.7644 1949.1899999999998 -1.866780844743601e-26 -1.651992067487048e-27 1.0
-36.2914 12.803513333333335 1981.46 0.0 0.0 1.0
-18.576766666666668 22.871399999999998 2241.2 0.0 0.0 1.0
-31.15693333333333 31.065299999999997 2056.36 0.0 0.0 1.0
-29.739800000000002 55.41513333333333 2224.54 0.0 0.0 1.0
-28.351933333333335 61.95783333333333 2224.54 0.0 0.0 1.0
-30.1623 106.367 2241.2 0.0 0.0 1.0
-38.2927 106.26033333333334 1824.39 0.0 0.0 1.0
-37.40356666666667 107.01766666666667 1820.6899999999998 -0.7034337074103111 0.7038679257482228 0.09874696138048661
-31.2195 138.165 2085.02 0.0 0.0 1.0
-34.37616666666667 137.593 2019.3499999999997 1.0817783597398099e-17 0.9999393600544717 0.011012548018219489
-39.0688 135.84733333333332 1901.6966666666667 -5.543594253250982e-17 0.9999190181026267 0.01272624204857854
-37.551766666666666 133.90666666666667 1835.5933333333332 0.8945247211694614 0.002456784018275142 0.44701173075097833
-24.615400000000005 -176.3023333333333 2422.67 0.0 0.0 1.0
-25.060233333333333 -149.39766666666665 2403.21 0.0 0.0 1.0
-24.417666666666666 -142.54366666666667 2403.21 0.0 0.0 1.0
-25.706666666666667 -138.55999999999997 2393.6 0.0 0.0 1.0
-25.923000000000002 -121.43433333333333 2384.06 0.0 0.0 1.0
-25.923000000000002 -115.697 2384.06 0.0 0.0 1.0
-25.71806666666667 -95.17786666666666 2365.22 0.0 0.0 1.0
-25.721799999999998 -88.50393333333334 2355.91 0.0 0.0 1.0
-26.975566666666666 -45.199466666666666 2310.42 0.0 0.0 1.0
-25.128200000000003 -27.999966666666666 2301.54 0.0 0.0 1.0
-28.981133333333336 -0.905659 2258.11 0.0 0.0 1.0
-38.94246666666667 12.902843333333331 2023.9166666666667 -0.6975168545220736 -0.08370076736550923 0.7116631360412433
-34.5254 8.211920000000001 1981.46 0.0 0.0 1.0
-11.144293333333332 61.426199999999994 2977.11 0.0 0.0 1.0
-29.343266666666665 61.75956666666667 2224.54 0.0 0.0 1.0
-30.123433333333335 69.6296 2216.3 0.0 0.0 1.0
-29.54153333333333 71.0781 2224.54 0.0 0.0 1.0
-28.771900000000002 93.7343 2249.62 0.0 0.0 1.0
-28.7719 110.97733333333333 2249.62 0.0 0.0 1.0
-28.7719 110.97733333333333 2249.62 0.0 0.0 1.0
-27.373733333333334 116.26299999999999 2266.67 0.0 0.0 1.0
-28.370899999999995 118.596 2249.62 0.0 0.0 1.0
-38.17416666666667 123.49900000000001 1983.6666666666667 -0.8093288341495432 -0.03678641598975518 0.5862026934540389
-33.18493333333333 138.03033333333335 2080.193333333333 1.784225277587433e-16 0.9999434493655599 0.01063475767971654
-35.3235 137.61800000000002 2017.08 1.9279891994545998e-16 0.9999393600544719 0.011012548018219225
-34.653 136.92833333333334 1983.6533333333334 5.109890829996517e-16 0.9999315371355068 0.011701326498394239
-24.39946666666667 -167.44966666666667 2422.67 0.0 0.0 1.0
-25.060233333333333 -151.75333333333333 2403.21 0.0 0.0 1.0
-25.060233333333333 -149.39766666666665 2403.21 0.0 0.0 1.0
-26.773766666666663 -145.75633333333334 2403.21 0.0 0.0 1.0
-26.133333333333336 -138.98666666666665 2393.6 0.0 0.0 1.0
-25.706666666666667 -138.56 2393.6 0.0 0.0 1.0
-24.43563333333333 -126.32133333333333 2384.06 0.0 0.0 1.0
-27.200000000000003 -120.64 2393.6 0.0 0.0 1.0
-25.71806666666667 -95.17786666666666 2365.22 0.0 0.0 1.0
-26.14173333333333 -88.084 2355.91 0.0 0.0 1.0
-26.771666666666665 -85.35433333333333 2355.91 0.0 0.0 1.0
-26.770833333333332 -74.6875 2337.5 0.0 0.0 1.0
-25.3125 -60.520833333333336 2337.5 0.0 0.0 1.0
-25.3125 -60.520833333333336 2337.5 0.0 0.0 1.0
-27.393 -59.0402 2328.4 0.0 0.0 1.0
-26.976766666666666 -53.023266666666665 2319.38 0.0 0.0 1.0
-28.84566666666667 -51.5694 2328.4 0.0 0.0 1.0
-29.833966666666665 -28.097033333333332 2292.72 0.0 0.0 1.0
-29.821866666666665 -17.608166666666666 2283.97 0.0 0.0 1.0
-27.979833333333335 -10.404046666666666 2266.67 0.0 0.0 1.0
-28.981133333333336 -0.905659 2258.11 0.0 0.0 1.0
-31.018533333333334 25.64816666666667 2077.78 0.0 0.0 1.0
-21.6408 27.283 2439.14 0.39077952701891505 -0.7814992194754257 0.4863644016806469
-34.69436666666667 28.696633333333335 2070.59 0.0 0.0 1.0
-34.94883333333333 33.5836 2042.32 0.0 0.0 1.0
-13.733333333333334 58.79999999999999 2992.0 0.0 0.0 1.0
-13.733333333333334 58.79999999999999 2992.0 0.0 0.0 1.0
-29.739800000000002 55.41513333333333 2224.54 0.0 0.0 1.0
-30.716033333333332 59.753099999999996 2216.3 0.0 0.0 1.0
-30.716033333333332 59.753099999999996 2216.3 0.0 0.0 1.0
-29.962566666666664 87.59053333333334 2241.2 0.0 0.0 1.0
-29.9749 108.57133333333333 2249.62 0.0 0.0 1.0
-29.3734 110.777 2249.62 0.0 0.0 1.0
-27.373733333333334 116.26299999999999 2266.67 0.0 0.0 1.0
-33.74946666666667 119.866 2023.9166666666667 0.6741801400836942 0.48689023166056716 0.5553548784608355
-38.90443333333334 117.72733333333333 1940.79 -0.9230661407104908 0.07098990926563797 0.3780335073195194
-34.72903333333333 112.896 1877.8400000000001 0.9166831339512472 -0.3273914812944132 0.2291437319787949
-40.638733333333334 110.41899999999998 1791.62 0.0 0.0 1.0
-34.40273333333334 137.884 2042.32 0.0 0.0 1.0
-24.623633333333334 -163.33333333333334 2412.9 0.0 0.0 1.0
-26.129033333333336 -154.08599999999998 2412.9 0.0 0.0 1.0
-26.560000000000002 -139.62666666666664 2393.6 0.0 0.0 1.0
-25.706666666666667 -128.10666666666665 2393.6 0.0 0.0 1.0
-25.706666666666667 -128.10666666666665 2393.6 0.0 0.0 1.0
-29.490166666666667 -77.07186666666666 2346.67 0.0 0.0 1.0
-28.2231 -61.322966666666666 2328.4 0.0 0.0 1.0
-28.6305 -51.576233333333334 2319.38 0.0 0.0 1.0
-29.04393333333333 -49.09563333333333 2319.38 0.0 0.0 1.0
-26.975566666666666 -45.199466666666666 2310.42 0.0 0.0 1.0
-29.02563333333333 -35.38463333333333 2301.54 0.0 0.0 1.0
-28.795933333333334 -12.0659 2275.29 0.0 0.0 1.0
-30.188666666666666 -3.72327 2258.11 0.0 0.0 1.0
-29.393933333333337 -4.747473333333333 2266.67 0.0 0.0 1.0
-28.981133333333332 -0.905659 2258.11 0.0 0.0 1.0
-29.343266666666665 61.75956666666667 2224.54 0.0 0.0 1.0
-31.3608 101.37333333333333 2241.2 0.0 0.0 1.0
-30.1623 106.367 2241.2 0.0 0.0 1.0
-27.572333333333333 116.22633333333333 2258.11 0.0 0.0 1.0
-28.370899999999995 118.596 2249.62 0.0 0.0 1.0
-25.4465 123.40366666666667 2213.5733333333333 -0.09051946962324547 0.9958669413318556 -0.007433759577822115
-36.56223333333333 138.71133333333333 2142.2466666666664 -0.07113245838435182 -0.9966861581683036 0.03945726143444006
-34.653 136.92833333333334 1983.6533333333334 2.9654588182532095e-16 0.999931537135507 0.011701326498394175
-36.14736666666667 136.38933333333333 1940.7633333333333 8.633444218642445e-17 0.9999270125234216 0.012081789022539452
-26.12686666666667 -175.87033333333332 2422.67 0.0 0.0 1.0
-23.52303333333333 -176.8023333333333 2432.52 0.0 0.0 1.0
-26.773766666666663 -145.75633333333334 2403.21 0.0 0.0 1.0
-26.560000000000002 -139.62666666666667 2393.6 0.0 0.0 1.0
-28.058899999999998 -133.33333333333334 2403.21 0.0 0.0 1.0
-27.622866666666667 -121.00933333333334 2384.06 0.0 0.0 1.0
-28.677233333333334 -105.50266666666666 2374.6 0.0 0.0 1.0
-27.191599999999998 -95.2231 2355.91 0.0 0.0 1.0
-26.771666666666665 -85.35433333333333 2355.91 0.0 0.0 1.0
-28.4375 -73.64583333333333 2337.5 0.0 0.0 1.0
-27.393 -59.0402 2328.4 0.0 0.0 1.0
-29.04393333333333 -49.09563333333333 2319.38 0.0 0.0 1.0
-36.8212 9.094920000000002 1981.46 0.0 0.0 1.0
-37.7853 21.242943333333333 2028.47 0.0 0.0 1.0
-21.6408 27.283 2439.14 0.39077952701891505 -0.7814992194754257 0.4863644016806469
-30.0877 36.352 2923.7900000000004 -0.08832754577927428 -0.9936679148318662 0.06944292397574861
-34.69436666666667 28.696633333333335 2070.59 0.0 0.0 1.0
-31.524199999999997 57.00126666666667 2224.54 0.0 0.0 1.0
-31.524199999999997 57.00126666666667 2224.54 0.0 0.0 1.0
-32.317233333333334 76.62946666666666 2224.54 0.0 0.0 1.0
-30.945300000000003 81.89056666666667 2232.84 0.0 0.0 1.0
-31.741300000000006 83.08460000000001 2232.84 0.0 0.0 1.0
-31.3608 101.37333333333333 2241.2 0.0 0.0 1.0
-30.1754 110.777 2249.62 0.0 0.0 1.0
-38.2927 106.26033333333334 1824.39 0.0 0.0 1.0
-32.5031 139.00866666666664 2170.7466666666664 0.8942615872212867 0.44728510967401125 -0.015239563129323397
-39.959 135.73966666666664 1883.74 0.24146899171324387 0.9641990988549857 0.10960302828034882
-35.17243333333333 126.66699999999999 1719.54 0.0 0.0 1.0
-27.638333333333332 -175.00666666666666 2422.67 0.0 0.0 1.0
-26.773766666666663 -145.75633333333334 2403.21 0.0 0.0 1.0
-28.4873 -132.90466666666666 2403.21 0.0 0.0 1.0
-27.200000000000003 -120.64 2393.6 0.0 0.0 1.0
-27.2 -120.63999999999999 2393.6 0.0 0.0 1.0
-29.735466666666667 -113.54466666666666 2374.6 0.0 0.0 1.0
-28.677233333333334 -105.50266666666666 2374.6 0.0 0.0 1.0
-29.883266666666668 -53.437099999999994 2328.4 0.0 0.0 1.0
-29.883266666666668 -53.437099999999994 2328.4 0.0 0.0 1.0
-29.83396666666667 -28.097033333333332 2292.72 0.0 0.0 1.0
-31.060000000000002 -21.14946666666667 2292.72 0.0 0.0 1.0
-29.821866666666665 -17.608166666666666 2283.97 0.0 0.0 1.0
-31.24683333333333 -15.165366666666666 2283.97 0.0 0.0 1.0
-31.41416666666667 -10.606046666666666 2266.67 0.0 0.0 1.0
-30.38993333333333 4.930820000000001 2258.11 0.0 0.0 1.0
-36.821200000000005 9.09492 1981.46 0.0 0.0 1.0
-23.788366666666665 30.026566666666668 2525.0133333333333 -0.7694811279930827 0.4266782802913213 0.47523093206370054
-20.605633333333333 36.5446 2982.0733333333337 0.12371380293457988 0.9897259654116842 0.0716757166226733
-39.1131 30.383566666666667 2109.543333333333 -0.6566978930298063 -0.6566978930298062 0.37080419978801016
-32.493833333333335 73.97533333333334 2216.3 0.0 0.0 1.0
-32.296299999999995 74.76543333333333 2216.3 0.0 0.0 1.0
-30.945300000000003 81.89056666666666 2232.84 0.0 0.0 1.0
-28.7719 93.7343 2249.62 0.0 0.0 1.0
-30.1754 110.777 2249.62 0.0 0.0 1.0
-41.437133333333335 109.30133333333333 1791.62 0.0 0.0 1.0
-32.503099999999996 139.00866666666664 2170.7466666666664 0.8942615872212875 0.4472851096740101 -0.015239563129323175
-32.5031 139.00866666666664 2170.7466666666664 0.8942615872212867 0.44728510967401125 -0.015239563129323397
-34.37616666666667 137.593 2019.3499999999997 1.0817783597398099e-17 0.9999393600544717 0.011012548018219489
-26.131199999999996 -152.82433333333333 2403.21 0.0 0.0 1.0
-27.41333333333333 -140.48 2393.6 0.0 0.0 1.0
-27.626666666666665 -134.29333333333332 2393.6 0.0 0.0 1.0
-27.84 -131.3066666666667 2393.6 0.0 0.0 1.0
-29.735466666666667 -113.54466666666666 2374.6 0.0 0.0 1.0
-28.047833333333333 -114.63466666666666 2384.06 0.0 0.0 1.0
-28.87136666666667 -94.17323333333333 2355.91 0.0 0.0 1.0
-28.66143333333333 -90.81363333333333 2355.91 0.0 0.0 1.0
-28.880133333333333 -91.5942 2365.22 0.0 0.0 1.0
-30.3125 -73.02083333333333 2337.5 0.0 0.0 1.0
-29.883266666666668 -50.94683333333333 2328.4 0.0 0.0 1.0
-29.04393333333333 -49.09563333333333 2319.38 0.0 0.0 1.0
-31.060000000000002 -21.149466666666665 2292.72 0.0 0.0 1.0
-31.24683333333333 -18.0153 2283.97 0.0 0.0 1.0
-31.396200000000004 -0.10062900000000001 2258.11 0.0 0.0 1.0
-37.351 9.27152 1981.46 0.0 0.0 1.0
-37.66773333333333 11.353133333333334 1974.92 0.0 0.0 1.0
-37.871900000000004 16.9381 1949.1899999999998 0.0 -1.0 0.0
-34.11496666666667 29.701166666666666 2063.45 0.0 0.0 1.0
-35.5251 34.0639 2049.32 0.0 0.0 1.0
-32.69136666666667 58.3704 2216.3 0.0 0.0 1.0
-32.69136666666667 58.3704 2216.3 0.0 0.0 1.0
-32.317233333333334 76.62946666666666 2224.54 0.0 0.0 1.0
-30.576399999999996 108.57133333333333 2249.62 0.0 0.0 1.0
-33.35829999999999 108.964 2241.2 0.0 0.0 1.0
-39.35353333333334 107.23233333333333 1813.33 0.0 0.0 1.0
-41.437133333333335 109.30133333333333 1791.62 0.0 0.0 1.0
-35.532599999999995 116.85200000000002 1893.72 0.3998259342658821 0.7996363072358883 0.4480189710699389
-33.18493333333333 138.03033333333335 2080.193333333333 1.784225277587433e-16 0.9999434493655599 0.01063475767971654
-37.551766666666666 133.90666666666667 1835.5933333333332 0.8945247211694614 0.002456784018275142 0.44701173075097833
-29.535200000000003 -125.04666666666667 2384.06 0.0 0.0 1.0
-29.535200000000003 -123.55933333333333 2384.06 0.0 0.0 1.0
-31.198966666666667 -104.03133333333334 2365.22 0.0 0.0 1.0
-29.501299999999997 -92.91336666666666 2355.91 0.0 0.0 1.0
-30.745066666666663 -76.65356666666668 2346.67 0.0 0.0 1.0
-29.883266666666668 -60.28536666666667 2328.4 0.0 0.0 1.0
-31.505800000000004 -47.25866666666667 2310.42 0.0 0.0 1.0
-32.08173333333334 -27.8927 2292.72 0.0 0.0 1.0
-31.24683333333333 -15.165366666666666 2283.97 0.0 0.0 1.0
-31.2294 -12.471466666666666 2275.29 0.0 0.0 1.0
-31.798733333333335 -3.522013333333333 2258.11 0.0 0.0 1.0
-34.1855 3.909776666666667 2249.62 0.0 0.0 1.0
-37.7042 9.448120000000001 1981.46 0.0 0.0 1.0
-37.7042 9.448120000000001 1981.46 0.0 0.0 1.0
-40.61403333333333 13.421066666666666 1968.42 0.0 0.0 1.0
-40.34856666666666 15.424833333333332 1955.5600000000002 -8.594647258436022e-29 6.957876443086091e-28 1.0
-17.466666666666665 59.6 2992.0 0.0 0.0 1.0
-15.581356666666666 59.27916666666667 2872.42 -0.36958277188549127 -0.8930718188878155 0.2565761115806495
-32.7138 53.43246666666667 2224.54 0.0 0.0 1.0
-32.7138 53.43246666666667 2224.54 0.0 0.0 1.0
-32.7138 54.62206666666666 2224.54 0.0 0.0 1.0
-32.119 55.81166666666667 2224.54 0.0 0.0 1.0
-34.074099999999994 69.037 2216.3 0.0 0.0 1.0
-31.325933333333335 73.06073333333335 2224.54 0.0 0.0 1.0
-31.560566666666663 92.58429999999998 2241.2 0.0 0.0 1.0
-34.129333333333335 101.194 2232.84 0.0 0.0 1.0
-32.1598 106.96633333333334 2241.2 0.0 0.0 1.0
-41.49286666666667 106.80133333333333 1811.5033333333333 -2.0188193613597648e-16 -0.9982674565345725 0.05883948694537838
-41.437133333333335 109.30133333333333 1791.62 0.0 0.0 1.0
-41.32273333333333 136.17933333333335 1915.9066666666668 4.60018210433475e-17 0.9999231531312155 0.012397089663615647
-29.1498 -174.143 2422.67 0.0 0.0 1.0
-30.01346666666667 -167.881 2422.67 0.0 0.0 1.0
-29.12986666666667 -134.61833333333334 2403.21 0.0 0.0 1.0
-30.385133333333332 -126.32166666666667 2384.06 0.0 0.0 1.0
-29.5352 -123.55933333333333 2384.06 0.0 0.0 1.0
-30.385166666666663 -113.14733333333334 2384.06 0.0 0.0 1.0
-29.523799999999998 -103.80966666666666 2374.6 0.0 0.0 1.0
-29.523799999999998 -103.80966666666666 2374.6 0.0 0.0 1.0
-30.745066666666663 -76.65356666666666 2346.67 0.0 0.0 1.0
-32.3514 -55.503866666666674 2319.38 0.0 0.0 1.0
-31.937966666666664 -53.64340000000001 2319.38 0.0 0.0 1.0
-29.883266666666668 -53.437099999999994 2328.4 0.0 0.0 1.0
-31.505800000000004 -47.25866666666666 2310.42 0.0 0.0 1.0
-31.505800000000004 -43.96396666666667 2310.42 0.0 0.0 1.0
-31.71173333333333 -42.3166 2310.42 0.0 0.0 1.0
-31.89743333333333 -37.025666666666666 2301.54 0.0 0.0 1.0
-31.24683333333333 -15.165366666666666 2283.97 0.0 0.0 1.0
-32.4025 0.5031433333333334 2258.11 0.0 0.0 1.0
-39.20499999999999 8.937683333333334 1985.8466666666666 0.3118740642674122 0.9356251263481277 0.16534869513660017
-40.34856666666666 15.599133333333333 1955.5600000000002 -1.459066187279861e-28 -4.0125366625897146e-28 1.0
-39.30596666666667 17.439266666666665 1947.08 3.556089251395685e-17 0.9729322311682592 0.23109061762424088
-34.69436666666667 28.696633333333335 2070.59 0.0 0.0 1.0
-34.11496666666667 29.701166666666666 2063.45 0.0 0.0 1.0
-33.87656666666666 57.1852 2216.3 0.0 0.0 1.0
-33.08643333333333 57.77779999999999 2216.3 0.0 0.0 1.0
-33.283966666666664 75.55556666666666 2216.3 0.0 0.0 1.0
-35.09293333333333 81.7844 2224.54 0.0 0.0 1.0
-31.7413 83.08460000000001 2232.84 0.0 0.0 1.0
-33.158566666666665 96.3797 2241.2 0.0 0.0 1.0
-33.73133333333334 100.199 2232.84 0.0 0.0 1.0
-43.02116666666666 107.875 1807.8499999999997 4.148282688765556e-26 2.333422421671277e-26 1.0
-35.580666666666666 138.11433333333332 2089.8799999999997 0.19316818674083305 -0.964875092770458 0.17805085504557033
-39.52843333333333 136.37 1928.28 0.7067822153320303 -0.7065579955586169 0.03513828400103136
-41.019933333333334 135.96633333333332 1905.743333333333 0.16445934233655493 0.9862100581221948 -0.01851610047620522
-41.813433333333336 135.63766666666666 1891.68 0.12374797215860635 -0.9906196364143313 0.05795839315380545
-39.959 135.73966666666664 1883.74 0.24146899171324387 0.9641990988549857 0.10960302828034882
-43.5899 135.75 1870.01 4.5868196467593044e-05 0.9999151555894317 0.013026109114803688
-31.075266666666664 -168.06433333333334 2412.9 0.0 0.0 1.0
-31.290333333333336 -162.90333333333334 2412.9 0.0 0.0 1.0
-30.860200000000003 -153.44066666666666 2412.9 0.0 0.0 1.0
-30.860200000000003 -151.29033333333334 2412.9 0.0 0.0 1.0
-30.860200000000003 -151.29033333333334 2412.9 0.0 0.0 1.0
-30.745066666666663 -76.65356666666666 2346.67 0.0 0.0 1.0
-31.958499999999997 -60.28536666666667 2328.4 0.0 0.0 1.0
-31.505800000000004 -47.25866666666667 2310.42 0.0 0.0 1.0
-31.71173333333333 -42.3166 2310.42 0.0 0.0 1.0
-32.08173333333334 -28.9144 2292.72 0.0 0.0 1.0
-32.08173333333333 -27.8927 2292.72 0.0 0.0 1.0
-32.69473333333334 -27.075333333333333 2292.72 0.0 0.0 1.0
-32.4904 -21.7625 2292.72 0.0 0.0 1.0
-31.24683333333333 -18.0153 2283.97 0.0 0.0 1.0
-33.46006666666667 -13.891 2275.29 0.0 0.0 1.0
-33.20753333333334 0.30188566666666666 2258.11 0.0 0.0 1.0
-32.20126666666667 4.125786666666667 2258.11 0.0 0.0 1.0
-40.126133333333335 20.369566666666667 2104.5966666666664 0.6289331551429597 -0.7547253876424738 0.18663514034028977
-17.466666666666665 59.6 2992.0 0.0 0.0 1.0
-18.533333333333335 61.199999999999996 2992.0 0.0 0.0 1.0
-34.86423333333334 53.03703333333334 2216.3 0.0 0.0 1.0
-34.6667 63.901233333333344 2216.3 0.0 0.0 1.0
-34.469166666666666 66.2716 2216.3 0.0 0.0 1.0
-34.074099999999994 69.037 2216.3 0.0 0.0 1.0
-34.86423333333334 73.7778 2216.3 0.0 0.0 1.0
-33.70506666666667 77.22426666666667 2224.54 0.0 0.0 1.0
-31.760333333333335 89.58803333333333 2241.2 0.0 0.0 1.0
-34.328333333333326 96.21893333333333 2232.84 0.0 0.0 1.0
-34.328333333333326 96.21893333333333 2232.84 0.0 0.0 1.0
-32.75906666666667 101.17366666666668 2241.2 0.0 0.0 1.0
-33.182966666666665 119.198 2249.62 0.0 0.0 1.0
-39.9187 105.93533333333333 1824.39 0.0 0.0 1.0
-43.02116666666666 107.875 1807.8499999999997 4.148282688765556e-26 2.333422421671277e-26 1.0
-38.6593 136.44000000000003 1936.5833333333333 -0.00013374971054788085 0.9999261670335395 0.012150826829035646
-40.546533333333336 135.857 1887.71 -0.7064544341889051 0.7073565432263604 0.023850642961730117
-28.717933333333335 -176.51833333333332 2422.67 0.0 0.0 1.0
-31.505366666666664 -166.989 2412.9 0.0 0.0 1.0
-30.661233333333332 -166.3696666666667 2422.67 0.0 0.0 1.0
-30.661233333333332 -166.36966666666666 2422.67 0.0 0.0 1.0
-30.826666666666664 -138.98666666666665 2393.6 0.0 0.0 1.0
-29.12986666666667 -134.61833333333334 2403.21 0.0 0.0 1.0
-31.198966666666664 -104.03133333333334 2365.22 0.0 0.0 1.0
-29.090933333333336 -92.01583333333333 2365.22 0.0 0.0 1.0
-31.1284 -51.77693333333334 2328.4 0.0 0.0 1.0
-33.1282 -33.333333333333336 2301.54 0.0 0.0 1.0
-33.103433333333335 -26.053633333333334 2292.72 0.0 0.0 1.0
-34.2138 -0.9056609999999999 2258.11 0.0 0.0 1.0
-42.86353333333333 9.39597 2008.05 0.0 0.0 1.0
-45.14863333333333 34.262166666666666 2142.2466666666664 0.10343915032557095 0.5689175814475634 0.8158634246611248
-37.91173333333334 58.63506666666667 2854.066666666667 0.20163406576562276 0.9793692429525309 -0.013401100007483107
-33.87656666666667 57.1852 2216.3 0.0 0.0 1.0
-33.506800000000005 58.58736666666667 2224.54 0.0 0.0 1.0
-35.2593 71.80246666666666 2216.3 0.0 0.0 1.0
-34.0741 74.96296666666666 2216.3 0.0 0.0 1.0
-32.73633333333334 84.67663333333334 2232.84 0.0 0.0 1.0
-32.75906666666667 101.17366666666668 2241.2 0.0 0.0 1.0
-34.9563 108.36466666666666 2241.2 0.0 0.0 1.0
-34.9563 108.36466666666666 2241.2 0.0 0.0 1.0
-40.69396666666666 104.92899999999999 1864.1866666666667 -0.6357140165501003 0.7405177731351601 0.21794750935186763
-37.09343333333334 138.295 2183.9600000000005 0.3833497251109126 0.8622475844177515 0.33101675399160724
-38.7879 137.643 2014.8100000000002 0.0 1.0 0.0
-39.1532 135.89833333333334 1897.676666666667 -1.238230812619191e-16 0.99992005410619 0.012644579719150425
-42.363733333333336 135.66 1864.1866666666667 -0.31516837733537495 0.9462364386419128 0.07283883657813678
-31.309033333333332 -173.71133333333333 2422.67 0.0 0.0 1.0
-31.290333333333333 -166.129 2412.9 0.0 0.0 1.0
-30.661233333333332 -166.36966666666666 2422.67 0.0 0.0 1.0
-31.075266666666664 -161.398 2412.9 0.0 0.0 1.0
-30.41496666666667 -144.89933333333332 2403.21 0.0 0.0 1.0
-30.385133333333332 -126.32166666666667 2384.06 0.0 0.0 1.0
-29.735466666666667 -113.54466666666667 2374.6 0.0 0.0 1.0
-32.8854 -103.61 2365.22 0.0 0.0 1.0
-33.096199999999996 -99.39389999999999 2365.22 0.0 0.0 1.0
-34.50983333333334 -82.92813333333334 2346.67 0.0 0.0 1.0
-33.645833333333336 -76.35416666666667 2337.5 0.0 0.0 1.0
-31.372533333333333 -76.0261 2346.67 0.0 0.0 1.0
-31.770833333333332 -74.0625 2337.5 0.0 0.0 1.0
-34.00516666666667 -51.78296666666666 2319.38 0.0 0.0 1.0
-33.103433333333335 -26.053633333333334 2292.72 0.0 0.0 1.0
-35.45453333333333 -5.151516666666667 2266.67 0.0 0.0 1.0
-34.787 3.3082700000000003 2249.62 0.0 0.0 1.0
-41.5201 16.9381 1949.1899999999998 0.0 0.0 1.0
-21.796433333333336 35.55686666666667 2412.98 -0.7966714597698183 0.3676915854155645 0.4797056214000578
-19.866666666666667 62.800000000000004 2992.0 0.0 0.0 1.0
-34.86423333333334 53.03703333333333 2216.3 0.0 0.0 1.0
-35.06176666666667 54.617266666666666 2216.3 0.0 0.0 1.0
-34.1016 57.99256666666667 2224.54 0.0 0.0 1.0
-34.07410000000001 69.037 2216.3 0.0 0.0 1.0
-35.4568 71.60493333333334 2216.3 0.0 0.0 1.0
-35.0929 78.61213333333335 2224.54 0.0 0.0 1.0
-35.0979 118.49866666666667 2244.0066666666667 1.214841070767215e-16 0.987260734473357 0.15911078582901814
-43.979499999999994 103.13799999999999 1841.2300000000002 -2.7193813603424475e-43 0.9980525784828884 0.06237828615518071
-32.3656 -165.484 2412.9 0.0 0.0 1.0
-31.075266666666664 -161.398 2412.9 0.0 0.0 1.0
-33.62786666666667 -146.82733333333334 2403.21 0.0 0.0 1.0
-32.51 -112.72233333333334 2384.06 0.0 0.0 1.0
-33.096199999999996 -99.39389999999999 2365.22 0.0 0.0 1.0
-34.75066666666667 -89.55380000000001 2355.91 0.0 0.0 1.0
-33.6187 -60.28536666666667 2328.4 0.0 0.0 1.0
-33.565 -39.021899999999995 2310.42 0.0 0.0 1.0
-34.18273333333333 -37.37453333333334 2310.42 0.0 0.0 1.0
-33.103433333333335 -27.8927 2292.72 0.0 0.0 1.0
-36.41023333333333 -28.205099999999998 2301.54 0.0 0.0 1.0
-33.51213333333334 -22.7842 2292.72 0.0 0.0 1.0
-33.71646666666667 -20.536433333333335 2292.72 0.0 0.0 1.0
-34.64646666666667 -9.999993333333334 2266.67 0.0 0.0 1.0
-42.86353333333333 9.39597 2008.05 0.0 0.0 1.0
-42.368433333333336 13.9474 1968.42 0.0 0.0 1.0
-41.5201 16.9381 1949.1899999999998 0.0 0.0 1.0
-40.27396666666667 34.246566666666666 2049.32 0.0 0.0 1.0
-36.444433333333336 60.345666666666666 2216.3 0.0 0.0 1.0
-36.444433333333336 72.5926 2216.3 0.0 0.0 1.0
-35.092933333333335 81.7844 2224.54 0.0 0.0 1.0
-35.72136666666666 97.21393333333333 2232.84 0.0 0.0 1.0
-32.58143333333334 109.37333333333333 2249.62 0.0 0.0 1.0
-41.135733333333334 125.31066666666668 2132.0733333333333 -0.27009553235922784 0.40507215836350574 0.8734786488050618
-36.56223333333333 138.71133333333333 2142.246666666667 -0.07113245838435178 -0.9966861581683037 0.03945726143443984
-40.0458 138.01133333333334 2099.6666666666665 -0.11690676781160399 -0.993135818683148 -0.0037487715850665834
-41.06053333333333 138.18166666666664 2065.83 8.538013752381446e-17 0.9999433547023734 0.010643654755934272
-41.1872 137.808 2049.32 0.0 0.0 1.0
-37.45073333333333 137.85866666666666 2044.6533333333334 -1.0460675799762307e-16 0.999941066434647 0.010856503007003278
-41.57913333333334 136.06 1911.8333333333333 0.44582779812184054 0.8918201805086429 0.07677460556305665
-31.505366666666664 -166.989 2412.9 0.0 0.0 1.0
-32.58063333333333 -154.08599999999998 2412.9 0.0 0.0 1.0
-32.53333333333333 -136.64000000000001 2393.6 0.0 0.0 1.0
-33.385 -55.29716666666667 2319.38 0.0 0.0 1.0
-34.00516666666667 -51.78296666666666 2319.38 0.0 0.0 1.0
-34.418600000000005 -51.1628 2319.38 0.0 0.0 1.0
-34.18273333333333 -37.37453333333334 2310.42 0.0 0.0 1.0
-33.948699999999995 -30.051266666666667 2301.54 0.0 0.0 1.0
-35.45453333333333 -5.151516666666667 2266.67 0.0 0.0 1.0
-35.220099999999995 -1.5094333333333332 2258.11 0.0 0.0 1.0
-36.591499999999996 5.5137833333333335 2249.62 0.0 0.0 1.0
-40.5298 10.331106666666667 1981.46 0.0 0.0 1.0
-40.484033333333336 11.705166666666665 1974.92 0.0 0.0 1.0
-43.0836 19.370233333333335 1949.1899999999998 4.182224569296944e-28 2.7881199921770694e-28 1.0
-20.605633333333333 36.5446 2982.0733333333337 0.12371380293457988 0.9897259654116842 0.0716757166226733
-34.696400000000004 55.41513333333333 2224.54 0.0 0.0 1.0
-37.037000000000006 59.35803333333333 2216.3 0.0 0.0 1.0
-35.851866666666666 72.0 2216.3 0.0 0.0 1.0
-36.444433333333336 73.1852 2216.3 0.0 0.0 1.0
-35.6877 80.79306666666668 2224.54 0.0 0.0 1.0
-44.344699999999996 103.52333333333335 1839.3466666666666 -1.0384289268169147e-15 0.9797040987896504 0.20044919260191305
-42.5549 108.18366666666668 1791.62 0.0 0.0 1.0
-43.02116666666666 107.875 1807.8499999999997 4.148282688765556e-26 2.333422421671277e-26 1.0
-39.3977 138.25 2094.7566666666667 0.1931690845897659 -0.9648795775258765 0.17802557578122868
-31.54473333333333 -178.10299999999998 2432.52 0.0 0.0 1.0
-34.484633333333335 -156.25166666666667 2403.21 0.0 0.0 1.0
-33.62786666666667 -146.82733333333334 2403.21 0.0 0.0 1.0
-34.45333333333333 -136.42666666666668 2393.6 0.0 0.0 1.0
-35.093333333333334 -131.9466666666667 2393.6 0.0 0.0 1.0
-34.422333333333334 -124.40933333333334 2384.06 0.0 0.0 1.0
-33.096199999999996 -99.39389999999999 2365.22 0.0 0.0 1.0
-34.75066666666667 -89.55380000000001 2355.91 0.0 0.0 1.0
-35.13726666666667 -81.46406666666667 2346.67 0.0 0.0 1.0
-35.03876666666667 -49.71576666666667 2319.38 0.0 0.0 1.0
-36.0 -37.43593333333334 2301.54 0.0 0.0 1.0
-37.150133333333336 -20.254433333333335 2283.97 0.0 0.0 1.0
-35.89353333333334 -14.296566666666665 2275.29 0.0 0.0 1.0
-37.92143333333333 -11.457533333333332 2275.29 0.0 0.0 1.0
-36.42766666666666 -1.5094333333333332 2258.11 0.0 0.0 1.0
-36.9925 6.7167933333333325 2249.62 0.0 0.0 1.0
-40.264599999999994 9.290876666666668 1985.8466666666666 0.31187418655728305 0.9356254932188901 0.16534638852464217
-38.40729999999999 33.21956666666667 2042.32 0.0 0.0 1.0
-19.809633333333334 61.52903333333333 2982.0733333333337 0.3491277023348323 -0.9077355348035335 0.23265005118706442
-22.266666666666666 63.6 2992.0 0.0 0.0 1.0
-23.36497 55.46803333333333 2524.9233333333336 -0.11673142135454598 -0.9920679530943673 0.04663637755764981
-37.6296 56.79013333333333 2216.3 0.0 0.0 1.0
-36.444433333333336 60.345666666666666 2216.3 0.0 0.0 1.0
-36.444433333333336 73.1852 2216.3 0.0 0.0 1.0
-37.273833333333336 85.7497 2224.54 0.0 0.0 1.0
-38.265166666666666 99.2318 2224.54 0.0 0.0 1.0
-35.12436666666667 100.0 2232.84 0.0 0.0 1.0
-34.9563 108.36466666666666 2241.2 0.0 0.0 1.0
-35.99 118.59666666666665 2249.62 0.0 0.0 1.0
-43.9795 103.13799999999999 1841.2300000000002 1.415524305241711e-43 0.9980525784828884 0.06237828615518071
-41.48453333333333 139.54366666666667 2155.11 -1.6640514833853882e-16 0.9999558688812323 0.00939469477842194
-41.32273333333333 136.17933333333335 1915.9066666666668 4.60018210433475e-17 0.9999231531312155 0.012397089663615647
-43.24766666666667 128.23366666666666 1742.9233333333334 5.559000752381879e-16 -0.9996192508020844 0.027592633543750845
-34.11606666666666 -174.14333333333335 2422.67 0.0 0.0 1.0
-33.65593333333333 -165.914 2412.9 0.0 0.0 1.0
-34.422333333333334 -124.40933333333334 2384.06 0.0 0.0 1.0
-35.6614 -107.83066666666667 2374.6 0.0 0.0 1.0
-32.8854 -103.61 2365.22 0.0 0.0 1.0
-35.973866666666666 -82.71896666666667 2346.67 0.0 0.0 1.0
-33.645833333333336 -76.35416666666667 2337.5 0.0 0.0 1.0
-34.50983333333334 -75.39866666666667 2346.67 0.0 0.0 1.0
-35.4864 -61.738 2328.4 0.0 0.0 1.0
-35.4864 -61.738 2328.4 0.0 0.0 1.0
-35.4864 -61.738 2328.4 0.0 0.0 1.0
-35.4522 -51.1628 2319.38 0.0 0.0 1.0
-36.0 -37.43593333333334 2301.54 0.0 0.0 1.0
-35.45453333333334 -5.151516666666667 2266.67 0.0 0.0 1.0
-42.84153333333333 14.775933333333333 1961.97 0.0 0.0 1.0
-42.84153333333333 14.775933333333333 1961.97 0.0 0.0 1.0
-41.5201 16.9381 1949.1899999999998 0.0 0.0 1.0
-30.0877 36.352 2923.7900000000004 -0.08832754577927428 -0.9936679148318662 0.06944292397574861
-38.40729999999999 33.21956666666667 2042.32 0.0 0.0 1.0
-36.0494 53.03703333333334 2216.3 0.0 0.0 1.0
-37.037000000000006 59.35803333333333 2216.3 0.0 0.0 1.0
-36.7019 118.49866666666667 2244.0066666666667 -3.6077716065328006e-16 0.9872607344733572 0.15911078582901805
-43.9795 103.13799999999999 1841.2300000000002 1.415524305241711e-43 0.9980525784828884 0.06237828615518071
-46.7323 106.372 1798.8033333333333 -0.8912342173892287 0.29718115298787123 0.34261484507155926
-39.05083333333334 125.921 2028.47 0.0 0.0 1.0
-41.1872 137.808 2049.32 0.0 0.0 1.0
-44.432566666666666 135.54466666666667 1860.3166666666668 -3.2511070575888675e-16 -0.9973453504470831 0.07281656364855878
-34.332 -175.43866666666668 2422.67 0.0 0.0 1.0
-34.332 -175.43866666666668 2422.67 0.0 0.0 1.0
-34.332 -175.43866666666668 2422.67 0.0 0.0 1.0
-34.484633333333335 -156.25166666666667 2403.21 0.0 0.0 1.0
-35.769733333333335 -151.111 2403.21 0.0 0.0 1.0
-35.9097 -134.82066666666665 2384.06 0.0 0.0 1.0
-35.27226666666667 -124.83433333333333 2384.06 0.0 0.0 1.0
-34.422333333333334 -113.99733333333334 2384.06 0.0 0.0 1.0
-35.6614 -107.83066666666667 2374.6 0.0 0.0 1.0
-35.973866666666666 -82.71896666666667 2346.67 0.0 0.0 1.0
-36.601333333333336 -75.81696666666666 2346.67 0.0 0.0 1.0
-35.4522 -51.1628 2319.38 0.0 0.0 1.0
-36.0 -37.43593333333334 2301.54 0.0 0.0 1.0
-36.42766666666666 -1.5094333333333332 2258.11 0.0 0.0 1.0
-37.594 4.3107766666666665 2249.62 0.0 0.0 1.0
-43.3554 11.0375 1981.46 0.0 0.0 1.0
-43.828399999999995 12.409233333333333 1974.92 0.0 0.0 1.0
-42.368433333333336 13.9474 1968.42 0.0 0.0 1.0
-35.02753333333333 42.252 2749.1666666666665 -0.8665600629036236 -0.4493264682636854 0.21720815430860593
