ply
format ascii 1.0
comment VCGLIB generated
element vertex 800
property float x
property float y
property float z
property float nx
property float ny
property float nz
element face 0
property list uchar int vertex_indices
end_header
92.95236666666666 -159.456 2442.45 0.0 0.0 1.0
91.3821 -148.40099999999998 2432.52 0.0 0.0 1.0
88.3131 -142.186 2422.67 0.0 0.0 1.0
90.17403333333334 -122.83833333333332 2403.21 0.0 0.0 1.0
87.11816666666668 -97.21116666666667 2384.06 0.0 0.0 1.0
87.11816666666668 -97.21116666666667 2384.06 0.0 0.0 1.0
89.45549999999999 -80.42496666666666 2384.06 0.0 0.0 1.0
86.87833333333333 -53.2275 2374.6 0.0 0.0 1.0
87.30160000000001 -27.61906666666667 2374.6 0.0 0.0 1.0
89.20636666666667 22.328033333333334 2374.6 0.0 0.0 1.0
83.89986666666668 28.5639 2365.22 0.0 0.0 1.0
86.66666666666667 38.20106666666666 2374.6 0.0 0.0 1.0
87.72486666666667 50.68786666666667 2374.6 0.0 0.0 1.0
84.95386666666667 93.91306666666667 2365.22 0.0 0.0 1.0
84.9344 108.24133333333333 2355.91 0.0 0.0 1.0
88.11593333333333 115.20433333333334 2365.22 0.0 0.0 1.0
85.7971 121.10666666666667 2365.22 0.0 0.0 1.0
75.3704 139.606 2210.846666666667 9.936676401038441e-18 0.999957970081965 0.009168318796593303
90.77550000000001 -158.80266666666668 2442.45 0.0 0.0 1.0
90.73169999999999 -147.53400000000002 2432.52 0.0 0.0 1.0
87.54316666666666 -106.98566666666666 2384.06 0.0 0.0 1.0
87.75566666666667 -87.01196666666665 2384.06 0.0 0.0 1.0
86.87833333333333 -53.2275 2374.6 0.0 0.0 1.0
86.87833333333333 -53.2275 2374.6 0.0 0.0 1.0
85.39683333333335 -45.396833333333326 2374.6 0.0 0.0 1.0
84.76193333333333 -40.9524 2374.6 0.0 0.0 1.0
87.30160000000001 -27.61906666666667 2374.6 0.0 0.0 1.0
58.12633333333333 -10.44988 1970.5866666666668 0.20930149986444754 -0.9069652126859074 0.36552289276063066
86.66666666666667 38.20106666666666 2374.6 0.0 0.0 1.0
85.1647 67.141 2365.22 0.0 0.0 1.0
85.7971 97.0751 2365.22 0.0 0.0 1.0
85.58630000000001 98.7615 2365.22 0.0 0.0 1.0
84.7244 125.03933333333335 2355.91 0.0 0.0 1.0
56.861333333333334 136.66 1947.1066666666666 -0.0586340140552712 -0.9958754084630504 0.06924032939204618
90.73169999999999 -147.53400000000002 2432.52 0.0 0.0 1.0
88.85333333333334 -118.93333333333334 2393.6 0.0 0.0 1.0
85.4183 -111.235 2384.06 0.0 0.0 1.0
86.90570000000001 -109.11033333333334 2384.06 0.0 0.0 1.0
85.18516666666666 -75.2381 2374.6 0.0 0.0 1.0
85.18516666666666 -75.2381 2374.6 0.0 0.0 1.0
81.37023333333333 -61.44926666666666 2365.22 0.0 0.0 1.0
85.3968 -34.179899999999996 2374.6 0.0 0.0 1.0
85.60843333333332 -32.698433333333334 2374.6 0.0 0.0 1.0
83.89986666666667 -22.872200000000003 2365.22 0.0 0.0 1.0
83.26746666666666 14.86166666666667 2365.22 0.0 0.0 1.0
83.89986666666668 28.5639 2365.22 0.0 0.0 1.0
86.66666666666667 38.20106666666666 2374.6 0.0 0.0 1.0
87.72486666666667 50.68786666666667 2374.6 0.0 0.0 1.0
84.11066666666666 63.34653333333333 2365.22 0.0 0.0 1.0
84.95386666666667 93.91306666666667 2365.22 0.0 0.0 1.0
85.7971 102.97756666666668 2365.22 0.0 0.0 1.0
84.9344 108.24133333333333 2355.91 0.0 0.0 1.0
83.25456666666666 115.59066666666666 2355.91 0.0 0.0 1.0
71.31356666666666 138.599 2097.22 3.6204005468379295e-16 -0.9996109596388247 0.027891385228211243
54.69649999999999 136.23 1911.82 0.0 0.0 1.0
122.0 -221.19999999999996 2992.0 0.0 0.0 1.0
88.49459999999999 -132.58066666666664 2412.9 0.0 0.0 1.0
87.75566666666667 -103.586 2384.06 0.0 0.0 1.0
85.18516666666666 -35.449733333333334 2374.6 0.0 0.0 1.0
82.63503333333334 -1.5810279999999999 2365.22 0.0 0.0 1.0
83.05663333333332 60.18443333333334 2365.22 0.0 0.0 1.0
85.58630000000001 98.7615 2365.22 0.0 0.0 1.0
84.9344 108.24133333333333 2355.91 0.0 0.0 1.0
74.12936666666667 134.62699999999998 2232.84 0.0 0.0 1.0
87.01753333333333 -141.10633333333337 2422.67 0.0 0.0 1.0
87.11816666666668 -97.21116666666667 2384.06 0.0 0.0 1.0
83.47826666666667 -48.59026666666667 2365.22 0.0 0.0 1.0
85.39683333333333 -45.39683333333334 2374.6 0.0 0.0 1.0
84.55026666666667 -43.28043333333333 2374.6 0.0 0.0 1.0
84.7619 -32.0635 2374.6 0.0 0.0 1.0
85.5863 12.54282 2365.22 0.0 0.0 1.0
85.17263333333334 36.8375 2368.3466666666664 -0.9726652164958001 -0.12968596127257467 0.19262379932912388
83.89986666666667 61.23846666666666 2365.22 0.0 0.0 1.0
74.32836666666667 130.846 2232.84 0.0 0.0 1.0
75.70536666666668 132.734 2241.2 0.0 0.0 1.0
72.22633333333333 139.631 2208.12 0.0 0.0 1.0
54.69649999999999 136.23 1911.82 0.0 0.0 1.0
88.4153 -175.84733333333335 2452.46 0.0 0.0 1.0
89.25169999999999 -168.38066666666666 2442.45 0.0 0.0 1.0
88.81633333333333 -158.14933333333332 2442.45 0.0 0.0 1.0
86.90573333333333 -88.92433333333334 2384.06 0.0 0.0 1.0
83.47826666666667 -48.59026666666667 2365.22 0.0 0.0 1.0
83.49206666666667 -40.5291 2374.6 0.0 0.0 1.0
85.18516666666666 -35.449733333333334 2374.6 0.0 0.0 1.0
83.89986666666665 -22.872200000000003 2365.22 0.0 0.0 1.0
80.31493333333333 -3.8845166666666664 2355.91 0.0 0.0 1.0
84.32146666666667 92.01583333333333 2365.22 0.0 0.0 1.0
81.99473333333333 115.80066666666666 2355.91 0.0 0.0 1.0
74.32836666666667 130.846 2232.84 0.0 0.0 1.0
74.12936666666667 134.62699999999998 2232.84 0.0 0.0 1.0
37.92250000000001 131.02233333333334 1811.5500000000002 5.267769720117199e-05 -0.9973927788254823 0.07216399359682657
34.31823333333333 127.39299999999999 1746.3099999999997 -0.03992199773664245 -0.9990608437879467 0.016842342664587888
86.47460000000001 -178.54600000000002 2462.55 0.0 0.0 1.0
88.4153 -175.84733333333335 2452.46 0.0 0.0 1.0
87.01753333333333 -141.10633333333337 2422.67 0.0 0.0 1.0
85.46183333333333 -121.76733333333334 2403.21 0.0 0.0 1.0
87.14666666666666 -119.36 2393.6 0.0 0.0 1.0
83.91533333333332 -76.08466666666668 2374.6 0.0 0.0 1.0
82.21343333333333 -49.22266666666667 2365.22 0.0 0.0 1.0
83.49206666666667 -40.5291 2374.6 0.0 0.0 1.0
84.7619 -32.0635 2374.6 0.0 0.0 1.0
82.63503333333334 -23.7154 2365.22 0.0 0.0 1.0
57.734366666666666 -8.42317 1990.25 0.6605671852577497 0.7339666075718948 0.15793673648033243
72.03423333333333 42.75123333333334 2205.4133333333334 0.14139394229906238 -0.9897575960934323 0.01968893233467412
80.9486 54.914366666666666 2365.22 0.0 0.0 1.0
82.84583333333335 61.238466666666675 2365.22 0.0 0.0 1.0
80.9449 81.5748 2355.91 0.0 0.0 1.0
84.74306666666666 95.38870000000001 2365.22 0.0 0.0 1.0
82.4147 106.14166666666667 2355.91 0.0 0.0 1.0
81.78476666666667 114.541 2355.91 0.0 0.0 1.0
81.99473333333333 115.80066666666666 2355.91 0.0 0.0 1.0
78.44260000000001 127.692 2301.56 0.125575952303267 0.9849610567916031 0.11866927490760293
73.53233333333333 130.04999999999998 2232.84 0.0 0.0 1.0
73.9577 139.5053333333333 2221.7933333333335 -7.795670633248671e-17 0.9999574680732016 0.009222908686114913
84.87803333333333 -151.43633333333332 2432.52 0.0 0.0 1.0
87.01753333333333 -141.10633333333337 2422.67 0.0 0.0 1.0
85.72196666666667 -136.35633333333337 2422.67 0.0 0.0 1.0
81.3702 -54.28196666666667 2365.22 0.0 0.0 1.0
83.49206666666667 -40.52909999999999 2374.6 0.0 0.0 1.0
82.21343333333333 -20.342533333333332 2365.22 0.0 0.0 1.0
66.41036666666666 -9.3368 2075.3833333333337 -0.17825525112997068 -0.6833116177433259 0.7080326959269536
80.31493333333333 -3.8845166666666664 2355.91 0.0 0.0 1.0
78.4645 43.1583 2322.3866666666668 -0.2003856585415064 -0.7681531025216022 0.6081006486901025
80.92556666666667 42.178066666666666 2269.563333333333 -0.31583559915154963 0.9475327558337981 0.04929047504933712
80.52493333333332 96.69279999999999 2355.91 0.0 0.0 1.0
82.84583333333333 120.685 2365.22 0.0 0.0 1.0
76.27136666666668 127.094 2258.1333333333337 -0.00024080232097039618 0.9998950735967498 0.01448391560291664
73.9577 139.5053333333333 2221.7933333333335 -7.795670633248671e-17 0.9999574680732016 0.009222908686114913
69.50663333333334 139.495 2160.29 0.0 0.0 1.0
83.54836666666667 -131.93566666666666 2412.9 0.0 0.0 1.0
83.50596666666667 -111.235 2384.06 0.0 0.0 1.0
80.10583333333334 -102.1164 2374.6 0.0 0.0 1.0
81.58729999999998 -75.87303333333334 2374.6 0.0 0.0 1.0
84.55026666666666 -70.582 2374.6 0.0 0.0 1.0
82.63503333333334 -23.7154 2365.22 0.0 0.0 1.0
66.41036666666666 -9.3368 2075.3833333333337 -0.17825525112997068 -0.6833116177433259 0.7080326959269536
82.63503333333334 -1.5810279999999999 2365.22 0.0 0.0 1.0
80.9486 0.3162053333333334 2365.22 0.0 0.0 1.0
80.105 25.511833333333332 2355.91 0.0 0.0 1.0
83.05663333333334 60.18443333333334 2365.22 0.0 0.0 1.0
78.63520000000001 70.2362 2355.91 0.0 0.0 1.0
79.47506666666668 77.5853 2355.91 0.0 0.0 1.0
81.15486666666668 104.04199999999999 2355.91 0.0 0.0 1.0
80.94486666666667 115.80066666666666 2355.91 0.0 0.0 1.0
74.24006666666668 127.17199999999998 2266.69 0.31548399470131466 0.9488207254856043 0.014459598067454837
73.53233333333333 130.04999999999998 2232.84 0.0 0.0 1.0
72.73633333333333 133.63199999999998 2232.84 0.0 0.0 1.0
87.10379999999999 -176.94000000000003 2452.46 0.0 0.0 1.0
85.11566666666666 -159.891 2442.45 0.0 0.0 1.0
87.07483333333333 -159.45566666666664 2442.45 0.0 0.0 1.0
79.25926666666666 -87.72483333333332 2374.6 0.0 0.0 1.0
78.84060000000001 -29.4071 2365.22 0.0 0.0 1.0
83.28043333333333 -31.640200000000004 2374.6 0.0 0.0 1.0
82.21343333333333 -20.342533333333332 2365.22 0.0 0.0 1.0
80.31653333333334 -12.964936666666667 2325.3933333333334 0.04404086446209247 0.5725029432018872 0.8187189885929167
80.105 25.511833333333332 2355.91 0.0 0.0 1.0
80.9486 54.07113333333333 2365.22 0.0 0.0 1.0
79.89503333333333 81.5748 2355.91 0.0 0.0 1.0
79.89503333333333 81.5748 2355.91 0.0 0.0 1.0
81.15486666666668 104.04199999999999 2355.91 0.0 0.0 1.0
73.10863333333333 131.93499999999997 2241.2 0.0 0.0 1.0
57.96223333333333 137.593 2019.3499999999997 1.1301340820825326e-16 0.9999393600544719 0.01101254801821918
86.85713333333332 -166.42166666666665 2442.45 0.0 0.0 1.0
85.72196666666667 -136.35633333333337 2422.67 0.0 0.0 1.0
80.74076666666667 -96.8254 2374.6 0.0 0.0 1.0
80.74076666666667 -96.8254 2374.6 0.0 0.0 1.0
82.21343333333333 -49.22266666666667 2365.22 0.0 0.0 1.0
80.73783333333334 -41.63373333333334 2365.22 0.0 0.0 1.0
77.16656666666667 -18.608 2359.013333333333 -0.07042748877943579 0.9860183851356827 0.15102222683645916
79.26506666666667 4.934383333333334 2355.91 0.0 0.0 1.0
78.63513333333333 5.564303333333334 2355.91 0.0 0.0 1.0
80.10539999999999 17.1805 2365.22 0.0 0.0 1.0
80.10539999999999 17.1805 2365.22 0.0 0.0 1.0
80.10539999999999 52.1739 2365.22 0.0 0.0 1.0
79.0551 86.61416666666666 2355.91 0.0 0.0 1.0
79.68503333333332 92.28343333333333 2355.91 0.0 0.0 1.0
78.22223333333334 106.98033333333335 2346.67 0.0 0.0 1.0
80.94486666666667 115.80066666666666 2355.91 0.0 0.0 1.0
79.47503333333333 123.77966666666667 2355.91 0.0 0.0 1.0
71.54230000000001 133.433 2232.84 0.0 0.0 1.0
86.47460000000001 -178.54600000000002 2462.55 0.0 0.0 1.0
85.35520000000001 -169.50833333333335 2452.46 0.0 0.0 1.0
83.5772 -147.10033333333334 2432.52 0.0 0.0 1.0
83.50596666666667 -110.59766666666667 2384.06 0.0 0.0 1.0
80.74076666666667 -96.8254 2374.6 0.0 0.0 1.0
79.2622 -66.93016666666666 2365.22 0.0 0.0 1.0
79.473 -63.34649999999999 2365.22 0.0 0.0 1.0
78.63516666666668 -55.1181 2355.91 0.0 0.0 1.0
75.2896 -1.7814846666666666 2349.75 -0.5033444566132542 -0.8628750325862362 -0.04572784858277733
80.9486 0.3162053333333333 2365.22 0.0 0.0 1.0
80.10539999999999 17.1805 2365.22 0.0 0.0 1.0
78.84516666666667 25.931766666666665 2355.91 0.0 0.0 1.0
83.89986666666667 28.5639 2365.22 0.0 0.0 1.0
79.47506666666666 80.9449 2355.91 0.0 0.0 1.0
79.47506666666666 80.9449 2355.91 0.0 0.0 1.0
79.0551 86.61416666666666 2355.91 0.0 0.0 1.0
78.22223333333334 107.18966666666667 2346.67 0.0 0.0 1.0
79.26216666666666 119.42 2365.22 0.0 0.0 1.0
72.4447 126.57033333333334 2322.3866666666668 -0.07542014902131197 0.9807052280803654 0.18035813465835537
70.51190000000001 131.73533333333333 2241.2 0.0 0.0 1.0
71.54230000000001 133.433 2232.84 0.0 0.0 1.0
37.251333333333335 128.93366666666668 1773.9233333333334 -0.034280569553508604 -0.9949192446440615 0.09466012459307811
85.1366 -176.06566666666666 2452.46 0.0 0.0 1.0
84.87803333333333 -151.43633333333335 2432.52 0.0 0.0 1.0
82.03476666666666 -120.05366666666667 2403.21 0.0 0.0 1.0
80.3162 -58.91963333333333 2365.22 0.0 0.0 1.0
78.63516666666668 -55.1181 2355.91 0.0 0.0 1.0
78.63516666666668 -55.1181 2355.91 0.0 0.0 1.0
51.01566666666667 -10.484966666666667 1977.1000000000001 -5.1784398770041273e-17 0.9963033753534183 0.08590450663024404
57.734366666666666 -8.42317 1990.25 0.6605671852577497 0.7339666075718948 0.15793673648033243
80.31653333333334 -12.964936666666667 2325.3933333333334 0.04404086446209228 0.5725029432018871 0.8187189885929167
78.00523333333335 3.6745433333333337 2355.91 0.0 0.0 1.0
63.941599999999994 40.583933333333334 2183.94 0.0 0.0 1.0
76.95536666666668 49.23886666666667 2355.91 0.0 0.0 1.0
76.95536666666668 49.23886666666667 2355.91 0.0 0.0 1.0
79.6838 54.49273333333333 2365.22 0.0 0.0 1.0
80.3162 55.33596666666667 2365.22 0.0 0.0 1.0
78.21523333333333 75.0656 2355.91 0.0 0.0 1.0
78.63516666666668 87.66403333333334 2355.91 0.0 0.0 1.0
77.46593333333334 127.33266666666667 2269.5433333333335 0.06222326578515054 -0.9956749312188311 0.06899055397231428
69.50663333333334 139.495 2160.29 0.0 0.0 1.0
85.74523333333333 -145.58266666666668 2432.52 0.0 0.0 1.0
81.5873 -75.87303333333334 2374.6 0.0 0.0 1.0
77.99736666666666 -69.24900000000001 2365.22 0.0 0.0 1.0
76.95536666666665 32.650933333333334 2355.91 0.0 0.0 1.0
72.03423333333333 42.75123333333334 2205.4133333333334 0.14139394229906238 -0.9897575960934323 0.01968893233467412
76.53543333333333 61.207366666666665 2355.91 0.0 0.0 1.0
76.9554 70.65616666666666 2355.91 0.0 0.0 1.0
75.71243333333335 85.01963333333333 2346.67 0.0 0.0 1.0
78.63516666666668 87.66403333333334 2355.91 0.0 0.0 1.0
76.96733333333334 106.771 2346.67 0.0 0.0 1.0
77.5948 107.39866666666667 2346.67 0.0 0.0 1.0
76.13073333333334 110.327 2346.67 0.0 0.0 1.0
122.0 -221.20000000000002 2992.0 0.0 0.0 1.0
85.1366 -176.06566666666666 2452.46 0.0 0.0 1.0
83.59186666666666 -158.8023333333333 2442.45 0.0 0.0 1.0
79.25926666666668 -93.43916666666667 2374.6 0.0 0.0 1.0
79.25926666666668 -93.43916666666667 2374.6 0.0 0.0 1.0
79.6838 -36.36363333333333 2365.22 0.0 0.0 1.0
78.84060000000001 -29.4071 2365.22 0.0 0.0 1.0
78.84060000000001 -29.4071 2365.22 0.0 0.0 1.0
76.7454 26.14173333333333 2355.91 0.0 0.0 1.0
77.16536666666667 68.97636666666666 2355.91 0.0 0.0 1.0
74.24836666666667 75.18953333333333 2346.67 0.0 0.0 1.0
76.54903333333333 105.72533333333332 2346.67 0.0 0.0 1.0
86.47460000000001 -178.54600000000002 2462.55 0.0 0.0 1.0
76.90666666666668 -111.89333333333333 2393.6 0.0 0.0 1.0
79.25926666666666 -87.72483333333332 2374.6 0.0 0.0 1.0
74.43566666666666 -41.259833333333326 2355.91 0.0 0.0 1.0
51.01566666666667 -10.484966666666667 1977.1000000000001 -4.416043448685042e-17 0.9963033753534183 0.08590450663024404
76.11546666666668 -1.574803 2355.91 0.0 0.0 1.0
76.95536666666668 4.0944899999999995 2355.91 0.0 0.0 1.0
75.9055 62.677166666666665 2355.91 0.0 0.0 1.0
77.16536666666667 68.97636666666666 2355.91 0.0 0.0 1.0
75.71243333333332 92.75816666666667 2346.67 0.0 0.0 1.0
75.9216 98.6145 2346.67 0.0 0.0 1.0
76.54903333333333 105.72533333333332 2346.67 0.0 0.0 1.0
64.35423333333334 139.631 2208.12 0.0 0.0 1.0
115.33333333333333 -221.73333333333335 2992.0 0.0 0.0 1.0
83.59186666666666 -158.8023333333333 2442.45 0.0 0.0 1.0
77.5368 -117.26933333333334 2403.21 0.0 0.0 1.0
78.62433333333333 -102.32806666666666 2374.6 0.0 0.0 1.0
75.6785 -91.3834 2365.22 0.0 0.0 1.0
76.11546666666668 -1.574803 2355.91 0.0 0.0 1.0
75.9055 0.5249370000000001 2355.91 0.0 0.0 1.0
76.95536666666668 4.0944899999999995 2355.91 0.0 0.0 1.0
74.64566666666667 11.653533333333334 2355.91 0.0 0.0 1.0
74.64563333333332 23.832000000000004 2355.91 0.0 0.0 1.0
76.32546666666667 59.94749999999999 2355.91 0.0 0.0 1.0
76.32546666666667 71.916 2355.91 0.0 0.0 1.0
75.71243333333334 85.01963333333333 2346.67 0.0 0.0 1.0
70.94763333333333 125.149 2334.4666666666667 0.20963413572902556 -0.9777711554525426 -0.0041348158537588345
43.01773333333333 136.29366666666667 1934.5166666666664 0.021697782672026964 -0.9996208795815127 0.016950024536870955
80.98360000000001 -167.97799999999998 2452.46 0.0 0.0 1.0
76.4516 -127.41966666666667 2412.9 0.0 0.0 1.0
79.25926666666668 -97.8836 2374.6 0.0 0.0 1.0
75.6785 -91.38340000000001 2365.22 0.0 0.0 1.0
76.10013333333332 -70.0922 2365.22 0.0 0.0 1.0
74.85566666666666 15.433066666666667 2355.91 0.0 0.0 1.0
74.4357 56.797866666666664 2355.91 0.0 0.0 1.0
74.64566666666667 59.3176 2355.91 0.0 0.0 1.0
76.32546666666667 71.916 2355.91 0.0 0.0 1.0
75.71243333333334 85.01963333333333 2346.67 0.0 0.0 1.0
79.26216666666666 119.42 2365.22 0.0 0.0 1.0
70.5119 131.73533333333333 2241.2 0.0 0.0 1.0
65.3567 139.65599999999998 2205.4133333333334 -1.38114073012862e-16 0.9999573466952356 0.009236059236715943
45.509966666666664 135.67833333333334 1901.71 1.1222413584009163e-17 -0.99957189938943 0.029257784451446778
74.2029 -80.4216 2365.22 0.0 0.0 1.0
74.2029 -78.10276666666667 2365.22 0.0 0.0 1.0
75.4677 -74.9407 2365.22 0.0 0.0 1.0
74.4137 -65.87616666666666 2365.22 0.0 0.0 1.0
72.7559 -59.10763333333333 2355.91 0.0 0.0 1.0
74.64566666666667 11.653533333333334 2355.91 0.0 0.0 1.0
74.85566666666666 15.433066666666667 2355.91 0.0 0.0 1.0
76.13073333333334 110.327 2346.67 0.0 0.0 1.0
130.79999999999998 220.13333333333333 2992.0 0.0 0.0 1.0
76.66663333333334 -130.64533333333335 2412.9 0.0 0.0 1.0
77.5368 -117.26933333333334 2403.21 0.0 0.0 1.0
76.90666666666668 -111.89333333333333 2393.6 0.0 0.0 1.0
74.41369999999999 -87.58893333333333 2365.22 0.0 0.0 1.0
74.41369999999999 -65.87616666666666 2365.22 0.0 0.0 1.0
74.43566666666665 -41.25983333333333 2355.91 0.0 0.0 1.0
74.64563333333332 23.832000000000004 2355.91 0.0 0.0 1.0
75.0656 25.09183333333333 2355.91 0.0 0.0 1.0
74.23766666666666 35.33486666666667 2352.83 -0.5203218162139418 -0.7804930493956478 0.34654842001790714
73.80576666666666 54.488166666666665 2355.91 0.0 0.0 1.0
72.99346666666666 76.44443333333334 2346.67 0.0 0.0 1.0
73.59576666666668 121.46999999999998 2355.91 0.0 0.0 1.0
71.3878 125.65466666666667 2328.4 0.0 0.0 1.0
67.73296666666668 127.31933333333332 2313.4066666666668 -6.266400262516076e-17 0.9965518919275653 0.0829718427877185
65.7711 134.826 2232.84 0.0 0.0 1.0
67.56216666666667 135.821 2232.84 0.0 0.0 1.0
64.35423333333334 139.631 2208.12 0.0 0.0 1.0
44.15036666666666 132.27133333333333 1835.6266666666668 7.236476407854496e-07 -0.9995939217102994 0.028495467697511902
76.4659 -119.83933333333334 2403.21 0.0 0.0 1.0
76.4659 -119.83933333333334 2403.21 0.0 0.0 1.0
76.68006666666666 -118.12599999999999 2403.21 0.0 0.0 1.0
74.41369999999999 -69.24900000000001 2365.22 0.0 0.0 1.0
72.7559 -59.10763333333333 2355.91 0.0 0.0 1.0
76.11546666666668 -47.979000000000006 2355.91 0.0 0.0 1.0
71.70603333333334 -29.711299999999998 2355.91 0.0 0.0 1.0
51.01566666666667 -10.484966666666667 1977.1000000000001 -4.416043448685042e-17 0.9963033753534183 0.08590450663024404
75.0656 -1.154853 2355.91 0.0 0.0 1.0
74.2257 10.183706666666666 2355.91 0.0 0.0 1.0
74.64566666666667 11.653533333333334 2355.91 0.0 0.0 1.0
71.11113333333334 31.89543333333333 2346.67 0.0 0.0 1.0
74.2257 63.3071 2355.91 0.0 0.0 1.0
72.57516666666666 75.60783333333335 2346.67 0.0 0.0 1.0
72.99346666666666 76.44443333333334 2346.67 0.0 0.0 1.0
73.59576666666668 121.46999999999998 2355.91 0.0 0.0 1.0
73.59576666666668 121.46999999999998 2355.91 0.0 0.0 1.0
71.3878 125.65466666666667 2328.4 0.0 0.0 1.0
64.17906666666666 131.045 2232.84 0.0 0.0 1.0
58.416133333333335 139.78 2191.96 -1.7799923786455863e-05 0.9999575116541478 0.009218165197426574
54.15086666666667 139.03666666666666 2109.523333333333 2.3547683140262197e-17 -0.9978352465083808 0.06576336993766985
37.92250000000001 131.02233333333334 1811.5500000000002 5.267769720117199e-05 -0.9973927788254823 0.07216399359682657
76.66663333333332 -130.64533333333335 2412.9 0.0 0.0 1.0
76.90666666666668 -111.89333333333333 2393.6 0.0 0.0 1.0
74.4137 -65.87616666666666 2365.22 0.0 0.0 1.0
74.43566666666665 -41.25983333333333 2355.91 0.0 0.0 1.0
74.64566666666667 59.3176 2355.91 0.0 0.0 1.0
72.96586666666667 62.25723333333334 2355.91 0.0 0.0 1.0
70.10416666666667 89.27083333333333 2337.5 0.0 0.0 1.0
34.31823333333333 127.39299999999999 1746.3099999999997 -0.03992199773664245 -0.9990608437879467 0.016842342664587888
74.70983333333334 -143.04999999999998 2422.67 0.0 0.0 1.0
75.59136666666666 -129.35500000000002 2412.9 0.0 0.0 1.0
68.5955 -11.998573333333333 2301.56 0.27130792917724195 -0.9158238187876271 0.29607218799948776
70.06536666666666 50.300666666666665 2346.67 0.0 0.0 1.0
73.38583333333334 57.007866666666665 2355.91 0.0 0.0 1.0
71.9477 72.8889 2346.67 0.0 0.0 1.0
72.57516666666666 75.60783333333335 2346.67 0.0 0.0 1.0
70.3758 119.94766666666668 2371.4733333333334 3.758238707762926e-17 -0.9930955703390608 0.11730809082469694
71.38779999999998 125.65466666666667 2328.4 0.0 0.0 1.0
54.15086666666667 139.03666666666666 2109.523333333333 2.3547683140262197e-17 -0.9978352465083808 0.06576336993766985
52.16823333333334 137.80366666666666 2033.1033333333332 0.3121121237820024 -0.9354392581777579 0.1659500420251054
74.03793333333334 -150.786 2432.52 0.0 0.0 1.0
71.67326666666666 -86.32409999999999 2365.22 0.0 0.0 1.0
74.2029 -80.42160000000001 2365.22 0.0 0.0 1.0
70.02626666666667 -63.72703333333333 2355.91 0.0 0.0 1.0
71.70603333333334 -29.711300000000005 2355.91 0.0 0.0 1.0
69.22879999999999 2.6143786666666666 2346.67 0.0 0.0 1.0
73.80576666666667 22.572166666666664 2355.91 0.0 0.0 1.0
71.11113333333334 31.895433333333333 2346.67 0.0 0.0 1.0
69.6471 33.568599999999996 2346.67 0.0 0.0 1.0
64.35423333333334 139.631 2208.12 0.0 0.0 1.0
48.4597 137.61800000000002 2017.08 9.944035399689943e-17 0.9999393600544719 0.011012548018219175
78.14206666666666 -168.41533333333334 2452.46 0.0 0.0 1.0
74.70983333333334 -143.04999999999998 2422.67 0.0 0.0 1.0
75.59136666666666 -129.35500000000002 2412.9 0.0 0.0 1.0
70.75696666666666 -102.52333333333333 2384.06 0.0 0.0 1.0
69.18636666666667 -21.5223 2355.91 0.0 0.0 1.0
68.60133333333334 -17.464100000000002 2346.67 0.0 0.0 1.0
69.22876666666667 51.76473333333333 2346.67 0.0 0.0 1.0
69.27083333333333 89.89583333333333 2337.5 0.0 0.0 1.0
69.47916666666667 92.60416666666667 2337.5 0.0 0.0 1.0
71.82213333333333 126.778 2322.3866666666668 -0.07630738245162878 0.9922421247178069 0.09814657059150386
33.695633333333326 135.548 1885.743333333333 -0.04954126528523136 -0.997186521975059 0.05625569682461986
74.88436666666666 -165.98633333333333 2442.45 0.0 0.0 1.0
74.88436666666666 -165.98633333333336 2442.45 0.0 0.0 1.0
75.31973333333333 -160.54433333333336 2442.45 0.0 0.0 1.0
70.75696666666666 -102.52333333333333 2384.06 0.0 0.0 1.0
70.582 -99.57673333333334 2374.6 0.0 0.0 1.0
69.81626666666666 -58.4777 2355.91 0.0 0.0 1.0
69.81626666666666 -58.4777 2355.91 0.0 0.0 1.0
71.70603333333334 -29.711300000000005 2355.91 0.0 0.0 1.0
68.60133333333334 -17.464100000000002 2346.67 0.0 0.0 1.0
42.3887 -6.16721 1949.1899999999998 -2.973890045259888e-29 3.3828534216678744e-28 1.0
67.76473333333333 15.5817 2346.67 0.0 0.0 1.0
69.64710000000001 32.522866666666665 2346.67 0.0 0.0 1.0
47.94223333333333 36.678733333333334 2160.29 0.0 0.0 1.0
69.89583333333333 87.8125 2337.5 0.0 0.0 1.0
69.27083333333333 89.89583333333333 2337.5 0.0 0.0 1.0
69.27083333333333 89.89583333333333 2337.5 0.0 0.0 1.0
69.27083333333333 92.60416666666667 2337.5 0.0 0.0 1.0
74.8634 -168.1966666666667 2452.46 0.0 0.0 1.0
70.37036666666667 -98.73013333333334 2374.6 0.0 0.0 1.0
68.76643333333334 -72.12596666666667 2355.91 0.0 0.0 1.0
68.97640000000001 -61.837266666666665 2355.91 0.0 0.0 1.0
42.3887 -6.16721 1949.1899999999998 -2.973890045259888e-29 3.3828534216678744e-28 1.0
67.7647 9.934613333333333 2346.67 0.0 0.0 1.0
67.34643333333334 58.666666666666664 2346.67 0.0 0.0 1.0
72.92516666666666 -156.626 2442.45 0.0 0.0 1.0
73.63023333333335 -141.32266666666666 2422.67 0.0 0.0 1.0
69.60633333333334 -64.14699999999999 2355.91 0.0 0.0 1.0
69.60629999999999 -60.157466666666664 2355.91 0.0 0.0 1.0
64.62743333333334 -24.366033333333334 2346.67 0.0 0.0 1.0
43.91276666666667 -5.65143 1951.3133333333335 0.8942600835839647 0.4471514899639877 -0.018826787601345818
69.22879999999999 2.6143786666666666 2346.67 0.0 0.0 1.0
67.55560000000001 4.287579999999999 2346.67 0.0 0.0 1.0
69.64710000000001 33.5686 2346.67 0.0 0.0 1.0
70.06536666666666 50.300666666666665 2346.67 0.0 0.0 1.0
66.35416666666667 108.02133333333335 2337.5 0.0 0.0 1.0
60.995000000000005 129.05499999999998 2232.84 0.0 0.0 1.0
108.13333333333333 -221.20000000000002 2992.0 0.0 0.0 1.0
72.02186666666665 -178.2513333333333 2452.46 0.0 0.0 1.0
71.8699 -149.26833333333332 2432.52 0.0 0.0 1.0
73.63023333333335 -141.32266666666666 2422.67 0.0 0.0 1.0
68.67726666666668 -100.00003333333332 2374.6 0.0 0.0 1.0
68.76643333333334 -72.12596666666667 2355.91 0.0 0.0 1.0
68.76643333333334 -72.12596666666667 2355.91 0.0 0.0 1.0
68.97640000000001 -63.517066666666665 2355.91 0.0 0.0 1.0
69.18636666666667 -21.5223 2355.91 0.0 0.0 1.0
69.18636666666667 -21.5223 2355.91 0.0 0.0 1.0
67.76469999999999 9.934613333333333 2346.67 0.0 0.0 1.0
64.66036666666668 39.6488 2310.4466666666667 -0.9223243164199925 -0.3356942048455087 0.19138248659042723
47.9891 136.93033333333335 1968.4366666666667 0.013130425628925815 -0.9996555326461176 0.022724611609655606
47.32156666666666 136.249 1924.1699999999998 0.027781050589823435 -0.9995224896420764 0.013527968355635757
73.36056666666667 -163.8096666666667 2442.45 0.0 0.0 1.0
71.8699 -150.78599999999997 2432.52 0.0 0.0 1.0
71.7204 -128.06466666666668 2412.9 0.0 0.0 1.0
69.01333333333334 -109.54666666666667 2393.6 0.0 0.0 1.0
69.01333333333334 -109.54666666666667 2393.6 0.0 0.0 1.0
69.31216666666667 -98.51850000000002 2374.6 0.0 0.0 1.0
69.52380000000001 -97.4603 2374.6 0.0 0.0 1.0
68.0896 -86.1133 2365.22 0.0 0.0 1.0
66.66666666666667 -81.5748 2355.91 0.0 0.0 1.0
53.1532 -8.397672666666667 2272.4166666666665 0.305835989170568 -0.3863186317516223 0.8701851886176958
67.76473333333333 15.5817 2346.67 0.0 0.0 1.0
65.9558 41.770833333333336 2205.4133333333334 0.1411617517186483 -0.9881322620305395 0.0605639545119997
67.34643333333334 60.96733333333333 2346.67 0.0 0.0 1.0
65.9375 80.3125 2337.5 0.0 0.0 1.0
64.6875 81.77083333333333 2337.5 0.0 0.0 1.0
64.95460000000001 97.01686666666667 2328.4 0.0 0.0 1.0
65.57716666666666 100.12983333333334 2328.4 0.0 0.0 1.0
65.36963333333334 102.41266666666667 2328.4 0.0 0.0 1.0
66.35416666666667 108.02133333333335 2337.5 0.0 0.0 1.0
57.412933333333335 131.244 2232.84 0.0 0.0 1.0
57.35593333333333 139.33233333333334 2219.0466666666666 1.4448781682959978e-16 0.9967008106198536 0.08116337911722799
68.67726666666667 -100.00003333333332 2374.6 0.0 0.0 1.0
68.46563333333334 -99.15343333333333 2374.6 0.0 0.0 1.0
67.71653333333335 -78.00523333333332 2355.91 0.0 0.0 1.0
65.04573333333333 -45.90846666666667 2346.67 0.0 0.0 1.0
65.46403333333332 -39.63396666666666 2346.67 0.0 0.0 1.0
62.8125 2.8125 2337.5 0.0 0.0 1.0
66.0915 10.143763333333334 2346.67 0.0 0.0 1.0
66.9281 11.398666666666665 2346.67 0.0 0.0 1.0
64.66036666666668 39.6488 2310.4466666666667 -0.9223243164199925 -0.3356942048455087 0.19138248659042723
62.7292 43.9441 2319.4 0.15392494590176972 -0.7743773306316966 0.6137156188601244
69.98683333333334 117.31200000000001 2365.22 0.0 0.0 1.0
71.28606666666667 121.68 2355.91 0.0 0.0 1.0
68.64583333333333 124.47933333333333 2337.5 0.0 0.0 1.0
58.29 138.68666666666664 2224.54 0.0 0.0 1.0
48.74076666666667 138.04166666666666 2044.6833333333332 0.07119126456678407 -0.9970294381055232 0.02939563573673639
25.5005 127.58 1744.61 0.0 0.0 1.0
69.13976666666667 -131.93566666666666 2412.9 0.0 0.0 1.0
68.97636666666666 -57.42783333333333 2355.91 0.0 0.0 1.0
66.92813333333334 -18.300700000000003 2346.67 0.0 0.0 1.0
66.50983333333333 5.751633333333333 2346.67 0.0 0.0 1.0
68.81049999999999 30.431366666666666 2346.67 0.0 0.0 1.0
67.34643333333334 53.856233333333336 2346.67 0.0 0.0 1.0
67.34643333333332 58.666666666666664 2346.67 0.0 0.0 1.0
65.88236666666666 62.84966666666667 2346.67 0.0 0.0 1.0
64.0625 71.77083333333333 2337.5 0.0 0.0 1.0
63.08689999999999 92.24383333333333 2328.4 0.0 0.0 1.0
64.95460000000001 97.01686666666667 2328.4 0.0 0.0 1.0
64.7098 123.69333333333333 2334.4666666666667 -0.6928261299016034 0.6939364281867082 0.1960718933479253
63.62933333333334 127.15599999999999 2310.42 0.0 0.0 1.0
58.29 138.68666666666664 2224.54 0.0 0.0 1.0
70.05466666666666 -177.15866666666668 2452.46 0.0 0.0 1.0
69.61749999999999 -166.88533333333334 2452.46 0.0 0.0 1.0
71.1837 -162.939 2442.45 0.0 0.0 1.0
71.0027 -153.82133333333334 2432.52 0.0 0.0 1.0
69.09580000000001 -138.94733333333332 2422.67 0.0 0.0 1.0
69.56986666666667 -129.355 2412.9 0.0 0.0 1.0
65.2324 -102.31099999999999 2384.06 0.0 0.0 1.0
64.8366 -20.3922 2346.67 0.0 0.0 1.0
65.04576666666667 7.424836666666667 2346.67 0.0 0.0 1.0
53.2909 38.69336666666666 2244.0066666666667 -0.13340483466915892 0.8004957994875873 0.5843026827677782
63.854166666666664 58.229166666666664 2337.5 0.0 0.0 1.0
64.0625 71.77083333333333 2337.5 0.0 0.0 1.0
64.6875 81.77083333333333 2337.5 0.0 0.0 1.0
64.9546 97.01686666666666 2328.4 0.0 0.0 1.0
62.87936666666667 105.52533333333334 2328.4 0.0 0.0 1.0
63.854166666666664 110.10466666666667 2337.5 0.0 0.0 1.0
69.98683333333334 117.31200000000001 2365.22 0.0 0.0 1.0
57.29866666666667 131.15233333333333 2224.54 0.0 0.0 1.0
58.29 138.68666666666664 2224.54 0.0 0.0 1.0
48.249500000000005 139.24166666666667 2127.023333333333 1.2879005103528627e-16 0.9999519704794644 0.009800853750392243
43.38616666666667 138.257 2058.7233333333334 -6.937641531983987e-16 0.9999440546990443 0.010577687461557279
70.67213333333332 -178.985 2462.55 0.0 0.0 1.0
70.78590000000001 -150.569 2432.52 0.0 0.0 1.0
68.83470000000001 -147.317 2432.52 0.0 0.0 1.0
68.8347 -143.63166666666666 2432.52 0.0 0.0 1.0
69.09580000000001 -138.94733333333332 2422.67 0.0 0.0 1.0
65.7143 -94.92063333333333 2374.6 0.0 0.0 1.0
64.98686666666667 -83.8845 2355.91 0.0 0.0 1.0
65.04573333333333 -45.90846666666667 2346.67 0.0 0.0 1.0
63.4375 30.3125 2337.5 0.0 0.0 1.0
65.88236666666666 62.84966666666667 2346.67 0.0 0.0 1.0
67.7847 111.646 2343.6133333333332 -6.777374414835148e-17 -0.9933604559203839 0.11504349009677627
57.29866666666667 131.15233333333333 2224.54 0.0 0.0 1.0
57.29866666666667 131.15233333333333 2224.54 0.0 0.0 1.0
57.29866666666667 132.34166666666667 2224.54 0.0 0.0 1.0
43.38616666666667 138.257 2058.7233333333334 -6.937641531983987e-16 0.9999440546990443 0.010577687461557279
42.28326666666667 136.51199999999997 1944.9966666666667 0.03214740229418548 -0.9990042159767685 0.030937372001803454
69.13976666666667 -131.93566666666666 2412.9 0.0 0.0 1.0
66.61313333333334 -116.62666666666667 2403.21 0.0 0.0 1.0
67.4699 -115.76966666666665 2403.21 0.0 0.0 1.0
67.4699 -115.76966666666665 2403.21 0.0 0.0 1.0
66.88 -110.18666666666667 2393.6 0.0 0.0 1.0
65.7143 -94.92063333333333 2374.6 0.0 0.0 1.0
63.58166666666667 -65.35946666666666 2346.67 0.0 0.0 1.0
63.58166666666667 -63.477133333333335 2346.67 0.0 0.0 1.0
65.04573333333333 -45.90846666666667 2346.67 0.0 0.0 1.0
65.2549 8.888876666666667 2346.67 0.0 0.0 1.0
62.395833333333336 16.5625 2337.5 0.0 0.0 1.0
63.4375 30.3125 2337.5 0.0 0.0 1.0
63.854166666666664 58.229166666666664 2337.5 0.0 0.0 1.0
63.854166666666664 58.229166666666664 2337.5 0.0 0.0 1.0
61.0117 123.37233333333332 2328.4 0.0 0.0 1.0
56.2902 127.125 2283.9933333333333 -0.052532244653380585 0.9985849547664766 -0.00827353526079017
61.9976 139.495 2160.29 0.0 0.0 1.0
44.80153333333334 135.823 1903.74 0.012983487510641748 -0.9992041170115502 0.037716860940819566
70.67213333333332 -178.985 2462.55 0.0 0.0 1.0
68.5246 -178.47 2452.46 0.0 0.0 1.0
71.1837 -162.939 2442.45 0.0 0.0 1.0
68.8347 -147.317 2432.52 0.0 0.0 1.0
69.09580000000001 -138.94733333333332 2422.67 0.0 0.0 1.0
67.63443333333333 -123.76333333333334 2412.9 0.0 0.0 1.0
65.2324 -102.31099999999999 2384.06 0.0 0.0 1.0
64.86773333333333 -94.07406666666667 2374.6 0.0 0.0 1.0
63.58166666666667 -65.35946666666666 2346.67 0.0 0.0 1.0
63.58166666666667 -65.35946666666666 2346.67 0.0 0.0 1.0
66.0915 -33.98693333333333 2346.67 0.0 0.0 1.0
63.58166666666667 -21.437933333333334 2346.67 0.0 0.0 1.0
40.304 -6.16721 1949.1899999999998 1.1153371646543924e-27 -5.297878282010376e-27 1.0
36.4502 -3.72294 1942.86 0.0 0.0 1.0
61.145833333333336 27.1875 2337.5 0.0 0.0 1.0
60.9375 64.0625 2337.5 0.0 0.0 1.0
63.020833333333336 81.14583333333333 2337.5 0.0 0.0 1.0
61.426733333333324 100.95966666666668 2328.4 0.0 0.0 1.0
62.87936666666667 105.52533333333334 2328.4 0.0 0.0 1.0
61.63423333333333 106.14766666666667 2328.4 0.0 0.0 1.0
54.82586666666666 129.05499999999998 2232.84 0.0 0.0 1.0
55.910799999999995 139.28166666666667 2224.54 0.0 0.0 1.0
49.5274 138.89766666666665 2104.5766666666664 7.620721889346352e-17 0.999949868360472 0.010013029804964452
38.80603333333334 131.65866666666668 1822.6066666666666 -0.027703328710880246 -0.9983850867886872 0.049595806841726764
70.0137 -177.668 2462.55 0.0 0.0 1.0
68.5246 -168.85266666666666 2452.46 0.0 0.0 1.0
66.17686666666667 -154.44899999999998 2442.45 0.0 0.0 1.0
67.7507 -147.53400000000002 2432.52 0.0 0.0 1.0
68.8347 -143.63166666666666 2432.52 0.0 0.0 1.0
62.18710000000001 -86.5349 2365.22 0.0 0.0 1.0
61.354166666666664 -32.8125 2337.5 0.0 0.0 1.0
61.354166666666664 -26.354166666666668 2337.5 0.0 0.0 1.0
60.9375 -23.229166666666668 2337.5 0.0 0.0 1.0
41.54016666666667 -6.952683333333333 1974.92 0.0 0.0 1.0
62.395833333333336 16.5625 2337.5 0.0 0.0 1.0
60.520833333333336 53.854166666666664 2337.5 0.0 0.0 1.0
64.0625 71.77083333333333 2337.5 0.0 0.0 1.0
62.2568 89.54603333333334 2328.4 0.0 0.0 1.0
61.2192 100.33720000000001 2328.4 0.0 0.0 1.0
64.66503333333334 123.17966666666666 2340.556666666667 0.703705519891836 -0.7048332530967765 0.08949093028221466
54.82586666666666 129.05499999999998 2232.84 0.0 0.0 1.0
55.968066666666665 139.53066666666666 2219.0466666666666 -6.206989808023337e-17 0.9999574680732014 0.009222908686114889
44.88426666666666 138.67366666666666 2089.896666666667 -1.6386253811705006e-16 -0.9996075418580778 0.028013608486794586
38.99653333333333 136.58400000000003 1953.4633333333331 0.7048475939166426 -0.7064567875552705 0.06409895995261472
69.6175 -175.1916666666667 2452.46 0.0 0.0 1.0
68.5246 -173.44299999999998 2452.46 0.0 0.0 1.0
68.30603333333333 -170.82000000000002 2452.46 0.0 0.0 1.0
68.2321 -140.67466666666667 2422.67 0.0 0.0 1.0
59.816966666666666 -75.60783333333333 2346.67 0.0 0.0 1.0
62.326766666666664 -69.96076666666667 2346.67 0.0 0.0 1.0
61.354166666666664 -32.8125 2337.5 0.0 0.0 1.0
63.58166666666667 -21.437933333333334 2346.67 0.0 0.0 1.0
40.304 -6.16721 1949.1899999999998 1.1153371646543924e-27 -5.297878282010376e-27 1.0
36.4502 -3.72294 1942.86 0.0 0.0 1.0
60.520833333333336 4.0625 2337.5 0.0 0.0 1.0
61.979166666666664 18.645833333333332 2337.5 0.0 0.0 1.0
60.9375 64.0625 2337.5 0.0 0.0 1.0
63.020833333333336 81.14583333333333 2337.5 0.0 0.0 1.0
61.426733333333324 100.95966666666668 2328.4 0.0 0.0 1.0
61.426733333333324 100.95966666666668 2328.4 0.0 0.0 1.0
61.0117 123.37233333333332 2328.4 0.0 0.0 1.0
68.03840000000001 -177.668 2462.55 0.0 0.0 1.0
68.5246 -168.85266666666666 2452.46 0.0 0.0 1.0
67.75070000000001 -147.534 2432.52 0.0 0.0 1.0
68.44803333333334 -136.3563333333333 2422.67 0.0 0.0 1.0
65.54216666666667 -117.26933333333334 2403.21 0.0 0.0 1.0
64.96 -109.33333333333333 2393.6 0.0 0.0 1.0
63.174600000000005 -93.86243333333334 2374.6 0.0 0.0 1.0
62.677166666666665 -83.2546 2355.91 0.0 0.0 1.0
39.2876 -3.2335833333333333 1964.1499999999999 0.35111045382498113 0.9362779666872676 -0.010247844201175471
60.520833333333336 4.0625 2337.5 0.0 0.0 1.0
61.979166666666664 18.645833333333332 2337.5 0.0 0.0 1.0
61.145833333333336 27.1875 2337.5 0.0 0.0 1.0
53.2909 38.69336666666666 2244.0066666666667 -0.13340483466915892 0.8004957994875873 0.5843026827677782
60.520833333333336 53.854166666666664 2337.5 0.0 0.0 1.0
59.351499999999994 80.83006666666667 2328.4 0.0 0.0 1.0
62.2568 89.54603333333334 2328.4 0.0 0.0 1.0
61.63423333333333 106.14766666666667 2328.4 0.0 0.0 1.0
54.324666666666666 139.08333333333334 2224.54 0.0 0.0 1.0
40.53523333333334 136.806 1964.1499999999999 -0.07117644357700398 0.9974535552672699 0.00450765619948567
30.58536666666667 128.70966666666666 1768.67 -0.03435448979120124 -0.9970646193565332 0.068424512118087
68.5246 -178.47 2452.46 0.0 0.0 1.0
65.54216666666667 -117.26933333333334 2403.21 0.0 0.0 1.0
64.96 -109.33333333333333 2393.6 0.0 0.0 1.0
62.18710000000001 -88.01053333333334 2365.22 0.0 0.0 1.0
60.23526666666667 -71.84313333333334 2346.67 0.0 0.0 1.0
59.0625 -45.104166666666664 2337.5 0.0 0.0 1.0
63.16336666666666 -45.90846666666667 2346.67 0.0 0.0 1.0
59.270833333333336 -39.6875 2337.5 0.0 0.0 1.0
59.895833333333336 -34.0625 2337.5 0.0 0.0 1.0
60.520833333333336 -23.854166666666668 2337.5 0.0 0.0 1.0
59.895833333333336 -23.020833333333332 2337.5 0.0 0.0 1.0
60.520833333333336 12.395833333333334 2337.5 0.0 0.0 1.0
44.88426666666666 138.67366666666666 2089.896666666667 -1.6386253811705006e-16 -0.9996075418580778 0.028013608486794586
64.0 -166.63933333333333 2442.45 0.0 0.0 1.0
63.33336666666667 -122.043 2412.9 0.0 0.0 1.0
63.46666666666666 -112.32000000000001 2393.6 0.0 0.0 1.0
62.25763333333333 -102.94833333333332 2384.06 0.0 0.0 1.0
60.36743333333333 -81.99476666666668 2355.91 0.0 0.0 1.0
58.854166666666664 -48.645833333333336 2337.5 0.0 0.0 1.0
59.6875 -43.4375 2337.5 0.0 0.0 1.0
60.729166666666664 -26.354166666666668 2337.5 0.0 0.0 1.0
55.37736666666667 -16.936233333333334 2331.4333333333334 -0.41314069202874176 0.8951418527775918 0.16743903964103646
54.4141 -3.5349626666666665 2269.5433333333335 -0.6007607282610865 -0.5800458547310503 0.5501212173589872
59.895833333333336 26.5625 2337.5 0.0 0.0 1.0
51.730133333333335 39.368966666666665 2181.2933333333335 -0.10531201310744359 0.982928153391906 0.15086956341434604
59.351499999999994 80.83006666666667 2328.4 0.0 0.0 1.0
56.7442 101.80896666666668 2319.38 0.0 0.0 1.0
57.672 118.836 2374.6 0.0 0.0 1.0
58.93646666666666 123.37233333333332 2328.4 0.0 0.0 1.0
54.324666666666666 139.08333333333334 2224.54 0.0 0.0 1.0
48.249500000000005 139.24166666666667 2127.023333333333 1.2879005103528627e-16 0.9999519704794644 0.009800853750392243
30.58536666666667 128.70966666666666 1768.67 -0.03435448979120124 -0.9970646193565332 0.068424512118087
25.5005 127.58 1744.61 0.0 0.0 1.0
99.33333333333333 -221.46666666666667 2992.0 0.0 0.0 1.0
64.87073333333332 -165.33333333333334 2442.45 0.0 0.0 1.0
64.43536666666667 -155.53733333333332 2442.45 0.0 0.0 1.0
64.04283333333335 -119.197 2403.21 0.0 0.0 1.0
60.84653333333333 -96.61376666666668 2374.6 0.0 0.0 1.0
60.84653333333333 -96.61376666666668 2374.6 0.0 0.0 1.0
61.48146666666667 -94.49736666666666 2374.6 0.0 0.0 1.0
61.133100000000006 -89.06456666666668 2365.22 0.0 0.0 1.0
61.133100000000006 -89.06456666666668 2365.22 0.0 0.0 1.0
60.71146666666667 -86.74569999999999 2365.22 0.0 0.0 1.0
59.6875 -41.5625 2337.5 0.0 0.0 1.0
59.895833333333336 -23.020833333333332 2337.5 0.0 0.0 1.0
58.854166666666664 4.0625 2337.5 0.0 0.0 1.0
58.229166666666664 11.770833333333334 2337.5 0.0 0.0 1.0
59.895833333333336 26.5625 2337.5 0.0 0.0 1.0
57.48376666666667 74.81193333333333 2328.4 0.0 0.0 1.0
58.3139 79.79246666666666 2328.4 0.0 0.0 1.0
54.677033333333334 90.646 2319.38 0.0 0.0 1.0
58.229166666666664 110.10466666666667 2337.5 0.0 0.0 1.0
55.77346666666667 126.79233333333333 2292.7433333333333 0.541317878487148 -0.8113464088675183 0.22066254609234237
53.333333333333336 131.35066666666668 2224.54 0.0 0.0 1.0
66.50206666666666 -178.7653333333333 2462.55 0.0 0.0 1.0
64.43536666666667 -155.53733333333332 2442.45 0.0 0.0 1.0
57.395833333333336 -37.395833333333336 2337.5 0.0 0.0 1.0
54.37096666666667 4.461736666666667 2328.4 0.0 0.0 1.0
40.153 35.14953333333333 2114.5066666666667 -0.15978074030894168 -0.9598394646614836 0.23060424346633954
46.47923333333333 35.499 2219.0466666666666 -0.529642516597773 0.7740960820293243 0.34677667222410946
56.0311 54.682233333333336 2328.4 0.0 0.0 1.0
58.854166666666664 54.895833333333336 2337.5 0.0 0.0 1.0
60.9375 64.0625 2337.5 0.0 0.0 1.0
56.65370000000001 66.71853333333333 2328.4 0.0 0.0 1.0
57.48376666666667 74.18936666666666 2328.4 0.0 0.0 1.0
53.23383333333334 129.254 2232.84 0.0 0.0 1.0
48.249500000000005 139.24166666666667 2127.023333333333 1.2879005103528627e-16 0.9999519704794644 0.009800853750392243
34.8679 137.38633333333334 2005.83 -8.12620391721108e-18 -0.9995917837587948 0.028570366499415464
25.5005 127.58 1744.61 0.0 0.0 1.0
66.50206666666666 -178.7653333333333 2462.55 0.0 0.0 1.0
62.25809999999999 -127.63433333333334 2412.9 0.0 0.0 1.0
62.25809999999999 -127.63433333333334 2412.9 0.0 0.0 1.0
62.25809999999999 -127.63433333333334 2412.9 0.0 0.0 1.0
60.84653333333333 -95.55556666666666 2374.6 0.0 0.0 1.0
60.71146666666667 -88.22133333333333 2365.22 0.0 0.0 1.0
55.104166666666664 -62.395833333333336 2337.5 0.0 0.0 1.0
56.5625 -55.9375 2337.5 0.0 0.0 1.0
58.854166666666664 -35.729166666666664 2337.5 0.0 0.0 1.0
56.44616666666667 13.385233333333334 2328.4 0.0 0.0 1.0
57.69133333333334 78.54733333333333 2328.4 0.0 0.0 1.0
57.69133333333334 78.54733333333333 2328.4 0.0 0.0 1.0
56.33076666666667 100.56863333333335 2319.38 0.0 0.0 1.0
57.898833333333336 106.35533333333332 2328.4 0.0 0.0 1.0
55.59843333333333 125.92033333333332 2310.42 0.0 0.0 1.0
49.173233333333336 126.98233333333333 2238.4133333333334 -1.338241332137528e-19 0.99630160343133 0.08592505455430699
63.999966666666666 -163.15666666666667 2442.45 0.0 0.0 1.0
62.91153333333333 -161.19733333333332 2442.45 0.0 0.0 1.0
63.129266666666666 -155.53733333333335 2442.45 0.0 0.0 1.0
60.752700000000004 -131.93533333333335 2412.9 0.0 0.0 1.0
62.4 -111.46666666666665 2393.6 0.0 0.0 1.0
58.4777 -79.89503333333334 2355.91 0.0 0.0 1.0
58.35293333333333 -73.51633333333335 2346.67 0.0 0.0 1.0
59.0625 -45.104166666666664 2337.5 0.0 0.0 1.0
38.11156666666667 -4.4821 1970.6033333333335 0.8460791464967977 0.5206610562838336 0.11428972977766962
54.993500000000004 32.477333333333334 2328.4 0.0 0.0 1.0
67.8987 56.2381 2359.013333333333 0.5816600802930849 -0.09693821689507046 0.8076351485037326
56.979166666666664 55.104166666666664 2337.5 0.0 0.0 1.0
55.61606666666666 57.58756666666667 2328.4 0.0 0.0 1.0
56.65370000000001 66.71853333333333 2328.4 0.0 0.0 1.0
57.691333333333326 80.41503333333333 2328.4 0.0 0.0 1.0
56.377933333333324 116.43066666666668 2355.91 0.0 0.0 1.0
56.4462 123.16466666666666 2328.4 0.0 0.0 1.0
49.36803333333333 130.35933333333332 2224.54 0.0 0.0 1.0
53.03483333333333 129.65200000000002 2232.84 0.0 0.0 1.0
40.044900000000005 137.643 2014.8100000000002 0.0 -1.0 0.0
56.979166666666664 -53.229166666666664 2337.5 0.0 0.0 1.0
57.604166666666664 -51.145833333333336 2337.5 0.0 0.0 1.0
53.125800000000005 -35.1751 2328.4 0.0 0.0 1.0
58.854166666666664 4.0625 2337.5 0.0 0.0 1.0
56.44616666666667 13.385233333333332 2328.4 0.0 0.0 1.0
56.44616666666667 13.385233333333332 2328.4 0.0 0.0 1.0
54.993500000000004 32.477333333333334 2328.4 0.0 0.0 1.0
55.616066666666676 57.58756666666667 2328.4 0.0 0.0 1.0
56.65366666666667 74.39686666666667 2328.4 0.0 0.0 1.0
56.44616666666667 75.642 2328.4 0.0 0.0 1.0
55.20103333333333 106.56299999999999 2328.4 0.0 0.0 1.0
46.7328 139.80466666666666 2189.273333333333 3.4548729126815234e-16 0.9999572214951574 0.009249604298831609
45.518633333333334 138.78566666666666 2097.236666666667 -0.03834637250831939 -0.9990338138294571 0.021470783423589063
61.311499999999995 -176.50266666666667 2452.46 0.0 0.0 1.0
62.91153333333333 -159.02033333333335 2442.45 0.0 0.0 1.0
60.752700000000004 -131.93533333333335 2412.9 0.0 0.0 1.0
60.96776666666667 -130.215 2412.9 0.0 0.0 1.0
62.97186666666667 -116.41266666666667 2403.21 0.0 0.0 1.0
58.43293333333333 -102.31066666666665 2384.06 0.0 0.0 1.0
58.35293333333333 -73.51633333333335 2346.67 0.0 0.0 1.0
57.8125 -39.270833333333336 2337.5 0.0 0.0 1.0
57.1875 -20.3125 2337.5 0.0 0.0 1.0
33.16016666666667 -3.0303000000000004 1942.86 0.0 0.0 1.0
40.870599999999996 36.4408 2157.7000000000003 -0.5624784637428064 0.5624784637428067 0.6059999634084678
55.20106666666667 67.75616666666667 2328.4 0.0 0.0 1.0
55.7106 102.01566666666668 2319.38 0.0 0.0 1.0
54.11933333333334 127.00533333333333 2278.183333333333 -3.390544868104526e-16 -0.9984490064911213 0.05567388469374699
61.311499999999995 -176.50266666666667 2452.46 0.0 0.0 1.0
63.129266666666666 -155.53733333333332 2442.45 0.0 0.0 1.0
59.02503333333333 -88.64296666666667 2365.22 0.0 0.0 1.0
58.4777 -79.89503333333333 2355.91 0.0 0.0 1.0
56.979166666666664 -59.0625 2337.5 0.0 0.0 1.0
56.770833333333336 -20.9375 2337.5 0.0 0.0 1.0
30.924733333333332 -3.791733333333333 2162.9733333333334 0.30270610102346873 0.8636779754560363 0.40302527354414386
32.076766666666664 -8.511663333333333 2010.3033333333333 0.1643015353944131 0.9858153325920422 0.03425106558166449
38.1263 -5.803322333333334 2058.7566666666667 -0.014521441178001006 0.841001892162842 0.5408372630696161
58.229166666666664 11.770833333333334 2337.5 0.0 0.0 1.0
56.979166666666664 55.104166666666664 2337.5 0.0 0.0 1.0
59.42856666666666 -167.51000000000002 2442.45 0.0 0.0 1.0
60.02696666666666 -141.75433333333334 2422.67 0.0 0.0 1.0
53.333333333333336 -46.79636666666667 2328.4 0.0 0.0 1.0
53.333333333333336 -23.346300000000003 2328.4 0.0 0.0 1.0
46.47923333333333 35.499 2219.0466666666666 -0.529642516597773 0.7740960820293243 0.34677667222410946
55.616066666666676 57.58756666666667 2328.4 0.0 0.0 1.0
53.4367 99.74156666666666 2319.38 0.0 0.0 1.0
53.436699999999995 99.74156666666666 2319.38 0.0 0.0 1.0
56.37793333333334 116.43066666666668 2355.91 0.0 0.0 1.0
46.7328 139.80466666666666 2189.273333333333 3.4548729126815234e-16 0.9999572214951574 0.009249604298831609
46.7328 139.80466666666666 2189.273333333333 3.4548729126815234e-16 0.9999572214951574 0.009249604298831609
89.46666666666665 -221.46666666666667 2992.0 0.0 0.0 1.0
61.61293333333333 -123.11833333333334 2412.9 0.0 0.0 1.0
54.28573333333333 -90.68783333333333 2374.6 0.0 0.0 1.0
52.91830000000001 -44.928666666666665 2328.4 0.0 0.0 1.0
47.6841 -13.7288 2316.3933333333334 0.6086200574861633 -0.6086200574861619 0.5090807904950649
52.088233333333335 6.744486666666667 2328.4 0.0 0.0 1.0
53.12583333333333 17.743166666666667 2328.4 0.0 0.0 1.0
52.50326666666667 21.063566666666667 2328.4 0.0 0.0 1.0
55.20106666666667 67.75616666666667 2328.4 0.0 0.0 1.0
51.9897 89.40570000000001 2319.38 0.0 0.0 1.0
54.67703333333333 90.646 2319.38 0.0 0.0 1.0
53.436699999999995 99.74156666666666 2319.38 0.0 0.0 1.0
56.377933333333324 116.43066666666668 2355.91 0.0 0.0 1.0
56.446200000000005 123.16466666666666 2328.4 0.0 0.0 1.0
48.3767 136.30733333333333 2224.54 0.0 0.0 1.0
59.42856666666666 -167.51000000000002 2442.45 0.0 0.0 1.0
52.7108 -42.85343333333333 2328.4 0.0 0.0 1.0
53.333333333333336 -23.3463 2328.4 0.0 0.0 1.0
53.333333333333336 -23.3463 2328.4 0.0 0.0 1.0
32.076766666666664 -8.511663333333333 2010.3033333333333 0.1643015353944131 0.9858153325920422 0.03425106558166449
53.12583333333333 17.743166666666667 2328.4 0.0 0.0 1.0
52.50326666666666 18.573266666666665 2328.4 0.0 0.0 1.0
53.3388 112.21533333333333 2346.693333333333 -0.5521550624215907 0.8295174157313594 -0.08381911500711653
54.70903333333333 118.62466666666667 2374.6 0.0 0.0 1.0
54.70903333333333 118.62466666666667 2374.6 0.0 0.0 1.0
54.11933333333334 127.00533333333333 2278.183333333333 -3.390544868104526e-16 -0.9984490064911213 0.05567388469374699
61.311499999999995 -176.50266666666667 2452.46 0.0 0.0 1.0
56.043366666666664 -148.184 2432.52 0.0 0.0 1.0
53.333333333333336 -46.79636666666667 2328.4 0.0 0.0 1.0
52.29573333333334 -40.7782 2328.4 0.0 0.0 1.0
52.50326666666667 21.063566666666667 2328.4 0.0 0.0 1.0
52.91826666666666 30.194566666666663 2328.4 0.0 0.0 1.0
