ply
format ascii 1.0
comment VCGLIB generated
element vertex 764
property float x
property float y
property float z
property float nx
property float ny
property float nz
element face 0
property list uchar int vertex_indices
end_header
-22.15452 58.100766666666665 2890.8633333333332 -0.15791895656653407 -0.9869419369663792 0.03173666986293207
-40.541199999999996 60.7134 2208.12 0.0 0.0 1.0
-40.541199999999996 60.7134 2208.12 0.0 0.0 1.0
-39.754 66.61749999999999 2208.12 0.0 0.0 1.0
-40.934799999999996 73.7023 2208.12 0.0 0.0 1.0
-40.934799999999996 74.29270000000001 2208.12 0.0 0.0 1.0
-39.604933333333335 77.72836666666667 2216.3 0.0 0.0 1.0
-40.84263333333333 93.08549999999998 2224.54 0.0 0.0 1.0
-40.64436666666666 99.23173333333334 2224.54 0.0 0.0 1.0
-40.64436666666666 99.23173333333334 2224.54 0.0 0.0 1.0
-41.492533333333334 104.577 2232.84 0.0 0.0 1.0
-35.3539 122.93066666666668 2426.06 0.44544352432406636 0.8914765649565417 -0.08276231492073949
-36.898533333333326 121.17366666666668 2400.0066666666667 -0.1351325086488719 0.9452970822746902 0.2969050881160853
-45.594433333333335 138.462 2092.31 0.0 0.0 1.0
-46.473733333333335 136.077 1924.12 0.0 0.0 1.0
-43.565200000000004 133.38866666666667 1837.4633333333331 9.926216549336013e-17 -0.9973774139813443 0.07237606012961803
-36.021499999999996 -161.828 2412.9 0.0 0.0 1.0
-39.1968 -156.25166666666667 2403.21 0.0 0.0 1.0
-36.97213333333334 -123.55933333333333 2384.06 0.0 0.0 1.0
-37.94466666666667 -103.61033333333334 2365.22 0.0 0.0 1.0
-37.769133333333336 -64.85083333333334 2328.4 0.0 0.0 1.0
-38.9664 -56.9509 2319.38 0.0 0.0 1.0
-38.918933333333335 -43.55213333333333 2310.42 0.0 0.0 1.0
-38.09523333333333 -41.287 2310.42 0.0 0.0 1.0
-39.2337 -29.52746666666667 2292.72 0.0 0.0 1.0
-38.8428 -1.5094343333333333 2258.11 0.0 0.0 1.0
-36.03006666666666 34.5799 2703.626666666667 0.3707537367059974 0.9268587372251668 0.05894529623226358
-33.676899999999996 33.11343333333334 2553.6333333333337 -0.36954557627488693 -0.9238436738463542 0.09974433993832726
-45.50626666666667 33.0375 2042.32 0.0 0.0 1.0
-34.67676666666667 41.94383333333334 2235.6266666666666 0.6316323821017552 -0.3715486431021793 0.6804352575296138
-39.80246666666667 54.617266666666666 2216.3 0.0 0.0 1.0
-40.1476 66.2239 2208.12 0.0 0.0 1.0
-41.1316 69.3727 2208.12 0.0 0.0 1.0
-39.604933333333335 77.72836666666667 2216.3 0.0 0.0 1.0
-39.80246666666667 79.70370000000001 2216.3 0.0 0.0 1.0
-40.84263333333333 86.741 2224.54 0.0 0.0 1.0
-40.84263333333333 86.741 2224.54 0.0 0.0 1.0
-40.4461 88.9219 2224.54 0.0 0.0 1.0
-40.64436666666666 90.50803333333333 2224.54 0.0 0.0 1.0
-35.79866666666667 124.533 2449.2333333333336 0.1962383656193704 -0.9799841890138409 0.033488701705539636
-48.839733333333335 108.77666666666666 1845.0166666666667 0.4843376279592519 -0.8714939893530773 0.0769109138176353
-42.97923333333333 137.24066666666667 2191.94 0.0 0.0 1.0
-46.473733333333335 136.077 1924.12 0.0 0.0 1.0
-35.8435 -174.359 2422.67 0.0 0.0 1.0
-38.08 -136.0 2393.6 0.0 0.0 1.0
-38.034533333333336 -129.72133333333332 2384.06 0.0 0.0 1.0
-38.99869999999999 -101.71300000000001 2365.22 0.0 0.0 1.0
-38.7879 -100.2373 2365.22 0.0 0.0 1.0
-39.895833333333336 -74.89583333333333 2337.5 0.0 0.0 1.0
-37.769133333333336 -64.85083333333334 2328.4 0.0 0.0 1.0
-39.37983333333333 -56.33076666666667 2319.38 0.0 0.0 1.0
-39.12486666666667 -44.3758 2310.42 0.0 0.0 1.0
-39.94853333333334 -43.140299999999996 2310.42 0.0 0.0 1.0
-39.64236666666667 -29.3231 2292.72 0.0 0.0 1.0
-39.43803333333333 -29.11876666666667 2292.72 0.0 0.0 1.0
-49.068733333333334 14.281866666666666 1966.2700000000002 -1.9361803710218603e-18 0.988114917738541 0.15371697805563478
-43.95223333333333 17.633 1949.1899999999998 0.0 0.0 1.0
-41.916900000000005 26.0164 2186.6066666666666 0.27777782347303276 -0.7098701999689686 0.6472432154782319
-36.99026666666666 30.100066666666663 2455.8233333333333 -0.11237833261453813 -0.8990780769598992 0.4231190398562393
-44.62186666666667 28.588333333333335 2116.99 -0.8989054856045309 0.41948781334203866 -0.1264867677174074
-43.013733333333334 33.150666666666666 2049.32 0.0 0.0 1.0
-29.758453333333335 59.7052 2881.5533333333333 -0.24734180089141228 -0.9540339730107936 0.16923714684735539
-47.250766666666664 52.061366666666665 2304.5 0.06959940904119082 0.7656953025867528 0.639426794760509
-41.722 56.3838 2208.12 0.0 0.0 1.0
-40.541199999999996 60.7134 2208.12 0.0 0.0 1.0
-41.1316 69.3727 2208.12 0.0 0.0 1.0
-41.1316 69.37270000000001 2208.12 0.0 0.0 1.0
-41.0409 91.69763333333333 2224.54 0.0 0.0 1.0
-41.492533333333334 104.577 2232.84 0.0 0.0 1.0
-36.35403333333333 112.10233333333333 2272.4166666666665 0.47126150074630474 -0.8751145708153024 0.10994128369766053
-46.08396666666667 103.53566666666666 1833.71 -0.467111685615342 0.8757005932009564 0.12229122711416096
-48.308 105.28866666666666 1818.84 0.0 0.0 1.0
-46.24323333333333 110.14366666666666 1843.1233333333332 0.5288302695567977 -0.8459565936728277 0.06852727648134829
-41.75183333333333 135.37699999999998 2183.94 0.0 0.0 1.0
-46.57406666666666 138.056 2077.78 0.0 0.0 1.0
-51.78426666666667 135.66366666666667 1889.6899999999998 -9.239074094550854e-18 -0.9974400074633031 0.0715082618415942
-50.5088 134.829 1864.17 0.0 0.0 1.0
-28.666666666666668 -219.33333333333334 2992.0 0.0 0.0 1.0
-40.0 -146.88 2393.6 0.0 0.0 1.0
-38.672000000000004 -130.14633333333333 2384.06 0.0 0.0 1.0
-38.672000000000004 -130.14633333333333 2384.06 0.0 0.0 1.0
-39.7344 -127.17133333333334 2384.06 0.0 0.0 1.0
-39.89416666666667 -121.37533333333333 2374.6 0.0 0.0 1.0
-39.89416666666667 -121.37533333333333 2374.6 0.0 0.0 1.0
-38.577099999999994 -102.767 2365.22 0.0 0.0 1.0
-38.99869999999999 -101.71300000000001 2365.22 0.0 0.0 1.0
-40.209966666666666 -97.11286666666668 2355.91 0.0 0.0 1.0
-40.3125 -73.64583333333333 2337.5 0.0 0.0 1.0
-39.479166666666664 -71.14583333333333 2337.5 0.0 0.0 1.0
-39.37983333333334 -56.33076666666667 2319.38 0.0 0.0 1.0
-40.15443333333334 -49.31786666666667 2310.42 0.0 0.0 1.0
-41.128233333333334 -38.05126666666667 2301.54 0.0 0.0 1.0
-41.333333333333336 -34.974333333333334 2301.54 0.0 0.0 1.0
-41.0178 -20.66156666666667 2283.97 0.0 0.0 1.0
-40.0 -17.60813333333333 2283.97 0.0 0.0 1.0
-41.166066666666666 -12.877033333333335 2275.29 0.0 0.0 1.0
-40.0 3.10777 2249.62 0.0 0.0 1.0
-45.50626666666667 33.0375 2042.32 0.0 0.0 1.0
-42.618500000000004 44.93476666666667 2349.75 0.7270794823968438 -0.3271886640404183 0.6035751853754294
-32.182966666666665 50.7032 2489.9166666666665 0.6050357954782252 0.777903165614861 0.16970076934536787
-36.8773 53.234199999999994 2224.54 0.0 0.0 1.0
-42.5092 55.5966 2208.12 0.0 0.0 1.0
-41.722 56.38380000000001 2208.12 0.0 0.0 1.0
-42.90279999999999 77.8352 2208.12 0.0 0.0 1.0
-40.84263333333333 86.741 2224.54 0.0 0.0 1.0
-40.84263333333334 93.08550000000001 2224.54 0.0 0.0 1.0
-42.5885 136.45899999999997 2191.94 0.0 0.0 1.0
-43.71346666666667 137.15533333333335 2010.3033333333333 -8.666274755451281e-16 0.9999351341960822 0.011389793688328645
-47.770399999999995 136.954 1981.46 0.0 0.0 1.0
-40.10753333333333 -171.07566666666665 2412.9 0.0 0.0 1.0
-39.1968 -156.25166666666667 2403.21 0.0 0.0 1.0
-39.411 -149.826 2403.21 0.0 0.0 1.0
-39.411 -149.826 2403.21 0.0 0.0 1.0
-40.0 -146.88 2393.6 0.0 0.0 1.0
-39.36 -137.4933333333333 2393.6 0.0 0.0 1.0
-39.7344 -127.17133333333334 2384.06 0.0 0.0 1.0
-40.317433333333334 -114.17966666666666 2374.6 0.0 0.0 1.0
-40.317433333333334 -113.75633333333333 2374.6 0.0 0.0 1.0
-40.4743 -106.98299999999999 2365.22 0.0 0.0 1.0
-39.52943333333334 -84.81046666666667 2346.67 0.0 0.0 1.0
-39.895833333333336 -74.89583333333333 2337.5 0.0 0.0 1.0
-40.520833333333336 -74.47916666666667 2337.5 0.0 0.0 1.0
-42.127100000000006 -61.322966666666666 2328.4 0.0 0.0 1.0
-42.525266666666674 -6.7676799999999995 2266.67 0.0 0.0 1.0
-41.88623333333334 31.110033333333334 2122.0066666666667 -0.1789009146609051 -0.9838228130521146 -0.00933462649040706
-34.827 55.1013 2659.5933333333332 -0.894985506235646 0.0004976752040658228 0.44609494050876164
-42.90279999999999 73.89909999999999 2208.12 0.0 0.0 1.0
-42.902800000000006 74.88313333333333 2208.12 0.0 0.0 1.0
-40.64436666666666 99.23173333333334 2224.54 0.0 0.0 1.0
-36.89853333333333 121.17366666666668 2400.0066666666667 -0.13513250864887197 0.9452970822746903 0.29690508811608507
-48.44720000000001 101.94599999999998 1858.39 0.0 0.0 1.0
-49.0505 104.96966666666667 1813.33 0.0 0.0 1.0
-43.71346666666667 137.15533333333335 2010.3033333333333 -8.666274755451281e-16 0.9999351341960822 0.011389793688328645
-47.770399999999995 136.954 1981.46 0.0 0.0 1.0
-39.411 -149.826 2403.21 0.0 0.0 1.0
-40.64 -141.54666666666665 2393.6 0.0 0.0 1.0
-40.4743 -106.98299999999999 2365.22 0.0 0.0 1.0
-41.25983333333333 -97.5328 2355.91 0.0 0.0 1.0
-40.209966666666666 -97.11286666666666 2355.91 0.0 0.0 1.0
-41.25983333333333 -90.1837 2355.91 0.0 0.0 1.0
-40.36603333333333 -83.55556666666666 2346.67 0.0 0.0 1.0
-41.20263333333333 -78.7451 2346.67 0.0 0.0 1.0
-40.9375 -74.27083333333333 2337.5 0.0 0.0 1.0
-40.9375 -71.77083333333333 2337.5 0.0 0.0 1.0
-41.44703333333333 -58.19123333333334 2319.38 0.0 0.0 1.0
-41.0336 -56.330733333333335 2319.38 0.0 0.0 1.0
-41.184066666666666 -42.93436666666667 2310.42 0.0 0.0 1.0
-41.33333333333333 -39.692299999999996 2301.54 0.0 0.0 1.0
-41.333333333333336 -34.974333333333334 2301.54 0.0 0.0 1.0
-42.72730000000001 -7.1717200000000005 2266.67 0.0 0.0 1.0
-41.459133333333334 0.7044023333333334 2258.11 0.0 0.0 1.0
-46.5306 35.10203333333333 2035.37 0.0 0.0 1.0
-42.705999999999996 60.7134 2208.12 0.0 0.0 1.0
-43.886799999999994 65.4367 2208.12 0.0 0.0 1.0
-42.902800000000006 74.88313333333333 2208.12 0.0 0.0 1.0
-42.902800000000006 74.88313333333333 2208.12 0.0 0.0 1.0
-42.902800000000006 77.8352 2208.12 0.0 0.0 1.0
-51.339866666666666 103.42633333333333 1864.1866666666667 0.4784027558200643 0.8772368078281403 0.03982946415987086
-40.75266666666667 -168.28 2412.9 0.0 0.0 1.0
-40.26773333333333 -155.181 2403.21 0.0 0.0 1.0
-40.64 -141.54666666666665 2393.6 0.0 0.0 1.0
-40.0 -139.20000000000002 2393.6 0.0 0.0 1.0
-41.2218 -133.33333333333334 2384.06 0.0 0.0 1.0
-40.371833333333335 -127.80866666666667 2384.06 0.0 0.0 1.0
-40.371833333333335 -127.80866666666667 2384.06 0.0 0.0 1.0
-40.6851 -107.82600000000001 2365.22 0.0 0.0 1.0
-40.6851 -107.82600000000001 2365.22 0.0 0.0 1.0
-40.6299 -93.75326666666666 2355.91 0.0 0.0 1.0
-41.4698 -91.86349999999999 2355.91 0.0 0.0 1.0
-41.20263333333333 -78.7451 2346.67 0.0 0.0 1.0
-41.20263333333333 -78.7451 2346.67 0.0 0.0 1.0
-40.9375 -74.6875 2337.5 0.0 0.0 1.0
-41.0336 -56.330733333333335 2319.38 0.0 0.0 1.0
-40.413466666666665 -53.22993333333333 2319.38 0.0 0.0 1.0
-42.0077 -49.935633333333335 2310.42 0.0 0.0 1.0
-42.769233333333325 -40.10256666666667 2301.54 0.0 0.0 1.0
-41.333333333333336 -34.974333333333334 2301.54 0.0 0.0 1.0
-42.70756666666667 -28.097066666666667 2292.72 0.0 0.0 1.0
-43.116233333333334 -27.279700000000002 2292.72 0.0 0.0 1.0
-43.67296666666667 0.3018866666666667 2258.11 0.0 0.0 1.0
-47.8431 18.3878 1955.5600000000002 1.0 0.0 0.0
-47.8431 18.387800000000002 1955.5600000000002 1.0 0.0 0.0
-47.8431 18.387800000000002 1955.5600000000002 1.0 0.0 0.0
-36.5512 34.49336666666667 2715.896666666667 6.938893715719647e-17 -0.99991929976081 0.012704092484369628
-43.45423333333333 27.091233333333335 2210.846666666667 0.614164645515061 0.39481535265117623 0.683317368073055
-50.433933333333336 43.817366666666665 2189.273333333333 -0.43376526231784857 -0.27110675823195834 0.8592722635156371
-41.818666666666665 55.02779999999999 2514.316666666666 0.37940517064097473 -0.6649993100541176 0.6432943603968873
-43.0996 55.5966 2208.12 0.0 0.0 1.0
-43.0996 55.99020000000001 2208.12 0.0 0.0 1.0
-43.4932 61.303799999999995 2208.12 0.0 0.0 1.0
-44.0836 61.5006 2208.12 0.0 0.0 1.0
-44.4772 69.9631 2208.12 0.0 0.0 1.0
-43.0996 74.4895 2208.12 0.0 0.0 1.0
-42.902800000000006 77.8352 2208.12 0.0 0.0 1.0
-44.14816666666667 90.56790000000001 2216.3 0.0 0.0 1.0
-45.135799999999996 94.51850000000002 2216.3 0.0 0.0 1.0
-47.085800000000006 104.10266666666666 1938.6666666666667 0.5811758604630186 -0.8136462046482252 0.01464489250928297
-50.527899999999995 101.633 1831.8400000000001 -0.35013133309170474 0.9335961015809653 0.07619953215243516
-50.4154 103.50566666666667 1818.84 0.0 0.0 1.0
-43.48356666666666 137.626 2173.3733333333334 -0.6438910464038327 -0.7511816283840967 0.14536327438247376
-45.2297 138.61033333333333 2114.49 0.0 0.0 1.0
-49.7938 136.63033333333334 1964.1200000000001 2.6728896221877285e-17 0.9999287498786783 0.011937133913279888
-48.5316 136.077 1924.12 0.0 0.0 1.0
-32.4 -221.46666666666667 2992.0 0.0 0.0 1.0
-31.600000000000005 -220.66666666666666 2992.0 0.0 0.0 1.0
-31.866666666666664 -219.6 2992.0 0.0 0.0 1.0
-41.397866666666665 -172.15066666666667 2412.9 0.0 0.0 1.0
-39.46236666666667 -165.269 2412.9 0.0 0.0 1.0
-40.696133333333336 -157.96533333333335 2403.21 0.0 0.0 1.0
-40.26773333333333 -155.181 2403.21 0.0 0.0 1.0
-40.64 -141.54666666666665 2393.6 0.0 0.0 1.0
-41.2218 -133.33333333333334 2384.06 0.0 0.0 1.0
-41.2218 -132.271 2384.06 0.0 0.0 1.0
-42.071733333333334 -131.42100000000002 2384.06 0.0 0.0 1.0
-42.857166666666664 -122.222 2374.6 0.0 0.0 1.0
-41.5873 -113.968 2374.6 0.0 0.0 1.0
-41.5873 -113.968 2374.6 0.0 0.0 1.0
-41.5873 -113.968 2374.6 0.0 0.0 1.0
-41.259833333333326 -90.18369999999999 2355.91 0.0 0.0 1.0
-42.1875 -71.77083333333333 2337.5 0.0 0.0 1.0
-42.8314 -49.523799999999994 2310.42 0.0 0.0 1.0
-41.184066666666666 -42.93436666666667 2310.42 0.0 0.0 1.0
-43.9394 -5.353536666666667 2266.67 0.0 0.0 1.0
-45.28303333333333 -2.1132066666666667 2258.11 0.0 0.0 1.0
-41.26696666666667 35.1131 2707.69 0.0 0.0 1.0
-33.6769 33.11343333333334 2553.6333333333337 -0.36954557627488704 -0.9238436738463544 0.09974433993832724
-42.516533333333335 33.2159 2087.4500000000003 -0.13340572905271236 -0.7003681128873629 0.7012042626129052
-43.8868 65.4367 2208.12 0.0 0.0 1.0
-43.8868 65.4367 2208.12 0.0 0.0 1.0
-41.492533333333334 104.577 2232.84 0.0 0.0 1.0
-47.0858 104.10266666666666 1938.6666666666667 0.5811758604630186 -0.8136462046482252 0.01464489250928297
-51.982933333333335 99.75240000000001 1854.5500000000002 -0.4855953137861584 0.8740637225135011 -0.014484481860387755
-44.1514 136.06833333333336 2191.94 0.0 0.0 1.0
-48.319633333333336 138.41133333333332 2097.2033333333334 8.3394015861307e-18 0.9999463993384016 0.01035366844001506
-46.57406666666666 138.056 2077.78 0.0 0.0 1.0
-46.781533333333336 137.75733333333332 2054.013333333334 -1.2692654537781276e-16 0.9999417341733342 0.010794825539370086
-50.5088 134.829 1864.17 0.0 0.0 1.0
-31.866666666666664 -219.6 2992.0 0.0 0.0 1.0
-41.338699999999996 -157.537 2403.21 0.0 0.0 1.0
-40.26776666666667 -150.46866666666665 2403.21 0.0 0.0 1.0
-42.77333333333333 -147.73333333333335 2393.6 0.0 0.0 1.0
-42.70916666666667 -137.583 2384.06 0.0 0.0 1.0
-41.22176666666667 -127.59633333333333 2384.06 0.0 0.0 1.0
-44.268766666666664 -112.88533333333334 2365.22 0.0 0.0 1.0
-41.259833333333326 -97.5328 2355.91 0.0 0.0 1.0
-43.29413333333333 -83.76473333333333 2346.67 0.0 0.0 1.0
-43.787299999999995 -62.983133333333335 2328.4 0.0 0.0 1.0
-42.127100000000006 -61.322966666666666 2328.4 0.0 0.0 1.0
-43.100766666666665 -59.018100000000004 2319.38 0.0 0.0 1.0
-43.116233333333334 -27.279700000000002 2292.72 0.0 0.0 1.0
-43.116233333333334 -27.279700000000002 2292.72 0.0 0.0 1.0
-44.07123333333333 -22.2901 2283.97 0.0 0.0 1.0
-43.86766666666666 -21.272266666666667 2283.97 0.0 0.0 1.0
-44.005066666666664 -12.877033333333335 2275.29 0.0 0.0 1.0
-44.005066666666664 -12.877033333333335 2275.29 0.0 0.0 1.0
-44.8162 -10.849186666666668 2275.29 0.0 0.0 1.0
-44.343466666666664 -6.36364 2266.67 0.0 0.0 1.0
-45.01250000000001 4.91228 2249.62 0.0 0.0 1.0
-42.597366666666666 35.7171 2092.3266666666664 -0.48574970790901983 -0.62869534634389 0.6072803164534792
-45.26443333333333 59.7294 2208.12 0.0 0.0 1.0
-44.0836 61.5006 2208.12 0.0 0.0 1.0
-44.4772 69.9631 2208.12 0.0 0.0 1.0
-44.4772 69.9631 2208.12 0.0 0.0 1.0
-40.41616666666666 117.46766666666667 2368.3466666666664 -0.7575777208045752 0.3787888604022928 0.5315966480101972
-47.85973333333334 106.69533333333334 2219.0466666666666 -0.713971246715696 0.4885176563925489 0.5015930205415204
-52.50986666666666 103.90646666666667 1909.79 -0.3251079954844609 0.40636909509914715 0.853913900706843
-49.0505 104.96966666666667 1813.33 0.0 0.0 1.0
-46.40706666666667 131.76833333333335 2010.3033333333333 2.9205670765216166e-15 0.38433277885538336 0.9231946247120912
-44.866166666666665 133.62533333333332 2183.94 0.0 0.0 1.0
-45.594433333333335 138.462 2092.31 0.0 0.0 1.0
-49.070299999999996 137.415 2035.37 0.0 0.0 1.0
-53.76623333333333 136.364 1942.86 0.0 0.0 1.0
-42.77333333333333 -147.73333333333335 2393.6 0.0 0.0 1.0
-42.70916666666667 -137.583 2384.06 0.0 0.0 1.0
-43.645833333333336 -72.39583333333333 2337.5 0.0 0.0 1.0
-44.478766666666665 -49.93563333333333 2310.42 0.0 0.0 1.0
-44.6154 -34.97436666666667 2301.54 0.0 0.0 1.0
-44.07123333333333 -22.2901 2283.97 0.0 0.0 1.0
-44.07123333333333 -22.2901 2283.97 0.0 0.0 1.0
-44.8162 -12.0659 2275.29 0.0 0.0 1.0
-44.343466666666664 -6.36364 2266.67 0.0 0.0 1.0
-44.343466666666664 -6.36364 2266.67 0.0 0.0 1.0
-45.01250000000001 4.91228 2249.62 0.0 0.0 1.0
-46.75723333333334 13.915363333333332 2213.5733333333333 -0.975118506914921 -0.16812583711501217 0.14449083142674365
-49.841 15.122933333333334 1961.9833333333333 0.3028222538810721 0.9094370567096638 0.28499635513046684
-49.858866666666664 17.980466666666665 1949.1899999999998 1.5700806430030172e-28 -2.0366042655687188e-27 1.0
-45.833200000000005 25.6975 2112.0066666666667 -0.9034316947696727 0.4216000371695938 0.07787542323604946
-47.32653333333334 33.0375 2042.32 0.0 0.0 1.0
-45.09246666666667 50.0182 2352.83 0.3868160771516595 -0.5802241157274893 0.7167379562889458
-46.642100000000006 80.7872 2208.12 0.0 0.0 1.0
-45.3333 86.81479999999999 2216.3 0.0 0.0 1.0
-45.3333 86.81479999999999 2216.3 0.0 0.0 1.0
-45.3333 86.81479999999999 2216.3 0.0 0.0 1.0
-45.7284 95.30863333333332 2216.3 0.0 0.0 1.0
-44.609700000000004 100.61956666666667 2224.54 0.0 0.0 1.0
-40.41616666666666 117.46766666666667 2368.3466666666664 -0.7575777208045752 0.3787888604022928 0.5315966480101972
-40.40376666666667 116.06366666666668 2205.4333333333334 0.4612435949323057 -0.8870087692370204 0.021674626422375595
-50.089266666666674 102.54266666666666 1968.4366666666667 0.7071042425897939 -0.7066270429765111 0.02611153472674077
-51.81093333333333 111.83133333333332 1899.6933333333334 0.40427352510047976 -0.9093050776039546 0.09862653165602975
-44.1514 136.06833333333336 2191.94 0.0 0.0 1.0
-45.85053333333334 138.81533333333334 2170.7466666666664 -1.0339420762148529e-16 0.999952261593301 0.009771107124705785
-44.69233333333333 139.043 2147.3733333333334 4.6840867068998145e-17 0.9999528124760194 0.009714567478720335
-49.070299999999996 137.415 2035.37 0.0 0.0 1.0
-32.4 -221.46666666666667 2992.0 0.0 0.0 1.0
-43.7716 -137.3706666666667 2384.06 0.0 0.0 1.0
-42.071733333333334 -131.42100000000002 2384.06 0.0 0.0 1.0
-42.857166666666664 -122.222 2374.6 0.0 0.0 1.0
-43.4921 -120.74066666666666 2374.6 0.0 0.0 1.0
-44.33863333333333 -117.98966666666666 2374.6 0.0 0.0 1.0
-43.21476666666667 -105.92900000000002 2365.22 0.0 0.0 1.0
-44.478766666666665 -49.93563333333333 2310.42 0.0 0.0 1.0
-45.64103333333333 -39.89743333333334 2301.54 0.0 0.0 1.0
-45.02563333333333 -35.3846 2301.54 0.0 0.0 1.0
-45.62736666666667 -15.310533333333334 2275.29 0.0 0.0 1.0
-46.01500000000001 3.70927 2249.62 0.0 0.0 1.0
-40.0497 8.661923333333334 2089.8799999999997 0.2124317215408513 0.977174527629079 0.0016450641556763866
-45.833200000000005 25.6975 2112.0066666666667 -0.9034316947696727 0.4216000371695938 0.07787542323604946
-39.71986666666667 30.44496666666667 2449.1233333333334 0.11216938945920163 0.8974064361202174 0.42670799907941737
-46.409600000000005 33.5779 2643.9 -0.11035729771052055 -0.9933092157396828 0.03403040946929499
-36.5512 34.49336666666667 2715.896666666667 6.938893715719647e-17 -0.99991929976081 0.012704092484369628
-46.6421 59.3358 2208.12 0.0 0.0 1.0
-51.407933333333325 108.11066666666666 2160.29 0.0 0.0 1.0
-56.9461 105.8578 2047.0166666666667 -0.20980403279715534 0.6598793464116434 0.7214856311815173
-51.262933333333336 100.28983333333333 1858.39 0.0 0.0 1.0
-48.312733333333334 106.91366666666666 1846.91 0.0 0.0 1.0
-48.7646 138.462 2092.31 0.0 0.0 1.0
-44.693333333333335 -150.5066666666667 2393.6 0.0 0.0 1.0
-42.77333333333333 -147.73333333333335 2393.6 0.0 0.0 1.0
-44.33863333333333 -117.98966666666666 2374.6 0.0 0.0 1.0
-44.901199999999996 -114.572 2365.22 0.0 0.0 1.0
-45.23996666666667 -67.5486 2328.4 0.0 0.0 1.0
-45.58136666666667 -58.811366666666665 2319.38 0.0 0.0 1.0
-45.78806666666667 -54.88373333333333 2319.38 0.0 0.0 1.0
-44.478766666666665 -49.935633333333335 2310.42 0.0 0.0 1.0
-45.23076666666666 -34.35896666666667 2301.54 0.0 0.0 1.0
-46.28933333333333 -0.5031466666666667 2258.11 0.0 0.0 1.0
-46.01500000000001 3.70927 2249.62 0.0 0.0 1.0
-43.4506 13.490763333333334 2210.846666666667 -0.8675269298117293 0.46713218933734535 0.17083484344926214
-53.91023333333333 15.625266666666667 2026.1866666666667 0.4710959044375671 -0.3827613508882689 0.7947090015146036
-47.32653333333334 33.0375 2042.32 0.0 0.0 1.0
-50.1504 56.46796666666666 2368.3700000000003 0.16438172558895553 0.9862903535337311 -0.01449092194116431
-46.6421 57.7614 2208.12 0.0 0.0 1.0
-46.8389 60.123 2208.12 0.0 0.0 1.0
-46.05166666666667 60.7134 2208.12 0.0 0.0 1.0
-47.822900000000004 77.048 2208.12 0.0 0.0 1.0
-47.1111 92.34566666666667 2216.3 0.0 0.0 1.0
-46.592333333333336 102.00733333333334 2224.54 0.0 0.0 1.0
-50.08926666666667 102.54266666666666 1968.4366666666667 0.7071042425897939 -0.7066270429765111 0.02611153472674077
-51.84643333333333 103.77433333333333 1820.6899999999998 0.4156098695835023 -0.8311912532266599 0.3693095407165632
-45.85053333333334 138.81533333333334 2170.7466666666664 -1.0339420762148529e-16 0.999952261593301 0.009771107124705785
-49.0248 138.99266666666668 2152.5366666666664 -0.00011126242927183796 0.9999529504344485 0.009699718455373067
-54.09766666666667 135.796 1905.7300000000002 0.0 1.0 0.0
-51.78426666666667 135.66366666666667 1889.6899999999998 -9.239074094550854e-18 -0.9974400074633031 0.0715082618415942
-39.86666666666667 220.13333333333333 2992.0 0.0 0.0 1.0
-45.26883333333333 -171.72033333333331 2412.9 0.0 0.0 1.0
-45.5336 -115.20433333333334 2365.22 0.0 0.0 1.0
-45.744400000000006 -109.091 2365.22 0.0 0.0 1.0
-45.1765 -87.32026666666667 2346.67 0.0 0.0 1.0
-45.1765 -87.32026666666667 2346.67 0.0 0.0 1.0
-45.5948 -86.06536666666666 2346.67 0.0 0.0 1.0
-43.4375 -73.64583333333333 2337.5 0.0 0.0 1.0
-45.447466666666664 -69.00126666666667 2328.4 0.0 0.0 1.0
-45.86253333333334 -66.30346666666667 2328.4 0.0 0.0 1.0
-45.58136666666667 -58.811366666666665 2319.38 0.0 0.0 1.0
-45.64103333333333 -39.89743333333334 2301.54 0.0 0.0 1.0
-47.12466666666666 -19.033066666666667 2283.97 0.0 0.0 1.0
-46.23570000000001 -11.457566666666665 2275.29 0.0 0.0 1.0
-47.2956 -1.7106933333333334 2258.11 0.0 0.0 1.0
-47.094366666666666 0.30188566666666666 2258.11 0.0 0.0 1.0
-46.6165 3.50877 2249.62 0.0 0.0 1.0
-51.92556666666667 13.288266666666667 1974.9333333333334 0.2738208865693722 0.9585808475778478 0.07838928967210995
-41.26696666666667 35.1131 2707.69 0.0 0.0 1.0
-39.58946666666667 37.0829 2343.6133333333332 0.5852296086919908 -0.26335565568926117 0.7669094494962874
-42.76526666666667 56.59833333333333 2651.713333333333 -0.15287842586787384 0.8663086805829893 0.4755391223135288
-46.6421 57.7614 2208.12 0.0 0.0 1.0
-46.6421 59.3358 2208.12 0.0 0.0 1.0
-48.137233333333334 67.35293333333334 2200.0 0.0 0.0 1.0
-47.429300000000005 80.984 2208.12 0.0 0.0 1.0
-47.42929999999999 80.984 2208.12 0.0 0.0 1.0
-48.0197 82.952 2208.12 0.0 0.0 1.0
-48.0197 89.8401 2208.12 0.0 0.0 1.0
-47.30863333333334 93.72836666666667 2216.3 0.0 0.0 1.0
-40.62966666666666 116.66066666666667 2343.7066666666665 0.264133502455919 -0.9640188983881955 0.030017602015804667
-50.08926666666667 102.54266666666666 1968.4366666666667 0.7071042425897939 -0.7066270429765111 0.02611153472674077
-53.00913333333333 102.371 1818.84 0.0 0.0 1.0
-53.91426666666666 110.13266666666668 1893.6833333333334 -0.4455823944617098 0.8913432035522032 -0.08344832668822452
-44.866166666666665 133.62533333333332 2183.94 0.0 0.0 1.0
-48.5316 136.077 1924.12 0.0 0.0 1.0
-45.26883333333333 -171.72033333333331 2412.9 0.0 0.0 1.0
-44.69333333333333 -150.50666666666666 2393.6 0.0 0.0 1.0
-44.69333333333333 -149.22666666666666 2393.6 0.0 0.0 1.0
-45.333333333333336 -146.66666666666666 2393.6 0.0 0.0 1.0
-46.321400000000004 -137.58333333333334 2384.06 0.0 0.0 1.0
-45.608466666666665 -123.492 2374.6 0.0 0.0 1.0
-45.18516666666667 -118.41300000000001 2374.6 0.0 0.0 1.0
-45.5336 -115.20433333333334 2365.22 0.0 0.0 1.0
-45.9552 -108.03699999999999 2365.22 0.0 0.0 1.0
-46.277566666666665 -69.2088 2328.4 0.0 0.0 1.0
-46.40826666666667 -58.397933333333334 2319.38 0.0 0.0 1.0
-46.61496666666667 -54.677 2319.38 0.0 0.0 1.0
-46.61496666666667 -54.677 2319.38 0.0 0.0 1.0
-46.537933333333335 -51.583 2310.42 0.0 0.0 1.0
-45.30243333333333 -49.11196666666666 2310.42 0.0 0.0 1.0
-46.871766666666666 -41.948699999999995 2301.54 0.0 0.0 1.0
-46.256400000000006 -40.71793333333333 2301.54 0.0 0.0 1.0
-45.23076666666666 -34.35896666666667 2301.54 0.0 0.0 1.0
-45.15153333333333 -5.353536666666667 2266.67 0.0 0.0 1.0
-47.418533333333336 3.10777 2249.62 0.0 0.0 1.0
-50.6318 16.993466666666666 1955.5600000000002 2.198560263858904e-28 2.2470486846614385e-27 1.0
-49.2517 36.190466666666666 2035.37 0.0 0.0 1.0
-48.10883333333334 37.98636666666667 2442.45 0.0 0.0 1.0
-47.250766666666664 52.061366666666665 2304.5 0.06959940904119082 0.7656953025867528 0.639426794760509
-48.137233333333334 67.35293333333334 2200.0 0.0 0.0 1.0
-47.822900000000004 74.68633333333334 2208.12 0.0 0.0 1.0
-48.0197 79.2128 2208.12 0.0 0.0 1.0
-48.0197 81.77120000000001 2208.12 0.0 0.0 1.0
-47.30863333333334 91.35803333333332 2216.3 0.0 0.0 1.0
-47.30863333333334 91.35803333333332 2216.3 0.0 0.0 1.0
-48.902899999999995 110.91966666666667 1922.0633333333333 -0.4716543498145038 -0.825341636625515 0.310408371590352
-49.72223333333333 138.056 2077.78 0.0 0.0 1.0
-49.3467 137.156 1994.6833333333334 0.1099972155252816 0.9913699654095637 0.07131762938099839
-47.770399999999995 136.954 1981.46 0.0 0.0 1.0
-48.835366666666665 -162.89166666666665 2403.21 0.0 0.0 1.0
-44.973533333333336 -119.68266666666666 2374.6 0.0 0.0 1.0
-45.744400000000006 -115.83666666666669 2365.22 0.0 0.0 1.0
-45.5336 -115.20433333333334 2365.22 0.0 0.0 1.0
-45.3228 -113.72866666666668 2365.22 0.0 0.0 1.0
-45.6693 -96.69290000000001 2355.91 0.0 0.0 1.0
-46.0131 -85.22876666666667 2346.67 0.0 0.0 1.0
-46.0131 -85.22876666666667 2346.67 0.0 0.0 1.0
-47.395833333333336 -79.0625 2337.5 0.0 0.0 1.0
-47.395833333333336 -79.0625 2337.5 0.0 0.0 1.0
-49.2465 -33.81863333333334 2292.72 0.0 0.0 1.0
-47.12466666666666 -19.033066666666667 2283.97 0.0 0.0 1.0
-54.79843333333333 15.222633333333334 2149.9633333333336 0.7536522987843551 0.6377061800899246 0.1591824123833197
-49.80383333333334 28.02333333333333 2221.7933333333335 0.7397396362123707 -0.4931597574749131 0.457797689185599
-41.041000000000004 32.506233333333334 2489.883333333333 -0.07280204085509606 0.8735808112205948 0.48120310588617404
-38.122566666666664 34.8416 2724.14 -2.8561286475559906e-16 -0.997452091360438 0.07133950827338738
-47.40446666666667 31.277766666666665 2445.7866666666664 -0.32179968606072007 0.8044910026240835 0.49923860903191264
-49.80383333333333 28.02333333333333 2221.7933333333335 0.7397396362123708 -0.49315975747491325 0.4577976891855987
-56.7742 30.298666666666673 2144.8 0.0 0.0 1.0
-50.91726666666667 36.33036666666667 2033.07 -0.9486622856272835 -0.3162401304337439 -0.005661071600561035
-52.04463333333334 46.719033333333336 2170.7466666666664 0.8587950826523444 0.3513264854025796 0.3728816255419729
-49.70590000000001 60.68626666666666 2200.0 0.0 0.0 1.0
-48.0197 89.8401 2208.12 0.0 0.0 1.0
-49.0037 90.4305 2208.12 0.0 0.0 1.0
-48.09876666666667 94.5185 2216.3 0.0 0.0 1.0
-46.592333333333336 102.00733333333334 2224.54 0.0 0.0 1.0
-53.985733333333336 100.7133 1829.97 0.0 0.0 1.0
-51.022866666666665 128.13466666666667 2160.29 0.0 0.0 1.0
-50.40293333333333 133.72366666666667 2191.94 0.0 0.0 1.0
-37.733333333333334 -220.9333333333333 2992.0 0.0 0.0 1.0
-46.18666666666667 -145.17333333333332 2393.6 0.0 0.0 1.0
-46.321400000000004 -137.58333333333334 2384.06 0.0 0.0 1.0
-46.666666666666664 -128.148 2374.6 0.0 0.0 1.0
-45.9552 -110.77733333333333 2365.22 0.0 0.0 1.0
-46.277566666666665 -69.2088 2328.4 0.0 0.0 1.0
-46.69263333333333 -66.511 2328.4 0.0 0.0 1.0
-46.821733333333334 -59.224799999999995 2319.38 0.0 0.0 1.0
-47.23513333333333 -57.9845 2319.38 0.0 0.0 1.0
-47.44186666666667 -54.677 2319.38 0.0 0.0 1.0
-47.28203333333334 -42.76919999999999 2301.54 0.0 0.0 1.0
-47.28203333333334 -42.76919999999999 2301.54 0.0 0.0 1.0
-49.04213333333333 -27.8927 2292.72 0.0 0.0 1.0
-48.14246666666667 -18.829533333333334 2283.97 0.0 0.0 1.0
-49.07476666666667 -17.135633333333335 2275.29 0.0 0.0 1.0
-47.45243333333334 -11.660366666666667 2275.29 0.0 0.0 1.0
-47.45243333333334 -11.660366666666667 2275.29 0.0 0.0 1.0
-49.79796666666667 -10.0 2266.67 0.0 0.0 1.0
-48.02006666666667 3.3082733333333336 2249.62 0.0 0.0 1.0
-48.6216 4.51128 2249.62 0.0 0.0 1.0
-48.6216 5.914786666666667 2249.62 0.0 0.0 1.0
-45.129533333333335 10.160843333333334 2054.013333333334 0.1842885757336263 0.9828515489108024 0.006368175382923377
-46.173766666666666 17.488966666666666 1992.46 0.6347466882085655 -0.7707632284651318 -0.05496078105581527
-49.529266666666665 13.610700000000001 1970.5866666666668 -1.0891792743175826e-17 0.9881398031941983 0.15355692541637833
-53.76906666666667 17.167766666666665 1955.5600000000002 -9.4851861082607e-28 1.5032652062467732e-26 1.0
-53.1368 36.5413 2586.7566666666667 0.08662491746099302 0.9961709179209132 0.011816343067185202
-49.2517 36.190466666666666 2035.37 0.0 0.0 1.0
-47.62610000000001 55.990166666666674 2208.12 0.0 0.0 1.0
-49.90196666666666 63.43136666666667 2200.0 0.0 0.0 1.0
-48.92156666666667 67.35293333333334 2200.0 0.0 0.0 1.0
-48.610099999999996 74.68633333333334 2208.12 0.0 0.0 1.0
-48.806900000000006 77.048 2208.12 0.0 0.0 1.0
-49.0037 78.8192 2208.12 0.0 0.0 1.0
-49.3973 82.5584 2208.12 0.0 0.0 1.0
-49.3973 82.952 2208.12 0.0 0.0 1.0
-49.283966666666664 94.71603333333333 2216.3 0.0 0.0 1.0
-49.87656666666666 98.66669999999999 2216.3 0.0 0.0 1.0
-54.2443 98.46783333333333 1858.39 0.0 0.0 1.0
-52.94023333333333 111.72766666666666 1903.7133333333334 0.44392661055788296 -0.887940350970645 0.12037897472863565
-50.143966666666664 107.16433333333333 1953.4633333333331 0.9608406926506906 0.27452280481598856 0.037714625578196714
-49.0703 137.415 2035.37 0.0 0.0 1.0
-46.77420000000001 -171.93533333333335 2412.9 0.0 0.0 1.0
-48.32 -154.13333333333333 2393.6 0.0 0.0 1.0
-46.61333333333334 -146.66666666666666 2393.6 0.0 0.0 1.0
-46.321400000000004 -137.58333333333334 2384.06 0.0 0.0 1.0
-46.1089 -132.69566666666665 2384.06 0.0 0.0 1.0
-46.5876 -115.83666666666666 2365.22 0.0 0.0 1.0
-45.9552 -108.03699999999999 2365.22 0.0 0.0 1.0
-49.35946666666667 -92.54903333333334 2346.67 0.0 0.0 1.0
-48.854166666666664 -81.97916666666667 2337.5 0.0 0.0 1.0
-47.23513333333333 -57.9845 2319.38 0.0 0.0 1.0
-48.39123333333333 -52.200766666666674 2310.42 0.0 0.0 1.0
-49.07476666666667 -17.135633333333335 2275.29 0.0 0.0 1.0
-49.7107 -0.30188533333333334 2258.11 0.0 0.0 1.0
-48.6216 5.914786666666667 2249.62 0.0 0.0 1.0
-51.92556666666667 13.288266666666667 1974.9333333333334 0.27382088656937226 0.9585808475778478 0.07838928967210992
-43.421666666666674 58.96233333333333 2609.3799999999997 0.49162425741617544 0.8426682642681018 0.21958093249501126
-50.88236666666666 55.9804 2200.0 0.0 0.0 1.0
-49.90196666666666 63.43136666666667 2200.0 0.0 0.0 1.0
-49.509800000000006 67.94116666666666 2200.0 0.0 0.0 1.0
-49.70590000000001 69.11763333333333 2200.0 0.0 0.0 1.0
-50.09806666666666 70.2941 2200.0 0.0 0.0 1.0
-49.594100000000005 77.2448 2208.12 0.0 0.0 1.0
-53.6636 98.82356666666668 1852.63 0.0 0.0 1.0
-52.933166666666665 112.44633333333333 1915.9333333333332 -0.5812302001094398 0.8131930162005183 -0.02980893965648662
-54.496333333333325 134.829 1864.17 0.0 0.0 1.0
-48.7097 -173.44066666666666 2412.9 0.0 0.0 1.0
-48.10666666666666 -149.2266666666667 2393.6 0.0 0.0 1.0
-47.46666666666667 -148.16 2393.6 0.0 0.0 1.0
-47.3838 -134.82066666666665 2384.06 0.0 0.0 1.0
-48.3598 -130.05266666666668 2374.6 0.0 0.0 1.0
-47.513200000000005 -123.91533333333332 2374.6 0.0 0.0 1.0
-47.76903333333333 -97.74263333333333 2355.91 0.0 0.0 1.0
-48.975366666666666 -64.6433 2328.4 0.0 0.0 1.0
-47.44186666666667 -54.4703 2319.38 0.0 0.0 1.0
-48.837799999999994 -32.796933333333335 2292.72 0.0 0.0 1.0
-49.04213333333333 -27.8927 2292.72 0.0 0.0 1.0
-50.3817 -22.9008 2283.97 0.0 0.0 1.0
-49.36386666666667 -20.050866666666668 2283.97 0.0 0.0 1.0
-49.36386666666667 -20.050866666666668 2283.97 0.0 0.0 1.0
-48.753166666666665 -19.0331 2283.97 0.0 0.0 1.0
-49.79796666666667 -10.0 2266.67 0.0 0.0 1.0
-49.509433333333334 -1.1069176666666667 2258.11 0.0 0.0 1.0
-47.17343333333333 10.390906666666668 2063.4666666666667 0.2039502281732243 0.9789514414479215 0.007640661956026886
-58.21469999999999 16.361566666666665 2028.47 0.0 0.0 1.0
-45.50896666666667 28.115666666666666 2380.9066666666663 -0.11683845912431508 -0.99313148481643 -0.006215169810132155
-49.06856666666667 33.10296666666667 2435.8566666666666 0.3707453547569293 -0.9268539252407636 -0.05907354054014313
-44.801899999999996 31.029799999999998 2328.4266666666667 -0.48594896010276745 -0.6241208554946254 0.6118224954279597
-50.29413333333334 71.4706 2200.0 0.0 0.0 1.0
-49.5941 78.22879999999999 2208.12 0.0 0.0 1.0
-49.7909 82.7552 2208.12 0.0 0.0 1.0
-50.18449999999999 83.5424 2208.12 0.0 0.0 1.0
-49.7909 83.7392 2208.12 0.0 0.0 1.0
-49.0037 90.43050000000001 2208.12 0.0 0.0 1.0
-49.87656666666666 98.66669999999999 2216.3 0.0 0.0 1.0
-46.53856666666667 108.771 2241.22 -3.3955257098849666e-05 -0.948415724623988 0.31702935531744714
-52.76683333333333 99.46443333333333 1915.9199999999998 0.6247002641754555 -0.7808447795413005 0.005568680473302973
-50.70296666666667 131.60999999999999 2035.37 0.0 0.0 1.0
-47.82163333333333 131.91 2181.2933333333335 -0.4458226981993687 0.8915308871440565 -0.08009244058190435
-50.40293333333333 133.72366666666667 2191.94 0.0 0.0 1.0
-51.23326666666666 138.77366666666668 2116.99 -7.696382942006084e-17 0.9999486617314752 0.010132813105544614
-51.00236666666667 138.462 2092.31 0.0 0.0 1.0
-49.508633333333336 -144.595 2384.06 0.0 0.0 1.0
-49.4488 -101.52199999999999 2355.91 0.0 0.0 1.0
-48.4375 -79.0625 2337.5 0.0 0.0 1.0
-49.36386666666667 -20.050866666666668 2283.97 0.0 0.0 1.0
-49.91193333333334 -1.1069176666666667 2258.11 0.0 0.0 1.0
-49.7107 -0.30188533333333334 2258.11 0.0 0.0 1.0
-53.333333333333336 18.327933333333334 1949.1899999999998 1.1805864963900893e-28 6.746211634160755e-28 1.0
-50.88236666666666 55.9804 2200.0 0.0 0.0 1.0
-51.862766666666666 57.7451 2200.0 0.0 0.0 1.0
-50.686299999999996 63.43136666666667 2200.0 0.0 0.0 1.0
-51.078466666666664 65.39213333333333 2200.0 0.0 0.0 1.0
-50.49023333333333 66.7647 2200.0 0.0 0.0 1.0
-51.07843333333333 71.6667 2200.0 0.0 0.0 1.0
-52.64706666666667 75.19606666666667 2200.0 0.0 0.0 1.0
-49.283966666666664 94.71603333333333 2216.3 0.0 0.0 1.0
-51.25926666666667 98.27163333333333 2216.3 0.0 0.0 1.0
-52.76683333333333 99.46443333333333 1915.92 0.6247002641754555 -0.7808447795413005 0.005568680473302973
-56.7244 100.42346666666667 1885.72 0.9187713819200636 0.3868475785502783 0.0787914889723679
-56.8997 101.07400000000001 1818.84 0.0 0.0 1.0
-51.022866666666665 128.13466666666667 2160.29 0.0 0.0 1.0
-51.087700000000005 138.386 2099.65 0.0 0.0 1.0
-42.26666666666667 -221.46666666666667 2992.0 0.0 0.0 1.0
-49.5699 -171.72 2412.9 0.0 0.0 1.0
-49.81333333333333 -155.62666666666667 2393.6 0.0 0.0 1.0
-48.96 -152.85333333333332 2393.6 0.0 0.0 1.0
-49.38666666666666 -150.08 2393.6 0.0 0.0 1.0
-49.508633333333336 -144.595 2384.06 0.0 0.0 1.0
-49.6296 -123.91533333333332 2374.6 0.0 0.0 1.0
-50.288700000000006 -107.40166666666669 2355.91 0.0 0.0 1.0
-51.1286 -103.832 2355.91 0.0 0.0 1.0
-49.35946666666666 -92.54903333333334 2346.67 0.0 0.0 1.0
-49.6875 -83.4375 2337.5 0.0 0.0 1.0
-48.4375 -78.4375 2337.5 0.0 0.0 1.0
-49.50903333333334 -57.77779999999999 2319.38 0.0 0.0 1.0
-49.8595 -31.366533333333336 2292.72 0.0 0.0 1.0
-49.8595 -31.366533333333336 2292.72 0.0 0.0 1.0
-50.3817 -22.9008 2283.97 0.0 0.0 1.0
-50.291500000000006 -16.932833333333335 2275.29 0.0 0.0 1.0
-46.409600000000005 33.5779 2643.9 -0.11035729771052055 -0.9933092157396828 0.03403040946929499
-53.79413333333333 62.731300000000005 2787.5933333333337 0.2952036933006775 0.92778384563915 0.22819271511744077
-51.6667 63.627433333333336 2200.0 0.0 0.0 1.0
-51.168499999999995 85.90406666666667 2208.12 0.0 0.0 1.0
-52.246900000000004 101.432 2216.3 0.0 0.0 1.0
-56.8716 96.31660000000001 1887.71 0.5299635940235272 -0.8479635698798555 0.009816983563057269
-52.94023333333333 111.72766666666666 1903.7133333333334 0.44392661055788296 -0.887940350970645 0.12037897472863565
-51.2895 135.961 2183.94 0.0 0.0 1.0
-49.72223333333333 138.056 2077.78 0.0 0.0 1.0
-53.76623333333333 136.364 1942.86 0.0 0.0 1.0
-56.135866666666665 135.796 1905.7300000000002 0.0 -1.0 0.0
-42.26666666666667 -221.46666666666667 2992.0 0.0 0.0 1.0
-50.334666666666664 -161.178 2403.21 0.0 0.0 1.0
-49.117266666666666 -115.415 2365.22 0.0 0.0 1.0
-50.8037 -113.72866666666668 2365.22 0.0 0.0 1.0
-50.288700000000006 -107.40166666666669 2355.91 0.0 0.0 1.0
-49.4488 -101.52199999999999 2355.91 0.0 0.0 1.0
-52.0882 -71.90660000000001 2328.4 0.0 0.0 1.0
-51.16276666666666 -61.29196666666667 2319.38 0.0 0.0 1.0
-50.3359 -58.60466666666667 2319.38 0.0 0.0 1.0
-51.274166666666666 -51.583 2310.42 0.0 0.0 1.0
-51.06823333333333 -50.5534 2310.42 0.0 0.0 1.0
-52.2306 5.914786666666667 2249.62 0.0 0.0 1.0
-50.626599999999996 6.115286666666667 2249.62 0.0 0.0 1.0
-50.83063333333333 37.046699999999994 2761.8566666666666 -0.062318738757275303 -0.9971336292788976 0.04290571244946805
-50.88236666666666 55.9804 2200.0 0.0 0.0 1.0
-51.4706 63.0392 2200.0 0.0 0.0 1.0
-50.88236666666666 70.88236666666667 2200.0 0.0 0.0 1.0
-53.43136666666666 79.90196666666667 2200.0 0.0 0.0 1.0
-50.7749 82.7552 2208.12 0.0 0.0 1.0
-51.168499999999995 85.90406666666667 2208.12 0.0 0.0 1.0
-53.366233333333334 106.82633333333332 2157.7 0.7068014211192419 -0.7069238109757123 0.02627692104100643
-55.99893333333333 97.8968 1850.7233333333334 -0.44215228720792565 0.8843045744158611 0.1500225802470518
-51.022866666666665 128.13466666666667 2160.29 0.0 0.0 1.0
-51.9658 133.52833333333334 2191.94 0.0 0.0 1.0
-51.00236666666667 138.462 2092.31 0.0 0.0 1.0
-51.53040000000001 137.75733333333332 2054.013333333334 1.274514139538299e-16 0.9999417341733341 0.010794825539370086
-51.53040000000001 137.75733333333332 2054.013333333334 1.274514139538299e-16 0.9999417341733341 0.010794825539370086
-50.473733333333335 137.25733333333335 2001.3533333333335 0.00012555304461643827 0.9999360055771007 0.011312337819619468
-56.135866666666665 135.796 1905.7300000000002 0.0 -1.0 0.0
-42.800000000000004 220.13333333333333 2992.0 0.0 0.0 1.0
-50.215066666666665 -173.44066666666666 2412.9 0.0 0.0 1.0
-49.5699 -171.72000000000003 2412.9 0.0 0.0 1.0
-49.5699 -171.72000000000003 2412.9 0.0 0.0 1.0
-51.405633333333334 -167.818 2403.21 0.0 0.0 1.0
-50.76306666666667 -162.03466666666665 2403.21 0.0 0.0 1.0
-50.4762 -130.68766666666667 2374.6 0.0 0.0 1.0
-50.8037 -113.72866666666668 2365.22 0.0 0.0 1.0
-51.03266666666667 -95.68626666666667 2346.67 0.0 0.0 1.0
-50.4052 -93.80393333333332 2346.67 0.0 0.0 1.0
-50.4052 -89.20263333333334 2346.67 0.0 0.0 1.0
-49.35946666666666 -86.90196666666668 2346.67 0.0 0.0 1.0
-50.63556666666667 -66.51100000000001 2328.4 0.0 0.0 1.0
-51.16276666666666 -61.29196666666667 2319.38 0.0 0.0 1.0
-50.97436666666667 -42.15383333333333 2301.54 0.0 0.0 1.0
-50.2682 -32.5926 2292.72 0.0 0.0 1.0
-51.19596666666666 -22.697233333333333 2283.97 0.0 0.0 1.0
-51.19596666666666 -22.697233333333333 2283.97 0.0 0.0 1.0
-51.71103333333334 -16.324466666666666 2275.29 0.0 0.0 1.0
-50.89986666666667 -11.457566666666665 2275.29 0.0 0.0 1.0
-51.0101 -10.202033333333333 2266.67 0.0 0.0 1.0
-51.0101 -10.202033333333333 2266.67 0.0 0.0 1.0
-52.800599999999996 10.675333333333334 2157.7366666666667 0.31600363380421426 0.9479894296280792 0.038180423464927365
-52.01336666666666 46.97936666666667 2173.3733333333334 0.8959063510562573 0.08532231935317719 0.4359723752226239
-54.11476666666667 57.72893333333334 2191.94 0.0 0.0 1.0
-52.254933333333334 58.92156666666667 2200.0 0.0 0.0 1.0
-52.254933333333334 64.0196 2200.0 0.0 0.0 1.0
-52.254933333333334 64.0196 2200.0 0.0 0.0 1.0
-52.05886666666667 65.78433333333334 2200.0 0.0 0.0 1.0
-52.246900000000004 101.432 2216.3 0.0 0.0 1.0
-52.641933333333334 102.02466666666665 2216.3 0.0 0.0 1.0
-48.099266666666665 104.64833333333335 2230.0733333333333 -0.06682050809305433 -0.9355094987326165 0.3469250603217285
-51.40793333333334 108.11066666666666 2160.29 0.0 0.0 1.0
-55.99893333333333 97.8968 1850.7233333333334 -0.4421522872079255 0.8843045744158612 0.15002258024705165
-56.8997 101.074 1818.84 0.0 0.0 1.0
-56.8997 101.074 1818.84 0.0 0.0 1.0
-59.1311 101.70519999999999 1866.1133333333335 0.6835093068131337 -0.03418095074900154 0.7291410632420341
-53.13796666666667 131.37966666666668 2191.94 0.0 0.0 1.0
-58.146833333333326 138.917 2160.29 0.0 0.0 1.0
-42.800000000000004 220.13333333333333 2992.0 0.0 0.0 1.0
-42.266666666666666 -221.46666666666667 2992.0 0.0 0.0 1.0
-50.86023333333333 -173.871 2412.9 0.0 0.0 1.0
-51.405633333333334 -168.889 2403.21 0.0 0.0 1.0
-50.76306666666667 -162.03466666666665 2403.21 0.0 0.0 1.0
-51.52 -151.57333333333335 2393.6 0.0 0.0 1.0
-50.99603333333334 -145.65733333333333 2384.06 0.0 0.0 1.0
-52.17846666666666 -111.81099999999999 2355.91 0.0 0.0 1.0
-51.54853333333333 -108.03133333333334 2355.91 0.0 0.0 1.0
-51.03266666666667 -95.68626666666667 2346.67 0.0 0.0 1.0
-51.354166666666664 -84.47916666666667 2337.5 0.0 0.0 1.0
-51.989666666666665 -61.49869999999999 2319.38 0.0 0.0 1.0
-51.8919 -50.34746666666666 2310.42 0.0 0.0 1.0
-53.4351 -27.5827 2283.97 0.0 0.0 1.0
-52.21373333333333 -23.715 2283.97 0.0 0.0 1.0
-51.195933333333336 -20.865133333333333 2283.97 0.0 0.0 1.0
-56.80783333333333 18.675366666666665 1949.1899999999998 1.6620962331385973e-28 -5.304724696600702e-28 1.0
-49.80383333333333 28.02333333333333 2221.7933333333335 0.7397396362123708 -0.49315975747491325 0.4577976891855987
-51.156866666666666 29.6724 2319.4 -0.9484794530730316 0.2847511501781111 0.1389370705410381
-54.11476666666667 57.72893333333334 2191.94 0.0 0.0 1.0
-53.4314 59.31373333333334 2200.0 0.0 0.0 1.0
-52.64706666666667 75.19606666666667 2200.0 0.0 0.0 1.0
-52.152499999999996 92.59533333333333 2208.12 0.0 0.0 1.0
-54.71096666666667 96.13780000000001 2208.12 0.0 0.0 1.0
-52.64196666666666 98.0741 2216.3 0.0 0.0 1.0
-52.641933333333334 102.02466666666665 2216.3 0.0 0.0 1.0
-58.98236666666666 95.45173333333332 1864.17 0.0 0.0 1.0
-58.3851 96.48036666666667 1858.39 0.0 0.0 1.0
-53.13796666666667 131.37966666666665 2191.94 0.0 0.0 1.0
-53.333333333333336 132.161 2191.94 0.0 0.0 1.0
-57.7338 137.03 1974.92 0.0 0.0 1.0
-57.2207 135.54633333333334 1885.72 1.9789658292819428e-17 0.9999181589897408 0.012793565670579326
-49.43186666666667 133.52533333333335 1839.3466666666666 -2.4685406362327872e-17 -0.9973774139813444 0.07237606012961784
-42.800000000000004 220.13333333333333 2992.0 0.0 0.0 1.0
-50.76306666666667 -162.67733333333334 2403.21 0.0 0.0 1.0
-50.76306666666667 -162.03466666666668 2403.21 0.0 0.0 1.0
-52.160000000000004 -156.90666666666667 2393.6 0.0 0.0 1.0
-50.45333333333334 -150.72000000000003 2393.6 0.0 0.0 1.0
-51.1111 -125.18533333333333 2374.6 0.0 0.0 1.0
-52.70093333333333 -123.004 2365.22 0.0 0.0 1.0
-52.70093333333333 -123.004 2365.22 0.0 0.0 1.0
-50.8037 -113.72866666666668 2365.22 0.0 0.0 1.0
-52.17846666666666 -111.81099999999999 2355.91 0.0 0.0 1.0
-52.8084 -104.04199999999999 2355.91 0.0 0.0 1.0
-51.1286 -103.832 2355.91 0.0 0.0 1.0
-53.020833333333336 -82.1875 2337.5 0.0 0.0 1.0
-52.503233333333334 -74.60443333333333 2328.4 0.0 0.0 1.0
-52.81656666666667 -60.051700000000004 2319.38 0.0 0.0 1.0
-52.097833333333334 -52.200766666666674 2310.42 0.0 0.0 1.0
-52.8244 -23.918533333333333 2283.97 0.0 0.0 1.0
-52.92776666666666 -16.527266666666666 2275.29 0.0 0.0 1.0
-53.130566666666674 -12.471499999999999 2275.29 0.0 0.0 1.0
-51.703466666666664 30.83116666666667 2377.7533333333336 -0.8146654907137393 -0.48880955922369085 0.3120662638794576
-41.26696666666667 35.113099999999996 2707.69 0.0 0.0 1.0
-51.010799999999996 32.5504 2493.3633333333332 0.3040194927801059 0.911485538796687 0.2770672491909509
-55.37603333333334 61.930366666666664 2720.036666666667 0.15230202651064753 0.9748363771246954 0.16278246390550916
-54.334300000000006 55.497233333333334 2173.3733333333334 0.7049990016051544 0.7048778469391331 -0.07825361736167746
-54.334300000000006 55.497233333333334 2173.3733333333334 0.704999001605155 0.7048778469391325 -0.07825361736167724
-52.64706666666667 75.19606666666667 2200.0 0.0 0.0 1.0
-54.2157 80.6863 2200.0 0.0 0.0 1.0
-53.366233333333334 106.82633333333332 2157.7000000000003 0.7068014211192419 -0.7069238109757124 0.026276921041006318
-58.98236666666666 95.45173333333332 1864.17 0.0 0.0 1.0
-58.3851 96.48036666666667 1858.39 0.0 0.0 1.0
-56.94313333333334 99.79673333333334 1828.11 -0.2167167981509846 0.9757241222957698 -0.031563690679878825
-53.333333333333336 132.161 2191.94 0.0 0.0 1.0
-53.333333333333336 134.11466666666666 2191.94 0.0 0.0 1.0
-56.42223333333333 139.093 2142.246666666667 -2.4166711380229316e-17 0.9999520704040754 0.00979065343084741
-53.55153333333334 138.41133333333332 2097.2033333333334 5.504186772213994e-17 0.9999463993384015 0.010353668440015278
-57.7338 137.03 1974.92 0.0 0.0 1.0
-56.135866666666665 135.796 1905.7300000000002 0.0 -1.0 0.0
-51.720433333333325 -173.441 2412.9 0.0 0.0 1.0
-52.79999999999999 -156.48 2393.6 0.0 0.0 1.0
-51.52 -151.57333333333335 2393.6 0.0 0.0 1.0
-52.59263333333333 -127.09033333333333 2374.6 0.0 0.0 1.0
-52.59263333333333 -127.09033333333333 2374.6 0.0 0.0 1.0
-53.229166666666664 -85.3125 2337.5 0.0 0.0 1.0
-53.12583333333333 -71.28403333333334 2328.4 0.0 0.0 1.0
-53.12583333333333 -71.28403333333334 2328.4 0.0 0.0 1.0
-52.609833333333334 -62.11886666666666 2319.38 0.0 0.0 1.0
-52.403099999999995 -60.878566666666664 2319.38 0.0 0.0 1.0
-52.81656666666667 -60.051700000000004 2319.38 0.0 0.0 1.0
-53.53926666666666 -51.583 2310.42 0.0 0.0 1.0
-53.64103333333333 -46.46156666666667 2301.54 0.0 0.0 1.0
-53.64103333333333 -46.46156666666667 2301.54 0.0 0.0 1.0
-54.452933333333334 -29.211166666666667 2283.97 0.0 0.0 1.0
-52.824400000000004 -23.918533333333333 2283.97 0.0 0.0 1.0
-54.540866666666666 -2.1132066666666667 2258.11 0.0 0.0 1.0
-53.8346 5.714286666666666 2249.62 0.0 0.0 1.0
-56.209133333333334 16.9935 1955.5600000000002 0.0 1.0 0.0
-55.995733333333334 27.695733333333333 2310.4466666666667 -0.07121142037682611 -0.9972063183892165 0.02254977100858631
-49.17216666666667 34.34793333333334 2613.233333333333 0.9096572172996281 -0.3639548431692667 0.20015149049740244
-54.40723333333333 34.138866666666665 2183.96 0.9318968162121007 -0.3103240691134129 -0.18779588936567249
-59.34016666666667 33.21953333333334 2042.32 0.0 0.0 1.0
-45.09246666666667 50.0182 2352.83 0.3868160771516595 -0.5802241157274893 0.7167379562889458
