ply
format ascii 1.0
comment VCGLIB generated
element vertex 725
property float x
property float y
property float z
property float nx
property float ny
property float nz
element face 0
property list uchar int vertex_indices
end_header
-67.07803333333334 15.911333333333332 1972.7533333333333 0.19240070217348137 0.9620035108674057 0.19372974702387996
-65.36796666666667 20.8658 1942.86 0.0 0.0 1.0
-60.36533333333333 29.680366666666668 2049.32 0.0 0.0 1.0
-63.3987 38.8235 2933.33 0.0 0.0 1.0
-64.4898 34.9206 2035.37 0.0 0.0 1.0
-56.93333333333334 68.93333333333334 2992.0 0.0 0.0 1.0
-63.8828 76.67886666666668 2191.94 0.0 0.0 1.0
-61.59900000000001 98.4994 2208.12 0.0 0.0 1.0
-66.4819 89.86223333333332 1907.76 -0.5144843765547507 0.8574627425827113 -0.00796689171535589
-65.97423333333333 93.19503333333334 1862.2433333333336 -0.6979543866749982 -0.6979543866749938 0.1603725295749262
-67.0382 94.0351 1852.63 0.0 0.0 1.0
-65.60976666666666 97.80489999999999 1824.39 0.0 0.0 1.0
-63.492066666666666 126.88633333333333 2191.94 0.0 0.0 1.0
-64.77576666666666 138.76366666666667 2176.0 0.0 0.0 1.0
-67.57369999999999 137.959 2035.37 0.0 0.0 1.0
-62.0721 137.568 2021.62 0.0 0.0 1.0
-65.66956666666665 137.308 1996.8933333333334 1.5364379589182848e-16 0.9999367879779656 0.011243667031234859
-69.1913 -124.418 1770.41 0.0 0.0 1.0
-69.1916 -127.20366666666666 1972.8400000000001 0.8856160548314066 0.4639140331875899 0.021632689071826583
-62.9262 -142.76466666666667 2139.77 -0.9715851558239835 -0.23666945495637193 0.0031391198032862944
-64.89406666666667 -133.23533333333333 2337.523333333333 -0.9700995984236738 -0.24253859347558604 0.00904432491185092
-62.32803333333334 -134.70899999999997 2374.6 0.0 0.0 1.0
-62.75133333333334 -130.05266666666668 2374.6 0.0 0.0 1.0
-64.4183 -107.81700000000001 2346.67 0.0 0.0 1.0
-62.4672 -105.302 2355.91 0.0 0.0 1.0
-61.490166666666674 -103.634 2346.67 0.0 0.0 1.0
-62.59973333333334 -63.52636666666666 2310.42 0.0 0.0 1.0
-63.535333333333334 -15.454533333333332 2266.67 0.0 0.0 1.0
-62.72726666666667 -14.646433333333334 2266.67 0.0 0.0 1.0
-65.00626666666666 -5.735846666666667 2258.11 0.0 0.0 1.0
-65.13513333333333 37.927933333333335 2021.62 0.0 0.0 1.0
-65.4337 50.4127 2030.7700000000002 0.8714974839486889 0.1815569545188639 0.4555537374854257
-63.68743333333333 71.99023333333334 2191.94 0.0 0.0 1.0
-63.492066666666666 74.72526666666666 2191.94 0.0 0.0 1.0
-63.8828 76.67886666666668 2191.94 0.0 0.0 1.0
-63.62743333333333 81.47056666666667 2200.0 0.0 0.0 1.0
-65.64103333333333 82.14896666666665 2191.94 0.0 0.0 1.0
-63.82353333333333 91.4706 2200.0 0.0 0.0 1.0
-64.01960000000001 93.03923333333334 2200.0 0.0 0.0 1.0
-65.2699 99.21836666666667 2189.273333333333 0.5766815568686467 -0.8169675888395103 0.0015299520615247864
-66.4819 89.86223333333334 1907.7600000000002 -0.5144843765547508 0.8574627425827113 -0.007966891715356056
-68.12416666666667 88.84316666666666 1889.6899999999998 -0.4472202595013483 0.8944227981856593 -0.0013775257827799148
-66.25 91.75 1870.0 0.0 0.0 1.0
-65.60976666666666 97.80489999999999 1824.39 0.0 0.0 1.0
-67.0782 98.0247 1846.91 0.0 0.0 1.0
-62.64756666666667 108.16176666666667 2037.6866666666665 -0.6102479013723966 0.08717827162462782 0.787399166768119
-60.3922 107.64443333333334 2124.5066666666667 -0.5056676162821434 0.014446045549930819 0.862607427287468
-64.88566666666667 139.495 2160.29 0.0 0.0 1.0
-65.3768 -132.21233333333336 2202.786666666667 0.9731652102262434 0.23002782015826173 0.006056034886790074
-62.3465 -144.76233333333332 2263.816666666667 0.97337758007916 0.22902668442472096 -0.009102989654930449
-62.04723333333333 -114.331 2355.91 0.0 0.0 1.0
-63.16336666666667 -96.52286666666667 2346.67 0.0 0.0 1.0
-63.9793 -74.72866666666665 2319.38 0.0 0.0 1.0
-64.04116666666667 -58.17243333333334 2310.42 0.0 0.0 1.0
-64.04116666666667 -55.7014 2310.42 0.0 0.0 1.0
-63.48716666666667 -51.58973333333333 2301.54 0.0 0.0 1.0
-64.4867 -25.24716666666667 2275.29 0.0 0.0 1.0
-63.73736666666667 -16.464633333333335 2266.67 0.0 0.0 1.0
-63.73736666666667 -16.464633333333335 2266.67 0.0 0.0 1.0
-57.89106666666667 11.987033333333335 2186.646666666667 0.16990909864862122 0.9854556876071303 0.0028259439433424294
-64.47366666666666 18.3333 1968.42 0.0 0.0 1.0
-64.45309999999999 20.814633333333337 1970.5866666666668 -0.804521978439693 0.0 0.5939228790065946
-54.916999999999994 41.49786666666667 2483.0166666666664 0.6134703882771769 0.38615153058566243 0.6888694202339076
-62.2021 62.920633333333335 2679.4166666666665 -0.8778929295034781 -0.2633593139226037 0.399932339400075
-68.09946666666667 55.923233333333336 2102.1133333333332 -0.4472215823518208 -0.8943900599619253 -0.007699150604918492
-64.8596 71.59953333333333 2191.94 0.0 0.0 1.0
-62.647099999999995 71.86273333333334 2200.0 0.0 0.0 1.0
-64.46886666666667 77.0696 2191.94 0.0 0.0 1.0
-60.3922 107.64443333333334 2124.5066666666667 -0.5056676162821434 0.014446045549930819 0.862607427287468
-68.12416666666665 88.84316666666666 1889.6899999999998 -0.4472202595013483 0.8944227981856593 -0.0013775257827798038
-64.01656666666668 94.32713333333334 1858.39 0.0 0.0 1.0
-66.54433333333334 96.6361 1829.97 0.0 0.0 1.0
-66.87053333333334 97.2885 1829.97 0.0 0.0 1.0
-67.0782 98.0247 1846.91 0.0 0.0 1.0
-65.96056666666668 95.78413333333333 1864.17 0.0 0.0 1.0
-62.05883333333333 129.51 2200.0 0.0 0.0 1.0
-67.57369999999999 137.959 2035.37 0.0 0.0 1.0
-66.86333333333334 -128.29933333333335 1765.1899999999998 3.17245055785278e-27 -7.704735505020014e-27 1.0
-72.6616 -125.27266666666667 1850.75 -0.20743745016743784 -0.9620962953459987 0.17703226471334765
-72.05966666666666 -132.76166666666666 2192.0 0.18385557786239007 0.971709110611352 0.14825157956589152
-62.32803333333334 -134.70899999999997 2374.6 0.0 0.0 1.0
-62.75133333333333 -130.05266666666668 2374.6 0.0 0.0 1.0
-62.4672 -105.302 2355.91 0.0 0.0 1.0
-63.16336666666667 -96.52286666666667 2346.67 0.0 0.0 1.0
-63.229166666666664 -86.97916666666667 2337.5 0.0 0.0 1.0
-63.91696666666666 -81.45266666666667 2328.4 0.0 0.0 1.0
-65.21963333333333 -78.0362 2319.38 0.0 0.0 1.0
-63.9793 -74.72866666666665 2319.38 0.0 0.0 1.0
-63.9793 -74.72866666666665 2319.38 0.0 0.0 1.0
-65.0708 -61.26123333333334 2310.42 0.0 0.0 1.0
-66.25953333333332 -30.636133333333333 2283.97 0.0 0.0 1.0
-65.09506666666665 -23.016499999999997 2275.29 0.0 0.0 1.0
-64.74746666666668 -13.2323 2266.67 0.0 0.0 1.0
-68.7213 17.398933333333332 1961.97 0.0 0.0 1.0
-66.30386666666668 34.3764 2035.37 0.0 0.0 1.0
-66.39636666666667 37.5676 2021.62 0.0 0.0 1.0
-59.7321 55.71213333333333 2197.3133333333335 0.2524910341336614 0.8079953469991489 0.532345561557377
-63.375699999999995 56.8667 2181.2933333333335 -0.9499883234529768 0.09499069818720673 0.29748773514366855
-65.05493333333334 77.46033333333332 2191.94 0.0 0.0 1.0
-65.25026666666668 78.04639999999999 2191.94 0.0 0.0 1.0
-65.39213333333333 81.47056666666667 2200.0 0.0 0.0 1.0
-64.2157 84.21566666666666 2200.0 0.0 0.0 1.0
-65.19606666666667 89.11763333333333 2200.0 0.0 0.0 1.0
-64.60783333333333 90.2941 2200.0 0.0 0.0 1.0
-67.86376666666666 93.70486666666666 1852.63 0.0 0.0 1.0
-65.74546666666667 138.7636666666667 2176.0 0.0 0.0 1.0
-67.02066666666667 -126.88333333333333 1765.1899999999998 -1.5955993757907396e-27 -4.351746374002268e-28 1.0
-67.12696666666666 -133.42966666666666 2077.7966666666666 -0.9263662521472955 -0.37052057187080767 0.06752831038240914
-67.6581 -132.24733333333333 2082.6066666666666 0.8603656101234134 0.5018670787661599 -0.0888844877787339
-66.59576666666666 -133.314 2102.1299999999997 -0.9472935415349847 -0.20592924657739559 0.24541412259723827
-63.59583333333333 -139.57899999999998 2258.133333333333 -0.9739874127734893 -0.22652500117819063 0.005911311193406432
-73.50430000000001 -131.29966666666667 2307.4866666666667 -0.02385700734861392 -0.9310051648239445 0.364225515678828
-63.917 -88.50843333333334 2328.4 0.0 0.0 1.0
-63.645833333333336 -88.85416666666667 2337.5 0.0 0.0 1.0
-64.7471 -87.67833333333334 2328.4 0.0 0.0 1.0
-64.7471 -87.67833333333334 2328.4 0.0 0.0 1.0
-65.0708 -61.26123333333334 2310.42 0.0 0.0 1.0
-63.011566666666674 -54.259966666666664 2310.42 0.0 0.0 1.0
-65.79820000000001 -42.40103333333334 2292.72 0.0 0.0 1.0
-65.09506666666667 -26.666666666666668 2275.29 0.0 0.0 1.0
-65.09506666666665 -23.016499999999997 2275.29 0.0 0.0 1.0
-65.55553333333334 -20.101033333333334 2266.67 0.0 0.0 1.0
-65.55553333333334 -20.101033333333334 2266.67 0.0 0.0 1.0
-65.40883333333333 -8.553456666666667 2258.11 0.0 0.0 1.0
-65.40883333333333 -8.553456666666667 2258.11 0.0 0.0 1.0
-65.81133333333334 -3.723266666666666 2258.11 0.0 0.0 1.0
-64.66166666666668 3.3082700000000003 2249.62 0.0 0.0 1.0
-65.86470000000001 5.5137833333333335 2249.62 0.0 0.0 1.0
-60.75423333333333 13.569866666666668 1990.25 0.16439450846045198 0.9863825144545992 0.004897016057626956
-61.8962 54.869166666666665 2740.8133333333335 0.30415645583185585 -0.4670990073536779 0.8302453659641909
-71.01476666666666 40.65976666666666 2486.4366666666665 -0.4464626458846222 0.5005813680669419 0.741680119575772
-65.05493333333334 77.46033333333332 2191.94 0.0 0.0 1.0
-65.19606666666667 89.11763333333333 2200.0 0.0 0.0 1.0
-66.37253333333334 92.64706666666666 2200.0 0.0 0.0 1.0
-70.77113333333334 94.60143333333333 1974.9333333333334 -0.09432913901858644 0.9006542749617046 0.4241743633521696
-67.86376666666666 93.70486666666666 1852.63 0.0 0.0 1.0
-69.21809999999999 95.39096666666666 1846.91 0.0 0.0 1.0
-67.3598 96.96229999999998 1829.97 0.0 0.0 1.0
-66.27736666666667 136.73933333333332 2183.94 0.0 0.0 1.0
-65.74546666666667 138.7636666666667 2176.0 0.0 0.0 1.0
-66.71376666666667 138.799 2114.49 0.0 0.0 1.0
-68.06099999999999 136.732 1955.5600000000002 0.0 -1.0 0.0
-68.84696666666666 135.597 1881.76 0.0 0.0 1.0
-64.32846666666667 135.37833333333333 1860.3166666666668 6.083501992511227e-17 0.999911276640748 0.013320617353172269
-70.88903333333333 -120.476 1777.43 -0.804602319988199 0.2682761106252787 0.5297575248520603
-69.50996666666667 -127.67766666666665 2010.32 -0.8942795545930826 -0.44689090543533544 -0.023507379181529342
-65.05133333333333 -131.84433333333334 2346.693333333333 0.8664005402681954 0.43371898149834864 -0.24746302534118958
-64.98689999999999 -116.01033333333334 2355.91 0.0 0.0 1.0
-66.03676666666668 -110.551 2355.91 0.0 0.0 1.0
-65.67320000000001 -106.771 2346.67 0.0 0.0 1.0
-65.67320000000001 -106.771 2346.67 0.0 0.0 1.0
-65.21963333333333 -78.0362 2319.38 0.0 0.0 1.0
-64.86486666666667 -64.35003333333333 2310.42 0.0 0.0 1.0
-65.70343333333334 -22.8137 2275.29 0.0 0.0 1.0
-65.35353333333333 -15.656566666666665 2266.67 0.0 0.0 1.0
-66.41506666666668 -5.534590000000001 2258.11 0.0 0.0 1.0
-65.81133333333334 -3.723266666666667 2258.11 0.0 0.0 1.0
-65.86470000000001 5.5137833333333335 2249.62 0.0 0.0 1.0
-69.1716 12.819899999999999 2230.0733333333333 0.433909295988588 0.8678549327892348 0.24197218536038534
-67.34006666666666 38.518499999999996 2014.8100000000002 -1.744901257640247e-17 1.2214794668505896e-16 1.0
-61.73333333333333 69.2 2992.0 0.0 0.0 1.0
-64.8596 71.59953333333334 2191.94 0.0 0.0 1.0
-65.8364 83.12576666666666 2191.94 0.0 0.0 1.0
-66.17646666666667 91.86276666666667 2200.0 0.0 0.0 1.0
-66.7647 94.41176666666667 2200.0 0.0 0.0 1.0
-66.35163333333334 98.1934 2170.7833333333333 -0.7069443824799262 0.7068413916444851 0.024594453402408067
-66.4819 89.86223333333332 1907.76 -0.5144843765547507 0.8574627425827113 -0.00796689171535589
-70.35640000000001 88.6373 1881.76 0.0 0.0 1.0
-68.58333333333333 91.25 1870.0 0.0 0.0 1.0
-67.86376666666666 93.70486666666666 1852.63 0.0 0.0 1.0
-70.92023333333333 94.4785 1835.58 0.0 0.0 1.0
-67.7451 121.66699999999999 2200.0 0.0 0.0 1.0
-67.79 122.78399999999999 2191.94 0.0 0.0 1.0
-65.83639999999998 128.05866666666668 2191.94 0.0 0.0 1.0
-67.05596666666666 137.12866666666665 2183.94 0.0 0.0 1.0
-65.74546666666667 138.7636666666667 2176.0 0.0 0.0 1.0
-72.07683333333334 -125.95899999999999 1797.01 0.8409231550964374 0.5406464681862597 0.023444480381884458
-69.1913 -124.418 1770.41 0.0 0.0 1.0
-69.50996666666667 -127.67766666666665 2010.32 -0.8942795545930826 -0.44689090543533544 -0.023507379181529342
-65.3768 -132.21233333333336 2202.786666666667 0.9731652102262434 0.23002782015826173 0.006056034886790074
-66.1924 -124.47966666666666 2365.22 0.0 0.0 1.0
-66.1924 -124.47966666666666 2365.22 0.0 0.0 1.0
-66.03676666666668 -110.551 2355.91 0.0 0.0 1.0
-65.99220000000001 -81.03763333333335 2328.4 0.0 0.0 1.0
-65.21963333333333 -78.0362 2319.38 0.0 0.0 1.0
-66.10036666666667 -63.52636666666666 2310.42 0.0 0.0 1.0
-65.89446666666667 -61.05533333333333 2310.42 0.0 0.0 1.0
-68.61536666666667 -56.307700000000004 2301.54 0.0 0.0 1.0
-67.17946666666667 -50.1538 2301.54 0.0 0.0 1.0
-65.79820000000001 -42.40103333333334 2292.72 0.0 0.0 1.0
-66.2069 -40.56196666666667 2292.72 0.0 0.0 1.0
-64.98083333333334 -39.131566666666664 2292.72 0.0 0.0 1.0
-66.3118 -26.869466666666664 2275.29 0.0 0.0 1.0
-66.05596666666668 -28.804066666666667 2283.97 0.0 0.0 1.0
-66.5146 -24.0304 2275.29 0.0 0.0 1.0
-66.31179999999999 -22.6109 2275.29 0.0 0.0 1.0
-66.36363333333334 -19.494966666666667 2266.67 0.0 0.0 1.0
-66.1616 -14.44443333333333 2266.67 0.0 0.0 1.0
-65.75756666666668 -13.434333333333333 2266.67 0.0 0.0 1.0
-65.81133333333334 -3.723266666666666 2258.11 0.0 0.0 1.0
-66.4662 6.115286666666667 2249.62 0.0 0.0 1.0
-67.31586666666668 8.68914 2241.2 0.0 0.0 1.0
-60.666666666666664 41.733333333333334 2992.0 0.0 0.0 1.0
-65.22636666666666 31.84913333333333 2227.346666666667 0.5457645742844089 0.7554567124707872 0.3625274955627342
-67.99053333333333 35.8458 2026.1866666666665 -0.9964124799942974 -5.551115123125783e-16 0.08462960304535339
-67.99053333333333 35.8458 2026.1866666666665 -0.9964124799942974 -5.551115123125783e-16 0.08462960304535339
-68.37836666666668 36.84686666666667 2021.62 0.0 0.0 1.0
-60.38726666666667 66.9775 2952.646666666667 5.5368057493862324e-15 -0.9725367525527543 0.2327493607599017
-66.42246666666666 79.21856666666666 2191.94 0.0 0.0 1.0
-66.7647 90.88236666666667 2200.0 0.0 0.0 1.0
-66.9608 95.0 2200.0 0.0 0.0 1.0
-71.1838 90.99926666666666 2040.0199999999998 0.5879413868191189 -0.8084278471309423 0.02773700864262199
-69.41539999999999 94.2769 1841.2300000000002 -1.7776221233553224e-26 5.629257085670435e-26 1.0
-67.79 122.78399999999999 2191.94 0.0 0.0 1.0
-69.15753333333333 132.161 2191.94 0.0 0.0 1.0
-67.05596666666666 137.12866666666665 2183.94 0.0 0.0 1.0
-68.06099999999999 136.732 1955.5600000000002 0.0 -1.0 0.0
-70.9584 135.92366666666666 1895.6733333333334 -2.2270639980036394e-16 0.9999200541061899 0.012644579719150353
-68.84696666666666 135.597 1881.76 0.0 0.0 1.0
-68.35563333333333 135.62266666666667 1879.7933333333333 -1.5860521632781526e-16 0.9999148485677034 0.013049736159272959
-68.70786666666667 -126.12166666666667 1772.1633333333332 0.7060616799964332 -0.7060318506056464 -0.054735089028705775
-66.0682 -129.12033333333332 2316.44 0.9647148666575173 0.263132047673405 -0.009314050524324324
-65.36466666666666 -131.69233333333332 2328.4266666666667 -0.9701004282224974 -0.24253504523682445 0.009050469297150032
-64.98689999999999 -116.01033333333334 2355.91 0.0 0.0 1.0
-65.67320000000001 -106.771 2346.67 0.0 0.0 1.0
-67.13726666666666 -99.86903333333333 2346.67 0.0 0.0 1.0
-67.60416666666667 -97.8125 2337.5 0.0 0.0 1.0
-65.88236666666667 -96.94116666666666 2346.67 0.0 0.0 1.0
-67.1875 -94.47916666666667 2337.5 0.0 0.0 1.0
-67.1875 -94.47916666666667 2337.5 0.0 0.0 1.0
-68.3655 -68.26256666666667 2310.42 0.0 0.0 1.0
-65.89446666666667 -61.05533333333333 2310.42 0.0 0.0 1.0
-67.17946666666667 -50.1538 2301.54 0.0 0.0 1.0
-68.86333333333333 -48.1226 2292.72 0.0 0.0 1.0
-68.09159999999999 -33.89313333333333 2283.97 0.0 0.0 1.0
-67.52853333333333 -25.04433333333333 2275.29 0.0 0.0 1.0
-66.3118 -22.6109 2275.29 0.0 0.0 1.0
-66.9697 -18.888900000000003 2266.67 0.0 0.0 1.0
-66.21386666666666 -1.9119466666666665 2258.11 0.0 0.0 1.0
-67.31586666666668 8.68914 2241.2 0.0 0.0 1.0
-68.7213 17.398933333333332 1961.97 0.0 0.0 1.0
-69.38776666666666 33.288 2035.37 0.0 0.0 1.0
-68.37836666666668 36.84686666666666 2021.62 0.0 0.0 1.0
-60.38726666666667 66.9775 2952.646666666667 5.5368057493862324e-15 -0.9725367525527543 0.2327493607599017
-68.09946666666667 55.923233333333336 2102.1133333333332 -0.44722158235182125 -0.8943900599619251 -0.007699150604918159
-67.00856666666668 77.85106666666665 2191.94 0.0 0.0 1.0
-66.7647 79.70586666666667 2200.0 0.0 0.0 1.0
-67.59463333333333 83.12576666666666 2191.94 0.0 0.0 1.0
-66.37253333333334 90.29413333333333 2200.0 0.0 0.0 1.0
-68.2903 92.0049 2208.12 0.0 0.0 1.0
-66.56863333333334 93.23530000000001 2200.0 0.0 0.0 1.0
-64.88566666666667 139.495 2160.29 0.0 0.0 1.0
-64.03823333333332 139.642 2144.8 0.0 0.0 1.0
-68.06099999999999 136.732 1955.5600000000002 0.0 -1.0 0.0
-65.73083333333334 136.56233333333333 1940.7633333333333 0.09927400078966016 -0.9936581489443553 0.052802990480575254
-64.93333333333334 -221.73333333333335 2992.0 0.0 0.0 1.0
-64.93333333333334 -221.73333333333335 2992.0 0.0 0.0 1.0
-68.2775 -131.67999999999998 2070.6066666666666 -0.8944710456366886 -0.4469830832797421 0.011299193747527525
-66.24673333333332 -118.74000000000001 2355.91 0.0 0.0 1.0
-64.92756666666666 -122.58233333333332 2365.22 0.0 0.0 1.0
-67.08663333333334 -111.181 2355.91 0.0 0.0 1.0
-67.13726666666666 -98.19593333333334 2346.67 0.0 0.0 1.0
-66.05596666666668 -28.804066666666667 2283.97 0.0 0.0 1.0
-67.32573333333333 -25.6527 2275.29 0.0 0.0 1.0
-67.52853333333333 -25.04433333333333 2275.29 0.0 0.0 1.0
-66.9697 -18.888900000000003 2266.67 0.0 0.0 1.0
-67.01883333333335 -6.339623333333333 2258.11 0.0 0.0 1.0
-67.01883333333335 -6.339623333333333 2258.11 0.0 0.0 1.0
-66.6667 5.914786666666667 2249.62 0.0 0.0 1.0
-70.1846 19.370266666666666 1949.1899999999998 -2.3132073450362954e-27 -3.3041109625014644e-27 1.0
-66.68846666666667 35.905699999999996 2061.0866666666666 -1.7323515745463763e-15 0.6089923810517291 0.7931760711348682
-68.37836666666668 36.84686666666666 2021.62 0.0 0.0 1.0
-71.5815 56.446133333333336 2033.07 0.34046002989755747 0.9362748572380909 0.08646594558522305
-67.24026666666667 64.414 2186.6066666666666 0.5682806336994606 0.8118255045563737 -0.13415092811430207
-68.33333333333333 77.94116666666667 2200.0 0.0 0.0 1.0
-68.57146666666667 77.85106666666665 2191.94 0.0 0.0 1.0
-67.54903333333333 95.78429999999999 2200.0 0.0 0.0 1.0
-67.54903333333333 95.78429999999999 2200.0 0.0 0.0 1.0
-70.8882 89.36256666666668 1875.86 0.0 0.0 1.0
-67.7451 121.66699999999999 2200.0 0.0 0.0 1.0
-67.98536666666666 128.84033333333335 2191.94 0.0 0.0 1.0
-67.83453333333334 136.73933333333332 2183.94 0.0 0.0 1.0
-76.60436666666668 -124.02833333333335 1944.9966666666667 -0.6732694707067761 -0.6458217474273683 0.3600312352617174
-70.27780000000001 -123.05566666666668 2077.78 0.0 0.0 1.0
-70.68053333333333 -120.96866666666666 2070.59 0.0 0.0 1.0
-67.13726666666666 -99.86903333333333 2346.67 0.0 0.0 1.0
-68.85416666666667 -90.72916666666667 2337.5 0.0 0.0 1.0
-67.8599 -79.7925 2328.4 0.0 0.0 1.0
-68.73383333333334 -72.66153333333332 2319.38 0.0 0.0 1.0
-67.79486666666666 -50.76919999999999 2301.54 0.0 0.0 1.0
-68.6154 -48.923066666666664 2301.54 0.0 0.0 1.0
-69.10943333333334 -34.91093333333333 2283.97 0.0 0.0 1.0
-67.52853333333333 -25.04433333333333 2275.29 0.0 0.0 1.0
-67.77776666666666 -21.51516666666667 2266.67 0.0 0.0 1.0
-68.11486666666667 7.29089 2241.2 0.0 0.0 1.0
-67.9151 7.89014 2241.2 0.0 0.0 1.0
-69.35063333333333 21.2121 1942.86 0.0 0.0 1.0
-69.0743 57.0234 2241.2833333333333 -0.23897438097641038 0.9554821403292507 0.173046597044771
-68.2903 92.0049 2208.12 0.0 0.0 1.0
-71.2231 94.5587 2162.9 -0.5761245260233516 0.8161777971674264 -0.04398106325790861
-70.35640000000001 88.6373 1881.76 0.0 0.0 1.0
-67.83453333333334 136.73933333333332 2183.94 0.0 0.0 1.0
-69.78339999999999 137.35833333333332 1992.46 -6.389778179229215e-17 0.9999343057536896 0.011462293700946183
-68.84696666666666 135.597 1881.76 0.0 0.0 1.0
-70.02863333333333 -170.39066666666665 2355.933333333333 0.8636519486883238 0.5037628668236735 0.01811865161800652
-71.29303333333333 -126.71433333333333 1791.6299999999999 -0.9380650720208648 -0.31212000780057686 0.1503829158683182
-70.61143333333332 -123.47133333333333 1770.41 0.0 0.0 1.0
-69.82246666666667 -122.68233333333335 1770.41 0.0 0.0 1.0
-71.84966666666668 -118.457 1775.67 0.0 0.0 1.0
-70.33176666666667 -127.50699999999999 2065.83 -0.9101144459858274 -0.41368293140492707 0.023624721630899737
-70.68053333333333 -120.78433333333334 2070.59 0.0 0.0 1.0
-68.1365 -111.81099999999999 2355.91 0.0 0.0 1.0
-68.85416666666667 -94.27083333333333 2337.5 0.0 0.0 1.0
-68.73383333333334 -72.66153333333332 2319.38 0.0 0.0 1.0
-68.3655 -68.26256666666667 2310.42 0.0 0.0 1.0
-68.20513333333334 -49.74356666666666 2301.54 0.0 0.0 1.0
-68.45466666666668 -42.196666666666665 2292.72 0.0 0.0 1.0
-68.78786666666666 -21.313133333333337 2266.67 0.0 0.0 1.0
-68.78786666666667 -14.0404 2266.67 0.0 0.0 1.0
-68.51436666666666 7.49064 2241.2 0.0 0.0 1.0
-69.51313333333333 11.086133333333335 2241.2 0.0 0.0 1.0
-69.87896666666667 15.577566666666668 1974.92 0.0 0.0 1.0
-70.1846 19.370266666666666 1949.1899999999998 -2.3132073450362954e-27 -3.3041109625014644e-27 1.0
-70.11236666666666 17.078666666666667 2241.2 0.0 0.0 1.0
-69.38776666666666 33.28799999999999 2035.37 0.0 0.0 1.0
-69.38776666666666 33.28799999999999 2035.37 0.0 0.0 1.0
-70.40713333333333 68.62833333333333 2651.7799999999997 -0.9302125329051032 -0.34449224413453294 0.12660859906588207
-62.2021 62.920633333333335 2679.4166666666665 -0.8778929295034781 -0.2633593139226037 0.399932339400075
-67.79 82.14896666666665 2191.94 0.0 0.0 1.0
-68.72546666666666 86.17646666666667 2200.0 0.0 0.0 1.0
-68.2903 92.0049 2208.12 0.0 0.0 1.0
-68.92153333333334 92.25493333333333 2200.0 0.0 0.0 1.0
-69.5098 121.863 2200.0 0.0 0.0 1.0
-67.10306666666666 138.95766666666668 2176.0 0.0 0.0 1.0
-71.72503333333333 138.512 2087.4500000000003 -4.29965165470192e-16 0.999947082051359 0.010287521420283548
-70.9584 135.92366666666666 1895.6733333333334 -2.2388281111068326e-16 0.9999200541061899 0.012644579719150352
-70.19420000000001 -170.65333333333334 2365.2433333333333 -0.9904385559179458 -0.0006805648471853165 0.1379529042197466
-71.84966666666666 -119.09033333333332 1775.67 0.0 0.0 1.0
-72.76356666666666 -114.59100000000001 1784.4966666666667 -0.8361697067685402 -0.5226005958476705 0.1664597209605771
-68.93173333333333 -129.952 2087.4500000000003 0.8619419234187091 0.5027865712928508 0.06528234356114443
-69.87346666666667 -127.019 2085.036666666667 0.7034870123341407 -0.703596638866926 -0.10028854995635839
-71.5741 -121.38900000000001 2077.78 0.0 0.0 1.0
-68.1365 -111.81099999999999 2355.91 0.0 0.0 1.0
-69.01960000000001 -95.68626666666667 2346.67 0.0 0.0 1.0
-68.85416666666667 -94.27083333333333 2337.5 0.0 0.0 1.0
-68.85416666666667 -94.27083333333333 2337.5 0.0 0.0 1.0
-70.35019999999999 -87.88586666666667 2328.4 0.0 0.0 1.0
-70.66666666666667 -55.28203333333334 2301.54 0.0 0.0 1.0
-68.61540000000001 -48.92306666666667 2301.54 0.0 0.0 1.0
-69.88506666666667 -46.896566666666665 2292.72 0.0 0.0 1.0
-70.53436666666666 -38.3715 2283.97 0.0 0.0 1.0
-69.10943333333334 -34.91093333333333 2283.97 0.0 0.0 1.0
-68.98989999999999 -18.484833333333334 2266.67 0.0 0.0 1.0
-68.2264 -7.345913333333333 2258.11 0.0 0.0 1.0
-70.6767 -5.112783333333334 2249.62 0.0 0.0 1.0
-70.0752 -0.9022546666666665 2249.62 0.0 0.0 1.0
-69.51313333333333 5.093633333333333 2241.2 0.0 0.0 1.0
-69.51313333333333 11.086133333333335 2241.2 0.0 0.0 1.0
-72.1393 12.0398 2232.84 0.0 0.0 1.0
-68.7213 17.398933333333332 1961.97 0.0 0.0 1.0
-70.1846 19.370266666666666 1949.1899999999998 -2.3132073450362954e-27 -3.3041109625014644e-27 1.0
-66.68846666666667 35.905699999999996 2061.0866666666666 -1.7323515745463763e-15 0.6089923810517291 0.7931760711348682
-75.98826666666666 57.289300000000004 2439.14 0.17212326641975567 -0.6884886729864339 0.7045260309785388
-69.50983333333333 75.9804 2200.0 0.0 0.0 1.0
-70.8882 89.36256666666667 1875.86 0.0 0.0 1.0
-70.75 90.75 1870.0 0.0 0.0 1.0
-68.65596666666666 92.86086666666667 1885.72 -0.8830802883580127 -0.39738875417501485 0.24950226926574925
-69.3529 129.42633333333333 2191.94 0.0 0.0 1.0
-70.72036666666668 134.31033333333335 2191.94 0.0 0.0 1.0
-71.72503333333333 138.512 2087.4500000000003 -4.29965165470192e-16 0.999947082051359 0.010287521420283548
-71.47766666666666 138.282 2056.36 0.0 0.0 1.0
-73.07163333333334 -127.13233333333335 1830.0 0.8733878029226292 0.48523741643018425 0.041694069148292545
-72.1662 -119.88166666666666 1775.67 0.0 0.0 1.0
-69.0625 -98.02083333333333 2337.5 0.0 0.0 1.0
-69.6875 -90.3125 2337.5 0.0 0.0 1.0
-71.18026666666667 -85.18806666666667 2328.4 0.0 0.0 1.0
-70.35016666666665 -78.9624 2328.4 0.0 0.0 1.0
-69.35396666666666 -72.45479999999999 2319.38 0.0 0.0 1.0
-69.14726666666667 -72.04136666666666 2319.38 0.0 0.0 1.0
-69.80696666666667 -67.43886666666667 2310.42 0.0 0.0 1.0
-70.83656666666667 -61.26123333333334 2310.42 0.0 0.0 1.0
-70.49810000000001 -46.07919999999999 2292.72 0.0 0.0 1.0
-69.10943333333334 -34.91093333333333 2283.97 0.0 0.0 1.0
-70.20200000000001 -17.474733333333333 2266.67 0.0 0.0 1.0
-70.0377 -5.132076666666666 2258.11 0.0 0.0 1.0
-70.4762 -0.10025066666666667 2249.62 0.0 0.0 1.0
-69.51313333333333 5.093633333333333 2241.2 0.0 0.0 1.0
-69.51313333333333 11.086133333333335 2241.2 0.0 0.0 1.0
-67.33333333333333 41.733333333333334 2992.0 0.0 0.0 1.0
-71.80183333333333 36.486466666666665 2021.62 0.0 0.0 1.0
-70.21326666666666 39.2368 2014.8100000000002 -8.568935701497926e-28 -9.6042704886306e-28 1.0
-75.56256666666667 42.79843333333333 2119.49 -0.27141058379039695 -0.4523509729839951 0.8495380463799069
-54.795433333333335 55.87876666666667 2840.6066666666666 -0.5381022545981191 -0.698634348652904 0.47154640331440734
-66.0 69.46666666666665 2992.0 0.0 0.0 1.0
-69.35286666666667 73.35780000000001 2191.94 0.0 0.0 1.0
-69.7436 77.46033333333334 2191.94 0.0 0.0 1.0
-70.88236666666667 90.49023333333334 2200.0 0.0 0.0 1.0
-77.31493333333334 100.1873 2068.243333333334 -0.7846163886692458 -0.5458308105578151 0.2940167493144391
-71.16716666666666 87.57096666666666 1887.7 0.0 0.0 1.0
-72.05850000000001 89.02820000000001 1875.86 0.0 0.0 1.0
-70.92023333333333 94.47850000000001 1835.58 0.0 0.0 1.0
-70.52503333333334 123.76066666666667 2191.94 0.0 0.0 1.0
-70.91573333333334 124.93266666666666 2191.94 0.0 0.0 1.0
-70.13433333333334 130.403 2191.94 0.0 0.0 1.0
-70.3297 131.37966666666668 2191.94 0.0 0.0 1.0
-70.52503333333334 132.161 2191.94 0.0 0.0 1.0
-70.9489 135.766 2183.94 0.0 0.0 1.0
-71.47766666666666 138.282 2056.36 0.0 0.0 1.0
-64.93333333333332 -221.73333333333335 2992.0 0.0 0.0 1.0
-70.1942 -170.65333333333334 2365.2433333333333 -0.9904385559179458 -0.0006805648471853165 0.1379529042197466
-67.00666666666666 -141.98166666666665 2097.236666666667 -0.7854625804050044 0.5382524729671165 0.30550419003394247
-73.69513333333333 -126.67333333333333 1837.4633333333331 0.873167854542473 0.4851152173527785 0.047340507881317245
-72.1662 -119.88166666666666 1775.67 0.0 0.0 1.0
-73.274 -117.349 1775.67 0.0 0.0 1.0
-73.25393333333334 -114.84133333333334 1780.95 0.0 0.0 1.0
-73.22193333333333 -113.17766666666667 1789.8366666666668 0.8574762446682168 0.5145215495668868 -0.0014369624149718208
-70.2778 -123.05566666666668 2077.78 0.0 0.0 1.0
-72.52596666666666 -113.40266666666668 2070.59 0.0 0.0 1.0
-65.6168 -104.67200000000001 2355.91 0.0 0.0 1.0
-69.64706666666667 -101.54233333333332 2346.67 0.0 0.0 1.0
-70.35019999999999 -87.88586666666667 2328.4 0.0 0.0 1.0
-69.97413333333333 -70.80103333333334 2319.38 0.0 0.0 1.0
-70.42473333333334 -66.20333333333333 2310.42 0.0 0.0 1.0
-70.66666666666667 -55.28203333333334 2301.54 0.0 0.0 1.0
-70.70243333333333 -49.14433333333333 2292.72 0.0 0.0 1.0
-70.70243333333333 -49.14433333333333 2292.72 0.0 0.0 1.0
-69.68073333333334 -43.01403333333334 2292.72 0.0 0.0 1.0
-70.20203333333332 -12.828266666666666 2266.67 0.0 0.0 1.0
-70.6767 -5.112783333333334 2249.62 0.0 0.0 1.0
-70.0752 -0.9022546666666668 2249.62 0.0 0.0 1.0
-69.31336666666665 7.89014 2241.2 0.0 0.0 1.0
-71.6725 57.543866666666666 2099.65 0.0 0.0 1.0
-69.50983333333333 75.9804 2200.0 0.0 0.0 1.0
-70.91573333333334 76.6789 2191.94 0.0 0.0 1.0
-70.88236666666667 90.49023333333334 2200.0 0.0 0.0 1.0
-70.29413333333333 94.21570000000001 2200.0 0.0 0.0 1.0
-71.28563333333334 94.29506666666667 2197.3133333333335 0.8943070001413406 -0.4471344957143403 -0.016903616195321436
-70.92023333333333 94.47850000000001 1835.58 0.0 0.0 1.0
-71.30646666666668 124.34666666666668 2191.94 0.0 0.0 1.0
-70.52503333333334 132.161 2191.94 0.0 0.0 1.0
-70.9489 135.766 2183.94 0.0 0.0 1.0
-69.0039 -137.54933333333335 2072.986666666667 -0.8969194949432866 0.19219372844166027 0.39824237637194376
-73.51223333333334 -119.19733333333333 1994.6833333333334 0.913808788762045 0.4061327031091797 -0.003118500677469771
-72.34140000000001 -113.95633333333335 2070.59 0.0 0.0 1.0
-72.36779999999999 -110.80466666666666 2063.45 0.0 0.0 1.0
-72.65769999999999 -110.64833333333333 2085.036666666667 -0.995480773169413 0.03686102386991985 0.08751739923746071
-69.64706666666667 -101.54233333333332 2346.67 0.0 0.0 1.0
-69.89583333333333 -96.35416666666667 2337.5 0.0 0.0 1.0
-70.42473333333334 -66.20333333333333 2310.42 0.0 0.0 1.0
-72.07206666666666 -62.29083333333333 2310.42 0.0 0.0 1.0
-72.3077 -53.23076666666666 2301.54 0.0 0.0 1.0
-70.90676666666666 -49.9617 2292.72 0.0 0.0 1.0
-71.11110000000001 -49.3487 2292.72 0.0 0.0 1.0
-69.64103333333334 -49.12819999999999 2301.54 0.0 0.0 1.0
-71.01010000000001 -17.2727 2266.67 0.0 0.0 1.0
-70.20203333333332 -12.828266666666666 2266.67 0.0 0.0 1.0
-71.80183333333333 36.486466666666665 2021.62 0.0 0.0 1.0
-71.80183333333333 36.486466666666665 2021.62 0.0 0.0 1.0
-73.08643333333332 39.057233333333336 2014.8100000000002 -4.352627163557816e-28 -2.8255035822389594e-28 1.0
-71.50183333333334 69.45056666666667 2191.94 0.0 0.0 1.0
-70.91573333333334 76.6789 2191.94 0.0 0.0 1.0
-70.88236666666667 90.49023333333334 2200.0 0.0 0.0 1.0
-71.1838 90.99926666666666 2040.0199999999998 0.5879413868191189 -0.8084278471309423 0.02773700864262199
-70.35640000000001 88.6373 1881.76 0.0 0.0 1.0
-72.91666666666667 89.75 1870.0 0.0 0.0 1.0
-72.25753333333334 90.15626666666667 1868.0566666666666 -0.5543914765252124 0.8315872147878189 0.03335858146913323
-71.85183333333333 92.7572 1846.91 0.0 0.0 1.0
-73.15986666666666 120.24766666666666 2224.54 0.0 0.0 1.0
-70.67576666666666 121.61866666666667 2202.7066666666665 -4.8066175589316156e-17 0.987023851951005 0.16057370793439565
-69.5098 121.863 2200.0 0.0 0.0 1.0
-70.91573333333334 124.93266666666666 2191.94 0.0 0.0 1.0
-72.70073333333333 129.53766666666664 2183.94 0.0 0.0 1.0
-70.72036666666668 134.31033333333335 2191.94 0.0 0.0 1.0
-71.33816666666667 135.96066666666664 2183.94 0.0 0.0 1.0
-71.33816666666667 135.96066666666664 2183.94 0.0 0.0 1.0
-70.02863333333333 -170.39066666666665 2355.933333333333 0.8636519486883238 0.5037628668236733 0.01811865161800652
-71.3345 -119.83933333333334 1784.4966666666667 0.7547925381639045 -0.2156679127891591 0.6194962273696737
-73.274 -117.349 1775.67 0.0 0.0 1.0
-73.274 -117.349 1775.67 0.0 0.0 1.0
-73.5714 -114.04766666666667 1780.95 0.0 0.0 1.0
-73.5714 -114.04766666666667 1780.95 0.0 0.0 1.0
-73.73013333333334 -113.57133333333333 1780.95 0.0 0.0 1.0
-71.80813333333333 -124.36966666666666 2065.83 0.9103597933285318 0.4137944514542903 -0.004381624867061451
-72.36779999999999 -110.80466666666666 2063.45 0.0 0.0 1.0
-72.91953333333333 -109.33333333333333 2063.45 0.0 0.0 1.0
-73.40323333333333 -107.37366666666667 2082.64 -0.939429209121495 0.31311374058598795 0.13940066895683567
-70.49043333333333 -112.3383 2244.0266666666666 -0.9672637438337093 -0.2533209531774756 -0.015144125793571106
-72.23949999999999 -104.41533333333335 2322.4066666666663 0.9742581706074466 0.22483899484042102 -0.01638424254522941
-72.41526666666665 -102.96166666666666 2331.4333333333334 -0.9742144916802631 -0.22482891463131438 0.018923090283349875
-70.69279999999999 -95.05883333333334 2346.67 0.0 0.0 1.0
-70.69279999999999 -95.05883333333334 2346.67 0.0 0.0 1.0
-71.5625 -93.02083333333333 2337.5 0.0 0.0 1.0
-71.18026666666667 -85.18806666666667 2328.4 0.0 0.0 1.0
-71.6279 -72.86823333333334 2319.38 0.0 0.0 1.0
-71.6279 -72.86823333333332 2319.38 0.0 0.0 1.0
-71.6279 -72.86823333333332 2319.38 0.0 0.0 1.0
-72.07206666666666 -62.29083333333333 2310.42 0.0 0.0 1.0
-71.51976666666667 -49.14433333333333 2292.72 0.0 0.0 1.0
-71.51976666666667 -49.14433333333333 2292.72 0.0 0.0 1.0
-71.01010000000001 -17.2727 2266.67 0.0 0.0 1.0
-72.25160000000001 -14.188700000000003 2258.11 0.0 0.0 1.0
-72.25160000000001 -14.188700000000003 2258.11 0.0 0.0 1.0
-71.6792 -5.313283333333334 2249.62 0.0 0.0 1.0
-71.4787 0.7017533333333333 2249.62 0.0 0.0 1.0
-70.51186666666666 11.485633333333332 2241.2 0.0 0.0 1.0
-72.1393 12.0398 2232.84 0.0 0.0 1.0
-73.16016666666667 20.519466666666666 1942.86 0.0 0.0 1.0
-74.92296666666667 67.0331 2909.6666666666665 -0.530849773669418 0.8405481392105294 0.10806175764276682
-54.0867 59.05063333333334 2583.0333333333333 -0.368548814931577 -0.7831658142335496 0.5008224020832451
-73.6508 58.705733333333335 2191.94 0.0 0.0 1.0
-72.2549 88.7255 2200.0 0.0 0.0 1.0
-71.86276666666667 91.6667 2200.0 0.0 0.0 1.0
-72.0585 89.02820000000001 1875.86 0.0 0.0 1.0
-70.7204 129.42633333333333 2191.94 0.0 0.0 1.0
-71.19656666666667 138.116 2037.6866666666665 2.9216206308690625e-17 -0.9977115080093023 0.06761469356437154
-73.69513333333333 -126.67333333333333 1837.4633333333331 0.873167854542473 0.4851152173527785 0.047340507881317245
-73.73013333333334 -113.57133333333333 1780.95 0.0 0.0 1.0
-75.9403 -110.72666666666667 1786.2699999999998 -3.543598616815722e-27 -6.64508251876346e-27 1.0
-73.51223333333333 -119.19733333333333 1994.6833333333334 0.9138087887620449 0.4061327031091796 -0.0031185006774697155
-71.97233333333334 -120.78433333333332 2070.59 0.0 0.0 1.0
-71.97233333333334 -120.78433333333332 2070.59 0.0 0.0 1.0
-72.31483333333334 -120.09266666666667 2077.78 0.0 0.0 1.0
-73.81776666666667 -115.248 2070.59 0.0 0.0 1.0
-69.47916666666667 -100.521 2337.5 0.0 0.0 1.0
-73.2555 -84.358 2328.4 0.0 0.0 1.0
-69.89583333333333 -87.60416666666667 2337.5 0.0 0.0 1.0
-72.3077 -53.23076666666666 2301.54 0.0 0.0 1.0
-72.33716666666668 -46.89653333333333 2292.72 0.0 0.0 1.0
-71.34859999999999 -38.778633333333325 2283.97 0.0 0.0 1.0
-71.75573333333334 -35.92876666666667 2283.97 0.0 0.0 1.0
-73.58776666666667 -33.282466666666664 2283.97 0.0 0.0 1.0
-72.05030000000001 -4.528303333333334 2258.11 0.0 0.0 1.0
-72.6817 -5.714286666666666 2249.62 0.0 0.0 1.0
-73.50813333333333 0.898876 2241.2 0.0 0.0 1.0
-72.88220000000001 1.5037573333333334 2249.62 0.0 0.0 1.0
-74.18603333333333 57.95666666666667 2895.4966666666664 -0.6243949746290901 -0.29383167140034766 0.7237360461798321
-66.0 69.46666666666665 2992.0 0.0 0.0 1.0
-75.98826666666666 57.289300000000004 2439.14 0.17212326641975567 -0.6884886729864339 0.7045260309785388
-71.34473333333334 56.09793333333334 2001.3533333333332 -0.4020157071659454 -0.9097742393902178 0.1034127870904544
-71.50183333333334 69.45056666666667 2191.94 0.0 0.0 1.0
-73.06473333333334 78.24176666666666 2191.94 0.0 0.0 1.0
-73.82353333333333 83.8235 2200.0 0.0 0.0 1.0
-71.86276666666667 91.6667 2200.0 0.0 0.0 1.0
-72.7706 97.79543333333334 1957.6966666666667 0.2754491239783387 0.45254183808583337 0.8481354048036559
-72.47863333333333 123.56533333333334 2191.94 0.0 0.0 1.0
-73.09003333333334 126.81233333333334 2183.94 0.0 0.0 1.0
-73.11516666666667 138.57000000000002 2176.0 0.0 0.0 1.0
-71.47766666666666 138.282 2056.36 0.0 0.0 1.0
-75.96713333333334 137.668 2012.5566666666666 -3.145469117291861e-17 0.9999384597795101 0.011093991787492825
-75.96713333333334 137.668 2012.5566666666666 -3.145469117291861e-17 0.9999384597795101 0.011093991787492825
-70.9584 135.92366666666666 1895.6733333333334 -2.2388281111068326e-16 0.9999200541061899 0.012644579719150352
-72.31483333333334 -120.09266666666667 2077.78 0.0 0.0 1.0
-73.81776666666666 -115.248 2070.59 0.0 0.0 1.0
-74.57473333333333 -106.75866666666666 2063.45 0.0 0.0 1.0
-75.69303333333333 -102.17633333333333 2056.36 0.0 0.0 1.0
-72.84046666666666 -83.5279 2328.4 0.0 0.0 1.0
-72.04133333333334 -72.45479999999999 2319.38 0.0 0.0 1.0
-73.71946666666666 -58.7902 2310.42 0.0 0.0 1.0
-71.72416666666666 -45.6705 2292.72 0.0 0.0 1.0
-73.35886666666666 -39.33586666666667 2292.72 0.0 0.0 1.0
-73.35886666666666 -39.33586666666667 2292.72 0.0 0.0 1.0
-72.56996666666667 -34.91096666666667 2283.97 0.0 0.0 1.0
-72.25160000000001 -14.188699999999999 2258.11 0.0 0.0 1.0
-73.50813333333333 0.898876 2241.2 0.0 0.0 1.0
-77.78580000000001 14.501399999999999 2155.11 -8.482108858005744e-17 0.9977276885788541 0.06737551070750655
-75.7942 39.4631 2008.05 0.0 0.0 1.0
-73.6508 58.705733333333335 2191.94 0.0 0.0 1.0
-74.94853333333333 59.05976666666667 2061.0866666666666 0.5035502727353063 -0.839230173010884 0.20525554690755754
-73.06473333333334 78.24176666666666 2191.94 0.0 0.0 1.0
-73.45546666666667 78.82783333333333 2191.94 0.0 0.0 1.0
-73.2353 88.33333333333333 2200.0 0.0 0.0 1.0
-71.1838 90.99926666666666 2040.0199999999998 0.5879413868191189 -0.8084278471309423 0.02773700864262199
-75.3231 92.63589999999999 1841.2300000000002 -1.199894933264868e-25 5.599509688569385e-25 1.0
-78.53683333333333 97.15336666666667 1924.1299999999999 -0.5462793885898432 0.8356019703365163 -0.057863432076215526
-73.15986666666666 120.24766666666666 2224.54 0.0 0.0 1.0
-73.09003333333334 126.81233333333334 2183.94 0.0 0.0 1.0
-72.70073333333333 129.53766666666664 2183.94 0.0 0.0 1.0
-72.70073333333333 129.53766666666664 2183.94 0.0 0.0 1.0
-72.11676666666666 135.766 2183.94 0.0 0.0 1.0
-73.84616666666666 -176.734 2422.67 0.0 0.0 1.0
-65.3695 -152.63533333333334 2266.69 0.7285138910806338 -0.629303520099328 0.2706373774872
-73.69513333333333 -126.67333333333333 1837.4633333333331 0.873167854542473 0.4851152173527785 0.047340507881317245
-74.84126666666667 -113.09533333333333 1780.95 0.0 0.0 1.0
-73.11006666666667 -118.02433333333333 2061.0866666666666 -0.9732066763692153 2.7755575615628914e-17 0.22993208795291165
-74.37143333333333 -113.218 2070.59 0.0 0.0 1.0
-74.37143333333333 -113.218 2070.59 0.0 0.0 1.0
-74.57473333333333 -106.75866666666666 2063.45 0.0 0.0 1.0
-71.9986 -100.4615 2331.4333333333334 -0.9230538196429215 -0.2130220707953895 0.32030180048925216
-73.2555 -84.358 2328.4 0.0 0.0 1.0
-74.0856 -77.92476666666666 2328.4 0.0 0.0 1.0
-74.13126666666666 -62.7027 2310.42 0.0 0.0 1.0
-73.53846666666668 -53.02563333333333 2301.54 0.0 0.0 1.0
-74.22053333333334 -28.694566666666663 2275.29 0.0 0.0 1.0
-73.23233333333333 -20.303033333333335 2266.67 0.0 0.0 1.0
-72.68169999999999 -5.714286666666666 2249.62 0.0 0.0 1.0
-72.05030000000001 -4.528303333333334 2258.11 0.0 0.0 1.0
-74.68669999999999 -2.3057653333333334 2249.62 0.0 0.0 1.0
-74.2794 15.929599999999999 1974.92 0.0 0.0 1.0
-77.47703333333334 18.019033333333336 1953.4366666666665 -0.07096253742513958 0.9934348110790782 0.08973067713141163
-77.4448 35.9535 2116.99 0.0677042562691494 -0.5416380419140732 0.837880877711462
-62.8473 54.83926666666667 2362.1166666666663 -0.3135795068076621 0.9407385204229873 0.12914692835151742
-72.1559 68.9718 2982.0733333333337 -0.5993138572930279 0.7991102399525651 0.04738907953849747
-73.84616666666666 79.02316666666665 2191.94 0.0 0.0 1.0
-74.8039 85.39213333333333 2200.0 0.0 0.0 1.0
-75.08333333333333 88.75 1870.0 0.0 0.0 1.0
-74.31613333333333 91.53383333333333 1848.8166666666668 0.24137597965483037 -0.9653573043372965 -0.09911060189656246
-75.3231 92.63589999999999 1841.2300000000002 -1.199894933264868e-25 5.599509688569385e-25 1.0
-73.45546666666667 122.97933333333333 2191.94 0.0 0.0 1.0
-73.45546666666667 122.97933333333333 2191.94 0.0 0.0 1.0
-73.47933333333333 132.84666666666666 2183.94 0.0 0.0 1.0
-73.87346666666666 138.82366666666667 2112.0066666666667 1.0025690885232887e-16 0.9999506725388266 0.009932395941994266
-70.5011 136.732 1955.5600000000002 0.0 -1.0 0.0
-71.19496666666667 135.597 1881.76 0.0 0.0 1.0
-74.278 -176.08633333333333 2422.67 0.0 0.0 1.0
-75.95240000000001 -116.746 1780.95 0.0 0.0 1.0
-76.26986666666666 -114.36500000000001 1780.95 0.0 0.0 1.0
-76.88620000000002 -108.82233333333333 1791.62 0.0 0.0 1.0
-76.40043333333334 -107.43866666666666 1795.2066666666667 0.7652233578720121 0.6376595889530785 -0.08845033173071754
-73.51223333333333 -119.19733333333333 1994.6833333333334 0.9138087887620449 0.4061327031091796 -0.0031185006774697155
-74.7405 -113.956 2070.59 0.0 0.0 1.0
-75.85663333333333 -97.67036666666667 2065.83 0.911491129009398 -0.35058622000325235 0.21511211979106162
-76.01646666666666 -88.35073333333334 2181.2933333333335 0.9831498066644723 0.17875868466417888 0.03823336648456843
-74.5138 -95.28813333333333 2232.92 -0.9909672987748044 -0.1099551894882862 0.07677023553150564
-72.1875 -93.85416666666667 2337.5 0.0 0.0 1.0
-74.50063333333333 -85.81066666666668 2328.4 0.0 0.0 1.0
-73.2555 -84.358 2328.4 0.0 0.0 1.0
-74.0856 -77.92476666666666 2328.4 0.0 0.0 1.0
-73.1017 -65.7915 2310.42 0.0 0.0 1.0
-74.13126666666666 -62.7027 2310.42 0.0 0.0 1.0
-73.71946666666666 -58.7902 2310.42 0.0 0.0 1.0
-73.71946666666666 -58.7902 2310.42 0.0 0.0 1.0
-72.5415 -40.9706 2292.72 0.0 0.0 1.0
-74.22053333333334 -28.694566666666663 2275.29 0.0 0.0 1.0
-73.23233333333333 -20.30303333333333 2266.67 0.0 0.0 1.0
-74.86793333333334 -7.949683333333333 2258.11 0.0 0.0 1.0
-74.48620000000001 -1.5037606666666665 2249.62 0.0 0.0 1.0
-74.0852 1.7042586666666668 2249.62 0.0 0.0 1.0
-75.70536666666668 5.493133333333334 2241.2 0.0 0.0 1.0
-74.14416666666666 35.76576666666667 2021.62 0.0 0.0 1.0
-65.9564 65.70526666666666 2942.9633333333336 -8.412818683876765e-17 -0.9997508845124996 0.022319697947662375
-74.94853333333333 59.05976666666667 2061.0866666666666 0.5035502727353057 -0.8392301730108841 0.20525554690755782
-75.98039999999999 71.66666666666667 2200.0 0.0 0.0 1.0
-74.0415 78.43713333333334 2191.94 0.0 0.0 1.0
-74.23686666666667 78.82783333333333 2191.94 0.0 0.0 1.0
-74.82296666666667 81.3675 2191.94 0.0 0.0 1.0
-74.41176666666667 87.94116666666666 2200.0 0.0 0.0 1.0
-73.01353333333333 90.2337 2208.12 0.0 0.0 1.0
-75.5415 85.3838 1887.7 0.0 0.0 1.0
-75.46456666666667 92.12423333333334 1850.7233333333334 0.9420856769279269 0.3140179934501381 0.11775940351750691
-76.61836666666666 139.034 2168.12 0.0 0.0 1.0
-77.4311 137.38366666666664 1990.25 9.180744497839885e-17 0.9999343057536896 0.011462293700946157
-71.86666666666666 -222.0 2992.0 0.0 0.0 1.0
-73.84616666666666 -176.734 2422.67 0.0 0.0 1.0
-74.278 -176.08633333333333 2422.67 0.0 0.0 1.0
-76.72173333333335 -114.71033333333332 1798.8133333333335 0.7735348554107845 0.42194203191153634 0.47287286787357635
-75.95240000000001 -116.746 1780.95 0.0 0.0 1.0
-76.56686666666667 -108.18366666666667 1791.62 0.0 0.0 1.0
-79.57656666666668 -107.57833333333333 1870.01 -0.4159199236836035 -0.7353319999333701 0.5350677218418392
-82.11936666666666 -102.78516666666667 1901.6966666666667 -0.16219784998072923 -0.353906012205134 0.9211093268373133
-74.7405 -113.956 2070.59 0.0 0.0 1.0
-75.69303333333333 -102.17633333333333 2056.36 0.0 0.0 1.0
-75.30013333333333 -93.54526666666665 2068.21 0.9697441964598317 0.2424251014496116 -0.028744801610392834
-76.36383333333333 -87.17066666666666 2205.4533333333334 0.9818177958607538 0.18946950518545957 -0.011624213345772044
-74.0856 -77.92476666666666 2328.4 0.0 0.0 1.0
-74.5431 -61.4672 2310.42 0.0 0.0 1.0
-72.5128 -56.10253333333333 2301.54 0.0 0.0 1.0
-74.76923333333333 -52.410266666666665 2301.54 0.0 0.0 1.0
-75.03166666666668 -27.27503333333333 2275.29 0.0 0.0 1.0
-75.27043333333334 -13.5849 2258.11 0.0 0.0 1.0
-75.27043333333334 -13.5849 2258.11 0.0 0.0 1.0
-74.86793333333334 -7.949683333333333 2258.11 0.0 0.0 1.0
-73.50813333333333 0.898876 2241.2 0.0 0.0 1.0
-76.1194 10.248783333333334 2232.84 0.0 0.0 1.0
-71.06666666666666 41.199999999999996 2992.0 0.0 0.0 1.0
-71.06666666666666 41.199999999999996 2992.0 0.0 0.0 1.0
-74.14416666666666 35.76576666666667 2021.62 0.0 0.0 1.0
-74.80393333333335 74.2157 2200.0 0.0 0.0 1.0
-73.82353333333333 83.82350000000001 2200.0 0.0 0.0 1.0
-77.37806666666667 83.12933333333335 1897.676666666667 -0.4468694127624695 0.8937681515134317 -0.03855151459526632
-74.5477 120.44599999999998 2224.54 0.0 0.0 1.0
-75.06966666666666 138.67333333333332 2089.8799999999997 0.12338102789724137 0.9878207340860556 0.09480147290367485
-74.81663333333334 138.24833333333333 2042.3366666666668 0.3157515659117752 0.9470227284900192 0.05872733901328317
-79.26786666666668 134.94933333333336 1843.1333333333332 0.13214730082673054 0.9907570001456715 0.030621194401257996
-75.0566 -132.39333333333332 2030.8333333333333 0.8755073464948162 0.23245319193162067 0.4236182241056292
-75.9524 -115.47633333333333 1780.95 0.0 0.0 1.0
-77.21390000000001 -109.45300000000002 1786.2699999999998 -2.4786280016264871e-26 -1.6370792928527084e-26 1.0
-75.2941 -110.45 2070.59 0.0 0.0 1.0
-75.2941 -110.45 2070.59 0.0 0.0 1.0
-74.57473333333333 -106.75866666666666 2063.45 0.0 0.0 1.0
-77.16896666666666 -95.43376666666666 2049.32 0.0 0.0 1.0
-75.30013333333333 -93.54526666666665 2068.21 0.9697441964598317 0.2424251014496116 -0.028744801610392834
-76.14093333333334 -88.56519999999999 2112.0066666666667 -0.9895607434269861 -0.1413729645071835 0.02798606751012056
-77.24606666666666 -83.27103333333332 2286.8866666666668 -0.9794081646924897 -0.19588804813575011 0.04886225057501131
-74.50063333333333 -85.81066666666668 2328.4 0.0 0.0 1.0
-75.76223333333333 -72.6615 2319.38 0.0 0.0 1.0
-75.96896666666667 -71.00773333333332 2319.38 0.0 0.0 1.0
-75.77863333333333 -59.81983333333333 2310.42 0.0 0.0 1.0
-74.95496666666666 -59.40796666666666 2310.42 0.0 0.0 1.0
-75.16090000000001 -57.14286666666667 2310.42 0.0 0.0 1.0
-75.0127 -32.26466666666667 2283.97 0.0 0.0 1.0
-74.86793333333334 -7.949683333333333 2258.11 0.0 0.0 1.0
-75.0877 -0.30075199999999996 2249.62 0.0 0.0 1.0
-75.68920000000001 1.3032573333333333 2249.62 0.0 0.0 1.0
-74.90636666666667 3.4956286666666667 2241.2 0.0 0.0 1.0
-79.1533 20.116433333333333 2099.6666666666665 -0.9398022474604563 -0.23894257519524909 0.24429118164055336
-77.8009 16.24513333333333 1970.5866666666668 1.0002478765520797e-16 0.9883419713991155 0.15225027937875904
-74.70143333333334 20.238866666666667 1949.1899999999998 -3.50670116261488e-28 -2.2928211702763026e-28 1.0
-79.16313333333333 26.050299999999996 2094.7566666666667 0.7660014023571536 -0.17296934091605917 0.6191312128215942
-76.13916666666667 36.90233333333333 2014.8100000000002 2.2268780070476762e-26 -3.711233703739007e-27 1.0
-76.13916666666667 36.90233333333333 2014.8100000000002 2.2268780070476762e-26 -3.711233703739007e-27 1.0
-77.22596666666666 39.642066666666665 2008.05 0.0 0.0 1.0
-74.82996666666666 36.00906666666666 2035.37 0.0 0.0 1.0
-73.6508 58.705733333333335 2191.94 0.0 0.0 1.0
-71.6725 57.543866666666666 2099.65 0.0 0.0 1.0
-69.17763333333333 60.2243 2359.013333333333 0.37594486757988566 0.3909845720868281 0.8401169686004575
-77.55799999999999 73.55310000000001 2191.94 0.0 0.0 1.0
-74.60783333333333 86.96076666666666 2200.0 0.0 0.0 1.0
-73.01353333333333 90.2337 2208.12 0.0 0.0 1.0
-77.76883333333335 89.42970000000001 1856.47 -0.3384760767691057 0.930839014040032 0.1377413351030667
-75.46456666666667 92.12423333333334 1850.7233333333334 0.9420856769279269 0.3140179934501381 0.11775940351750691
-74.5477 120.44599999999998 2224.54 0.0 0.0 1.0
-76.61836666666666 139.034 2168.12 0.0 0.0 1.0
-76.39999999999999 -222.0 2992.0 0.0 0.0 1.0
-76.8691 -172.63166666666666 2422.67 0.0 0.0 1.0
-76.29126666666667 -119.31966666666665 1858.3966666666668 0.5049710822550508 -0.0676212780109988 0.8604833344384549
