ply
format ascii 1.0
comment VCGLIB generated
element vertex 795
property float x
property float y
property float z
property float nx
property float ny
property float nz
element face 0
property list uchar int vertex_indices
end_header
36.07236666666667 -45.99483333333333 2319.38 0.0 0.0 1.0
37.06563333333333 -30.579166666666666 2310.42 0.0 0.0 1.0
33.53846666666667 -26.769233333333332 2301.54 0.0 0.0 1.0
35.3442 -9.286246666666667 2241.22 0.19611748102466728 0.9805479760414023 0.007974980730288586
19.804566666666666 0.26058633333333336 1949.1899999999998 3.872646461802248e-30 5.0341212720320237e-29 1.0
29.5339 5.4543099999999995 2149.983333333333 -0.3046604098157316 -0.9520943159253374 0.026428171968072317
35.21236666666667 20.283133333333332 2310.42 0.0 0.0 1.0
35.006433333333334 24.401566666666668 2310.42 0.0 0.0 1.0
35.006433333333334 26.254833333333334 2310.42 0.0 0.0 1.0
31.724566666666664 32.98303333333333 2170.7466666666664 0.6356284350789342 -0.7718328500477943 0.01582858509798646
34.153866666666666 67.17946666666667 2301.54 0.0 0.0 1.0
35.589733333333335 71.6923 2301.54 0.0 0.0 1.0
34.12513333333334 75.30013333333333 2292.72 0.0 0.0 1.0
36.0 98.97433333333333 2301.54 0.0 0.0 1.0
36.65376666666667 102.65133333333331 2310.42 0.0 0.0 1.0
37.330533333333335 122.673 2307.46 1.5456542811837355e-18 0.9998685430917367 0.016214084482569113
31.901233333333334 137.975 2216.3 0.0 0.0 1.0
28.285733333333337 139.143 2137.14 0.0 0.0 1.0
68.13333333333334 -221.46666666666667 2992.0 0.0 0.0 1.0
40.216800000000006 -164.22766666666666 2432.52 0.0 0.0 1.0
41.02563333333333 -140.45866666666666 2422.67 0.0 0.0 1.0
41.4575 -139.379 2422.67 0.0 0.0 1.0
41.61293333333334 -130.215 2412.9 0.0 0.0 1.0
38.247033333333334 -99.9735 2384.06 0.0 0.0 1.0
38.672000000000004 -98.69856666666665 2384.06 0.0 0.0 1.0
37.3545 -90.05290000000001 2374.6 0.0 0.0 1.0
37.01963333333333 -65.15033333333334 2346.67 0.0 0.0 1.0
37.604166666666664 -60.520833333333336 2337.5 0.0 0.0 1.0
36.770833333333336 -56.354166666666664 2337.5 0.0 0.0 1.0
36.939033333333334 -51.15436666666667 2328.4 0.0 0.0 1.0
35.2455 -44.547799999999995 2319.38 0.0 0.0 1.0
35.6242 -41.49293333333333 2310.42 0.0 0.0 1.0
34.15383333333333 -15.282066666666665 2301.54 0.0 0.0 1.0
32.7838 -8.923143333333334 2249.6433333333334 -0.3161928117930032 -0.9486378842599424 -0.010405302362476998
19.409833333333335 -1.1366133333333333 1961.97 0.0 0.0 1.0
34.800533333333334 12.252266666666666 2310.42 0.0 0.0 1.0
34.800533333333334 12.252266666666666 2310.42 0.0 0.0 1.0
35.830133333333336 14.929233333333334 2310.42 0.0 0.0 1.0
34.5946 21.518666666666665 2310.42 0.0 0.0 1.0
33.743566666666666 58.15383333333333 2301.54 0.0 0.0 1.0
34.12513333333334 75.30013333333333 2292.72 0.0 0.0 1.0
35.35123333333333 90.83013333333334 2292.72 0.0 0.0 1.0
36.43043333333333 114.541 2355.91 0.0 0.0 1.0
23.4015 138.257 2058.7233333333334 -3.407336086441212e-17 0.9999440546990443 0.010577687461558394
13.301566666666666 136.261 1951.3133333333335 -8.164351187271275e-17 0.9999250396664046 0.01224398007754837
68.66666666666667 219.86666666666665 2992.0 0.0 0.0 1.0
68.13333333333334 -221.46666666666667 2992.0 0.0 0.0 1.0
40.6504 -155.77233333333334 2432.52 0.0 0.0 1.0
40.6504 -153.17066666666668 2432.52 0.0 0.0 1.0
41.517599999999995 -152.52033333333333 2432.52 0.0 0.0 1.0
39.51413333333334 -147.80033333333333 2422.67 0.0 0.0 1.0
39.51413333333334 -147.80033333333333 2422.67 0.0 0.0 1.0
39.19676666666667 -123.05233333333335 2403.21 0.0 0.0 1.0
38.50666666666667 -112.74666666666667 2393.6 0.0 0.0 1.0
38.672000000000004 -98.69856666666668 2384.06 0.0 0.0 1.0
39.04763333333333 -88.57143333333333 2374.6 0.0 0.0 1.0
37.27036666666667 -68.34646666666667 2355.91 0.0 0.0 1.0
34.863800000000005 -50.94683333333333 2328.4 0.0 0.0 1.0
33.743599999999994 -14.461566666666664 2301.54 0.0 0.0 1.0
30.915333333333336 -11.941166666666666 2289.8033333333333 0.8923243895054374 -0.38240691468598487 0.23983772742021747
18.2135 -0.261438 1955.5600000000002 1.0291707484256288e-28 1.215118862653673e-28 1.0
34.3887 20.69496666666667 2310.42 0.0 0.0 1.0
34.8005 23.371966666666665 2310.42 0.0 0.0 1.0
34.388666666666666 26.048933333333334 2310.42 0.0 0.0 1.0
34.388666666666666 26.048933333333334 2310.42 0.0 0.0 1.0
31.724566666666664 32.98303333333333 2170.7466666666664 0.6356284350789342 -0.7718328500477943 0.01582858509798646
37.99713333333333 53.9056 2568.24 0.0 0.0 1.0
45.57 54.03456666666667 2749.1666666666665 0.25915364630480675 -0.809848524182229 0.5262934119735765
58.69219999999999 59.330099999999995 2863.16 0.0 0.0 1.0
48.528600000000004 54.911 2605.5266666666666 4.618005539505189e-16 0.766182973294483 0.6426224797138873
33.743566666666666 58.15383333333333 2301.54 0.0 0.0 1.0
34.35896666666667 68.00000000000001 2301.54 0.0 0.0 1.0
33.30776666666667 73.46106666666667 2292.72 0.0 0.0 1.0
34.6875 109.89533333333333 2337.5 0.0 0.0 1.0
32.71793333333333 122.15366666666667 2301.54 0.0 0.0 1.0
29.541533333333334 132.54033333333334 2224.54 0.0 0.0 1.0
29.954633333333334 139.21933333333334 2189.273333333333 1.3222429478712327e-16 0.9999548780541688 0.009499571341517183
18.775533333333332 137.959 2035.37 0.0 0.0 1.0
67.6 -220.4 2992.0 0.0 0.0 1.0
39.19676666666667 -119.625 2403.21 0.0 0.0 1.0
39.19676666666667 -118.98233333333333 2403.21 0.0 0.0 1.0
37.44 -108.90666666666668 2393.6 0.0 0.0 1.0
37.44 -108.90666666666668 2393.6 0.0 0.0 1.0
37.3971 -103.37299999999999 2384.06 0.0 0.0 1.0
37.184599999999996 -102.73566666666666 2384.06 0.0 0.0 1.0
37.3971 -101.67333333333333 2384.06 0.0 0.0 1.0
37.3971 -101.67333333333333 2384.06 0.0 0.0 1.0
36.890633333333334 -79.15679999999999 2365.22 0.0 0.0 1.0
36.43043333333333 -75.27560000000001 2355.91 0.0 0.0 1.0
37.27036666666667 -68.34646666666667 2355.91 0.0 0.0 1.0
32.94723333333334 -39.43373333333333 2310.42 0.0 0.0 1.0
33.35906666666667 -36.3449 2310.42 0.0 0.0 1.0
33.538466666666665 -26.769233333333332 2301.54 0.0 0.0 1.0
32.51283333333333 -20.205133333333336 2301.54 0.0 0.0 1.0
33.94873333333333 -15.282066666666665 2301.54 0.0 0.0 1.0
33.743599999999994 -14.461566666666664 2301.54 0.0 0.0 1.0
21.070666666666668 -5.6490366666666665 2012.5566666666666 -2.3487871308023056e-15 -0.9733216872336923 0.2294447496905484
34.800533333333334 12.252266666666666 2310.42 0.0 0.0 1.0
33.7709 23.16603333333333 2310.42 0.0 0.0 1.0
34.388666666666666 26.048933333333334 2310.42 0.0 0.0 1.0
27.520766666666663 34.4484 2129.54 0.0 0.0 1.0
46.2849 52.9809 2636.12 0.0 0.0 1.0
33.94873333333333 62.461533333333335 2301.54 0.0 0.0 1.0
34.153866666666666 67.17946666666667 2301.54 0.0 0.0 1.0
34.153866666666666 67.17946666666667 2301.54 0.0 0.0 1.0
32.89906666666667 71.00896666666667 2292.72 0.0 0.0 1.0
32.69473333333334 71.622 2292.72 0.0 0.0 1.0
33.71646666666667 74.6871 2292.72 0.0 0.0 1.0
33.9208 79.5913 2292.72 0.0 0.0 1.0
33.9208 79.5913 2292.72 0.0 0.0 1.0
35.278866666666666 106.77033333333334 2328.4 0.0 0.0 1.0
34.50979999999999 112.41833333333334 2346.67 0.0 0.0 1.0
36.43043333333333 114.541 2355.91 0.0 0.0 1.0
33.10343333333333 124.34233333333334 2292.72 0.0 0.0 1.0
28.7407 130.66666666666666 2216.3 0.0 0.0 1.0
29.541533333333334 132.54033333333334 2224.54 0.0 0.0 1.0
12.636896666666667 136.21633333333332 1940.7766666666666 -0.049948078291705986 0.998576830636464 0.018694993741646036
67.6 -220.4 2992.0 0.0 0.0 1.0
38.265600000000006 -159.675 2432.52 0.0 0.0 1.0
39.1328 -155.989 2432.52 0.0 0.0 1.0
37.26906666666667 -123.909 2403.21 0.0 0.0 1.0
37.86666666666667 -106.98666666666666 2393.6 0.0 0.0 1.0
37.184599999999996 -102.73566666666666 2384.06 0.0 0.0 1.0
37.184599999999996 -102.73566666666666 2384.06 0.0 0.0 1.0
34.9606 -71.70603333333334 2355.91 0.0 0.0 1.0
34.895833333333336 -56.770833333333336 2337.5 0.0 0.0 1.0
33.79846666666667 -43.720933333333335 2319.38 0.0 0.0 1.0
32.307700000000004 -30.871799999999997 2301.54 0.0 0.0 1.0
31.6923 -18.7692 2301.54 0.0 0.0 1.0
15.076266666666667 0.7843133333333333 1955.5600000000002 -3.5346080635305416e-29 -1.69121661997948e-29 1.0
26.895633333333333 8.239469999999999 2227.306666666667 0.24166572779464643 0.9666629111785874 -0.08461969133258498
33.359100000000005 20.900899999999996 2310.42 0.0 0.0 1.0
29.235633333333336 28.735500000000002 2246.813333333333 -0.2059127641593984 0.9780941880598923 0.030523643945236646
32.69473333333334 71.00896666666667 2292.72 0.0 0.0 1.0
32.28606666666666 72.0307 2292.72 0.0 0.0 1.0
31.673033333333336 88.58236666666669 2292.72 0.0 0.0 1.0
31.877399999999998 96.5517 2292.72 0.0 0.0 1.0
34.83206666666666 104.90933333333334 2319.38 0.0 0.0 1.0
36.43043333333333 114.541 2355.91 0.0 0.0 1.0
32.71793333333333 122.15366666666667 2301.54 0.0 0.0 1.0
28.543166666666668 132.04933333333335 2216.3 0.0 0.0 1.0
28.543166666666668 132.04933333333335 2216.3 0.0 0.0 1.0
25.923000000000002 139.04999999999998 2186.6066666666666 -0.1103887329168866 0.9934040853505017 0.031026615251052866
21.404700000000002 137.258 2001.34 0.0 0.0 1.0
9.30119 132.193 1829.9800000000002 0.1642517966274903 -0.9852080448565492 0.048851362873285155
40.054433333333336 -168.38066666666666 2442.45 0.0 0.0 1.0
38.2186 -148.88000000000002 2422.67 0.0 0.0 1.0
39.730066666666666 -144.12966666666668 2422.67 0.0 0.0 1.0
38.602133333333335 -132.36566666666667 2412.9 0.0 0.0 1.0
37.18463333333333 -96.57373333333334 2384.06 0.0 0.0 1.0
37.18463333333333 -96.57373333333334 2384.06 0.0 0.0 1.0
35.661366666666666 -92.38096666666667 2374.6 0.0 0.0 1.0
35.661366666666666 -92.38096666666667 2374.6 0.0 0.0 1.0
35.38056666666667 -74.64566666666667 2355.91 0.0 0.0 1.0
34.9606 -71.70603333333334 2355.91 0.0 0.0 1.0
33.46406666666667 -62.64053333333333 2346.67 0.0 0.0 1.0
33.203633333333336 -49.286633333333334 2328.4 0.0 0.0 1.0
32.94723333333334 -39.43373333333333 2310.42 0.0 0.0 1.0
32.12356666666667 23.37193333333333 2310.42 0.0 0.0 1.0
27.147833333333335 29.043166666666664 2224.56 0.2740676156330848 -0.9592813576450763 0.06830972797350995
46.2849 52.9809 2636.12 0.0 0.0 1.0
32.30766666666667 57.948699999999995 2301.54 0.0 0.0 1.0
33.94873333333333 62.461533333333335 2301.54 0.0 0.0 1.0
31.468733333333333 66.5134 2292.72 0.0 0.0 1.0
31.673033333333336 89.1954 2292.72 0.0 0.0 1.0
32.69476666666667 93.4866 2292.72 0.0 0.0 1.0
31.877400000000005 96.5517 2292.72 0.0 0.0 1.0
34.50979999999999 112.41833333333334 2346.67 0.0 0.0 1.0
28.543166666666668 132.04933333333335 2216.3 0.0 0.0 1.0
28.351933333333335 133.53166666666667 2224.54 0.0 0.0 1.0
27.555566666666664 137.383 2216.3 0.0 0.0 1.0
40.054433333333336 -168.38066666666666 2442.45 0.0 0.0 1.0
38.0488 -161.19233333333335 2432.52 0.0 0.0 1.0
36.4516 -131.29033333333334 2412.9 0.0 0.0 1.0
36.19813333333334 -117.055 2403.21 0.0 0.0 1.0
36.19813333333334 -117.055 2403.21 0.0 0.0 1.0
36.37333333333333 -111.68 2393.6 0.0 0.0 1.0
36.16 -107.41333333333334 2393.6 0.0 0.0 1.0
35.48473333333334 -101.036 2384.06 0.0 0.0 1.0
36.33466666666667 -100.61099999999999 2384.06 0.0 0.0 1.0
35.66136666666666 -92.38096666666667 2374.6 0.0 0.0 1.0
34.150200000000005 -80.6324 2365.22 0.0 0.0 1.0
34.9606 -71.70603333333334 2355.91 0.0 0.0 1.0
32.83663333333333 -64.10456666666666 2346.67 0.0 0.0 1.0
33.229166666666664 -56.979166666666664 2337.5 0.0 0.0 1.0
33.61866666666666 -51.776933333333325 2328.4 0.0 0.0 1.0
32.78856666666666 -49.9092 2328.4 0.0 0.0 1.0
33.203633333333336 -49.286633333333334 2328.4 0.0 0.0 1.0
31.917633333333338 -40.0515 2310.42 0.0 0.0 1.0
32.12356666666667 -35.1094 2310.42 0.0 0.0 1.0
30.666666666666668 -27.179466666666666 2301.54 0.0 0.0 1.0
21.070666666666668 -5.6490366666666665 2012.5566666666666 -2.3487871308023056e-15 -0.9733216872336923 0.2294447496905484
29.846166666666665 12.0 2301.54 0.0 0.0 1.0
34.18280000000001 14.929233333333334 2310.42 0.0 0.0 1.0
32.12356666666667 22.754166666666666 2310.42 0.0 0.0 1.0
32.12356666666667 23.37193333333333 2310.42 0.0 0.0 1.0
30.461533333333335 25.333366666666667 2301.54 0.0 0.0 1.0
58.69219999999999 59.330099999999995 2863.16 0.0 0.0 1.0
39.2711 57.8851 2711.7933333333335 0.09947620857369183 -0.9947804063241595 0.022725032922827362
30.871799999999997 55.48716666666667 2301.54 0.0 0.0 1.0
31.060033333333337 64.67433333333334 2292.72 0.0 0.0 1.0
31.26436666666667 67.94380000000001 2292.72 0.0 0.0 1.0
31.26436666666667 72.0307 2292.72 0.0 0.0 1.0
31.877400000000005 96.5517 2292.72 0.0 0.0 1.0
25.9033 126.50033333333334 2244.0066666666667 -0.07132957534946724 0.9973657873239097 0.013174898717717598
27.555566666666664 137.383 2216.3 0.0 0.0 1.0
26.568633333333334 138.72533333333334 2200.0 0.0 0.0 1.0
26.568633333333334 138.72533333333334 2200.0 0.0 0.0 1.0
65.2 -220.9333333333333 2992.0 0.0 0.0 1.0
65.2 -220.9333333333333 2992.0 0.0 0.0 1.0
36.531200000000005 -165.31166666666667 2432.52 0.0 0.0 1.0
38.0488 -158.15733333333336 2432.52 0.0 0.0 1.0
38.0488 -156.85633333333334 2432.52 0.0 0.0 1.0
35.37633333333333 -127.84933333333333 2412.9 0.0 0.0 1.0
34.422333333333334 -103.58566666666667 2384.06 0.0 0.0 1.0
34.422333333333334 -102.52333333333333 2384.06 0.0 0.0 1.0
32.910066666666665 -86.87830000000001 2374.6 0.0 0.0 1.0
34.150200000000005 -80.6324 2365.22 0.0 0.0 1.0
32.78856666666666 -49.9092 2328.4 0.0 0.0 1.0
31.938 -42.68733333333333 2319.38 0.0 0.0 1.0
30.666666666666668 -20.205133333333333 2301.54 0.0 0.0 1.0
30.666666666666668 -19.179466666666666 2301.54 0.0 0.0 1.0
31.6923 -18.769199999999998 2301.54 0.0 0.0 1.0
28.607933333333335 -12.362733333333333 2292.72 0.0 0.0 1.0
14.039700000000002 -3.09051 1981.46 0.0 0.0 1.0
15.287766666666665 1.1292053333333334 1949.1899999999998 -1.1418051287263531e-27 -2.8146835661119937e-27 1.0
15.287766666666665 1.1292053333333334 1949.1899999999998 -1.1418051287263531e-27 -2.8146835661119937e-27 1.0
26.191433333333332 6.192033333333334 2137.2166666666667 -0.2982186696623825 -0.9541887107825985 0.024280224048424656
32.12356666666667 23.37193333333333 2310.42 0.0 0.0 1.0
32.97956666666667 46.9972 2403.236666666667 0.6616030430093546 0.5447289467357692 0.5153171723015852
46.67243333333334 49.476400000000005 2624.5933333333332 -0.5492561167415705 0.8352236004754781 0.02681893791240203
61.769533333333335 56.93223333333333 2783.2966666666666 0.28720929533757344 -0.9573173171311697 0.032471140917341434
30.871799999999997 55.48716666666667 2301.54 0.0 0.0 1.0
30.651333333333337 69.3742 2292.72 0.0 0.0 1.0
31.060000000000002 88.99103333333335 2292.72 0.0 0.0 1.0
31.060000000000002 88.99103333333335 2292.72 0.0 0.0 1.0
33.2549 113.464 2346.67 0.0 0.0 1.0
32.71793333333333 122.15366666666667 2301.54 0.0 0.0 1.0
31.468666666666667 123.93366666666668 2292.72 0.0 0.0 1.0
31.468666666666667 123.93366666666668 2292.72 0.0 0.0 1.0
27.17556666666667 124.68166666666667 2283.97 0.0 0.0 1.0
25.35353333333333 125.354 2266.67 0.0 0.0 1.0
28.435100000000002 126.45800000000001 2246.813333333333 0.7073890476610504 -0.7068015152294349 0.005687997764351249
27.555566666666664 137.383 2216.3 0.0 0.0 1.0
26.568633333333334 138.72533333333334 2200.0 0.0 0.0 1.0
24.850666666666665 139.068 2144.8 0.0 0.0 1.0
26.000033333333334 139.143 2137.14 0.0 0.0 1.0
18.775533333333332 137.959 2035.37 0.0 0.0 1.0
16.512866666666667 136.507 1959.8333333333333 -2.4631704607098597e-17 -0.997577361861726 0.06956584723123072
63.06666666666666 220.13333333333335 2992.0 0.0 0.0 1.0
36.35373333333333 -176.65300000000002 2442.45 0.0 0.0 1.0
36.531200000000005 -165.31166666666667 2432.52 0.0 0.0 1.0
36.9648 -162.27633333333333 2432.52 0.0 0.0 1.0
36.491233333333334 -148.66433333333336 2422.67 0.0 0.0 1.0
34.6988 -121.981 2403.21 0.0 0.0 1.0
35.76976666666667 -117.69733333333333 2403.21 0.0 0.0 1.0
35.127199999999995 -117.48333333333335 2403.21 0.0 0.0 1.0
35.306666666666665 -113.60000000000001 2393.6 0.0 0.0 1.0
35.306666666666665 -113.60000000000001 2393.6 0.0 0.0 1.0
34.453333333333326 -108.90666666666668 2393.6 0.0 0.0 1.0
34.422333333333334 -103.58566666666667 2384.06 0.0 0.0 1.0
34.422333333333334 -102.52333333333333 2384.06 0.0 0.0 1.0
34.150200000000005 -80.6324 2365.22 0.0 0.0 1.0
34.3307 -71.0761 2355.91 0.0 0.0 1.0
32.41833333333333 -65.1503 2346.67 0.0 0.0 1.0
32.83663333333333 -64.10456666666666 2346.67 0.0 0.0 1.0
31.917633333333338 -40.0515 2310.42 0.0 0.0 1.0
29.230766666666664 -30.2564 2301.54 0.0 0.0 1.0
30.461533333333335 -26.7692 2301.54 0.0 0.0 1.0
26.895633333333333 8.239469999999999 2227.306666666667 0.24166572779464643 0.9666629111785874 -0.08461969133258498
29.641033333333336 17.333299999999998 2301.54 0.0 0.0 1.0
30.461533333333335 25.333366666666667 2301.54 0.0 0.0 1.0
16.654966666666667 32.654966666666674 2099.65 0.0 0.0 1.0
26.0654 35.8624 2134.6066666666666 0.0711867274688627 -0.9966640177649705 0.03991598082047955
58.2388 60.066300000000005 2923.7899999999995 0.789884189498996 -0.5924131421242448 0.1585232986598306
37.55636666666667 52.4938 2449.1233333333334 -0.5831375354631144 -0.541481224653486 0.6055978022431767
30.871799999999997 57.12819999999999 2301.54 0.0 0.0 1.0
30.038300000000003 61.81356666666667 2292.72 0.0 0.0 1.0
30.038300000000003 61.81356666666667 2292.72 0.0 0.0 1.0
29.83396666666667 62.63093333333334 2292.72 0.0 0.0 1.0
30.447 71.622 2292.72 0.0 0.0 1.0
30.447000000000003 71.622 2292.72 0.0 0.0 1.0
30.855666666666668 79.38696666666667 2292.72 0.0 0.0 1.0
28.804066666666667 85.80149999999999 2283.97 0.0 0.0 1.0
29.83396666666667 96.14303333333334 2292.72 0.0 0.0 1.0
31.89743333333333 99.38460000000002 2301.54 0.0 0.0 1.0
31.1284 106.56266666666666 2328.4 0.0 0.0 1.0
25.5639 126.01533333333333 2249.62 0.0 0.0 1.0
24.850666666666665 139.068 2144.8 0.0 0.0 1.0
36.35373333333333 -176.65300000000002 2442.45 0.0 0.0 1.0
36.0976 -163.36033333333333 2432.52 0.0 0.0 1.0
35.4116 -137.868 2422.67 0.0 0.0 1.0
35.4116 -137.868 2422.67 0.0 0.0 1.0
34.94623333333333 -127.63433333333334 2412.9 0.0 0.0 1.0
34.6988 -121.981 2403.21 0.0 0.0 1.0
35.555566666666664 -116.84100000000001 2403.21 0.0 0.0 1.0
34.209833333333336 -102.94833333333334 2384.06 0.0 0.0 1.0
33.306999999999995 -79.15679999999999 2365.22 0.0 0.0 1.0
33.5178 -78.946 2365.22 0.0 0.0 1.0
32.20916666666667 -63.895399999999995 2346.67 0.0 0.0 1.0
31.790833333333335 -63.267966666666666 2346.67 0.0 0.0 1.0
30.520833333333332 -57.1875 2337.5 0.0 0.0 1.0
30.9375 -54.895833333333336 2337.5 0.0 0.0 1.0
29.858433333333334 -38.61003333333333 2310.42 0.0 0.0 1.0
29.24066666666667 -34.9035 2310.42 0.0 0.0 1.0
30.051299999999998 -27.794866666666667 2301.54 0.0 0.0 1.0
30.051299999999998 -27.794866666666667 2301.54 0.0 0.0 1.0
29.846166666666665 -25.948700000000002 2301.54 0.0 0.0 1.0
30.666666666666668 -20.205133333333333 2301.54 0.0 0.0 1.0
28.4036 -18.493 2292.72 0.0 0.0 1.0
31.076966666666664 -13.2308 2301.54 0.0 0.0 1.0
31.076966666666664 -13.2308 2301.54 0.0 0.0 1.0
46.8088 52.03990000000001 2613.133333333333 0.8528170945094252 -0.5116860832590001 -0.10430894262509749
30.871799999999997 55.48716666666667 2301.54 0.0 0.0 1.0
29.220933333333335 63.243966666666665 2292.72 0.0 0.0 1.0
28.403566666666666 65.69603333333333 2292.72 0.0 0.0 1.0
30.242666666666665 72.43936666666666 2292.72 0.0 0.0 1.0
30.855666666666668 79.38696666666667 2292.72 0.0 0.0 1.0
29.211166666666667 84.37656666666666 2283.97 0.0 0.0 1.0
28.804066666666667 85.80149999999999 2283.97 0.0 0.0 1.0
27.989833333333333 91.2977 2283.97 0.0 0.0 1.0
31.89743333333333 99.38460000000002 2301.54 0.0 0.0 1.0
31.163366666666665 115.34633333333333 2346.67 0.0 0.0 1.0
25.774466666666665 134.52266666666665 2224.54 0.0 0.0 1.0
25.774466666666665 134.52266666666665 2224.54 0.0 0.0 1.0
25.975333333333335 137.77766666666665 2216.3 0.0 0.0 1.0
15.537316666666667 138.51200000000003 2087.4500000000003 2.2264754925099387e-17 0.999947082051359 0.010287521420283777
17.332533333333334 138.257 2058.7233333333334 1.5855799280438846e-16 0.9999440546990443 0.010577687461558578
16.961466666666666 137.959 2035.37 0.0 0.0 1.0
20.270266666666668 137.568 2021.62 0.0 0.0 1.0
62.26666666666667 219.0666666666667 2992.0 0.0 0.0 1.0
36.531200000000005 -165.31166666666667 2432.52 0.0 0.0 1.0
34.11606666666666 -147.58466666666666 2422.67 0.0 0.0 1.0
35.4116 -137.868 2422.67 0.0 0.0 1.0
34.94623333333333 -130.0 2412.9 0.0 0.0 1.0
34.6988 -121.981 2403.21 0.0 0.0 1.0
32.6984 -93.6508 2374.6 0.0 0.0 1.0
32.6984 -93.6508 2374.6 0.0 0.0 1.0
32.6984 -93.6508 2374.6 0.0 0.0 1.0
31.790833333333335 -63.267966666666666 2346.67 0.0 0.0 1.0
28.6305 -41.44703333333333 2319.38 0.0 0.0 1.0
29.846166666666665 -27.179466666666666 2301.54 0.0 0.0 1.0
28.607933333333335 -19.310366666666667 2292.72 0.0 0.0 1.0
27.586233333333336 -15.6322 2292.72 0.0 0.0 1.0
11.717410000000001 5.949943333333334 1992.46 0.28726494165053795 0.9575563886567058 -0.0237616464337089
29.025666666666666 13.025633333333333 2301.54 0.0 0.0 1.0
28.615400000000005 13.846133333333333 2301.54 0.0 0.0 1.0
29.435900000000004 19.794866666666664 2301.54 0.0 0.0 1.0
29.230766666666668 24.9231 2301.54 0.0 0.0 1.0
24.122133333333334 26.157766666666664 2283.97 0.0 0.0 1.0
25.009433333333334 26.834500000000002 2272.4166666666665 0.19596163347855097 -0.9798403793814934 -0.038882761449640826
58.24623333333333 57.613099999999996 2854.066666666667 0.4471068128912152 -0.8942234063050912 0.021447551897121858
31.834633333333333 50.93783333333334 2396.8033333333333 -0.10164931587818984 0.609895895269139 0.7859353748975494
30.682100000000002 101.62166666666667 2310.42 0.0 0.0 1.0
30.284233333333333 104.496 2319.38 0.0 0.0 1.0
31.163366666666665 115.34633333333333 2346.67 0.0 0.0 1.0
26.7704 118.807 2328.4 0.0 0.0 1.0
24.395066666666665 136.0 2216.3 0.0 0.0 1.0
26.383866666666666 138.913 2122.0066666666667 0.0333756816017144 -0.9991038134342464 0.026031401398460302
13.756440000000003 133.25266666666667 1846.96 -0.10745987426225345 0.9942068943904906 -0.0022420013284837614
-1.58779 127.76400000000001 1786.28 0.28516386373772734 -0.95048307598393 0.1235455101826751
61.73333333333333 218.79999999999998 2992.0 0.0 0.0 1.0
61.73333333333333 219.60000000000002 2992.0 0.0 0.0 1.0
35.2653 -176.21766666666667 2442.45 0.0 0.0 1.0
35.230333333333334 -156.63933333333333 2432.52 0.0 0.0 1.0
35.195666666666675 -142.83399999999997 2422.67 0.0 0.0 1.0
33.572399999999995 -102.52333333333335 2384.06 0.0 0.0 1.0
31.872533333333333 -98.06110000000001 2384.06 0.0 0.0 1.0
31.851866666666666 -88.78306666666667 2374.6 0.0 0.0 1.0
32.910066666666665 -86.87830000000001 2374.6 0.0 0.0 1.0
30.520833333333332 -57.1875 2337.5 0.0 0.0 1.0
31.750966666666667 -50.73930000000001 2328.4 0.0 0.0 1.0
28.638133333333332 -47.003899999999994 2328.4 0.0 0.0 1.0
29.24066666666667 -34.9035 2310.42 0.0 0.0 1.0
14.039700000000002 -3.09051 1981.46 0.0 0.0 1.0
11.241833333333332 0.958606 1955.5600000000002 8.770725309104651e-28 2.769668865542408e-27 1.0
29.025666666666666 13.025633333333333 2301.54 0.0 0.0 1.0
28.615399999999998 21.846166666666665 2301.54 0.0 0.0 1.0
17.941166666666664 27.745099999999997 2200.0 0.0 0.0 1.0
58.69220000000001 59.330099999999995 2863.16 0.0 0.0 1.0
58.2388 60.066300000000005 2923.7899999999995 0.789884189498996 -0.5924131421242448 0.1585232986598306
26.782966666666667 54.2759 2346.693333333333 -0.15594078305933573 0.9875701066550241 0.01969153676647116
27.5862 57.93106666666667 2292.72 0.0 0.0 1.0
28.403566666666666 63.856966666666665 2292.72 0.0 0.0 1.0
28.403566666666666 65.69603333333333 2292.72 0.0 0.0 1.0
27.786266666666666 86.61576666666667 2283.97 0.0 0.0 1.0
27.989833333333333 91.2977 2283.97 0.0 0.0 1.0
29.833966666666665 96.14303333333334 2292.72 0.0 0.0 1.0
30.74506666666667 116.39233333333334 2346.67 0.0 0.0 1.0
26.0277 125.92966666666666 2255.28 -1.0924193883781281e-16 0.9998863680306104 0.01507484748031968
25.774466666666665 134.52266666666665 2224.54 0.0 0.0 1.0
24.5926 137.185 2216.3 0.0 0.0 1.0
13.301566666666666 136.261 1951.3133333333335 -8.164351187271275e-17 0.9999250396664046 0.01224398007754837
33.95916666666667 -170.34033333333335 2442.45 0.0 0.0 1.0
33.010733333333334 -129.57000000000002 2412.9 0.0 0.0 1.0
34.27043333333333 -116.41233333333332 2403.21 0.0 0.0 1.0
31.25333333333333 -109.12 2393.6 0.0 0.0 1.0
31.23506666666667 -99.33586666666667 2384.06 0.0 0.0 1.0
31.428566666666665 -96.4021 2374.6 0.0 0.0 1.0
30.158733333333334 -91.32273333333332 2374.6 0.0 0.0 1.0
29.908466666666666 -65.35946666666666 2346.67 0.0 0.0 1.0
30.520833333333332 -57.1875 2337.5 0.0 0.0 1.0
28.645833333333332 -53.4375 2337.5 0.0 0.0 1.0
28.010333333333335 -43.927666666666674 2319.38 0.0 0.0 1.0
28.417 -37.786366666666666 2310.42 0.0 0.0 1.0
28.416966666666667 -34.69756666666667 2310.42 0.0 0.0 1.0
27.381866666666667 -19.9234 2292.72 0.0 0.0 1.0
14.039700000000002 -3.09051 1981.46 0.0 0.0 1.0
12.172133333333333 -0.08296666666666663 2037.6866666666665 -4.6908378949983796e-15 -0.5569780558101405 0.8305272092749015
26.895633333333333 8.23947 2227.306666666667 0.2416657277946465 0.9666629111785876 -0.08461969133258501
28.615400000000005 13.846133333333333 2301.54 0.0 0.0 1.0
27.794866666666667 24.71796666666667 2301.54 0.0 0.0 1.0
25.009433333333334 26.834500000000002 2272.4166666666665 0.195961633478551 -0.9798403793814934 -0.03888276144964084
27.381866666666667 59.15709999999999 2292.72 0.0 0.0 1.0
27.5862 59.97446666666667 2292.72 0.0 0.0 1.0
27.381866666666667 60.5875 2292.72 0.0 0.0 1.0
27.994866666666667 64.87866666666667 2292.72 0.0 0.0 1.0
29.42526666666667 69.78286666666668 2292.72 0.0 0.0 1.0
27.175600000000003 91.2977 2283.97 0.0 0.0 1.0
31.163366666666665 115.34633333333333 2346.67 0.0 0.0 1.0
27.17556666666667 124.68166666666667 2283.97 0.0 0.0 1.0
16.961466666666666 137.959 2035.37 0.0 0.0 1.0
61.46666666666667 219.33333333333334 2992.0 0.0 0.0 1.0
33.523833333333336 -176.43533333333335 2442.45 0.0 0.0 1.0
33.523833333333336 -176.43533333333335 2442.45 0.0 0.0 1.0
34.612233333333336 -172.735 2442.45 0.0 0.0 1.0
32.1951 -167.69633333333334 2432.52 0.0 0.0 1.0
34.14633333333333 -164.878 2432.52 0.0 0.0 1.0
34.14633333333333 -164.878 2432.52 0.0 0.0 1.0
35.230333333333334 -156.63933333333333 2432.52 0.0 0.0 1.0
33.900133333333336 -150.60766666666666 2422.67 0.0 0.0 1.0
32.8205 -143.69766666666666 2422.67 0.0 0.0 1.0
30.860199999999995 -135.80666666666664 2412.9 0.0 0.0 1.0
31.872533333333333 -98.06110000000001 2384.06 0.0 0.0 1.0
29.9341 -83.37286666666667 2365.22 0.0 0.0 1.0
29.7233 -82.74043333333333 2365.22 0.0 0.0 1.0
28.638133333333332 -47.003899999999994 2328.4 0.0 0.0 1.0
28.6305 -41.44703333333333 2319.38 0.0 0.0 1.0
28.416966666666667 -34.69756666666667 2310.42 0.0 0.0 1.0
26.974333333333334 -32.51283333333333 2301.54 0.0 0.0 1.0
26.974333333333334 -32.51283333333333 2301.54 0.0 0.0 1.0
27.38463333333333 -26.7692 2301.54 0.0 0.0 1.0
26.5645 -23.80586666666667 2292.72 0.0 0.0 1.0
26.5645 -23.80586666666667 2292.72 0.0 0.0 1.0
27.586233333333336 -17.675633333333334 2292.72 0.0 0.0 1.0
27.177533333333333 -14.814833333333333 2292.72 0.0 0.0 1.0
22.10983333333333 -2.1393866666666668 2065.846666666667 0.13970762805390396 0.7451087515477688 0.6521462466582764
11.241833333333332 0.958606 1955.5600000000002 8.770725309104651e-28 2.769668865542408e-27 1.0
11.717410000000001 5.949943333333334 1992.46 0.2872649416505382 0.9575563886567059 -0.02376164643370879
26.439399999999996 8.216623333333335 2221.7933333333335 -0.2423681022828416 -0.9694724091313692 -0.03716114810972751
24.5374 30.9252 2275.29 0.0 0.0 1.0
58.2388 60.066300000000005 2923.7900000000004 0.789884189498996 -0.5924131421242448 0.1585232986598306
58.62963333333334 59.01236666666667 2872.3333333333335 -2.592128722574992e-16 -0.9580425539666909 0.28662600159263246
27.381866666666667 59.15709999999999 2292.72 0.0 0.0 1.0
26.973200000000002 61.20053333333334 2292.72 0.0 0.0 1.0
26.361333333333334 70.73786666666668 2283.97 0.0 0.0 1.0
26.361333333333334 70.73786666666668 2283.97 0.0 0.0 1.0
26.361333333333334 71.95926666666666 2283.97 0.0 0.0 1.0
25.547066666666666 78.88043333333333 2283.97 0.0 0.0 1.0
26.76846666666667 86.41219999999998 2283.97 0.0 0.0 1.0
27.1756 91.2977 2283.97 0.0 0.0 1.0
30.326766666666668 114.30066666666666 2346.67 0.0 0.0 1.0
26.7704 118.807 2328.4 0.0 0.0 1.0
25.35353333333333 125.354 2266.67 0.0 0.0 1.0
24.395066666666665 136.0 2216.3 0.0 0.0 1.0
25.923000000000002 139.04999999999998 2186.6066666666666 -0.1103887329168866 0.9934040853505017 0.031026615251052866
26.570999999999998 139.227 2168.1366666666668 -0.07118155690312765 0.9973772090351898 0.0131106389631559
17.430833333333332 138.46166666666667 2092.3266666666664 -0.0008644093570703578 0.9999489884974542 0.01006345861925041
33.95916666666667 -170.34033333333335 2442.45 0.0 0.0 1.0
31.7409 -150.17566666666667 2422.67 0.0 0.0 1.0
31.040000000000003 -114.02666666666666 2393.6 0.0 0.0 1.0
31.25333333333333 -109.12 2393.6 0.0 0.0 1.0
31.0226 -102.94833333333334 2384.06 0.0 0.0 1.0
30.810100000000002 -100.82333333333334 2384.06 0.0 0.0 1.0
31.428566666666665 -96.4021 2374.6 0.0 0.0 1.0
29.7233 -82.74043333333333 2365.22 0.0 0.0 1.0
28.4444 -63.058833333333325 2346.67 0.0 0.0 1.0
28.4444 -63.058833333333325 2346.67 0.0 0.0 1.0
28.645833333333332 -53.4375 2337.5 0.0 0.0 1.0
27.183466666666664 -44.96123333333333 2319.38 0.0 0.0 1.0
27.390200000000004 -41.86046666666667 2319.38 0.0 0.0 1.0
26.360166666666668 -16.65393333333333 2292.72 0.0 0.0 1.0
25.747133333333334 -12.567033333333335 2292.72 0.0 0.0 1.0
15.946800000000001 2.9963666666666664 2056.4233333333336 -0.9919463269406518 -0.12398515389025 -0.025887566200025303
24.404300000000003 54.136599999999994 2349.75 -0.10649487638696957 0.9939257784169724 0.027755869677226985
26.973200000000002 61.20053333333334 2292.72 0.0 0.0 1.0
26.361333333333334 70.73786666666666 2283.97 0.0 0.0 1.0
26.157766666666664 71.145 2283.97 0.0 0.0 1.0
26.768466666666665 86.4122 2283.97 0.0 0.0 1.0
21.6296 129.4813333333333 2216.3 0.0 0.0 1.0
5.568183 136.194 1985.8466666666666 0.32430224648572004 -0.8919335328721305 0.31509145634649516
12.464833333333333 136.384 1955.5733333333335 -0.09967800820946769 0.9949902749674523 -0.007658159020744362
9.473276666666667 134.42366666666666 1881.7733333333333 0.15678954674965834 -0.9857481141932046 0.060972890652960327
33.523833333333336 -176.43533333333335 2442.45 0.0 0.0 1.0
31.075266666666664 -129.14 2412.9 0.0 0.0 1.0
29.76 -108.90666666666668 2393.6 0.0 0.0 1.0
30.385133333333332 -102.31066666666668 2384.06 0.0 0.0 1.0
30.158733333333334 -91.32273333333335 2374.6 0.0 0.0 1.0
30.158733333333334 -91.32273333333335 2374.6 0.0 0.0 1.0
29.7233 -82.74043333333333 2365.22 0.0 0.0 1.0
28.8801 -79.78920000000001 2365.22 0.0 0.0 1.0
28.229166666666668 -58.020833333333336 2337.5 0.0 0.0 1.0
28.645833333333332 -53.4375 2337.5 0.0 0.0 1.0
27.393 -47.00390000000001 2328.4 0.0 0.0 1.0
25.74 -37.786366666666666 2310.42 0.0 0.0 1.0
26.7696 -35.52123333333333 2310.42 0.0 0.0 1.0
26.974333333333334 -32.51283333333333 2301.54 0.0 0.0 1.0
26.5645 -23.80586666666667 2292.72 0.0 0.0 1.0
25.951466666666665 -19.9234 2292.72 0.0 0.0 1.0
25.747133333333334 -14.814833333333333 2292.72 0.0 0.0 1.0
11.241833333333332 0.958606 1955.5600000000002 8.770725309104651e-28 2.769668865542408e-27 1.0
9.617483333333332 1.48634 1961.97 0.0 0.0 1.0
27.794866666666667 24.71796666666667 2301.54 0.0 0.0 1.0
24.521066666666666 24.62323333333333 2292.72 0.0 0.0 1.0
16.32636666666667 27.947233333333333 2155.11 0.19608582311144862 -0.9804120809101137 0.018506798215969098
14.929566666666666 32.20656666666667 2107.04 0.0 0.0 1.0
16.170799999999996 33.74903333333333 2109.523333333333 -7.406250392764735e-17 -0.9958141646073636 0.09140103701456878
25.547066666666666 78.88043333333333 2283.97 0.0 0.0 1.0
26.361333333333334 91.90840000000001 2283.97 0.0 0.0 1.0
30.682100000000002 101.62166666666667 2310.42 0.0 0.0 1.0
26.77 103.87600000000002 2319.38 0.0 0.0 1.0
19.901966666666667 138.529 2200.0 0.0 0.0 1.0
14.271333333333333 137.909 2040.0033333333333 -2.054747526432885e-16 0.9999417782851919 0.010790738614590714
9.30119 132.193 1829.9800000000002 0.1642517966274903 -0.9852080448565492 0.048851362873285155
5.349619999999999 130.96333333333334 1815.1899999999998 -0.11002632186476112 0.992307385588341 -0.056747343583144
60.13333333333333 218.79999999999998 2992.0 0.0 0.0 1.0
31.956833333333332 -147.15266666666665 2422.67 0.0 0.0 1.0
30.860199999999995 -135.80666666666664 2412.9 0.0 0.0 1.0
30.21506666666667 -128.27966666666669 2412.9 0.0 0.0 1.0
27.401600000000002 -70.2362 2355.91 0.0 0.0 1.0
26.98036666666667 -65.77776666666666 2346.67 0.0 0.0 1.0
28.0261 -63.68626666666666 2346.67 0.0 0.0 1.0
28.0261 -63.68626666666666 2346.67 0.0 0.0 1.0
28.229166666666668 -58.020833333333336 2337.5 0.0 0.0 1.0
27.390200000000004 -41.86046666666667 2319.38 0.0 0.0 1.0
26.357766666666667 -36.756766666666664 2310.42 0.0 0.0 1.0
25.743599999999997 -27.179466666666666 2301.54 0.0 0.0 1.0
9.886906666666667 -2.7615000000000003 1999.1166666666668 0.12402985174607056 0.9922619923527746 0.005721399125214452
9.092893333333334 -0.08743166666666667 1961.97 0.0 0.0 1.0
23.7037 13.7931 2292.72 0.0 0.0 1.0
29.235633333333336 28.735500000000002 2246.813333333333 -0.20591276415939838 0.9780941880598926 0.030523643945236642
30.858733333333333 52.706066666666665 2510.7833333333333 0.060905444497236304 -0.7511309117357364 0.6573377216208084
26.768833333333333 56.50066666666667 2292.72 0.0 0.0 1.0
24.529233333333334 76.84476666666667 2283.97 0.0 0.0 1.0
24.529233333333334 79.69466666666666 2283.97 0.0 0.0 1.0
26.35536666666667 106.35533333333335 2328.4 0.0 0.0 1.0
26.35536666666667 106.35533333333335 2328.4 0.0 0.0 1.0
26.5625 110.52066666666667 2337.5 0.0 0.0 1.0
29.490166666666667 117.02 2346.67 0.0 0.0 1.0
25.290266666666668 125.642 2260.9633333333336 -1.3353761038034843e-16 0.9963339044090354 0.08554969856783252
20.839466666666667 128.49366666666666 2216.3 0.0 0.0 1.0
15.458033333333333 138.54833333333332 2102.1133333333332 -1.6991122343925777e-16 -0.9978356508606298 0.06575723436659406
0.010213333333333038 128.98766666666666 1807.8633333333335 -0.4061165527616017 0.9137512346781483 -0.011314888297841663
29.139766666666663 -132.58033333333333 2412.9 0.0 0.0 1.0
28.487266666666667 -122.83833333333332 2403.21 0.0 0.0 1.0
28.487266666666667 -120.48200000000001 2403.21 0.0 0.0 1.0
29.100533333333335 -92.16929999999998 2374.6 0.0 0.0 1.0
27.404466666666668 -79.5784 2365.22 0.0 0.0 1.0
27.401600000000002 -70.23620000000001 2355.91 0.0 0.0 1.0
27.81696666666667 -62.4314 2346.67 0.0 0.0 1.0
26.355400000000003 -47.003899999999994 2328.4 0.0 0.0 1.0
24.521066666666666 -20.127733333333335 2292.72 0.0 0.0 1.0
25.747133333333334 -14.814833333333333 2292.72 0.0 0.0 1.0
8.20514 -2.5864 2001.34 0.0 0.0 1.0
20.122466666666668 14.336033333333333 2281.0766666666664 0.7776027132215914 0.583170202481558 0.23504581538082753
24.521066666666666 24.62323333333333 2292.72 0.0 0.0 1.0
19.259266666666665 33.47123333333334 2139.693333333333 0.712481041928499 -0.5343503911844314 0.4547971243681358
18.037533333333332 35.608466666666665 2142.2466666666664 0.14065092937924023 -0.9845319806451944 0.10447054681395286
20.0253 34.6545 2202.7066666666665 -0.6490815550176741 -0.6058119034438774 0.46009246090491907
46.28489999999999 52.9809 2636.12 0.0 0.0 1.0
37.99713333333333 53.9056 2568.24 0.0 0.0 1.0
22.29006666666667 63.8168 2283.97 0.0 0.0 1.0
23.295033333333336 96.75606666666665 2292.72 0.0 0.0 1.0
26.354166666666668 109.47933333333333 2337.5 0.0 0.0 1.0
26.354166666666668 109.47933333333333 2337.5 0.0 0.0 1.0
23.3079 124.27466666666668 2283.97 0.0 0.0 1.0
20.8395 136.59266666666667 2216.3 0.0 0.0 1.0
14.271333333333333 137.909 2040.0033333333333 -2.054747526432885e-16 0.9999417782851919 0.010790738614590714
31.129266666666666 -176.43533333333335 2442.45 0.0 0.0 1.0
28.717966666666666 -149.95933333333332 2422.67 0.0 0.0 1.0
29.139766666666663 -132.58033333333336 2412.9 0.0 0.0 1.0
27.401600000000002 -70.23620000000001 2355.91 0.0 0.0 1.0
26.355400000000003 -47.003899999999994 2328.4 0.0 0.0 1.0
26.3566 -44.34106666666667 2319.38 0.0 0.0 1.0
25.74 -37.786366666666666 2310.42 0.0 0.0 1.0
23.692333333333334 -27.384599999999995 2301.54 0.0 0.0 1.0
24.3167 -22.375466666666668 2292.72 0.0 0.0 1.0
24.929766666666666 -12.7714 2292.72 0.0 0.0 1.0
9.092893333333334 -0.08743166666666667 1961.97 0.0 0.0 1.0
9.733573333333334 0.4534133333333332 2003.5766666666666 -0.07129894201639772 -0.5704048602966838 0.8182632560596027
27.1795 17.1282 2301.54 0.0 0.0 1.0
14.0351 32.8421 2099.65 0.0 0.0 1.0
31.712100000000003 46.78946666666667 2412.9266666666667 0.7753094625805494 -0.40617642029595763 0.4836485840242081
57.23956666666667 58.77553333333333 2886.1866666666665 -0.31883649330210284 0.9109639349254948 0.2617021203656498
55.06666666666666 59.86666666666667 2992.0 0.0 0.0 1.0
55.06666666666666 59.86666666666667 2992.0 0.0 0.0 1.0
34.5684 51.085033333333335 2422.6966666666667 -0.4241647308450077 -0.5488843304441832 0.7202848553871051
23.715 76.64120000000001 2283.97 0.0 0.0 1.0
24.529233333333334 79.69466666666666 2283.97 0.0 0.0 1.0
26.355366666666665 106.35533333333332 2328.4 0.0 0.0 1.0
26.5625 110.52066666666667 2337.5 0.0 0.0 1.0
26.358966666666664 121.128 2301.54 0.0 0.0 1.0
20.839466666666667 128.49366666666666 2216.3 0.0 0.0 1.0
20.839466666666667 128.49366666666666 2216.3 0.0 0.0 1.0
19.901966666666667 138.529 2200.0 0.0 0.0 1.0
14.5965 138.386 2099.65 0.0 0.0 1.0
51.86666666666667 -220.9333333333333 2992.0 0.0 0.0 1.0
29.823133333333335 -175.78233333333333 2442.45 0.0 0.0 1.0
28.7263 -167.91333333333333 2432.52 0.0 0.0 1.0
28.2927 -165.96233333333336 2432.52 0.0 0.0 1.0
29.593499999999995 -160.54233333333335 2432.52 0.0 0.0 1.0
27.4224 -157.733 2422.67 0.0 0.0 1.0
30.894299999999998 -158.15733333333333 2432.52 0.0 0.0 1.0
30.21506666666667 -128.27966666666666 2412.9 0.0 0.0 1.0
28.487266666666667 -122.83833333333332 2403.21 0.0 0.0 1.0
27.630499999999998 -117.269 2403.21 0.0 0.0 1.0
26.986666666666668 -110.82666666666667 2393.6 0.0 0.0 1.0
27.2 -109.33333333333333 2393.6 0.0 0.0 1.0
25.718033333333334 -82.74043333333333 2365.22 0.0 0.0 1.0
25.725466666666666 -66.40523333333333 2346.67 0.0 0.0 1.0
24.479166666666668 -55.104166666666664 2337.5 0.0 0.0 1.0
23.908033333333336 -21.149433333333334 2292.72 0.0 0.0 1.0
21.0687 -13.944 2283.97 0.0 0.0 1.0
9.092893333333334 -0.08743166666666667 1961.97 0.0 0.0 1.0
23.7037 13.7931 2292.72 0.0 0.0 1.0
22.682000000000002 17.062566666666665 2292.72 0.0 0.0 1.0
22.682000000000002 23.601533333333332 2292.72 0.0 0.0 1.0
21.47583333333333 25.547066666666666 2283.97 0.0 0.0 1.0
23.049066666666665 31.903699999999997 2230.0733333333333 0.7174115281394178 0.03985508335885221 0.6955086423784569
23.918566666666663 77.45546666666667 2283.97 0.0 0.0 1.0
23.295033333333336 96.75606666666665 2292.72 0.0 0.0 1.0
23.854166666666668 114.27066666666667 2337.5 0.0 0.0 1.0
26.358966666666664 121.128 2301.54 0.0 0.0 1.0
25.7471 122.29900000000002 2292.72 0.0 0.0 1.0
25.7471 122.29900000000002 2292.72 0.0 0.0 1.0
14.5965 138.386 2099.65 0.0 0.0 1.0
28.734700000000004 -172.95266666666666 2442.45 0.0 0.0 1.0
28.717966666666666 -149.95933333333332 2422.67 0.0 0.0 1.0
26.989233333333335 -141.183 2412.9 0.0 0.0 1.0
27.2043 -131.93533333333335 2412.9 0.0 0.0 1.0
28.487266666666667 -122.83833333333332 2403.21 0.0 0.0 1.0
26.133333333333336 -114.66666666666667 2393.6 0.0 0.0 1.0
25.7105 -99.97336666666666 2384.06 0.0 0.0 1.0
28.253966666666667 -95.7672 2374.6 0.0 0.0 1.0
24.444433333333333 -89.418 2374.6 0.0 0.0 1.0
22.886333333333337 15.019133333333334 2292.72 0.0 0.0 1.0
22.682000000000002 17.062566666666665 2292.72 0.0 0.0 1.0
11.764616666666667 31.646666666666665 2094.7566666666667 0.17671387589826398 -0.9719105239043088 0.1554417562595879
14.0351 32.8421 2099.65 0.0 0.0 1.0
23.049066666666665 31.903699999999997 2230.0733333333333 0.7174115281394178 0.03985508335885221 0.6955086423784569
54.0 59.6 2992.0 0.0 0.0 1.0
21.495566666666665 87.70596666666665 2275.29 0.0 0.0 1.0
22.6512 119.74266666666666 2310.42 0.0 0.0 1.0
22.847166666666666 126.58333333333333 2238.4133333333334 -0.07101821590366716 0.9930122038730133 0.0942506019562808
18.469166666666666 133.62966666666668 2216.3 0.0 0.0 1.0
19.901966666666667 138.529 2200.0 0.0 0.0 1.0
14.596499999999999 138.386 2099.65 0.0 0.0 1.0
4.36278 134.00766666666667 1887.7466666666667 -0.0019661895048304866 -0.999602502150515 0.02812422075828236
28.734700000000004 -172.95266666666666 2442.45 0.0 0.0 1.0
28.2993 -170.77566666666667 2442.45 0.0 0.0 1.0
28.7263 -167.91333333333333 2432.52 0.0 0.0 1.0
28.7263 -167.91333333333333 2432.52 0.0 0.0 1.0
28.717966666666666 -149.95933333333332 2422.67 0.0 0.0 1.0
25.70283333333333 -126.90766666666667 2403.21 0.0 0.0 1.0
25.710499999999996 -101.67333333333333 2384.06 0.0 0.0 1.0
25.498033333333336 -99.33586666666667 2384.06 0.0 0.0 1.0
25.718033333333334 -82.74043333333334 2365.22 0.0 0.0 1.0
25.718033333333334 -82.74043333333334 2365.22 0.0 0.0 1.0
24.888900000000003 -60.339866666666666 2346.67 0.0 0.0 1.0
24.479166666666668 -55.104166666666664 2337.5 0.0 0.0 1.0
24.0625 -54.270833333333336 2337.5 0.0 0.0 1.0
23.854166666666668 -53.229166666666664 2337.5 0.0 0.0 1.0
22.635666666666665 -42.48063333333334 2319.38 0.0 0.0 1.0
16.09573333333333 -6.061883333333333 2230.0733333333333 0.28527537637903105 0.950912611957552 0.11992982969998978
8.52052 -3.17184 2033.07 -8.275757173322709e-16 0.9876022227640066 0.1569772263469888
22.682 17.062566666666665 2292.72 0.0 0.0 1.0
17.941166666666664 27.745099999999997 2200.0 0.0 0.0 1.0
13.557733333333333 27.403899999999997 2157.7000000000003 0.21690929175901574 -0.9761293664633153 0.011037167957797673
12.488249999999999 30.516433333333335 2107.04 0.0 0.0 1.0
14.929566666666666 32.20656666666667 2107.04 0.0 0.0 1.0
45.56999999999999 54.03456666666667 2749.1666666666665 0.25915364630480675 -0.809848524182229 0.5262934119735766
27.501733333333334 54.8982 2449.1233333333334 0.09030424206279358 -0.9933512531869685 0.07140330284618499
21.686166666666665 53.98236666666667 2307.46 -0.057502281542203416 0.977473633098192 0.20307334688546003
21.272266666666667 57.50633333333334 2283.97 0.0 0.0 1.0
21.272266666666667 57.50633333333334 2283.97 0.0 0.0 1.0
21.679366666666667 64.63106666666665 2283.97 0.0 0.0 1.0
20.4816 81.01396666666666 2275.29 0.0 0.0 1.0
20.8872 81.8251 2275.29 0.0 0.0 1.0
21.495566666666665 87.70596666666665 2275.29 0.0 0.0 1.0
20.684433333333335 88.31433333333332 2275.29 0.0 0.0 1.0
23.295033333333336 96.75606666666665 2292.72 0.0 0.0 1.0
23.875933333333336 104.28933333333333 2319.38 0.0 0.0 1.0
22.6512 119.74266666666666 2310.42 0.0 0.0 1.0
20.101033333333334 124.94966666666666 2266.67 0.0 0.0 1.0
21.9549 125.81466666666667 2249.62 0.0 0.0 1.0
16.343743333333332 126.42566666666666 2235.6266666666666 -0.05846666725685758 0.9939597855779096 0.0928740732055597
17.876566666666665 130.86433333333332 2216.3 0.0 0.0 1.0
18.469166666666666 133.62966666666668 2216.3 0.0 0.0 1.0
17.318600000000004 138.45 2208.12 0.0 0.0 1.0
52.4 218.80000000000004 2992.0 0.0 0.0 1.0
28.7347 -171.86433333333335 2442.45 0.0 0.0 1.0
27.4255 -169.214 2432.52 0.0 0.0 1.0
28.2993 -170.77566666666667 2442.45 0.0 0.0 1.0
26.98923333333333 -141.183 2412.9 0.0 0.0 1.0
27.2043 -131.93533333333332 2412.9 0.0 0.0 1.0
27.2043 -131.93533333333332 2412.9 0.0 0.0 1.0
25.7028 -118.98233333333333 2403.21 0.0 0.0 1.0
25.706666666666667 -117.01333333333332 2393.6 0.0 0.0 1.0
26.133333333333336 -114.66666666666667 2393.6 0.0 0.0 1.0
25.493333333333336 -107.2 2393.6 0.0 0.0 1.0
22.78216666666667 -74.64566666666667 2355.91 0.0 0.0 1.0
23.0065 -65.7778 2346.67 0.0 0.0 1.0
23.4375 -52.604166666666664 2337.5 0.0 0.0 1.0
22.412433333333336 -49.701699999999995 2328.4 0.0 0.0 1.0
23.035 -48.8716 2328.4 0.0 0.0 1.0
23.8651 -47.418933333333335 2328.4 0.0 0.0 1.0
22.63566666666667 -42.48063333333334 2319.38 0.0 0.0 1.0
22.857133333333337 -37.992266666666666 2310.42 0.0 0.0 1.0
20.820533333333334 -30.256433333333334 2301.54 0.0 0.0 1.0
8.52052 -3.17184 2033.07 -8.275757173322709e-16 0.9876022227640066 0.1569772263469888
4.793026666666667 3.7472766666666666 1955.5600000000002 1.737790928680127e-22 3.475604014386976e-22 1.0
21.47583333333333 25.547066666666666 2283.97 0.0 0.0 1.0
22.636833333333332 26.0904 2278.183333333333 0.19583791062319303 -0.9792217447672552 -0.052652515017943824
14.0351 32.8421 2099.65 0.0 0.0 1.0
52.4 59.06666666666666 2992.0 0.0 0.0 1.0
22.72 54.080000000000005 2393.6 0.0 0.0 1.0
21.0687 56.6921 2283.97 0.0 0.0 1.0
20.458033333333333 62.39186666666666 2283.97 0.0 0.0 1.0
20.07603333333333 75.13306666666666 2275.29 0.0 0.0 1.0
20.278833333333335 75.94423333333334 2275.29 0.0 0.0 1.0
20.254433333333335 94.9618 2283.97 0.0 0.0 1.0
24.0625 112.396 2337.5 0.0 0.0 1.0
17.679033333333333 135.605 2216.3 0.0 0.0 1.0
10.206873333333332 138.207 2063.45 0.0 0.0 1.0
52.4 218.80000000000004 2992.0 0.0 0.0 1.0
26.9919 -166.61266666666666 2432.52 0.0 0.0 1.0
25.910933333333332 -158.38066666666666 2422.67 0.0 0.0 1.0
26.342766666666666 -157.30100000000002 2422.67 0.0 0.0 1.0
26.12686666666667 -152.76633333333334 2422.67 0.0 0.0 1.0
24.193533333333335 -146.559 2412.9 0.0 0.0 1.0
26.98923333333333 -141.183 2412.9 0.0 0.0 1.0
25.70283333333333 -126.90766666666667 2403.21 0.0 0.0 1.0
25.7028 -118.98233333333333 2403.21 0.0 0.0 1.0
25.706666666666667 -117.01333333333332 2393.6 0.0 0.0 1.0
26.133333333333336 -114.66666666666667 2393.6 0.0 0.0 1.0
25.92 -113.60000000000001 2393.6 0.0 0.0 1.0
25.493333333333336 -107.2 2393.6 0.0 0.0 1.0
25.493333333333336 -107.2 2393.6 0.0 0.0 1.0
22.96296666666667 -90.26456666666667 2374.6 0.0 0.0 1.0
23.424833333333336 -60.549 2346.67 0.0 0.0 1.0
23.4375 -52.604166666666664 2337.5 0.0 0.0 1.0
22.63566666666667 -42.48063333333334 2319.38 0.0 0.0 1.0
22.857133333333337 -37.992266666666666 2310.42 0.0 0.0 1.0
20.820533333333334 -30.256433333333334 2301.54 0.0 0.0 1.0
20.615399999999998 -28.205133333333333 2301.54 0.0 0.0 1.0
19.236633333333334 -17.20103333333333 2283.97 0.0 0.0 1.0
19.4402 -12.111966666666667 2283.97 0.0 0.0 1.0
8.800086666666667 -3.769553333333333 2168.1366666666668 -0.15595624773872785 -0.9877062847719715 -0.010674446740004714
3.4744833333333336 5.124863333333334 1949.1899999999998 4.088955372140992e-27 7.434441402783404e-27 1.0
5.0 4.473682666666667 1968.42 0.0 0.0 1.0
8.528026666666667 6.83588 1992.46 -0.28692051690678627 -0.9564082982844662 0.05440389646481383
21.04726666666667 19.9234 2292.72 0.0 0.0 1.0
21.47583333333333 25.547066666666666 2283.97 0.0 0.0 1.0
21.0687 56.6921 2283.97 0.0 0.0 1.0
19.46766666666667 77.36373333333334 2275.29 0.0 0.0 1.0
19.67043333333333 81.01396666666666 2275.29 0.0 0.0 1.0
19.670433333333335 81.01396666666666 2275.29 0.0 0.0 1.0
20.254433333333335 94.9618 2283.97 0.0 0.0 1.0
23.854166666666668 114.27066666666667 2337.5 0.0 0.0 1.0
22.651200000000003 119.74266666666666 2310.42 0.0 0.0 1.0
17.876566666666665 130.86433333333332 2216.3 0.0 0.0 1.0
17.876566666666665 130.86433333333332 2216.3 0.0 0.0 1.0
17.4815 134.02466666666666 2216.3 0.0 0.0 1.0
17.3186 138.45 2208.12 0.0 0.0 1.0
10.206873333333332 138.207 2063.45 0.0 0.0 1.0
3.457596666666667 135.69699999999997 1940.7633333333333 0.3149902250237999 -0.9458446363893729 0.07847981876196378
52.4 218.80000000000004 2992.0 0.0 0.0 1.0
50.26666666666667 -219.86666666666667 2992.0 0.0 0.0 1.0
26.558300000000003 -169.64766666666665 2432.52 0.0 0.0 1.0
26.342766666666666 -157.30100000000002 2422.67 0.0 0.0 1.0
24.631833333333333 -122.83800000000001 2403.21 0.0 0.0 1.0
23.989266666666666 -121.767 2403.21 0.0 0.0 1.0
25.2744 -118.12566666666667 2403.21 0.0 0.0 1.0
25.2744 -118.12566666666667 2403.21 0.0 0.0 1.0
25.28 -108.05333333333334 2393.6 0.0 0.0 1.0
23.160700000000002 -100.39850000000001 2384.06 0.0 0.0 1.0
23.2021 -73.38583333333334 2355.91 0.0 0.0 1.0
22.782133333333334 -71.49606666666666 2355.91 0.0 0.0 1.0
23.0065 -65.7778 2346.67 0.0 0.0 1.0
23.0065 -65.7778 2346.67 0.0 0.0 1.0
23.424833333333336 -60.549 2346.67 0.0 0.0 1.0
21.1886 -40.82686666666667 2319.38 0.0 0.0 1.0
18.8295 -15.1654 2283.97 0.0 0.0 1.0
16.09573333333333 -6.061883333333334 2230.0733333333333 0.28527537637903105 0.9509126119575521 0.11992982969998978
19.616866666666667 22.988533333333333 2292.72 0.0 0.0 1.0
