ply
format ascii 1.0
comment VCGLIB generated
element vertex 784
property float x
property float y
property float z
property float nx
property float ny
property float nz
element face 0
property list uchar int vertex_indices
end_header
-39.479166666666664 -78.4375 2337.5 0.0 0.0 1.0
-40.156866666666666 -79.37253333333334 2346.67 0.0 0.0 1.0
-40.67446666666667 -62.568099999999994 2328.4 0.0 0.0 1.0
-40.82686666666667 -54.4703 2319.38 0.0 0.0 1.0
-40.71796666666666 -41.333333333333336 2301.54 0.0 0.0 1.0
-42.78836666666667 -16.730033333333335 2275.29 0.0 0.0 1.0
-47.36723333333333 37.333333333333336 2028.47 0.0 0.0 1.0
-29.061293333333328 63.29193333333333 2904.896666666667 -8.388289958870719e-05 0.9808298257686533 0.19486622551456242
-42.172866666666664 54.22220000000001 2216.3 0.0 0.0 1.0
-43.753099999999996 83.65433333333333 2216.3 0.0 0.0 1.0
-42.962999999999994 90.56793333333333 2216.3 0.0 0.0 1.0
-42.76546666666667 92.14813333333332 2216.3 0.0 0.0 1.0
-42.567933333333336 93.13576666666667 2216.3 0.0 0.0 1.0
-43.02356666666666 101.61099999999999 2224.54 0.0 0.0 1.0
-42.42876666666667 103.79199999999999 2224.54 0.0 0.0 1.0
-46.331766666666674 112.53866666666666 2310.4466666666667 0.041254371575073986 -0.9878088321684111 0.15010592232162498
-35.63133333333334 122.45800000000001 2400.11 -6.250978610527986e-05 0.9998777719085796 0.015634491858108047
-42.58853333333333 136.65466666666669 2191.94 0.0 0.0 1.0
-42.58853333333333 136.65466666666669 2191.94 0.0 0.0 1.0
-40.32256666666667 -176.02133333333336 2412.9 0.0 0.0 1.0
-37.57083333333333 -175.8706666666667 2422.67 0.0 0.0 1.0
-41.55286666666667 -159.67866666666666 2403.21 0.0 0.0 1.0
-41.64676666666667 -132.05833333333334 2384.06 0.0 0.0 1.0
-40.629933333333334 -93.96323333333333 2355.91 0.0 0.0 1.0
-41.259833333333326 -90.81363333333333 2355.91 0.0 0.0 1.0
-42.24836666666666 -88.5752 2346.67 0.0 0.0 1.0
-41.354166666666664 -70.3125 2337.5 0.0 0.0 1.0
-42.68733333333333 -53.85013333333333 2319.38 0.0 0.0 1.0
-43.17946666666666 -36.6154 2301.54 0.0 0.0 1.0
-42.503233333333334 -30.14046666666667 2292.72 0.0 0.0 1.0
-42.23916666666667 -21.6794 2283.97 0.0 0.0 1.0
-42.78836666666667 -16.730033333333335 2275.29 0.0 0.0 1.0
-48.226933333333335 14.966633333333334 1964.1200000000001 -0.6960487639255231 0.696048763925522 0.17615969026853007
-49.41173333333334 16.296300000000002 1955.5600000000002 -4.613976993052116e-29 -6.785715770925483e-27 1.0
-47.91296666666667 16.956 1951.3133333333335 -0.9998646913527174 1.5404344466674047e-15 0.016449893195253473
-47.91296666666667 16.956 1951.3133333333335 -0.9998646913527174 1.5404344466674047e-15 0.016449893195253473
-46.28213333333333 43.53806666666667 2400.0333333333333 -0.5179220355959314 -0.6289053289379168 0.579857613796402
-42.172866666666664 54.22220000000001 2216.3 0.0 0.0 1.0
-45.06766666666667 56.7774 2208.12 0.0 0.0 1.0
-42.705999999999996 73.3087 2208.12 0.0 0.0 1.0
-44.08363333333333 78.62240000000001 2208.12 0.0 0.0 1.0
-43.753099999999996 83.65433333333334 2216.3 0.0 0.0 1.0
-44.345666666666666 87.60493333333334 2216.3 0.0 0.0 1.0
-42.962999999999994 90.56793333333333 2216.3 0.0 0.0 1.0
-43.02356666666666 101.61099999999999 2224.54 0.0 0.0 1.0
-42.62703333333334 104.38666666666666 2224.54 0.0 0.0 1.0
-51.57513333333333 99.77303333333333 1848.8166666666668 -0.2146285954892163 0.9656983120589477 0.14615517809788944
-44.8062 133.82266666666666 2152.5366666666664 0.888791313770299 0.0496303475097416 0.45561697638754417
-42.968466666666664 138.19066666666666 2082.6066666666666 -0.08302333659224011 -0.9953724363233593 0.048382213558203054
-45.596900000000005 137.51733333333334 2026.1866666666667 2.850413149282114e-17 0.9999384573839819 0.011094207702364911
-49.5114 136.808 1949.1899999999998 0.0 -1.0 0.0
-48.9864 135.674 1875.86 0.0 0.0 1.0
-40.32256666666667 -176.02133333333336 2412.9 0.0 0.0 1.0
-39.89246666666667 -172.58066666666664 2412.9 0.0 0.0 1.0
-41.827933333333334 -167.63433333333333 2412.9 0.0 0.0 1.0
-40.967733333333335 -164.40866666666668 2412.9 0.0 0.0 1.0
-41.55286666666667 -159.67866666666666 2403.21 0.0 0.0 1.0
-39.83936666666667 -154.53833333333333 2403.21 0.0 0.0 1.0
-41.2218 -133.33333333333334 2384.06 0.0 0.0 1.0
-41.94990000000001 -113.307 2365.22 0.0 0.0 1.0
-41.94990000000001 -113.307 2365.22 0.0 0.0 1.0
-41.3175 -106.56099999999999 2365.22 0.0 0.0 1.0
-41.259833333333326 -90.81363333333333 2355.91 0.0 0.0 1.0
-42.24836666666666 -88.5752 2346.67 0.0 0.0 1.0
-40.2594 -68.79376666666667 2328.4 0.0 0.0 1.0
-42.1875 -68.4375 2337.5 0.0 0.0 1.0
-43.514199999999995 -59.63823333333334 2319.38 0.0 0.0 1.0
-42.48063333333333 -57.36433333333333 2319.38 0.0 0.0 1.0
-42.41956666666667 -44.16986666666667 2310.42 0.0 0.0 1.0
-41.1282 -42.76923333333334 2301.54 0.0 0.0 1.0
-42.76919999999999 -36.0 2301.54 0.0 0.0 1.0
-42.23916666666667 -22.6972 2283.97 0.0 0.0 1.0
-42.84983333333334 -20.458 2283.97 0.0 0.0 1.0
-43.0534 -19.4402 2283.97 0.0 0.0 1.0
-43.0534 -19.4402 2283.97 0.0 0.0 1.0
-44.613433333333326 -11.660333333333334 2275.29 0.0 0.0 1.0
-43.9394 -5.555556666666667 2266.67 0.0 0.0 1.0
-42.666666666666664 -1.5094343333333333 2258.11 0.0 0.0 1.0
-44.411 1.9047606666666665 2249.62 0.0 0.0 1.0
-46.54183333333333 9.28839 2241.2 0.0 0.0 1.0
-49.486333333333334 15.300533333333334 1961.97 0.0 0.0 1.0
-49.41173333333334 16.296300000000002 1955.5600000000002 -4.613976993052116e-29 -6.785715770925483e-27 1.0
-37.53436666666667 33.01866666666667 2160.31 -0.6211409033136454 0.6613059248008186 0.4205454221056778
-48.163233333333345 34.739200000000004 2035.37 0.0 0.0 1.0
-46.0606 39.546633333333325 2181.2933333333335 -0.6514689899182745 -0.3257310085949229 0.6851915536655405
-42.902800000000006 61.3038 2208.12 0.0 0.0 1.0
-46.37253333333334 73.0392 2200.0 0.0 0.0 1.0
-44.54316666666667 85.43206666666667 2216.3 0.0 0.0 1.0
-43.4201 99.82663333333333 2224.54 0.0 0.0 1.0
-50.22743333333333 103.17796666666668 1850.7233333333334 0.9716705501871629 -0.09254227647017699 0.21746785731388796
-48.52943333333334 134.804 2200.0 0.0 0.0 1.0
-47.30780000000001 138.17366666666666 2102.1133333333332 0.31589226689130767 0.9483525060576349 0.028975851540108066
-49.179633333333335 135.49333333333334 1864.17 0.0 0.0 1.0
-55.85663333333334 135.03733333333332 1848.8433333333335 -0.010773799424403 -0.9990011296538163 0.04336667149276895
-41.39783333333333 -168.27966666666666 2412.9 0.0 0.0 1.0
-41.39783333333333 -168.27966666666669 2412.9 0.0 0.0 1.0
-43.413333333333334 -146.45333333333332 2393.6 0.0 0.0 1.0
-43.06876666666667 -114.603 2374.6 0.0 0.0 1.0
-41.94990000000001 -113.307 2365.22 0.0 0.0 1.0
-43.7037 -112.27499999999999 2374.6 0.0 0.0 1.0
-41.7391 -109.09066666666666 2365.22 0.0 0.0 1.0
-42.1607 -108.03666666666668 2365.22 0.0 0.0 1.0
-44.339866666666666 -82.30066666666666 2346.67 0.0 0.0 1.0
-43.229166666666664 -71.97916666666667 2337.5 0.0 0.0 1.0
-42.8125 -70.9375 2337.5 0.0 0.0 1.0
-42.1875 -68.4375 2337.5 0.0 0.0 1.0
-45.30243333333334 -50.14156666666667 2310.42 0.0 0.0 1.0
-43.58973333333333 -35.79486666666667 2301.54 0.0 0.0 1.0
-44.20513333333333 -32.923066666666664 2301.54 0.0 0.0 1.0
-44.0051 -15.3105 2275.29 0.0 0.0 1.0
-43.9394 -5.555556666666667 2266.67 0.0 0.0 1.0
-45.08176666666666 -0.30188766666666667 2258.11 0.0 0.0 1.0
-44.411 1.9047606666666663 2249.62 0.0 0.0 1.0
-49.486333333333334 15.300533333333334 1961.97 0.0 0.0 1.0
-48.163233333333345 34.739200000000004 2035.37 0.0 0.0 1.0
-44.674033333333334 67.0111 2208.12 0.0 0.0 1.0
-45.588233333333335 67.54899999999999 2200.0 0.0 0.0 1.0
-44.74073333333333 84.2469 2216.3 0.0 0.0 1.0
-44.54316666666667 85.43206666666667 2216.3 0.0 0.0 1.0
-43.950633333333336 88.98766666666667 2216.3 0.0 0.0 1.0
-48.609 136.78266666666664 1951.3133333333335 -2.642281031998632e-16 0.9999288340974062 0.011930077141506585
-49.5114 136.808 1949.1899999999998 0.0 -1.0 0.0
-47.70656666666667 136.49066666666667 1932.4033333333334 1.4141760443694742e-16 0.9999260753980783 0.012159101076839431
-54.76793333333333 135.61166666666668 1893.67 0.0 0.0 1.0
-42.838 -162.89133333333334 2403.21 0.0 0.0 1.0
-43.0522 -150.89699999999996 2403.21 0.0 0.0 1.0
-43.7716 -138.43266666666668 2384.06 0.0 0.0 1.0
-43.7716 -131.63333333333333 2384.06 0.0 0.0 1.0
-43.492066666666666 -122.22233333333334 2374.6 0.0 0.0 1.0
-43.06876666666667 -114.603 2374.6 0.0 0.0 1.0
-44.549033333333334 -86.90196666666667 2346.67 0.0 0.0 1.0
-43.71243333333334 -83.55556666666666 2346.67 0.0 0.0 1.0
-43.57976666666667 -62.568099999999994 2328.4 0.0 0.0 1.0
-42.41956666666667 -44.16986666666667 2310.42 0.0 0.0 1.0
-45.15963333333334 -29.11876666666667 2292.72 0.0 0.0 1.0
-43.9394 -5.555556666666667 2266.67 0.0 0.0 1.0
-48.41863333333333 33.5836 2042.32 0.0 0.0 1.0
-45.06766666666667 56.7774 2208.12 0.0 0.0 1.0
-45.98036666666667 69.70586666666668 2200.0 0.0 0.0 1.0
-46.8389 87.47846666666668 2208.12 0.0 0.0 1.0
-46.12343333333333 97.28396666666667 2216.3 0.0 0.0 1.0
-43.8742 113.61 2258.11 0.0 0.0 1.0
-52.1775 98.98863333333334 1852.63 0.0 0.0 1.0
-49.179633333333335 135.49333333333334 1864.17 0.0 0.0 1.0
-41.39783333333333 -176.45133333333334 2412.9 0.0 0.0 1.0
-41.827933333333334 -167.63433333333333 2412.9 0.0 0.0 1.0
-42.25803333333334 -165.0536666666667 2412.9 0.0 0.0 1.0
-42.62383333333333 -159.25033333333334 2403.21 0.0 0.0 1.0
-43.0522 -150.89699999999996 2403.21 0.0 0.0 1.0
-44.48 -144.10666666666665 2393.6 0.0 0.0 1.0
-43.7716 -138.43266666666668 2384.06 0.0 0.0 1.0
-42.49666666666667 -126.53366666666666 2384.06 0.0 0.0 1.0
-43.492066666666666 -122.22233333333332 2374.6 0.0 0.0 1.0
-43.229166666666664 -71.97916666666667 2337.5 0.0 0.0 1.0
-44.34106666666667 -57.77776666666667 2319.38 0.0 0.0 1.0
-43.589733333333335 -35.794866666666664 2301.54 0.0 0.0 1.0
-45.15963333333334 -29.11876666666667 2292.72 0.0 0.0 1.0
-44.54659999999999 -23.397166666666667 2292.72 0.0 0.0 1.0
-44.478366666666666 -19.64373333333333 2283.97 0.0 0.0 1.0
-44.2748 -17.60813333333333 2283.97 0.0 0.0 1.0
-44.613433333333326 -11.660333333333334 2275.29 0.0 0.0 1.0
-44.411 1.9047606666666665 2249.62 0.0 0.0 1.0
-47.9452 31.506866666666667 2049.32 0.0 0.0 1.0
-35.06666666666666 63.866666666666674 2992.0 0.0 0.0 1.0
-45.264466666666664 55.20296666666667 2208.12 0.0 0.0 1.0
-45.06766666666667 56.7774 2208.12 0.0 0.0 1.0
-47.7451 60.29413333333334 2200.0 0.0 0.0 1.0
-46.56863333333334 65.7843 2200.0 0.0 0.0 1.0
-44.93823333333333 84.83946666666667 2216.3 0.0 0.0 1.0
-46.12343333333333 97.28396666666667 2216.3 0.0 0.0 1.0
-43.816633333333336 104.98133333333332 2224.54 0.0 0.0 1.0
-52.1775 98.98863333333334 1852.63 0.0 0.0 1.0
-45.90966666666666 136.85 2191.94 0.0 0.0 1.0
-47.30780000000001 138.17366666666666 2102.1133333333332 0.31589226689130767 0.9483525060576349 0.028975851540108066
-50.704633333333334 135.519 1862.2433333333336 -0.446872436054028 0.8927597825696648 0.05731488917640276
-32.93333333333333 220.9333333333333 2992.0 0.0 0.0 1.0
-40.4 -221.73333333333335 2992.0 0.0 0.0 1.0
-42.62383333333333 -159.25033333333334 2403.21 0.0 0.0 1.0
-44.12316666666667 -152.82466666666667 2403.21 0.0 0.0 1.0
-43.0522 -150.89699999999996 2403.21 0.0 0.0 1.0
-44.19656666666666 -139.28266666666664 2384.06 0.0 0.0 1.0
-43.7716 -131.63333333333333 2384.06 0.0 0.0 1.0
-46.24336666666667 -131.74599999999998 2374.6 0.0 0.0 1.0
-44.550266666666666 -124.33866666666665 2374.6 0.0 0.0 1.0
-43.915333333333336 -114.17966666666666 2374.6 0.0 0.0 1.0
-44.33863333333334 -113.54466666666667 2374.6 0.0 0.0 1.0
-44.547799999999995 -53.22996666666668 2319.38 0.0 0.0 1.0
-46.25643333333333 -40.51283333333333 2301.54 0.0 0.0 1.0
-45.49620000000001 -20.254433333333335 2283.97 0.0 0.0 1.0
-44.81623333333334 -13.282633333333331 2275.29 0.0 0.0 1.0
-47.77779999999999 -11.616133333333332 2266.67 0.0 0.0 1.0
-50.9492 11.920499999999999 1981.46 0.0 0.0 1.0
-43.94146666666666 52.871900000000004 2416.1566666666668 0.6396092680757617 0.5904132481361325 0.4922521514599302
-47.232499999999995 78.8192 2208.12 0.0 0.0 1.0
-47.429300000000005 82.1648 2208.12 0.0 0.0 1.0
-45.3333 87.4074 2216.3 0.0 0.0 1.0
-43.8742 113.61 2258.11 0.0 0.0 1.0
-54.042300000000004 102.72886666666666 1909.79 -0.7145098657771097 -0.41364037632705536 0.5642493161530535
-47.4725 134.11466666666666 2191.94 0.0 0.0 1.0
-49.5777 138.12699999999998 2181.2933333333335 -4.3541246324001835e-16 0.9745337331518736 0.22424094842172007
-49.89703333333333 138.33533333333332 2104.5766666666664 8.884340724632028e-18 0.9999471221407868 0.010283623989539189
-44.48 -144.10666666666665 2393.6 0.0 0.0 1.0
-43.34663333333333 -133.546 2384.06 0.0 0.0 1.0
-43.7716 -131.63333333333333 2384.06 0.0 0.0 1.0
-44.33863333333334 -113.54466666666667 2374.6 0.0 0.0 1.0
-45.9552 -110.77733333333333 2365.22 0.0 0.0 1.0
-43.00393333333333 -107.19366666666667 2365.22 0.0 0.0 1.0
-45.1765 -87.32026666666667 2346.67 0.0 0.0 1.0
-45.1765 -87.32026666666667 2346.67 0.0 0.0 1.0
-45.1765 -87.32026666666667 2346.67 0.0 0.0 1.0
-46.5625 -74.89583333333333 2337.5 0.0 0.0 1.0
-46.615 -60.4651 2319.38 0.0 0.0 1.0
-46.25643333333333 -40.51283333333333 2301.54 0.0 0.0 1.0
-44.20513333333333 -32.923066666666664 2301.54 0.0 0.0 1.0
-46.514 -20.865133333333333 2283.97 0.0 0.0 1.0
-47.619033333333334 7.5188 2249.62 0.0 0.0 1.0
-50.9492 11.920499999999999 1981.46 0.0 0.0 1.0
-48.16323333333333 34.7392 2035.37 0.0 0.0 1.0
-43.35803333333333 50.07406666666666 2216.3 0.0 0.0 1.0
-35.86666666666667 64.93333333333334 2992.0 0.0 0.0 1.0
-35.86666666666667 64.93333333333334 2992.0 0.0 0.0 1.0
-48.137233333333334 58.13726666666667 2200.0 0.0 0.0 1.0
-47.232466666666674 66.8143 2208.12 0.0 0.0 1.0
-47.94113333333333 72.45096666666667 2200.0 0.0 0.0 1.0
-47.94113333333333 72.45096666666667 2200.0 0.0 0.0 1.0
-47.232499999999995 78.81920000000001 2208.12 0.0 0.0 1.0
-46.8389 80.984 2208.12 0.0 0.0 1.0
-47.30863333333334 98.0741 2216.3 0.0 0.0 1.0
-55.36586666666667 100.7317 1824.39 0.0 0.0 1.0
-54.30010000000001 103.36366666666667 1807.8499999999997 -5.3197504685706276e-27 4.257290678348842e-27 1.0
-47.4725 133.13766666666666 2191.94 0.0 0.0 1.0
-51.491233333333334 136.75433333333334 1968.42 0.0 0.0 1.0
-51.491233333333334 136.75433333333334 1968.42 0.0 0.0 1.0
-45.54666666666666 -146.24 2393.6 0.0 0.0 1.0
-45.25896666666667 -138.85766666666666 2384.06 0.0 0.0 1.0
-46.24336666666667 -131.74599999999998 2374.6 0.0 0.0 1.0
-44.69036666666667 -116.25833333333334 2365.22 0.0 0.0 1.0
-46.770833333333336 -78.22916666666667 2337.5 0.0 0.0 1.0
-46.5625 -74.89583333333333 2337.5 0.0 0.0 1.0
-46.27753333333333 -61.94553333333334 2328.4 0.0 0.0 1.0
-46.27753333333333 -61.94553333333334 2328.4 0.0 0.0 1.0
-46.20153333333334 -57.36433333333333 2319.38 0.0 0.0 1.0
-45.15963333333334 -29.11876666666667 2292.72 0.0 0.0 1.0
-42.761900000000004 8.857133333333332 2137.14 0.0 0.0 1.0
-49.486333333333334 15.300533333333334 1961.97 0.0 0.0 1.0
-39.37656666666667 33.49596666666667 2753.383333333333 -0.09949950937756556 -0.9950355791314325 0.0020109441061953795
-34.26666666666667 38.53333333333334 2992.0 0.0 0.0 1.0
-35.86666666666667 64.93333333333334 2992.0 0.0 0.0 1.0
-45.85486666666666 60.7134 2208.12 0.0 0.0 1.0
-49.313733333333325 76.56863333333334 2200.0 0.0 0.0 1.0
-47.232499999999995 78.81920000000001 2208.12 0.0 0.0 1.0
-47.7037 91.55556666666666 2216.3 0.0 0.0 1.0
-50.26956666666667 107.65073333333333 2116.99 -0.5958081324504362 0.794401085646443 0.11806601725168982
-53.929366666666674 101.279 1822.54 0.37114594718354577 -0.9284739279747624 0.013669343815429669
-47.4725 133.13766666666666 2191.94 0.0 0.0 1.0
-47.4725 134.11466666666666 2191.94 0.0 0.0 1.0
-49.5114 136.808 1949.1899999999998 0.0 -1.0 0.0
-46.26506666666666 -165.24766666666665 2403.21 0.0 0.0 1.0
-46.26506666666666 -165.0333333333333 2403.21 0.0 0.0 1.0
-44.12316666666667 -152.82466666666664 2403.21 0.0 0.0 1.0
-45.54666666666666 -146.24 2393.6 0.0 0.0 1.0
-45.76 -145.38666666666668 2393.6 0.0 0.0 1.0
-45.333333333333336 -144.53333333333333 2393.6 0.0 0.0 1.0
-45.820100000000004 -125.39699999999999 2374.6 0.0 0.0 1.0
-45.9552 -110.77733333333333 2365.22 0.0 0.0 1.0
-46.92913333333333 -97.53280000000001 2355.91 0.0 0.0 1.0
-46.92913333333333 -97.53280000000001 2355.91 0.0 0.0 1.0
-46.92913333333333 -96.27293333333334 2355.91 0.0 0.0 1.0
-46.770833333333336 -78.22916666666667 2337.5 0.0 0.0 1.0
-46.27753333333333 -61.94553333333334 2328.4 0.0 0.0 1.0
-46.615 -60.4651 2319.38 0.0 0.0 1.0
-46.61496666666667 -54.26356666666667 2319.38 0.0 0.0 1.0
-47.77779999999999 -11.616133333333332 2266.67 0.0 0.0 1.0
-48.90566666666667 0.7044033333333334 2258.11 0.0 0.0 1.0
-47.619033333333334 7.5188 2249.62 0.0 0.0 1.0
-49.1386 8.888889999999998 2241.2 0.0 0.0 1.0
-49.33833333333333 9.687889999999998 2241.2 0.0 0.0 1.0
-51.5102 12.259433333333334 1979.28 9.455487243434446e-17 0.9881287045509742 0.1536283282549596
-51.85183333333333 16.64486666666667 1955.5600000000002 -5.310550158205679e-27 -2.295127943371052e-26 1.0
-50.736133333333335 28.632899999999996 2286.8866666666668 -0.17242697290807046 0.6681540788485428 0.7237672733218978
-37.27096666666666 63.76253333333333 2987.036666666667 5.1039259365680666e-17 -0.9918528573754857 0.1273888115812558
-48.72546666666667 58.13726666666667 2200.0 0.0 0.0 1.0
-48.72546666666667 58.13726666666667 2200.0 0.0 0.0 1.0
-48.5294 59.509800000000006 2200.0 0.0 0.0 1.0
-48.5294 59.509800000000006 2200.0 0.0 0.0 1.0
-49.11763333333334 63.82353333333333 2200.0 0.0 0.0 1.0
-49.11763333333334 63.82353333333333 2200.0 0.0 0.0 1.0
-47.42929999999999 82.1648 2208.12 0.0 0.0 1.0
-50.7749 91.2177 2208.12 0.0 0.0 1.0
-54.64396666666667 99.52833333333335 1841.24 -0.1643801689553591 0.9861866917477102 0.020370789722405122
-47.792300000000004 136.45000000000002 2157.7000000000003 -1.5615533043430138e-14 -0.6479025332583098 0.7617232485604367
-45.0659 133.009 1818.84 0.0 0.0 1.0
-47.336033333333326 -161.392 2403.21 0.0 0.0 1.0
-45.40833333333333 -160.53533333333334 2403.21 0.0 0.0 1.0
-46.74636666666667 -142.25766666666667 2384.06 0.0 0.0 1.0
-45.54666666666666 -143.68 2393.6 0.0 0.0 1.0
-48.27406666666667 -113.93966666666665 2365.22 0.0 0.0 1.0
-45.9552 -110.77733333333333 2365.22 0.0 0.0 1.0
-45.17646666666667 -83.97386666666667 2346.67 0.0 0.0 1.0
-47.10763333333333 -64.43580000000001 2328.4 0.0 0.0 1.0
-46.615 -60.4651 2319.38 0.0 0.0 1.0
-48.307700000000004 -41.33336666666667 2301.54 0.0 0.0 1.0
-47.076933333333336 -41.128233333333334 2301.54 0.0 0.0 1.0
-46.514 -20.865133333333333 2283.97 0.0 0.0 1.0
-49.480333333333334 -18.75793333333333 2275.29 0.0 0.0 1.0
-47.619033333333334 7.5188 2249.62 0.0 0.0 1.0
-39.46093333333334 19.0471 2191.96 -0.6667352702540142 0.7408150507208223 0.08159129870771654
-50.9492 11.920499999999999 1981.46 0.0 0.0 1.0
-51.05023333333333 28.401833333333332 2049.32 0.0 0.0 1.0
-40.4 39.6 2992.0 0.0 0.0 1.0
-51.05023333333333 31.3242 2049.32 0.0 0.0 1.0
-54.4181 36.610166666666665 2028.47 0.0 0.0 1.0
-53.93186666666667 38.689899999999994 2023.9033333333334 0.14261241008870687 0.9269608784509681 0.3469945681276587
-49.1176 56.9608 2200.0 0.0 0.0 1.0
-49.1176 56.9608 2200.0 0.0 0.0 1.0
-48.72546666666667 58.13726666666667 2200.0 0.0 0.0 1.0
-48.72546666666667 71.66666666666667 2200.0 0.0 0.0 1.0
-48.8889 98.27163333333333 2216.3 0.0 0.0 1.0
-49.16976666666667 107.75699999999999 2224.54 0.0 0.0 1.0
-52.1775 98.98863333333333 1852.63 0.0 0.0 1.0
-52.45506666666666 99.8975 1845.0166666666667 -0.21692981790304416 0.9760524151347302 0.01622149851932591
-55.47873333333334 100.28463333333332 1828.11 -0.3693698524519461 0.9238966813451469 0.09990412553569483
-54.30010000000001 103.36366666666667 1807.8499999999997 -5.3197504685706276e-27 4.257290678348842e-27 1.0
-47.792300000000004 136.45000000000002 2157.7000000000003 -1.5615533043430138e-14 -0.6479025332583098 0.7617232485604367
-54.8097 138.131 2070.59 0.0 0.0 1.0
-51.633100000000006 137.181 2008.05 0.0 0.0 1.0
-54.178 136.63033333333334 1964.1200000000001 1.6592170381069844e-16 0.9999287498786785 0.01193713391327971
-53.709133333333334 135.74466666666666 1909.79 6.502200844200589e-17 0.9999200782835237 0.01264266765645837
-51.59886666666666 135.62266666666667 1879.7933333333333 -1.6416311169326555e-16 0.9999148485677032 0.013049736159273259
-37.733333333333334 220.9333333333333 2992.0 0.0 0.0 1.0
-47.41936666666667 -172.15066666666667 2412.9 0.0 0.0 1.0
-46.74636666666667 -138.64533333333335 2384.06 0.0 0.0 1.0
-45.25896666666667 -131.20866666666666 2384.06 0.0 0.0 1.0
-45.820100000000004 -125.39699999999999 2374.6 0.0 0.0 1.0
-46.3768 -107.40466666666667 2365.22 0.0 0.0 1.0
-47.604166666666664 -78.22916666666667 2337.5 0.0 0.0 1.0
-47.937733333333334 -66.3035 2328.4 0.0 0.0 1.0
-48.268699999999995 -57.777800000000006 2319.38 0.0 0.0 1.0
-46.74386666666666 -46.22906666666666 2310.42 0.0 0.0 1.0
-46.74386666666666 -46.22906666666666 2310.42 0.0 0.0 1.0
-47.692299999999996 -36.6154 2301.54 0.0 0.0 1.0
-48.224766666666675 -31.162200000000002 2292.72 0.0 0.0 1.0
-47.5318 -22.29006666666667 2283.97 0.0 0.0 1.0
-47.12466666666666 -19.4402 2283.97 0.0 0.0 1.0
-50.20203333333333 -6.7676799999999995 2266.67 0.0 0.0 1.0
-49.59596666666667 -5.959596666666666 2266.67 0.0 0.0 1.0
-48.503166666666665 -0.5031433333333334 2258.11 0.0 0.0 1.0
-48.503166666666665 -0.5031433333333334 2258.11 0.0 0.0 1.0
-48.41863333333333 33.5836 2042.32 0.0 0.0 1.0
-36.93333333333333 64.66666666666667 2992.0 0.0 0.0 1.0
-49.70586666666667 58.13726666666667 2200.0 0.0 0.0 1.0
-47.232466666666674 66.8143 2208.12 0.0 0.0 1.0
-50.29409999999999 71.4706 2200.0 0.0 0.0 1.0
-49.90196666666666 77.15686666666667 2200.0 0.0 0.0 1.0
-54.30009999999999 103.36366666666667 1807.8499999999997 1.0634420266268043e-27 1.064424263031823e-27 1.0
-51.07843333333333 133.23533333333333 2200.0 0.0 0.0 1.0
-51.48416666666666 137.90733333333333 2183.94 0.0 0.0 1.0
-51.491233333333334 136.75433333333334 1968.42 0.0 0.0 1.0
-47.8495 -173.65599999999998 2412.9 0.0 0.0 1.0
-47.41936666666667 -172.15066666666667 2412.9 0.0 0.0 1.0
-46.90763333333333 -165.24766666666665 2403.21 0.0 0.0 1.0
-46.90763333333333 -165.0333333333333 2403.21 0.0 0.0 1.0
-50.45333333333334 -160.10666666666665 2393.6 0.0 0.0 1.0
-47.59629999999999 -137.79566666666668 2384.06 0.0 0.0 1.0
-48.44623333333333 -136.0956666666667 2384.06 0.0 0.0 1.0
-47.76903333333333 -100.47223333333334 2355.91 0.0 0.0 1.0
-46.92913333333333 -96.27293333333334 2355.91 0.0 0.0 1.0
-47.89543333333333 -88.57516666666668 2346.67 0.0 0.0 1.0
-49.0625 -79.27083333333333 2337.5 0.0 0.0 1.0
-47.604166666666664 -78.22916666666667 2337.5 0.0 0.0 1.0
-46.5625 -74.89583333333333 2337.5 0.0 0.0 1.0
-49.3904 -67.75616666666666 2328.4 0.0 0.0 1.0
-48.22476666666666 -24.214533333333335 2292.72 0.0 0.0 1.0
-53.03086666666667 18.126833333333334 2152.536666666667 -0.6804285755990311 0.42259639567455237 0.5986896022741255
-46.88033333333333 54.29226666666667 2553.6666666666665 -0.15871579388385101 -0.952224834182579 0.2609160055224265
-39.61536666666667 61.666666666666664 2876.92 0.0 0.0 1.0
-46.88033333333333 54.29226666666667 2553.6666666666665 -0.15871579388385101 -0.952224834182579 0.2609160055224265
-50.29413333333333 58.333333333333336 2200.0 0.0 0.0 1.0
-50.490199999999994 59.90196666666666 2200.0 0.0 0.0 1.0
-49.70586666666667 60.29413333333334 2200.0 0.0 0.0 1.0
-50.09803333333334 63.43136666666667 2200.0 0.0 0.0 1.0
-50.68626666666666 74.0196 2200.0 0.0 0.0 1.0
-50.68626666666666 74.0196 2200.0 0.0 0.0 1.0
-48.61010000000001 81.968 2208.12 0.0 0.0 1.0
-42.97793333333333 112.307 2301.56 0.2025487488517702 -0.9792027181656474 0.01166366475814927
-46.331766666666674 112.53866666666666 2310.4466666666667 0.041254371575073986 -0.9878088321684111 0.15010592232162498
-49.21523333333334 109.77300000000001 2249.6433333333334 -0.9220135547877474 -0.20449050036455657 0.328747076106108
-53.752900000000004 98.26283333333333 1905.743333333333 -0.7932081685516574 0.594892481899536 0.13009126151412287
-55.36586666666667 100.7317 1824.39 0.0 0.0 1.0
-54.76793333333333 135.61166666666668 1893.67 0.0 0.0 1.0
-52.469766666666665 135.64833333333334 1877.8266666666666 5.922537765704946e-17 0.9999148485677034 0.013049736159273063
-48.06453333333334 -173.011 2412.9 0.0 0.0 1.0
-48.924733333333336 -168.92499999999998 2412.9 0.0 0.0 1.0
-47.513233333333325 -122.222 2374.6 0.0 0.0 1.0
-49.3281 -113.51799999999999 2365.22 0.0 0.0 1.0
-49.44883333333333 -101.94200000000001 2355.91 0.0 0.0 1.0
-52.29573333333334 -75.22696666666667 2328.4 0.0 0.0 1.0
-49.743599999999994 -42.76923333333334 2301.54 0.0 0.0 1.0
-49.94873333333334 -41.538466666666665 2301.54 0.0 0.0 1.0
-50.47253333333333 -33.205600000000004 2292.72 0.0 0.0 1.0
-49.480333333333334 -18.75793333333333 2275.29 0.0 0.0 1.0
-51.10263333333334 -14.499333333333333 2275.29 0.0 0.0 1.0
-49.59596666666666 -11.616133333333332 2266.67 0.0 0.0 1.0
-49.91193333333333 1.91195 2258.11 0.0 0.0 1.0
-50.4261 5.714286666666666 2249.62 0.0 0.0 1.0
-53.786833333333334 34.739200000000004 2035.37 0.0 0.0 1.0
-50.686299999999996 58.5294 2200.0 0.0 0.0 1.0
-50.686299999999996 59.11763333333334 2200.0 0.0 0.0 1.0
-51.6667 64.60783333333333 2200.0 0.0 0.0 1.0
-48.61010000000001 78.032 2208.12 0.0 0.0 1.0
-50.86423333333334 96.29629999999999 2216.3 0.0 0.0 1.0
-50.86423333333334 96.29630000000002 2216.3 0.0 0.0 1.0
-56.09316666666666 97.37183333333333 1856.47 0.49533534375377686 -0.8668368515691087 -0.05689261806317811
-53.009299999999996 137.69799999999998 2026.1866666666665 0.09006406899152342 0.9913860553696063 0.09509023449009996
-49.1398 -176.02166666666665 2412.9 0.0 0.0 1.0
-49.13976666666667 -173.65600000000003 2412.9 0.0 0.0 1.0
-48.924733333333336 -168.925 2412.9 0.0 0.0 1.0
-49.6921 -159.25033333333332 2403.21 0.0 0.0 1.0
-47.04 -143.89333333333335 2393.6 0.0 0.0 1.0
-50.6878 -131.32266666666666 2374.6 0.0 0.0 1.0
-49.3281 -113.51799999999999 2365.22 0.0 0.0 1.0
-49.895833333333336 -82.8125 2337.5 0.0 0.0 1.0
-49.18286666666666 -64.02076666666666 2328.4 0.0 0.0 1.0
-51.06823333333333 -52.818533333333335 2310.42 0.0 0.0 1.0
-50.15383333333333 -43.589733333333335 2301.54 0.0 0.0 1.0
-49.74356666666667 -37.84616666666667 2301.54 0.0 0.0 1.0
-50.89986666666667 -18.75793333333333 2275.29 0.0 0.0 1.0
-50.20203333333333 -6.7676799999999995 2266.67 0.0 0.0 1.0
-50.20203333333333 -4.141413333333333 2266.67 0.0 0.0 1.0
-40.6914 34.707 2732.4566666666665 0.6519520577454881 0.6952966135101202 0.3025246000621805
-54.33793333333333 31.872133333333334 2049.32 0.0 0.0 1.0
-51.4706 63.43136666666667 2200.0 0.0 0.0 1.0
-51.274499999999996 74.21566666666666 2200.0 0.0 0.0 1.0
-50.271633333333334 97.67903333333334 2216.3 0.0 0.0 1.0
-55.75553333333334 99.83613333333334 1831.8400000000001 0.3703747180284539 -0.9264101294925005 -0.06772621515360294
-55.028633333333325 101.575 1813.34 -0.31394419018442654 0.9421006168697889 0.1178366375241923
-51.5751 131.37966666666668 2191.94 0.0 0.0 1.0
-51.07843333333333 133.23533333333333 2200.0 0.0 0.0 1.0
-50.79366666666667 134.89633333333333 2191.94 0.0 0.0 1.0
-51.48416666666666 137.90733333333333 2183.94 0.0 0.0 1.0
-37.733333333333334 220.9333333333333 2992.0 0.0 0.0 1.0
-49.13976666666667 -173.65599999999998 2412.9 0.0 0.0 1.0
-49.13976666666667 -173.65599999999998 2412.9 0.0 0.0 1.0
-47.336033333333326 -161.392 2403.21 0.0 0.0 1.0
-50.57103333333333 -141.19533333333334 2384.06 0.0 0.0 1.0
-50.4762 -135.55533333333332 2374.6 0.0 0.0 1.0
-49.721133333333334 -134.82066666666665 2384.06 0.0 0.0 1.0
-49.328100000000006 -113.51799999999999 2365.22 0.0 0.0 1.0
-49.77776666666667 -90.24836666666666 2346.67 0.0 0.0 1.0
-49.895833333333336 -78.64583333333333 2337.5 0.0 0.0 1.0
-49.18286666666666 -64.02076666666666 2328.4 0.0 0.0 1.0
-51.16276666666666 -59.43156666666667 2319.38 0.0 0.0 1.0
-51.06823333333333 -52.818533333333335 2310.42 0.0 0.0 1.0
-50.15383333333333 -43.589733333333335 2301.54 0.0 0.0 1.0
-50.15383333333333 -39.897466666666666 2301.54 0.0 0.0 1.0
-51.289899999999996 -26.257966666666665 2292.72 0.0 0.0 1.0
-50.80806666666666 -11.01008 2266.67 0.0 0.0 1.0
-51.0101 -9.191913333333334 2266.67 0.0 0.0 1.0
-50.20203333333333 -5.757576666666666 2266.67 0.0 0.0 1.0
-51.92453333333333 -4.729559999999999 2258.11 0.0 0.0 1.0
-52.33456666666666 8.089889999999999 2241.2 0.0 0.0 1.0
-52.5386 12.2737 1981.46 0.0 0.0 1.0
-56.20913333333334 17.167733333333334 1955.5600000000002 2.462200351745914e-28 1.477402621884606e-27 1.0
-55.844166666666666 20.173166666666667 1942.86 0.0 0.0 1.0
-57.9869 48.865033333333336 2137.1600000000003 0.31104861364575714 -0.9329732720629369 0.18113429704291015
-55.292633333333335 53.3748 2157.7366666666667 0.5960129397490384 0.7947195383944068 -0.11484524781587785
-51.27453333333333 58.72546666666667 2200.0 0.0 0.0 1.0
-52.843133333333334 70.09803333333333 2200.0 0.0 0.0 1.0
-52.843133333333334 70.88236666666667 2200.0 0.0 0.0 1.0
-51.86273333333333 75.0 2200.0 0.0 0.0 1.0
-52.450966666666666 76.37256666666667 2200.0 0.0 0.0 1.0
-52.1525 91.61129999999999 2208.12 0.0 0.0 1.0
-52.1525 91.61129999999999 2208.12 0.0 0.0 1.0
-53.23456666666667 104.19766666666668 2216.3 0.0 0.0 1.0
-51.031866666666666 100.80313333333334 1928.3333333333333 -0.5628976244485747 0.8263926830843026 -0.014879440005552691
-56.0384 96.59483333333333 1899.6933333333334 -0.7039870945001347 0.7042769610545107 0.09163041473812894
-57.2477 101.03963333333333 1829.97 0.0 0.0 1.0
-51.07843333333333 133.23533333333333 2200.0 0.0 0.0 1.0
-40.4 -221.73333333333335 2992.0 0.0 0.0 1.0
-49.56986666666666 -173.65600000000003 2412.9 0.0 0.0 1.0
-50.0 -169.355 2412.9 0.0 0.0 1.0
-51.43609999999999 -123.847 2365.22 0.0 0.0 1.0
-48.78306666666666 -123.28033333333333 2374.6 0.0 0.0 1.0
-52.8084 -112.651 2355.91 0.0 0.0 1.0
-51.450966666666666 -94.84966666666666 2346.67 0.0 0.0 1.0
-51.450966666666666 -94.84966666666666 2346.67 0.0 0.0 1.0
-49.895833333333336 -78.64583333333333 2337.5 0.0 0.0 1.0
-52.609833333333334 -65.01293333333334 2319.38 0.0 0.0 1.0
-51.78296666666666 -64.18603333333334 2319.38 0.0 0.0 1.0
-51.16276666666666 -59.43156666666667 2319.38 0.0 0.0 1.0
-52.1166 -14.702133333333334 2275.29 0.0 0.0 1.0
-52.1166 -14.702133333333334 2275.29 0.0 0.0 1.0
-51.92453333333333 -4.72956 2258.11 0.0 0.0 1.0
-51.9245 1.5094343333333333 2258.11 0.0 0.0 1.0
-52.534333333333336 9.288393333333334 2241.2 0.0 0.0 1.0
-51.503666666666675 10.555733333333334 2213.693333333333 0.4853553032355465 0.8734604259650748 0.038692556054631455
-55.844166666666666 20.173166666666667 1942.86 0.0 0.0 1.0
-43.417833333333334 35.34433333333333 2744.99 -0.4334598425172236 0.8665932554943893 0.24724217774599033
-56.5876 36.610166666666665 2028.47 0.0 0.0 1.0
-51.862766666666666 59.11763333333334 2200.0 0.0 0.0 1.0
-52.254933333333334 64.0196 2200.0 0.0 0.0 1.0
-52.05886666666667 64.8039 2200.0 0.0 0.0 1.0
-53.23533333333334 80.88236666666667 2200.0 0.0 0.0 1.0
-53.23533333333334 80.88236666666667 2200.0 0.0 0.0 1.0
-52.1525 91.61129999999999 2208.12 0.0 0.0 1.0
-51.53156666666666 109.56766666666665 2241.22 -0.31292841868014487 0.9373111080456502 -0.15337435090842122
-53.138 134.70066666666665 2191.94 0.0 0.0 1.0
-52.8467 138.102 2183.94 0.0 0.0 1.0
-53.9906 138.49766666666667 2107.04 0.0 0.0 1.0
-45.73333333333333 -221.73333333333335 2992.0 0.0 0.0 1.0
-50.97726666666666 -167.38966666666667 2403.21 0.0 0.0 1.0
-49.6921 -159.25033333333332 2403.21 0.0 0.0 1.0
-53.44 -153.70666666666665 2393.6 0.0 0.0 1.0
-51.420966666666665 -142.68266666666668 2384.06 0.0 0.0 1.0
-51.421 -138.85799999999998 2384.06 0.0 0.0 1.0
-50.6878 -131.32266666666666 2374.6 0.0 0.0 1.0
-51.0145 -124.47966666666666 2365.22 0.0 0.0 1.0
-51.0145 -124.47966666666667 2365.22 0.0 0.0 1.0
-51.128600000000006 -102.152 2355.91 0.0 0.0 1.0
-51.770833333333336 -83.85416666666667 2337.5 0.0 0.0 1.0
-52.918299999999995 -67.75616666666667 2328.4 0.0 0.0 1.0
-51.16276666666666 -59.43156666666667 2319.38 0.0 0.0 1.0
-51.369466666666675 -58.60466666666667 2319.38 0.0 0.0 1.0
-53.53613333333333 -17.946766666666665 2275.29 0.0 0.0 1.0
-52.5283 -4.1257866666666665 2258.11 0.0 0.0 1.0
-52.431099999999994 4.91228 2249.62 0.0 0.0 1.0
-52.967733333333335 10.274113333333332 2238.4133333333334 0.3160077768981767 0.9480338772945663 0.03702502453345878
-55.844166666666666 20.173166666666667 1942.86 0.0 0.0 1.0
-52.843133333333334 70.09803333333333 2200.0 0.0 0.0 1.0
-52.843133333333334 70.88236666666667 2200.0 0.0 0.0 1.0
-53.235299999999995 77.9412 2200.0 0.0 0.0 1.0
-53.333333333333336 84.72323333333333 2208.12 0.0 0.0 1.0
-50.7559 105.57599999999998 2224.54 0.0 0.0 1.0
-52.635799999999996 107.56666666666666 2232.86 -0.6937825870259265 -0.6943325877087534 0.19122755969074867
-57.154500000000006 100.08139999999999 1824.39 0.0 0.0 1.0
-57.27176666666667 100.84113333333333 1841.2300000000002 1.1715093730794987e-28 9.170780537127992e-29 1.0
-54.04229999999999 102.72886666666666 1909.79 -0.7145098657771097 -0.41364037632705536 0.5642493161530535
-57.1275 138.04133333333334 2044.6533333333334 -2.3004836646918186e-16 -0.9977344165043449 0.06727580637000637
-50.0 -175.80666666666664 2412.9 0.0 0.0 1.0
-50.0 -169.355 2412.9 0.0 0.0 1.0
-53.01333333333334 -158.82666666666665 2393.6 0.0 0.0 1.0
-51.421 -138.85799999999998 2384.06 0.0 0.0 1.0
-51.421 -138.85799999999998 2384.06 0.0 0.0 1.0
-50.99603333333334 -135.458 2384.06 0.0 0.0 1.0
-50.6878 -131.32266666666666 2374.6 0.0 0.0 1.0
-53.9511 -51.171166666666664 2310.42 0.0 0.0 1.0
-53.129 -37.70113333333333 2292.72 0.0 0.0 1.0
-53.129 -37.70113333333333 2292.72 0.0 0.0 1.0
-49.77096666666666 -19.0331 2283.97 0.0 0.0 1.0
-52.116600000000005 -14.702133333333334 2275.29 0.0 0.0 1.0
-52.33456666666666 8.089889999999999 2241.2 0.0 0.0 1.0
-46.88033333333333 54.29226666666667 2553.6666666666665 -0.15871579388385101 -0.952224834182579 0.2609160055224265
-55.19606666666667 88.33333333333333 2200.0 0.0 0.0 1.0
-54.222199999999994 104.0 2216.3 0.0 0.0 1.0
-50.7559 105.57599999999998 2224.54 0.0 0.0 1.0
-57.154500000000006 100.08139999999999 1824.39 0.0 0.0 1.0
-53.81993333333333 138.29666666666665 2183.94 0.0 0.0 1.0
-52.586666666666666 -160.32000000000002 2393.6 0.0 0.0 1.0
-53.120866666666664 -150.757 2384.06 0.0 0.0 1.0
-52.80426666666667 -136.402 2374.6 0.0 0.0 1.0
-52.490100000000005 -124.05799999999999 2365.22 0.0 0.0 1.0
-53.22836666666666 -113.70100000000001 2355.91 0.0 0.0 1.0
-51.33856666666666 -98.79256666666667 2355.91 0.0 0.0 1.0
-52.70586666666667 -95.8954 2346.67 0.0 0.0 1.0
-52.91830000000001 -67.75616666666666 2328.4 0.0 0.0 1.0
-52.609833333333334 -64.18603333333334 2319.38 0.0 0.0 1.0
-53.53766666666667 -35.24903333333333 2292.72 0.0 0.0 1.0
-53.735833333333325 -3.7232699999999994 2258.11 0.0 0.0 1.0
-54.74213333333333 0.10062866666666666 2258.11 0.0 0.0 1.0
-53.13356666666667 9.088643333333334 2241.2 0.0 0.0 1.0
-57.22943333333333 21.2121 1942.86 0.0 0.0 1.0
-47.06666666666667 65.73333333333333 2992.0 0.0 0.0 1.0
-53.491366666666664 51.19813333333334 2147.4100000000003 -0.1642340338366024 -0.9851545607047995 0.0499767311084994
-53.62746666666666 71.07843333333334 2200.0 0.0 0.0 1.0
-55.0 74.60786666666667 2200.0 0.0 0.0 1.0
-54.2157 80.49023333333334 2200.0 0.0 0.0 1.0
-55.0 85.98039999999999 2200.0 0.0 0.0 1.0
-53.7269 90.2337 2208.12 0.0 0.0 1.0
-54.41973333333333 104.19766666666668 2216.3 0.0 0.0 1.0
-59.66046666666667 106.3818 2085.036666666667 0.8845215566438521 -5.607613548147539e-06 0.466499320257695
-59.48446666666666 98.64229999999999 1893.6833333333334 -0.8361531007325791 -0.39616602853924043 0.3793421542179818
-53.81993333333333 138.29666666666665 2183.94 0.0 0.0 1.0
-52.367 138.36066666666667 2102.1133333333332 4.491425639761758e-18 0.9999471221407868 0.010283623989539192
-56.15426666666667 136.68133333333333 1959.8333333333333 2.339619311341706e-17 0.9999297194188077 0.011855640979067337
-53.120866666666664 -150.757 2384.06 0.0 0.0 1.0
-52.0685 -113.72866666666668 2365.22 0.0 0.0 1.0
-52.0685 -113.72866666666668 2365.22 0.0 0.0 1.0
-53.4383 -102.152 2355.91 0.0 0.0 1.0
-54.786 -74.81193333333333 2328.4 0.0 0.0 1.0
-54.05683333333334 -67.28683333333333 2319.38 0.0 0.0 1.0
-53.85013333333333 -65.42636666666668 2319.38 0.0 0.0 1.0
-52.09780000000001 -47.67053333333333 2310.42 0.0 0.0 1.0
-53.129 -37.70113333333333 2292.72 0.0 0.0 1.0
-53.129 -29.527466666666665 2292.72 0.0 0.0 1.0
-55.26716666666667 -26.768466666666665 2283.97 0.0 0.0 1.0
-53.53613333333334 -17.946766666666665 2275.29 0.0 0.0 1.0
-53.53613333333334 -17.946766666666665 2275.29 0.0 0.0 1.0
-54.84846666666667 -5.959600000000001 2266.67 0.0 0.0 1.0
-54.84846666666667 -5.959600000000001 2266.67 0.0 0.0 1.0
-54.0351 4.511276666666666 2249.62 0.0 0.0 1.0
-65.53616666666666 17.025166666666667 2065.83 -0.2627696808890423 0.3649590661031768 0.8931724216939123
-58.68423333333333 15.350866666666667 1968.42 0.0 0.0 1.0
-58.68423333333333 15.350866666666667 1968.42 0.0 0.0 1.0
-58.26840000000001 21.55843333333333 1942.86 0.0 0.0 1.0
-56.5876 36.610166666666665 2028.47 0.0 0.0 1.0
-46.666666666666664 63.270466666666664 2822.64 0.0 0.0 1.0
-43.94146666666666 52.871900000000004 2416.1566666666663 0.6396092680757618 0.5904132481361322 0.4922521514599306
-53.235299999999995 59.509800000000006 2200.0 0.0 0.0 1.0
-56.84983333333333 63.7851 2191.94 0.0 0.0 1.0
-55.0 74.60786666666667 2200.0 0.0 0.0 1.0
-55.104533333333336 91.0209 2208.12 0.0 0.0 1.0
-55.60493333333333 101.827 2216.3 0.0 0.0 1.0
-54.617266666666666 103.80233333333332 2216.3 0.0 0.0 1.0
-59.37886666666666 95.81783333333333 1858.39 0.0 0.0 1.0
-60.9288 96.34673333333335 1852.63 0.0 0.0 1.0
-55.96356666666667 116.37866666666666 2114.5066666666667 -0.6416237223320841 -0.5773918001586574 0.5049135649299449
-55.0916 133.13766666666666 2191.94 0.0 0.0 1.0
-55.0916 133.13766666666666 2191.94 0.0 0.0 1.0
-55.0916 133.13766666666666 2191.94 0.0 0.0 1.0
-56.0684 135.87300000000002 2191.94 0.0 0.0 1.0
-54.8097 138.131 2070.59 0.0 0.0 1.0
-59.68506666666667 135.46900000000002 1891.68 7.452306488949713e-17 0.9999146595457173 0.013064211632251299
-53.97586666666667 -172.74433333333334 2403.21 0.0 0.0 1.0
-54.40426666666667 -169.96 2403.21 0.0 0.0 1.0
-53.01333333333333 -158.82666666666668 2393.6 0.0 0.0 1.0
-54.39573333333333 -145.23233333333334 2384.06 0.0 0.0 1.0
-53.97076666666667 -143.745 2384.06 0.0 0.0 1.0
-53.54413333333334 -123.42566666666666 2365.22 0.0 0.0 1.0
-53.854166666666664 -84.6875 2337.5 0.0 0.0 1.0
-51.770833333333336 -78.85416666666667 2337.5 0.0 0.0 1.0
-54.578466666666664 -77.50973333333333 2328.4 0.0 0.0 1.0
-53.95590000000001 -75.84953333333333 2328.4 0.0 0.0 1.0
-54.16343333333334 -67.96366666666667 2328.4 0.0 0.0 1.0
-53.951100000000004 -51.171166666666664 2310.42 0.0 0.0 1.0
-57.3333 -48.30769999999999 2301.54 0.0 0.0 1.0
-54.55936666666667 -34.84036666666666 2292.72 0.0 0.0 1.0
-55.26716666666667 -26.768466666666665 2283.97 0.0 0.0 1.0
-54.75286666666667 -19.974633333333333 2275.29 0.0 0.0 1.0
-54.54086666666666 -2.3144656666666665 2258.11 0.0 0.0 1.0
-54.74213333333333 0.10062866666666666 2258.11 0.0 0.0 1.0
-54.8371 3.7092733333333334 2249.62 0.0 0.0 1.0
-54.8371 3.7092733333333334 2249.62 0.0 0.0 1.0
-59.079366666666665 16.19183333333333 1964.1200000000001 -0.31597957872894483 -0.9479086199479172 -0.040325600487951724
-40.4 39.6 2992.0 0.0 0.0 1.0
-61.712799999999994 45.943033333333325 2082.6066666666666 -0.6309065144897893 -0.36526260674803224 0.6844999620788725
-45.717800000000004 62.798233333333336 2881.5533333333333 -0.20807949932864758 -0.936337459734911 0.28279866240191726
-45.717800000000004 62.798233333333336 2881.5533333333333 -0.20807949932864758 -0.936337459734911 0.28279866240191726
-55.0 74.60786666666667 2200.0 0.0 0.0 1.0
-55.588233333333335 81.27453333333334 2200.0 0.0 0.0 1.0
-54.8148 104.0 2216.3 0.0 0.0 1.0
-61.3084 94.45483333333334 1864.17 0.0 0.0 1.0
-60.141866666666665 100.26353333333334 1818.84 0.0 0.0 1.0
-49.50050000000001 111.923 1951.34 0.7034969917535937 -0.38197779791884195 0.5993204021979532
-58.500566666666664 138.131 2070.59 0.0 0.0 1.0
-57.20126666666667 137.20666666666668 2005.8133333333333 6.969551903243636e-17 0.9999341639866889 0.011474654340830412
-60.850766666666665 135.37833333333333 1860.3166666666668 1.1193997515259977e-16 0.9999112766407479 0.013320617353172408
-53.01333333333333 -158.82666666666668 2393.6 0.0 0.0 1.0
-55.35999999999999 -154.13333333333333 2393.6 0.0 0.0 1.0
-53.120866666666664 -150.757 2384.06 0.0 0.0 1.0
-53.54413333333334 -123.42566666666669 2365.22 0.0 0.0 1.0
-56.05226666666666 -101.96033333333332 2346.67 0.0 0.0 1.0
-54.37906666666667 -96.52286666666667 2346.67 0.0 0.0 1.0
-55.3125 -89.27083333333333 2337.5 0.0 0.0 1.0
-55.3125 -88.22916666666667 2337.5 0.0 0.0 1.0
-53.85013333333333 -65.42636666666667 2319.38 0.0 0.0 1.0
-53.951100000000004 -51.171166666666664 2310.42 0.0 0.0 1.0
-53.94636666666667 -38.9272 2292.72 0.0 0.0 1.0
-56.28496666666667 -31.8575 2283.97 0.0 0.0 1.0
-54.75286666666667 -19.974633333333333 2275.29 0.0 0.0 1.0
-54.75286666666667 -14.904933333333332 2275.29 0.0 0.0 1.0
-56.060566666666666 -10.808079999999999 2266.67 0.0 0.0 1.0
-56.060566666666666 -9.595973333333333 2266.67 0.0 0.0 1.0
-56.060566666666666 -9.595973333333333 2266.67 0.0 0.0 1.0
-55.9497 0.7044009999999999 2258.11 0.0 0.0 1.0
-52.48226666666667 39.204633333333334 2982.0733333333337 -0.1030383909377813 -0.9788291187107439 0.17685204651601144
-56.5876 36.610166666666665 2028.47 0.0 0.0 1.0
-47.86666666666667 66.53333333333332 2992.0 0.0 0.0 1.0
-47.86666666666667 66.53333333333332 2992.0 0.0 0.0 1.0
-61.2518 49.59983333333333 2072.986666666667 0.2937389043216966 0.44061498865469023 0.8482781901361819
-54.607866666666666 70.68626666666667 2200.0 0.0 0.0 1.0
-55.694966666666666 92.98893333333332 2208.12 0.0 0.0 1.0
-54.90776666666667 93.77613333333333 2208.12 0.0 0.0 1.0
-63.80596666666667 106.98379999999999 2176.02 -0.15286976353278434 -0.5812234376032187 0.7992559983998418
-60.79026666666667 99.77726666666668 1818.84 0.0 0.0 1.0
-60.628166666666665 101.074 1818.84 0.0 0.0 1.0
-58.780499999999996 100.56906666666667 1824.39 0.0 0.0 1.0
-57.1275 138.0413333333333 2044.6533333333334 -1.866280161726966e-15 -0.9977344165043448 0.06727580637000709
-58.99366666666668 136.732 1955.573333333333 0.0009106540938494901 0.9999320450133693 0.011622222872698132
-54.40426666666667 -169.96 2403.21 0.0 0.0 1.0
-55.0332 -143.32 2384.06 0.0 0.0 1.0
-54.920633333333335 -129.4176666666667 2374.6 0.0 0.0 1.0
-53.43913333333333 -125.39666666666666 2374.6 0.0 0.0 1.0
-56.168000000000006 -111.81099999999999 2355.91 0.0 0.0 1.0
-55.958 -105.932 2355.91 0.0 0.0 1.0
-55.328066666666665 -104.252 2355.91 0.0 0.0 1.0
-55.3125 -88.22916666666667 2337.5 0.0 0.0 1.0
-55.8236 -78.54736666666668 2328.4 0.0 0.0 1.0
-55.408566666666665 -68.1712 2328.4 0.0 0.0 1.0
-55.376733333333334 -36.27073333333333 2292.72 0.0 0.0 1.0
-55.766799999999996 -16.9328 2275.29 0.0 0.0 1.0
-55.65656666666666 -5.75758 2266.67 0.0 0.0 1.0
-60.17313333333333 20.692666666666668 1942.86 0.0 0.0 1.0
-58.96103333333334 21.212133333333334 1942.86 0.0 0.0 1.0
-56.919000000000004 32.1997 2046.9866666666667 0.109524557890017 0.9856210898441919 0.12866793879340543
-58.140566666666665 34.3764 2035.37 0.0 0.0 1.0
-59.36936666666667 38.648666666666664 2021.62 0.0 0.0 1.0
-48.4 65.73333333333333 2992.0 0.0 0.0 1.0
-57.4359 64.95726666666667 2191.94 0.0 0.0 1.0
-58.022 73.35776666666668 2191.94 0.0 0.0 1.0
-57.35293333333334 81.86276666666667 2200.0 0.0 0.0 1.0
-56.48216666666667 88.85610000000001 2208.12 0.0 0.0 1.0
-62.229600000000005 96.86883333333333 1837.4633333333331 -0.44721021814920403 0.8944204362984037 -0.003886375524091934
-59.8573 100.06119999999999 1829.97 0.0 0.0 1.0
-56.544999999999995 138.49133333333336 2183.94 0.0 0.0 1.0
-58.73566666666667 139.32033333333334 2178.646666666667 -0.21607569712515454 0.9728608537028919 0.08278316522312101
-57.1275 138.0413333333333 2044.6533333333334 -1.866280161726966e-15 -0.9977344165043448 0.06727580637000709
-60.84386666666668 135.61166666666668 1893.67 0.0 0.0 1.0
-54.40426666666667 -169.96 2403.21 0.0 0.0 1.0
-55.35999999999999 -154.13333333333333 2393.6 0.0 0.0 1.0
-55.883133333333326 -147.78233333333333 2384.06 0.0 0.0 1.0
-54.69813333333334 -102.572 2355.91 0.0 0.0 1.0
-56.47056666666666 -99.4507 2346.67 0.0 0.0 1.0
-55.3125 -89.27083333333333 2337.5 0.0 0.0 1.0
-56.145833333333336 -85.72916666666667 2337.5 0.0 0.0 1.0
-56.895633333333336 -29.618333333333336 2283.97 0.0 0.0 1.0
-57.070699999999995 -5.959599999999999 2266.67 0.0 0.0 1.0
-56.2406 5.714286666666666 2249.62 0.0 0.0 1.0
-58.21166666666667 13.494466666666668 1979.28 0.11021008397457108 0.9918907557711395 0.06329665082827027
-60.04363333333333 32.16386666666667 2044.6533333333334 -0.38872854785079225 0.907041187986602 0.1617603146067292
-60.450466666666664 37.74776666666667 2021.62 0.0 0.0 1.0
-61.92606666666668 47.571666666666665 2489.9166666666665 0.09756077611294554 0.7804862089035631 0.6175137024192933
-48.4 65.73333333333333 2992.0 0.0 0.0 1.0
-56.84983333333333 60.65936666666667 2191.94 0.0 0.0 1.0
-57.435900000000004 64.95726666666667 2191.94 0.0 0.0 1.0
-55.98036666666667 74.41176666666667 2200.0 0.0 0.0 1.0
-56.76466666666667 89.11763333333333 2200.0 0.0 0.0 1.0
-56.5926 102.02466666666668 2216.3 0.0 0.0 1.0
-63.21553333333333 92.1084 1873.9066666666665 0.34172728094986965 -0.9397755729521554 0.006658673821203977
-60.9288 96.34673333333335 1852.63 0.0 0.0 1.0
-57.82663333333333 130.403 2191.94 0.0 0.0 1.0
-62.417233333333336 138.32600000000002 2087.4500000000003 -0.062378266884272164 -0.9971356002765913 0.04277319816843561
-60.02256666666667 137.85333333333332 2028.47 0.0 0.0 1.0
-60.84386666666668 135.61166666666668 1893.67 0.0 0.0 1.0
-54.080000000000005 -162.45333333333335 2393.6 0.0 0.0 1.0
-55.2457 -149.26966666666667 2384.06 0.0 0.0 1.0
-55.57333333333333 -152.21333333333334 2393.6 0.0 0.0 1.0
-56.09563333333333 -146.08233333333334 2384.06 0.0 0.0 1.0
-57.67196666666666 -135.55566666666667 2374.6 0.0 0.0 1.0
-57.0079 -115.38066666666667 2355.91 0.0 0.0 1.0
-57.00790000000001 -115.38066666666667 2355.91 0.0 0.0 1.0
-56.47056666666666 -99.4507 2346.67 0.0 0.0 1.0
-56.65370000000001 -75.4345 2328.4 0.0 0.0 1.0
-55.408566666666665 -68.1712 2328.4 0.0 0.0 1.0
-57.42016666666666 -37.29246666666666 2292.72 0.0 0.0 1.0
-56.895633333333336 -29.618333333333336 2283.97 0.0 0.0 1.0
-56.895633333333336 -29.61833333333333 2283.97 0.0 0.0 1.0
-57.389100000000006 -17.33836666666667 2275.29 0.0 0.0 1.0
-57.27269999999999 -10.60608 2266.67 0.0 0.0 1.0
-55.9497 0.7044010000000002 2258.11 0.0 0.0 1.0
-57.84460000000001 6.31579 2249.62 0.0 0.0 1.0
-56.529333333333334 9.887643333333331 2241.2 0.0 0.0 1.0
-61.95816666666667 14.697466666666665 1974.92 0.0 0.0 1.0
-59.17786666666667 56.27013333333334 2173.3733333333334 0.8882792320123805 0.403764549038627 0.2189387926228007
-59.17786666666667 56.27013333333334 2173.3733333333334 0.8882792320123805 0.4037645490386269 0.21893879262280086
-58.608066666666666 60.464 2191.94 0.0 0.0 1.0
-58.21733333333333 64.76190000000001 2191.94 0.0 0.0 1.0
-56.79013333333334 103.21 2216.3 0.0 0.0 1.0
-62.6829 98.13009999999998 1824.39 0.0 0.0 1.0
-61.438700000000004 100.91173333333332 1818.84 0.0 0.0 1.0
-58.55073333333333 99.13033333333333 1858.39 0.0 0.0 1.0
-58.4127 126.88633333333333 2191.94 0.0 0.0 1.0
-57.82663333333333 128.44933333333333 2191.94 0.0 0.0 1.0
-56.84983333333333 131.96566666666666 2191.94 0.0 0.0 1.0
-57.0452 134.31 2191.94 0.0 0.0 1.0
-56.544999999999995 138.49133333333336 2183.94 0.0 0.0 1.0
-59.4675 135.719 1911.82 0.0 0.0 1.0
-60.850766666666665 135.37833333333333 1860.3166666666668 1.1193997515259977e-16 0.9999112766407479 0.013320617353172408
-45.73333333333333 -221.73333333333335 2992.0 0.0 0.0 1.0
-63.545433333333335 -141.90133333333333 2085.036666666667 -0.947801890128097 -0.1895913751498094 0.25637216607582586
-56.42666666666667 -155.84 2393.6 0.0 0.0 1.0
-56.21333333333333 -154.98666666666668 2393.6 0.0 0.0 1.0
-57.15803333333333 -145.23233333333334 2384.06 0.0 0.0 1.0
-57.21786666666667 -110.76100000000001 2355.91 0.0 0.0 1.0
-56.47056666666666 -99.4507 2346.67 0.0 0.0 1.0
