ply
format ascii 1.0
comment VCGLIB generated
element vertex 838
property float x
property float y
property float z
property float nx
property float ny
property float nz
element face 0
property list uchar int vertex_indices
end_header
99.38423333333333 -111.7 2403.21 0.0 0.0 1.0
99.17003333333334 -102.49000000000001 2403.21 0.0 0.0 1.0
100.88366666666667 -94.35073333333332 2403.21 0.0 0.0 1.0
100.88366666666667 -94.35073333333332 2403.21 0.0 0.0 1.0
99.01726666666667 -71.2882 2384.06 0.0 0.0 1.0
99.01726666666667 -71.2882 2384.06 0.0 0.0 1.0
97.10493333333334 -62.78883333333332 2384.06 0.0 0.0 1.0
100.29226666666666 -21.567066666666665 2384.06 0.0 0.0 1.0
66.71066666666667 -10.297026666666667 1974.92 0.0 0.0 1.0
82.73183333333333 -14.041313333333335 2266.69 -0.5324898071730501 0.8334133183910102 0.14790823501513636
97.95486666666666 -0.318725 2384.06 0.0 0.0 1.0
99.4422 0.7436933333333333 2384.06 0.0 0.0 1.0
97.95486666666666 7.118196666666667 2384.06 0.0 0.0 1.0
98.16733333333333 17.3174 2384.06 0.0 0.0 1.0
98.59230000000001 22.416966666666667 2384.06 0.0 0.0 1.0
97.1049 25.391766666666665 2384.06 0.0 0.0 1.0
99.73333333333333 32.74666666666667 2393.6 0.0 0.0 1.0
99.73333333333333 32.74666666666667 2393.6 0.0 0.0 1.0
83.74810000000001 43.144000000000005 2278.183333333333 0.4952352037368025 -0.848987925645215 0.1842867197830668
87.4738 44.9109 2295.66 -0.4809465425094089 0.8139151042384396 0.3259334691939072
97.95486666666666 56.20183333333333 2384.06 0.0 0.0 1.0
97.74236666666667 64.91363333333334 2384.06 0.0 0.0 1.0
100.15999999999998 80.53333333333332 2393.6 0.0 0.0 1.0
99.65466666666667 93.59896666666667 2384.06 0.0 0.0 1.0
97.24866666666667 100.00003333333332 2374.6 0.0 0.0 1.0
98.09523333333334 102.54 2374.6 0.0 0.0 1.0
97.60210000000001 107.40433333333333 2365.22 0.0 0.0 1.0
98.0237 108.24733333333332 2365.22 0.0 0.0 1.0
96.12650000000001 113.51766666666667 2365.22 0.0 0.0 1.0
94.8268 126.04233333333333 2359.013333333333 -0.1676126468276187 0.9217498342327463 0.34969021106594445
88.88889999999999 137.12866666666665 2241.2 0.0 0.0 1.0
102.53066666666666 -161.85066666666668 2442.45 0.0 0.0 1.0
101.13833333333334 -154.255 2432.52 0.0 0.0 1.0
102.13233333333334 -149.74366666666666 2422.67 0.0 0.0 1.0
99.38423333333333 -112.771 2403.21 0.0 0.0 1.0
99.59856666666667 -109.344 2403.21 0.0 0.0 1.0
100.16000000000001 -60.48 2393.6 0.0 0.0 1.0
99.52 -55.57333333333333 2393.6 0.0 0.0 1.0
99.73333333333333 -54.080000000000005 2393.6 0.0 0.0 1.0
97.95483333333334 -44.94023333333333 2384.06 0.0 0.0 1.0
99.01723333333332 -33.04116666666666 2384.06 0.0 0.0 1.0
98.16733333333333 17.3174 2384.06 0.0 0.0 1.0
87.4738 44.9109 2295.66 -0.4809465425094089 0.8139151042384396 0.3259334691939072
100.15999999999998 80.53333333333332 2393.6 0.0 0.0 1.0
97.95493333333333 96.57373333333334 2384.06 0.0 0.0 1.0
98.09523333333334 102.54 2374.6 0.0 0.0 1.0
96.8254 104.65633333333334 2374.6 0.0 0.0 1.0
93.83956666666667 127.93866666666666 2298.6 -0.04991738892665454 0.9973753618656894 0.05244656162257164
64.69466666666666 136.38933333333333 1940.7633333333333 -6.240817983500722e-17 0.9999270125234215 0.012081789022539613
58.015499999999996 130.62366666666665 1806.0366666666666 7.668197008245395e-17 -0.9973874768739077 0.07223725475888586
103.81333333333333 -179.6436666666667 2462.55 0.0 0.0 1.0
100.2186 -173.87966666666668 2452.46 0.0 0.0 1.0
101.13833333333334 -154.255 2432.52 0.0 0.0 1.0
102.13233333333334 -147.15266666666665 2422.67 0.0 0.0 1.0
98.8172 -139.67733333333334 2412.9 0.0 0.0 1.0
98.74163333333333 -132.90466666666669 2403.21 0.0 0.0 1.0
98.52746666666667 -129.692 2403.21 0.0 0.0 1.0
100.8836 -105.48833333333334 2403.21 0.0 0.0 1.0
96.89243333333333 -76.38779999999998 2384.06 0.0 0.0 1.0
97.95483333333334 -59.389100000000006 2384.06 0.0 0.0 1.0
97.3174 -41.965466666666664 2384.06 0.0 0.0 1.0
96.67996666666666 -26.879166666666666 2384.06 0.0 0.0 1.0
67.07746666666667 -11.338933333333335 1972.7533333333333 -0.29593362204149126 -0.88768879128181 0.35274906261823424
99.01723333333332 1.8061116666666666 2384.06 0.0 0.0 1.0
97.3174 7.118196666666667 2384.06 0.0 0.0 1.0
97.3174 7.118196666666667 2384.06 0.0 0.0 1.0
98.16733333333333 17.317399999999996 2384.06 0.0 0.0 1.0
97.1049 23.266899999999996 2384.06 0.0 0.0 1.0
94.38319999999999 50.91863333333333 2355.91 0.0 0.0 1.0
97.3174 55.77686666666667 2384.06 0.0 0.0 1.0
97.95486666666666 56.20183333333333 2384.06 0.0 0.0 1.0
97.74236666666667 64.91363333333334 2384.06 0.0 0.0 1.0
97.10493333333334 67.0385 2384.06 0.0 0.0 1.0
97.1049 87.64943333333333 2384.06 0.0 0.0 1.0
96.40213333333334 98.73016666666668 2374.6 0.0 0.0 1.0
96.8254 99.57676666666667 2374.6 0.0 0.0 1.0
97.24866666666667 100.00003333333332 2374.6 0.0 0.0 1.0
96.12650000000001 113.51766666666667 2365.22 0.0 0.0 1.0
86.7421 127.094 2258.11 0.0 0.0 1.0
74.8194 137.909 2040.0033333333333 -2.264351293766569e-18 0.9999417782851918 0.010790738614590789
102.05733333333335 -177.88766666666666 2462.55 0.0 0.0 1.0
99.12563333333334 -165.13666666666668 2452.46 0.0 0.0 1.0
100.271 -154.472 2432.52 0.0 0.0 1.0
98.60216666666668 -140.32266666666666 2412.9 0.0 0.0 1.0
98.60216666666668 -140.32266666666666 2412.9 0.0 0.0 1.0
97.88486666666665 -133.333 2403.21 0.0 0.0 1.0
98.52746666666667 -129.692 2403.21 0.0 0.0 1.0
97.8849 -128.621 2403.21 0.0 0.0 1.0
97.6707 -125.83666666666666 2403.21 0.0 0.0 1.0
97.6707 -122.62399999999998 2403.21 0.0 0.0 1.0
97.0281 -116.84100000000001 2403.21 0.0 0.0 1.0
97.6707 -113.628 2403.21 0.0 0.0 1.0
99.38423333333333 -110.415 2403.21 0.0 0.0 1.0
95.68 -109.33333333333333 2393.6 0.0 0.0 1.0
98.95586666666668 -99.91980000000001 2403.21 0.0 0.0 1.0
98.52746666666667 -95.42166666666667 2403.21 0.0 0.0 1.0
96.32 -88.0 2393.6 0.0 0.0 1.0
96.67993333333334 -74.05043333333333 2384.06 0.0 0.0 1.0
96.67993333333334 -74.05043333333333 2384.06 0.0 0.0 1.0
97.95483333333334 -59.389100000000006 2384.06 0.0 0.0 1.0
95.40503333333334 -54.92693333333333 2384.06 0.0 0.0 1.0
98.1673 -33.25363333333333 2384.06 0.0 0.0 1.0
96.25496666666668 -30.0664 2384.06 0.0 0.0 1.0
64.27793333333334 -11.378933333333334 1949.1899999999998 -1.486830907780127e-27 -1.4868309077801064e-27 1.0
66.71066666666665 -10.297026666666667 1974.92 0.0 0.0 1.0
95.34393333333333 -5.820106666666667 2374.6 0.0 0.0 1.0
95.34393333333333 -5.820106666666667 2374.6 0.0 0.0 1.0
96.89243333333333 6.69323 2384.06 0.0 0.0 1.0
94.28573333333334 14.2857 2374.6 0.0 0.0 1.0
96.67993333333334 21.992 2384.06 0.0 0.0 1.0
96.67993333333334 24.329333333333334 2384.06 0.0 0.0 1.0
95.7672 51.95766666666666 2374.6 0.0 0.0 1.0
96.67993333333334 54.289500000000004 2384.06 0.0 0.0 1.0
96.89243333333333 55.13943333333333 2384.06 0.0 0.0 1.0
96.67993333333334 58.114200000000004 2384.06 0.0 0.0 1.0
97.3174 65.97606666666667 2384.06 0.0 0.0 1.0
96.25496666666668 74.26293333333332 2384.06 0.0 0.0 1.0
97.1049 87.64943333333333 2384.06 0.0 0.0 1.0
96.67993333333334 89.98673333333333 2384.06 0.0 0.0 1.0
85.49313333333333 135.73033333333333 2241.2 0.0 0.0 1.0
67.1667 136.68133333333336 1959.8333333333333 -7.83686568274258e-17 0.9999297194188076 0.011855640979067533
60.87890000000001 136.077 1924.12 0.0 0.0 1.0
100.7891 -160.97966666666667 2442.45 0.0 0.0 1.0
97.67070000000001 -126.69333333333333 2403.21 0.0 0.0 1.0
97.6707 -122.62399999999998 2403.21 0.0 0.0 1.0
97.67070000000001 -113.628 2403.21 0.0 0.0 1.0
95.46666666666665 -94.82666666666667 2393.6 0.0 0.0 1.0
96.89243333333333 -76.38779999999998 2384.06 0.0 0.0 1.0
96.67993333333334 -74.05043333333333 2384.06 0.0 0.0 1.0
97.3174 -68.3134 2384.06 0.0 0.0 1.0
95.40506666666666 -67.0385 2384.06 0.0 0.0 1.0
96.25496666666668 -44.94023333333333 2384.06 0.0 0.0 1.0
97.74236666666667 -40.265600000000006 2384.06 0.0 0.0 1.0
96.25496666666668 -29.641433333333335 2384.06 0.0 0.0 1.0
96.67996666666666 -26.879166666666666 2384.06 0.0 0.0 1.0
63.9305 -11.7264 1949.1899999999998 0.0 1.0 0.0
64.27793333333334 -11.378933333333334 1949.1899999999998 -1.486830907780127e-27 -1.4868309077801064e-27 1.0
94.0741 -0.9523799999999999 2374.6 0.0 0.0 1.0
97.95486666666666 -0.318725 2384.06 0.0 0.0 1.0
96.89243333333333 6.69323 2384.06 0.0 0.0 1.0
95.40506666666666 35.3785 2384.06 0.0 0.0 1.0
96.0425 54.92693333333333 2384.06 0.0 0.0 1.0
96.67996666666666 68.73836666666666 2384.06 0.0 0.0 1.0
95.61753333333333 70.43823333333332 2384.06 0.0 0.0 1.0
96.25496666666668 74.26293333333332 2384.06 0.0 0.0 1.0
96.40213333333334 98.73016666666666 2374.6 0.0 0.0 1.0
95.34393333333333 103.17500000000001 2374.6 0.0 0.0 1.0
95.34393333333333 103.17500000000001 2374.6 0.0 0.0 1.0
94.01843333333333 107.82599999999998 2365.22 0.0 0.0 1.0
94.86166666666668 114.15033333333334 2365.22 0.0 0.0 1.0
94.92063333333333 120.529 2374.6 0.0 0.0 1.0
91.14583333333333 127.812 2337.5 0.0 0.0 1.0
85.09363333333333 128.73933333333335 2241.2 0.0 0.0 1.0
84.4944 136.5293333333333 2241.2 0.0 0.0 1.0
82.58303333333333 139.2843333333333 2142.246666666667 -0.4116903338319478 -0.8225917140624991 0.39224219684406614
61.605533333333334 136.12833333333333 1920.006666666667 3.1365394326200604e-17 0.9999221371311547 0.01247876897230129
99.48286666666667 -164.02733333333333 2442.45 0.0 0.0 1.0
99.40386666666666 -154.255 2432.52 0.0 0.0 1.0
97.95700000000001 -140.10766666666666 2412.9 0.0 0.0 1.0
97.67070000000001 -127.76433333333334 2403.21 0.0 0.0 1.0
97.4565 -124.76566666666668 2403.21 0.0 0.0 1.0
97.4565 -123.69500000000001 2403.21 0.0 0.0 1.0
94.82666666666667 -121.06666666666666 2393.6 0.0 0.0 1.0
96.32 -118.93333333333332 2393.6 0.0 0.0 1.0
96.32 -116.8 2393.6 0.0 0.0 1.0
96.32 -116.8 2393.6 0.0 0.0 1.0
97.0281 -113.628 2403.21 0.0 0.0 1.0
99.17003333333332 -94.13653333333332 2403.21 0.0 0.0 1.0
98.02666666666666 -86.50666666666666 2393.6 0.0 0.0 1.0
95.40503333333334 -54.92693333333333 2384.06 0.0 0.0 1.0
96.04246666666667 -30.27886666666667 2384.06 0.0 0.0 1.0
95.83 -29.8539 2384.06 0.0 0.0 1.0
66.71066666666665 -10.297026666666667 1974.92 0.0 0.0 1.0
94.2857 2.01058 2374.6 0.0 0.0 1.0
96.67993333333334 20.504633333333334 2384.06 0.0 0.0 1.0
96.67993333333334 24.329333333333334 2384.06 0.0 0.0 1.0
96.67993333333334 26.879166666666666 2384.06 0.0 0.0 1.0
96.46743333333335 43.452866666666665 2384.06 0.0 0.0 1.0
94.709 43.06876666666667 2374.6 0.0 0.0 1.0
95.83 59.81406666666667 2384.06 0.0 0.0 1.0
96.25496666666668 74.26293333333332 2384.06 0.0 0.0 1.0
94.98006666666667 93.17399999999999 2384.06 0.0 0.0 1.0
95.6175 94.66136666666667 2384.06 0.0 0.0 1.0
96.46743333333335 96.14876666666667 2384.06 0.0 0.0 1.0
95.34393333333333 103.175 2374.6 0.0 0.0 1.0
94.01843333333333 107.82599999999998 2365.22 0.0 0.0 1.0
94.92063333333333 120.529 2374.6 0.0 0.0 1.0
86.7421 127.094 2258.11 0.0 0.0 1.0
84.49436666666666 129.93766666666667 2241.2 0.0 0.0 1.0
73.50396666666667 137.28300000000002 1999.1166666666668 9.326847848156614e-18 0.9999367879779655 0.011243667031235029
61.1062 132.27066666666667 1835.5933333333335 -4.993557787657771e-05 -0.997409311825582 0.07193512486996172
98.39456666666666 -159.45533333333333 2442.45 0.0 0.0 1.0
98.82993333333332 -158.80233333333334 2442.45 0.0 0.0 1.0
99.40386666666666 -154.255 2432.52 0.0 0.0 1.0
97.95700000000001 -140.10766666666666 2412.9 0.0 0.0 1.0
95.31456666666666 -130.97733333333335 2403.21 0.0 0.0 1.0
97.0281 -116.84100000000001 2403.21 0.0 0.0 1.0
96.3855 -115.984 2403.21 0.0 0.0 1.0
97.0281 -113.628 2403.21 0.0 0.0 1.0
95.89333333333333 -107.83999999999999 2393.6 0.0 0.0 1.0
93.70519999999999 -83.82466666666666 2384.06 0.0 0.0 1.0
94.34263333333332 -64.06373333333333 2384.06 0.0 0.0 1.0
94.5551 -47.490033333333336 2384.06 0.0 0.0 1.0
66.9712 -11.760363333333332 2014.8266666666666 0.4291807126320417 0.8860978017077368 0.17502743131683424
63.2356 -11.552666666666667 1949.1899999999998 -7.435509766334478e-27 -1.710055258756954e-26 1.0
94.53853333333332 -9.79439 2313.4066666666668 -0.2940049320908895 -0.9555222757832664 0.023200870418990306
94.92063333333333 0.3174600000000001 2374.6 0.0 0.0 1.0
94.28573333333334 14.2857 2374.6 0.0 0.0 1.0
93.86243333333334 21.4815 2374.6 0.0 0.0 1.0
94.9801 35.166 2384.06 0.0 0.0 1.0
93.70519999999999 37.928266666666666 2384.06 0.0 0.0 1.0
96.0425 54.92693333333333 2384.06 0.0 0.0 1.0
95.83 59.81406666666667 2384.06 0.0 0.0 1.0
94.13016666666665 79.57503333333334 2384.06 0.0 0.0 1.0
95.3439 101.27 2374.6 0.0 0.0 1.0
93.1752 103.18833333333333 2365.22 0.0 0.0 1.0
93.1752 106.13966666666666 2365.22 0.0 0.0 1.0
93.17523333333334 115.62600000000002 2365.22 0.0 0.0 1.0
94.92063333333333 120.529 2374.6 0.0 0.0 1.0
90.35293333333334 127.47700000000002 2346.67 0.0 0.0 1.0
91.14583333333333 127.812 2337.5 0.0 0.0 1.0
86.7421 127.094 2258.11 0.0 0.0 1.0
84.49436666666666 129.93766666666667 2241.2 0.0 0.0 1.0
84.4944 135.73033333333333 2241.2 0.0 0.0 1.0
74.44683333333334 138.82366666666667 2112.0066666666667 -2.280559995074323e-16 0.9999506725388265 0.009932395941994441
62.119933333333336 136.41466666666668 1938.6666666666667 -2.1416528494781668e-16 0.9999270125234214 0.012081789022539778
100.0822 -176.35133333333337 2462.55 0.0 0.0 1.0
98.68853333333334 -173.0053333333333 2452.46 0.0 0.0 1.0
99.12563333333333 -165.13666666666666 2452.46 0.0 0.0 1.0
96.80216666666666 -152.08666666666667 2432.52 0.0 0.0 1.0
96.73413333333332 -141.75400000000002 2422.67 0.0 0.0 1.0
96.02146666666665 -137.52700000000002 2412.9 0.0 0.0 1.0
95.80643333333335 -135.37633333333335 2412.9 0.0 0.0 1.0
94.39999999999999 -102.71999999999998 2393.6 0.0 0.0 1.0
95.46666666666665 -94.82666666666667 2393.6 0.0 0.0 1.0
95.46666666666665 -89.27999999999999 2393.6 0.0 0.0 1.0
92.5926 -70.37036666666667 2374.6 0.0 0.0 1.0
94.34263333333332 -64.06373333333333 2384.06 0.0 0.0 1.0
93.91766666666666 -61.9389 2384.06 0.0 0.0 1.0
94.5551 -47.490033333333336 2384.06 0.0 0.0 1.0
94.98006666666667 -46.002633333333335 2384.06 0.0 0.0 1.0
95.40503333333334 -29.003966666666667 2384.06 0.0 0.0 1.0
91.95766666666667 -24.02116666666667 2374.6 0.0 0.0 1.0
71.6825 -11.378893333333332 2044.6833333333332 0.372423158266602 -0.7912196755667729 0.48504888019945
63.2356 -11.552666666666667 1949.1899999999998 -7.435509766334478e-27 -1.710055258756954e-26 1.0
94.28573333333333 -6.66667 2374.6 0.0 0.0 1.0
93.6508 3.0687800000000003 2374.6 0.0 0.0 1.0
92.80423333333333 7.30159 2374.6 0.0 0.0 1.0
93.86243333333334 21.4815 2374.6 0.0 0.0 1.0
92.80423333333333 22.32806666666667 2374.6 0.0 0.0 1.0
91.9577 27.407366666666665 2374.6 0.0 0.0 1.0
94.13013333333333 41.11553333333333 2384.06 0.0 0.0 1.0
92.24636666666667 46.18143333333334 2349.75 0.3741647014154247 -0.7483294028308477 0.5477261004129097
79.1 43.923766666666666 2255.28 0.1269573734474215 -0.8886700745393415 0.44062152006634114
95.19253333333334 53.0146 2384.06 0.0 0.0 1.0
94.5551 53.65203333333333 2384.06 0.0 0.0 1.0
92.5926 67.40740000000001 2374.6 0.0 0.0 1.0
93.01586666666667 68.88886666666666 2374.6 0.0 0.0 1.0
95.40503333333334 73.413 2384.06 0.0 0.0 1.0
92.7536 102.97766666666666 2365.22 0.0 0.0 1.0
92.7536 104.03166666666668 2365.22 0.0 0.0 1.0
94.01843333333333 107.82599999999998 2365.22 0.0 0.0 1.0
84.49436666666666 129.93766666666667 2241.2 0.0 0.0 1.0
82.47829999999999 139.678 2224.54 0.0 0.0 1.0
72.93286666666667 138.799 2114.49 0.0 0.0 1.0
60.748066666666666 136.12833333333333 1920.006666666667 1.721573607374743e-16 0.9999221371311546 0.012478768972301383
143.0666666666667 220.9333333333333 2992.0 0.0 0.0 1.0
138.79999999999998 -221.20000000000002 2992.0 0.0 0.0 1.0
98.68853333333334 -173.87966666666668 2452.46 0.0 0.0 1.0
97.95920000000001 -164.46266666666665 2442.45 0.0 0.0 1.0
98.39456666666666 -160.10866666666666 2442.45 0.0 0.0 1.0
97.52383333333334 -159.45533333333333 2442.45 0.0 0.0 1.0
98.39456666666666 -159.45533333333333 2442.45 0.0 0.0 1.0
96.5182 -142.40200000000002 2422.67 0.0 0.0 1.0
96.73413333333333 -141.75400000000002 2422.67 0.0 0.0 1.0
96.73413333333332 -141.75400000000002 2422.67 0.0 0.0 1.0
96.02146666666665 -137.52700000000002 2412.9 0.0 0.0 1.0
96.02146666666665 -137.52700000000002 2412.9 0.0 0.0 1.0
94.02943333333333 -129.90633333333335 2403.21 0.0 0.0 1.0
96.38553333333333 -126.265 2403.21 0.0 0.0 1.0
94.61333333333334 -105.92 2393.6 0.0 0.0 1.0
93.97333333333334 -102.08 2393.6 0.0 0.0 1.0
93.75999999999999 -95.89333333333332 2393.6 0.0 0.0 1.0
93.70519999999999 -83.82466666666666 2384.06 0.0 0.0 1.0
93.70519999999999 -74.90036666666667 2384.06 0.0 0.0 1.0
94.34263333333332 -64.91366666666666 2384.06 0.0 0.0 1.0
94.34263333333332 -64.06373333333333 2384.06 0.0 0.0 1.0
93.91766666666666 -61.9389 2384.06 0.0 0.0 1.0
95.40503333333334 -54.92693333333333 2384.06 0.0 0.0 1.0
92.16933333333334 -31.216966666666668 2374.6 0.0 0.0 1.0
92.38096666666667 -6.455030000000001 2374.6 0.0 0.0 1.0
92.80423333333333 7.30159 2374.6 0.0 0.0 1.0
93.70519999999999 37.928266666666666 2384.06 0.0 0.0 1.0
95.61753333333333 67.0385 2384.06 0.0 0.0 1.0
92.38096666666667 75.44973333333333 2374.6 0.0 0.0 1.0
94.13016666666665 79.57503333333334 2384.06 0.0 0.0 1.0
94.13016666666665 79.57503333333334 2384.06 0.0 0.0 1.0
94.98006666666667 93.17399999999999 2384.06 0.0 0.0 1.0
93.1752 108.66933333333333 2365.22 0.0 0.0 1.0
83.49563333333333 135.131 2241.2 0.0 0.0 1.0
83.6954 137.12866666666665 2241.2 0.0 0.0 1.0
84.0949 137.52833333333334 2241.2 0.0 0.0 1.0
72.93286666666667 138.799 2114.49 0.0 0.0 1.0
62.119400000000006 136.70666666666668 1957.6966666666667 -1.1751669816549784e-16 0.9999297194188076 0.011855640979067508
60.878899999999994 136.077 1924.12 0.0 0.0 1.0
98.68853333333334 -173.87966666666668 2452.46 0.0 0.0 1.0
98.68853333333334 -173.00533333333337 2452.46 0.0 0.0 1.0
98.17686666666667 -157.71399999999997 2442.45 0.0 0.0 1.0
94.73116666666665 -134.73100000000002 2412.9 0.0 0.0 1.0
95.31456666666666 -130.97733333333335 2403.21 0.0 0.0 1.0
92.26666666666667 -109.97333333333334 2393.6 0.0 0.0 1.0
94.40000000000002 -102.71999999999998 2393.6 0.0 0.0 1.0
93.76 -89.28000000000002 2393.6 0.0 0.0 1.0
92.5926 -69.31216666666667 2374.6 0.0 0.0 1.0
92.16933333333333 -31.216966666666668 2374.6 0.0 0.0 1.0
91.74606666666666 -3.2804233333333332 2374.6 0.0 0.0 1.0
93.0159 -1.37566 2374.6 0.0 0.0 1.0
93.6508 3.0687800000000003 2374.6 0.0 0.0 1.0
92.16933333333333 10.476203333333332 2374.6 0.0 0.0 1.0
91.74606666666666 11.9577 2374.6 0.0 0.0 1.0
91.9577 27.407366666666665 2374.6 0.0 0.0 1.0
92.5926 67.40740000000001 2374.6 0.0 0.0 1.0
92.59263333333332 76.2963 2374.6 0.0 0.0 1.0
91.9577 76.93123333333334 2374.6 0.0 0.0 1.0
90.68786666666666 88.35979999999999 2374.6 0.0 0.0 1.0
91.74603333333334 92.38096666666667 2374.6 0.0 0.0 1.0
91.0672 104.45333333333333 2365.22 0.0 0.0 1.0
93.86243333333333 120.952 2374.6 0.0 0.0 1.0
90.35293333333334 127.47700000000002 2346.67 0.0 0.0 1.0
82.29713333333333 134.73166666666668 2241.2 0.0 0.0 1.0
77.93393333333334 139.65599999999998 2205.4133333333334 9.597516042069775e-17 0.9999573466952356 0.009236059236715975
79.51196666666668 139.70566666666664 2200.02 -0.0007605392199155925 0.9999565462092791 0.009291247133987914
60.878899999999994 136.077 1924.12 0.0 0.0 1.0
45.6479 126.745 1739.5433333333333 -4.6912990259252596e-05 -0.9973624962258142 0.0725813262580968
97.52383333333334 -159.45533333333333 2442.45 0.0 0.0 1.0
91.36786666666666 -84.24966666666667 2384.06 0.0 0.0 1.0
91.36786666666666 -77.23773333333332 2384.06 0.0 0.0 1.0
92.5926 -70.37036666666667 2374.6 0.0 0.0 1.0
92.5926 -69.31216666666667 2374.6 0.0 0.0 1.0
93.4927 -40.90303333333333 2384.06 0.0 0.0 1.0
91.53436666666666 -21.058166666666665 2374.6 0.0 0.0 1.0
91.53436666666666 -20.6349 2374.6 0.0 0.0 1.0
62.625 -10.320913333333333 1979.28 -0.9610013964748683 0.16016790713808018 0.22543858919084925
92.80423333333333 7.30159 2374.6 0.0 0.0 1.0
90.47619999999999 16.1905 2374.6 0.0 0.0 1.0
93.70519999999999 37.928266666666666 2384.06 0.0 0.0 1.0
85.7971 50.065866666666665 2365.22 0.0 0.0 1.0
91.74603333333334 69.31216666666667 2374.6 0.0 0.0 1.0
91.5344 74.81483333333334 2374.6 0.0 0.0 1.0
91.32273333333335 78.83596666666666 2374.6 0.0 0.0 1.0
91.746 79.89416666666666 2374.6 0.0 0.0 1.0
91.53436666666666 80.5291 2374.6 0.0 0.0 1.0
91.74603333333334 92.38096666666667 2374.6 0.0 0.0 1.0
91.0672 104.45333333333333 2365.22 0.0 0.0 1.0
89.80239999999999 117.31200000000001 2365.22 0.0 0.0 1.0
88.4375 128.02066666666667 2337.5 0.0 0.0 1.0
77.92593333333333 139.556 2216.3 0.0 0.0 1.0
82.2463 139.7553333333333 2194.626666666667 -7.225972022189876e-17 0.9999578559852634 0.009180754509047219
76.0446 139.445 2165.5099999999998 3.664380019578854e-18 0.9999541289032622 0.009578104682983705
65.24476666666668 138.56133333333332 2082.6233333333334 -2.3606837485750638e-17 0.9999474252686541 0.01025410642567348
66.5981 137.593 2019.3499999999997 1.52326033355784e-16 0.9999393600544719 0.0110125480182192
98.1069 -175.91233333333335 2462.55 0.0 0.0 1.0
96.43536666666667 -161.41533333333334 2442.45 0.0 0.0 1.0
93.54666666666667 -102.71999999999998 2393.6 0.0 0.0 1.0
92.26666666666667 -99.73333333333333 2393.6 0.0 0.0 1.0
93.76 -89.28000000000002 2393.6 0.0 0.0 1.0
90.89946666666667 -63.38623333333334 2374.6 0.0 0.0 1.0
90.89946666666667 -63.38623333333334 2374.6 0.0 0.0 1.0
92.85523333333333 -42.815400000000004 2384.06 0.0 0.0 1.0
90.47619999999999 -40.74073333333333 2374.6 0.0 0.0 1.0
90.47619999999999 -39.4709 2374.6 0.0 0.0 1.0
94.3426 -31.1288 2384.06 0.0 0.0 1.0
90.89949999999999 -30.3704 2374.6 0.0 0.0 1.0
91.53436666666666 -21.058166666666665 2374.6 0.0 0.0 1.0
91.32273333333332 -20.0 2374.6 0.0 0.0 1.0
91.32273333333332 -20.0 2374.6 0.0 0.0 1.0
62.625 -10.320913333333333 1979.28 -0.9610013964748683 0.16016790713808018 0.22543858919084925
60.488033333333334 -11.817366666666667 1964.1200000000001 0.13192074277892002 0.9893804239218121 0.06101880353590673
90.26456666666667 22.5397 2374.6 0.0 0.0 1.0
88.78306666666667 32.0635 2374.6 0.0 0.0 1.0
72.43436666666666 42.35906666666667 2205.4133333333334 -0.14832795617759598 0.9888614156169151 -0.01232550689781148
89.84126666666667 50.89946666666666 2374.6 0.0 0.0 1.0
90.89946666666667 61.26983333333333 2374.6 0.0 0.0 1.0
90.89946666666667 61.26983333333334 2374.6 0.0 0.0 1.0
90.68783333333333 77.35453333333334 2374.6 0.0 0.0 1.0
91.53436666666666 80.5291 2374.6 0.0 0.0 1.0
91.74603333333334 92.38096666666667 2374.6 0.0 0.0 1.0
90.89946666666667 96.82536666666665 2374.6 0.0 0.0 1.0
90.47619999999999 97.03703333333333 2374.6 0.0 0.0 1.0
90.6456 103.82099999999998 2365.22 0.0 0.0 1.0
87.03413333333333 110.76100000000001 2355.91 0.0 0.0 1.0
87.4541 124.61933333333336 2355.91 0.0 0.0 1.0
88.4375 128.02066666666667 2337.5 0.0 0.0 1.0
81.7369 127.49066666666666 2286.8866666666668 -4.1430915420358316e-16 -0.9984483925913388 0.05568489320966573
80.0995 138.01 2232.84 0.0 0.0 1.0
76.0446 139.445 2165.5099999999998 3.664380019578854e-18 0.9999541289032622 0.009578104682983705
95.6284 -179.12566666666666 2452.46 0.0 0.0 1.0
98.1069 -175.91233333333335 2462.55 0.0 0.0 1.0
96.50273333333332 -171.694 2452.46 0.0 0.0 1.0
96.72133333333333 -164.91833333333332 2452.46 0.0 0.0 1.0
96.0 -160.97966666666665 2442.45 0.0 0.0 1.0
93.38686666666666 -128.621 2403.21 0.0 0.0 1.0
93.38686666666666 -127.55 2403.21 0.0 0.0 1.0
90.13333333333333 -120.64 2393.6 0.0 0.0 1.0
92.26666666666667 -109.97333333333334 2393.6 0.0 0.0 1.0
92.90666666666668 -97.81333333333333 2393.6 0.0 0.0 1.0
90.51793333333335 -83.8247 2384.06 0.0 0.0 1.0
90.09296666666665 -76.1753 2384.06 0.0 0.0 1.0
90.89946666666667 -63.38623333333334 2374.6 0.0 0.0 1.0
89.418 -26.772500000000004 2374.6 0.0 0.0 1.0
64.59846666666667 -9.768966666666667 1974.92 0.0 0.0 1.0
91.9577 -5.185186666666666 2374.6 0.0 0.0 1.0
91.74606666666666 11.9577 2374.6 0.0 0.0 1.0
90.47619999999999 16.1905 2374.6 0.0 0.0 1.0
90.26456666666667 22.5397 2374.6 0.0 0.0 1.0
93.28023333333333 35.37846666666667 2384.06 0.0 0.0 1.0
82.33206666666666 42.88973333333334 2275.29 0.0 0.0 1.0
89.418 55.978833333333334 2374.6 0.0 0.0 1.0
90.89946666666667 61.26983333333333 2374.6 0.0 0.0 1.0
90.68783333333333 77.35453333333334 2374.6 0.0 0.0 1.0
90.68783333333333 77.35453333333334 2374.6 0.0 0.0 1.0
90.68786666666666 88.35979999999999 2374.6 0.0 0.0 1.0
90.4762 94.49736666666666 2374.6 0.0 0.0 1.0
89.80239999999999 103.18833333333333 2365.22 0.0 0.0 1.0
89.16996666666667 118.15533333333333 2365.22 0.0 0.0 1.0
88.26143333333334 126.64033333333333 2346.67 0.0 0.0 1.0
88.4375 128.02066666666667 2337.5 0.0 0.0 1.0
87.80316666666666 128.27 2334.4666666666667 -0.7070687634175383 -0.7059392606005903 0.0412737706283931
82.29713333333335 134.73166666666668 2241.2 0.0 0.0 1.0
80.0995 138.01 2232.84 0.0 0.0 1.0
77.92593333333333 139.556 2216.3 0.0 0.0 1.0
76.0446 139.44499999999996 2165.5099999999998 2.6225921766858314e-18 0.9999541289032622 0.009578104682983703
58.65673333333333 136.41466666666668 1938.6666666666667 5.183206730540744e-17 0.9999270125234215 0.012081789022539627
95.6284 -179.12566666666666 2452.46 0.0 0.0 1.0
95.19123333333334 -177.81433333333334 2452.46 0.0 0.0 1.0
95.19123333333334 -174.09833333333336 2452.46 0.0 0.0 1.0
95.6284 -172.34966666666665 2452.46 0.0 0.0 1.0
92.8997 -151.43633333333332 2432.52 0.0 0.0 1.0
92.84753333333333 -139.811 2422.67 0.0 0.0 1.0
92.36556666666667 -134.516 2412.9 0.0 0.0 1.0
92.26666666666667 -109.97333333333334 2393.6 0.0 0.0 1.0
90.51793333333332 -83.8247 2384.06 0.0 0.0 1.0
90.09296666666665 -77.02523333333333 2384.06 0.0 0.0 1.0
87.30156666666666 -53.86246666666667 2374.6 0.0 0.0 1.0
93.0677 -46.6401 2384.06 0.0 0.0 1.0
63.87683333333333 -10.409326666666667 1996.9066666666665 0.6081460683447815 0.668955902036897 0.42738315442561126
69.73606666666667 -12.03297 2194.626666666667 -0.2643523010443682 0.7449925129053862 0.6124573590442567
87.27273333333333 -4.321476666666666 2365.22 0.0 0.0 1.0
90.68786666666666 26.77246666666667 2374.6 0.0 0.0 1.0
90.68786666666666 26.77246666666667 2374.6 0.0 0.0 1.0
89.20636666666667 37.354499999999994 2374.6 0.0 0.0 1.0
89.20636666666667 39.47089999999999 2374.6 0.0 0.0 1.0
91.66806666666668 49.933933333333336 2359.013333333333 0.34172215099123393 -0.9397393057302287 -0.010770737560268431
89.84126666666667 50.89946666666666 2374.6 0.0 0.0 1.0
89.62963333333333 55.13226666666666 2374.6 0.0 0.0 1.0
90.26456666666667 69.31216666666667 2374.6 0.0 0.0 1.0
90.68783333333333 75.44976666666666 2374.6 0.0 0.0 1.0
89.17 102.34499999999998 2365.22 0.0 0.0 1.0
88.53756666666668 120.05266666666667 2365.22 0.0 0.0 1.0
59.1419 137.03 1974.92 0.0 0.0 1.0
54.63336666666667 135.82166666666666 1903.7133333333334 3.00014398691525e-17 0.9999190181026266 0.012726242048578744
94.5355 -176.2843333333333 2452.46 0.0 0.0 1.0
94.69386666666666 -166.204 2442.45 0.0 0.0 1.0
94.09836666666666 -166.22966666666665 2452.46 0.0 0.0 1.0
93.5501 -150.13566666666668 2432.52 0.0 0.0 1.0
93.11649999999999 -148.83466666666666 2432.52 0.0 0.0 1.0
92.84753333333333 -139.811 2422.67 0.0 0.0 1.0
92.6316 -138.94733333333332 2422.67 0.0 0.0 1.0
90.34666666666668 -118.08 2393.6 0.0 0.0 1.0
90.34666666666668 -118.08 2393.6 0.0 0.0 1.0
90.34666666666668 -117.44 2393.6 0.0 0.0 1.0
88.81806666666667 -111.02266666666667 2384.06 0.0 0.0 1.0
92.26666666666667 -87.78666666666668 2393.6 0.0 0.0 1.0
90.51793333333332 -83.8247 2384.06 0.0 0.0 1.0
89.8413 -40.95236666666667 2374.6 0.0 0.0 1.0
88.99473333333333 -39.047599999999996 2374.6 0.0 0.0 1.0
88.57146666666667 -29.100533333333335 2374.6 0.0 0.0 1.0
88.99473333333333 -28.042333333333332 2374.6 0.0 0.0 1.0
59.23993333333334 -9.98915 1949.1899999999998 4.5095317406719425e-27 1.0444449734033619e-26 1.0
89.20636666666667 16.613766666666667 2374.6 0.0 0.0 1.0
90.26456666666667 22.5397 2374.6 0.0 0.0 1.0
89.20636666666667 37.3545 2374.6 0.0 0.0 1.0
90.26456666666667 69.31216666666667 2374.6 0.0 0.0 1.0
89.418 83.91536666666667 2374.6 0.0 0.0 1.0
90.26456666666667 89.84126666666667 2374.6 0.0 0.0 1.0
89.418 94.709 2374.6 0.0 0.0 1.0
89.17 102.34499999999998 2365.22 0.0 0.0 1.0
89.59160000000001 103.82099999999998 2365.22 0.0 0.0 1.0
88.74836666666666 117.10133333333333 2365.22 0.0 0.0 1.0
82.69663333333334 129.1386666666667 2241.2 0.0 0.0 1.0
77.11443333333334 131.244 2232.84 0.0 0.0 1.0
79.30346666666667 136.816 2232.84 0.0 0.0 1.0
54.63336666666667 135.82166666666666 1903.7133333333331 3.00014398691525e-17 0.9999190181026266 0.012726242048578744
92.2493 -148.401 2432.52 0.0 0.0 1.0
92.6316 -138.94733333333332 2422.67 0.0 0.0 1.0
90.34666666666668 -117.44 2393.6 0.0 0.0 1.0
89.45549999999999 -86.3745 2384.06 0.0 0.0 1.0
88.99470000000001 -63.38623333333334 2374.6 0.0 0.0 1.0
87.93650000000001 -46.666666666666664 2374.6 0.0 0.0 1.0
87.93650000000001 -46.666666666666664 2374.6 0.0 0.0 1.0
89.418 -26.772500000000004 2374.6 0.0 0.0 1.0
90.26453333333332 -19.788366666666665 2374.6 0.0 0.0 1.0
87.24503333333332 -15.018133333333333 2230.1133333333332 -0.015139515885741979 0.9712831489158127 0.23744439283952104
90.47619999999999 11.111133333333333 2374.6 0.0 0.0 1.0
89.20636666666667 37.3545 2374.6 0.0 0.0 1.0
88.99470000000001 39.47089999999999 2374.6 0.0 0.0 1.0
89.84126666666667 50.89946666666666 2374.6 0.0 0.0 1.0
88.57143333333333 54.70896666666667 2374.6 0.0 0.0 1.0
88.99470000000001 58.9418 2374.6 0.0 0.0 1.0
86.64029999999998 73.25426666666667 2365.22 0.0 0.0 1.0
89.418 94.709 2374.6 0.0 0.0 1.0
87.66406666666667 112.651 2355.91 0.0 0.0 1.0
72.93286666666667 138.799 2114.49 0.0 0.0 1.0
47.0918 130.62366666666665 1806.0366666666666 9.060115635297923e-17 -0.9973874768739079 0.07223725475888533
94.5355 -175.19133333333335 2452.46 0.0 0.0 1.0
92.2993 -159.01999999999998 2442.45 0.0 0.0 1.0
91.33603333333333 -142.18633333333332 2422.67 0.0 0.0 1.0
88.3931 -109.74766666666666 2384.06 0.0 0.0 1.0
88.18059999999998 -87.22443333333332 2384.06 0.0 0.0 1.0
89.24303333333332 -76.81273333333333 2384.06 0.0 0.0 1.0
89.24303333333332 -76.81273333333333 2384.06 0.0 0.0 1.0
87.72486666666667 -63.80949999999999 2374.6 0.0 0.0 1.0
82.73183333333333 -14.041313333333335 2266.69 -0.5324898071730501 0.8334133183910102 0.14790823501513636
85.7971 -4.743083333333334 2365.22 0.0 0.0 1.0
86.2187 10.645586666666667 2365.22 0.0 0.0 1.0
89.20636666666667 16.613766666666667 2374.6 0.0 0.0 1.0
85.7971 22.2398 2365.22 0.0 0.0 1.0
87.51323333333333 32.91006666666667 2374.6 0.0 0.0 1.0
70.61143333333332 40.918033333333334 2170.7633333333333 0.3934758151086686 -0.9180801788559573 0.04801633176724973
76.70923333333333 42.139133333333334 2235.6666666666665 0.9043422215334539 -0.42559128400463375 0.03220567234548333
87.08993333333332 56.19046666666667 2374.6 0.0 0.0 1.0
88.78306666666667 63.59786666666667 2374.6 0.0 0.0 1.0
88.57143333333333 66.13756666666667 2374.6 0.0 0.0 1.0
89.20636666666667 86.24340000000001 2374.6 0.0 0.0 1.0
86.4295 97.7075 2365.22 0.0 0.0 1.0
86.19426666666668 123.35966666666667 2355.91 0.0 0.0 1.0
88.26143333333334 126.64033333333334 2346.67 0.0 0.0 1.0
85.9375 127.604 2337.5 0.0 0.0 1.0
80.69913333333334 134.93133333333333 2241.2 0.0 0.0 1.0
77.91043333333333 136.01999999999998 2232.84 0.0 0.0 1.0
64.43686666666666 137.884 2042.32 0.0 0.0 1.0
58.09753333333333 136.70666666666668 1957.6966666666667 -2.396247488193598e-17 0.9999297194188077 0.011855640979067337
90.34013333333333 -163.59199999999998 2442.45 0.0 0.0 1.0
92.2993 -159.01999999999998 2442.45 0.0 0.0 1.0
92.08163333333334 -158.367 2442.45 0.0 0.0 1.0
92.03249999999998 -152.954 2432.52 0.0 0.0 1.0
88.46053333333334 -124.12333333333333 2403.21 0.0 0.0 1.0
87.54316666666666 -111.235 2384.06 0.0 0.0 1.0
87.1182 -96.99866666666667 2384.06 0.0 0.0 1.0
89.24303333333334 -74.47543333333333 2384.06 0.0 0.0 1.0
87.08996666666667 -33.333333333333336 2374.6 0.0 0.0 1.0
87.08996666666667 -33.333333333333336 2374.6 0.0 0.0 1.0
86.87833333333333 -29.735466666666667 2374.6 0.0 0.0 1.0
84.9539 -22.2398 2365.22 0.0 0.0 1.0
64.53753333333333 -11.42286 2051.68 0.6188744139968704 -0.6188721628568356 0.48372689168675814
86.85113333333334 0.5270086666666666 2365.22 0.0 0.0 1.0
85.7971 6.218710000000001 2365.22 0.0 0.0 1.0
87.51323333333333 32.910066666666665 2374.6 0.0 0.0 1.0
87.51323333333333 32.91006666666667 2374.6 0.0 0.0 1.0
73.57103333333333 41.54356666666666 2224.56 -0.05823771405656333 -0.9309730127317035 0.36041312160730404
87.51323333333333 54.70896666666667 2374.6 0.0 0.0 1.0
86.0079 58.9196 2365.22 0.0 0.0 1.0
84.74309999999998 63.13570000000001 2365.22 0.0 0.0 1.0
86.4295 70.5138 2365.22 0.0 0.0 1.0
86.4295 70.5138 2365.22 0.0 0.0 1.0
85.7971 96.0211 2365.22 0.0 0.0 1.0
86.4295 97.7075 2365.22 0.0 0.0 1.0
85.14436666666667 114.121 2355.91 0.0 0.0 1.0
85.37549999999999 118.99866666666667 2365.22 0.0 0.0 1.0
86.19426666666668 123.35966666666667 2355.91 0.0 0.0 1.0
86.19426666666668 123.35966666666667 2355.91 0.0 0.0 1.0
85.9375 127.604 2337.5 0.0 0.0 1.0
78.89306666666668 127.094 2258.11 0.0 0.0 1.0
77.11443333333334 131.244 2232.84 0.0 0.0 1.0
59.1419 137.03 1974.92 0.0 0.0 1.0
90.81966666666666 -169.071 2452.46 0.0 0.0 1.0
92.08163333333334 -158.367 2442.45 0.0 0.0 1.0
92.03249999999998 -152.954 2432.52 0.0 0.0 1.0
92.2493 -148.401 2432.52 0.0 0.0 1.0
90.04046666666666 -142.61800000000002 2422.67 0.0 0.0 1.0
90.43006666666668 -133.65566666666666 2412.9 0.0 0.0 1.0
89.13976666666667 -132.15033333333335 2412.9 0.0 0.0 1.0
88.03213333333333 -125.83666666666666 2403.21 0.0 0.0 1.0
87.78666666666668 -119.14666666666666 2393.6 0.0 0.0 1.0
87.78666666666668 -119.14666666666666 2393.6 0.0 0.0 1.0
86.90570000000001 -99.76086666666667 2384.06 0.0 0.0 1.0
87.1182 -96.99866666666667 2384.06 0.0 0.0 1.0
87.3307 -95.08633333333334 2384.06 0.0 0.0 1.0
86.69323333333334 -94.2364 2384.06 0.0 0.0 1.0
87.1182 -80.21249999999999 2384.06 0.0 0.0 1.0
87.72486666666667 -63.80949999999999 2374.6 0.0 0.0 1.0
86.03173333333332 -49.418 2374.6 0.0 0.0 1.0
86.66666666666667 -46.03173333333333 2374.6 0.0 0.0 1.0
87.30160000000001 -39.0476 2374.6 0.0 0.0 1.0
86.87833333333333 -32.0635 2374.6 0.0 0.0 1.0
86.24340000000001 -31.216966666666668 2374.6 0.0 0.0 1.0
86.87833333333333 -29.735466666666667 2374.6 0.0 0.0 1.0
84.95389999999999 4.532276666666667 2365.22 0.0 0.0 1.0
86.2187 10.645586666666667 2365.22 0.0 0.0 1.0
87.51323333333333 54.70896666666667 2374.6 0.0 0.0 1.0
86.0079 58.9196 2365.22 0.0 0.0 1.0
86.4295 70.51379999999999 2365.22 0.0 0.0 1.0
85.58630000000001 84.21606666666666 2365.22 0.0 0.0 1.0
85.58630000000001 84.21606666666666 2365.22 0.0 0.0 1.0
86.64033333333333 101.92333333333333 2365.22 0.0 0.0 1.0
81.7369 127.49066666666666 2286.8866666666668 -4.1430915420358316e-16 -0.9984483925913388 0.05568489320966573
76.3184 135.224 2232.84 0.0 0.0 1.0
77.91193333333332 139.2553333333333 2227.306666666667 -1.3238867582168002e-16 0.9967191059850398 0.08093839487155167
95.47326666666667 -177.44866666666667 2462.55 0.0 0.0 1.0
92.78686666666665 -167.75966666666667 2452.46 0.0 0.0 1.0
89.39269999999999 -141.53833333333333 2422.67 0.0 0.0 1.0
88.06450000000001 -130.86 2412.9 0.0 0.0 1.0
87.17536666666666 -127.336 2403.21 0.0 0.0 1.0
88.42666666666668 -118.08 2393.6 0.0 0.0 1.0
85.8433 -108.04766666666667 2384.06 0.0 0.0 1.0
87.1182 -89.56176666666666 2384.06 0.0 0.0 1.0
87.33066666666667 -88.28686666666665 2384.06 0.0 0.0 1.0
84.76190000000001 -72.2751 2374.6 0.0 0.0 1.0
84.97353333333332 -66.56083333333333 2374.6 0.0 0.0 1.0
87.30156666666666 -53.86246666666667 2374.6 0.0 0.0 1.0
86.03173333333332 -49.418 2374.6 0.0 0.0 1.0
86.03173333333332 -38.201033333333335 2374.6 0.0 0.0 1.0
69.73606666666667 -12.03297 2194.626666666667 -0.2643523010443682 0.7449925129053862 0.6124573590442567
66.10316666666667 -7.953716666666666 2149.9466666666667 0.5379427123542208 0.6228837280567403 0.5680083622158402
55.939166666666665 -8.946810000000001 1949.1899999999998 -8.131776288392035e-28 -2.5324388657117752e-27 1.0
66.10316666666667 -7.953716666666666 2149.9466666666667 0.5379427123542208 0.6228837280567403 0.5680083622158402
84.74310000000001 -4.11067 2365.22 0.0 0.0 1.0
84.7431 8.115943333333332 2365.22 0.0 0.0 1.0
84.95386666666667 23.926199999999998 2365.22 0.0 0.0 1.0
86.87830000000001 56.19046666666667 2374.6 0.0 0.0 1.0
86.00789999999999 58.9196 2365.22 0.0 0.0 1.0
84.3215 65.66536666666667 2365.22 0.0 0.0 1.0
86.21870000000001 71.35703333333333 2365.22 0.0 0.0 1.0
85.7971 96.0211 2365.22 0.0 0.0 1.0
85.7971 96.8643 2365.22 0.0 0.0 1.0
86.64033333333333 101.92333333333333 2365.22 0.0 0.0 1.0
81.7369 127.49066666666666 2286.8866666666668 -4.1430915420358316e-16 -0.9984483925913388 0.05568489320966573
60.83233333333334 137.593 2019.3499999999997 -3.034093537277422e-19 0.9999393600544718 0.011012548018219381
127.06666666666666 -220.9333333333333 2992.0 0.0 0.0 1.0
90.60109999999999 -176.93999999999997 2452.46 0.0 0.0 1.0
91.694 -176.06566666666666 2452.46 0.0 0.0 1.0
90.34013333333333 -163.592 2442.45 0.0 0.0 1.0
87.91329999999999 -145.58233333333334 2432.52 0.0 0.0 1.0
89.39269999999999 -141.53833333333333 2422.67 0.0 0.0 1.0
87.17536666666666 -127.336 2403.21 0.0 0.0 1.0
87.38956666666667 -125.62266666666666 2403.21 0.0 0.0 1.0
86.90570000000001 -110.81 2384.06 0.0 0.0 1.0
85.8433 -108.04766666666667 2384.06 0.0 0.0 1.0
86.90573333333333 -95.93626666666667 2384.06 0.0 0.0 1.0
86.05576666666667 -91.47413333333334 2384.06 0.0 0.0 1.0
84.97353333333332 -66.56083333333333 2374.6 0.0 0.0 1.0
86.24340000000001 -47.9365 2374.6 0.0 0.0 1.0
86.24336666666666 -36.507933333333334 2374.6 0.0 0.0 1.0
85.82010000000001 -31.851866666666666 2374.6 0.0 0.0 1.0
86.24340000000001 -31.216966666666668 2374.6 0.0 0.0 1.0
83.47826666666667 -22.872200000000003 2365.22 0.0 0.0 1.0
82.73183333333334 -14.041313333333335 2266.69 -0.5324898071730502 0.8334133183910101 0.14790823501513645
84.74310000000001 -4.11067 2365.22 0.0 0.0 1.0
84.3215 4.3214733333333335 2365.22 0.0 0.0 1.0
85.1647 7.27273 2365.22 0.0 0.0 1.0
85.7971 22.2398 2365.22 0.0 0.0 1.0
86.87830000000001 34.391533333333335 2374.6 0.0 0.0 1.0
69.61183333333334 40.87413333333333 2178.646666666667 0.3936397668368219 -0.9184627203645517 0.03839225527629603
85.58630000000001 84.21606666666666 2365.22 0.0 0.0 1.0
83.2546 108.661 2355.91 0.0 0.0 1.0
84.74306666666666 117.73366666666668 2365.22 0.0 0.0 1.0
83.8999 120.47433333333333 2365.22 0.0 0.0 1.0
78.49546666666667 127.01733333333334 2249.643333333333 0.21674611528789908 -0.9762064309502255 -0.006490429802998854
77.92593333333333 139.556 2216.3 0.0 0.0 1.0
76.15543333333333 139.606 2210.846666666667 -9.697052650113912e-18 0.999957970081965 0.009168318796593302
70.50483333333334 138.84833333333333 2109.523333333333 -2.1999758820322744e-17 0.9999506725388266 0.009932395941994245
63.43983333333333 138.76066666666665 2099.6666666666665 -0.03323967883368888 -0.9989913338498596 0.030190042131657373
89.94536666666666 -177.5956666666667 2452.46 0.0 0.0 1.0
85.8433 -101.03566666666666 2384.06 0.0 0.0 1.0
86.69323333333334 -94.2364 2384.06 0.0 0.0 1.0
83.49206666666667 -92.59263333333332 2374.6 0.0 0.0 1.0
85.20583333333333 -82.76226666666668 2384.06 0.0 0.0 1.0
85.20583333333333 -82.76226666666668 2384.06 0.0 0.0 1.0
83.47826666666667 -55.96836666666667 2365.22 0.0 0.0 1.0
83.6891 -51.541500000000006 2365.22 0.0 0.0 1.0
85.39683333333333 -44.973533333333336 2374.6 0.0 0.0 1.0
85.39683333333333 -44.973533333333336 2374.6 0.0 0.0 1.0
87.30156666666666 -23.386233333333333 2374.6 0.0 0.0 1.0
84.74309999999998 -4.11067 2365.22 0.0 0.0 1.0
84.3215 4.3214733333333335 2365.22 0.0 0.0 1.0
84.3215 4.3214733333333335 2365.22 0.0 0.0 1.0
84.74309999999998 8.115943333333334 2365.22 0.0 0.0 1.0
83.05663333333332 39.314899999999994 2365.22 0.0 0.0 1.0
79.1 43.923766666666666 2255.28 0.1269573734474215 -0.8886700745393415 0.44062152006634114
86.66666666666667 51.95766666666666 2374.6 0.0 0.0 1.0
83.05666666666667 62.2925 2365.22 0.0 0.0 1.0
84.11066666666666 65.87616666666666 2365.22 0.0 0.0 1.0
83.04463333333335 103.202 2355.91 0.0 0.0 1.0
83.04463333333335 103.202 2355.91 0.0 0.0 1.0
83.2546 108.661 2355.91 0.0 0.0 1.0
75.3234 134.428 2232.84 0.0 0.0 1.0
74.92536666666666 136.816 2232.84 0.0 0.0 1.0
66.92099999999999 139.093 2142.2466666666664 4.077255004456277e-17 0.9999520704040754 0.009790653430847614
57.885 137.00466666666668 1977.1000000000001 3.1986537177172795e-16 0.9999324853984876 0.011620010533682085
59.1419 137.03 1974.92 0.0 0.0 1.0
54.85953333333333 136.41466666666665 1938.6666666666667 2.546590567294069e-18 0.9999270125234214 0.012081789022539868
52.2293 135.796 1905.7300000000002 0.0 1.0 0.0
88.38096666666667 -162.72133333333335 2442.45 0.0 0.0 1.0
89.25170000000001 -157.27866666666665 2442.45 0.0 0.0 1.0
87.88123333333333 -139.59533333333334 2422.67 0.0 0.0 1.0
87.17536666666666 -127.336 2403.21 0.0 0.0 1.0
84.99336666666666 -108.89766666666667 2384.06 0.0 0.0 1.0
85.8433 -101.03566666666666 2384.06 0.0 0.0 1.0
85.20583333333333 -82.76226666666668 2384.06 0.0 0.0 1.0
84.7619 -72.27510000000001 2374.6 0.0 0.0 1.0
83.49206666666667 -71.42853333333333 2374.6 0.0 0.0 1.0
83.26746666666666 -53.64953333333333 2365.22 0.0 0.0 1.0
83.6891 -51.541500000000006 2365.22 0.0 0.0 1.0
84.11066666666666 -21.396600000000003 2365.22 0.0 0.0 1.0
83.26746666666666 30.67193333333334 2365.22 0.0 0.0 1.0
83.05663333333332 32.9908 2365.22 0.0 0.0 1.0
82.55776666666667 43.37086666666667 2289.8033333333333 -0.5079489734776711 0.8596118386437903 0.05527501430504354
79.09999999999998 43.923766666666666 2255.28 0.1269573734474214 -0.8886700745393415 0.44062152006634137
82.21343333333333 52.1739 2365.22 0.0 0.0 1.0
83.47826666666667 65.03293333333333 2365.22 0.0 0.0 1.0
82.2047 78.00526666666667 2355.91 0.0 0.0 1.0
82.2047 99.2126 2355.91 0.0 0.0 1.0
83.8999 120.47433333333333 2365.22 0.0 0.0 1.0
83.8999 120.47433333333333 2365.22 0.0 0.0 1.0
74.12936666666667 134.826 2232.84 0.0 0.0 1.0
126.53333333333335 220.4 2992.0 0.0 0.0 1.0
88.19673333333333 -177.37700000000004 2452.46 0.0 0.0 1.0
87.51023333333335 -169.46933333333334 2442.45 0.0 0.0 1.0
89.5082 -171.25699999999998 2452.46 0.0 0.0 1.0
87.51023333333335 -169.46933333333334 2442.45 0.0 0.0 1.0
86.82929999999999 -147.317 2432.52 0.0 0.0 1.0
86.36976666666665 -140.02700000000002 2422.67 0.0 0.0 1.0
86.77420000000001 -130.215 2412.9 0.0 0.0 1.0
83.49206666666667 -92.59263333333332 2374.6 0.0 0.0 1.0
86.69323333333334 -78.7251 2384.06 0.0 0.0 1.0
84.97353333333332 -66.56083333333332 2374.6 0.0 0.0 1.0
83.47826666666667 -55.96836666666667 2365.22 0.0 0.0 1.0
78.03580000000001 -12.314733333333331 2109.523333333333 -0.15484350018247425 0.9600308005207419 0.23316164457891322
83.26743333333333 -2.84585 2365.22 0.0 0.0 1.0
82.63499999999999 -1.791832333333333 2365.22 0.0 0.0 1.0
83.68903333333333 12.7536 2365.22 0.0 0.0 1.0
83.05663333333332 30.67193333333334 2365.22 0.0 0.0 1.0
83.05663333333332 32.9908 2365.22 0.0 0.0 1.0
82.4242 33.2016 2365.22 0.0 0.0 1.0
82.84583333333335 38.260866666666665 2365.22 0.0 0.0 1.0
76.24103333333333 40.408300000000004 2283.9933333333333 -0.1961005108142617 0.9805347838661641 0.009804452402875419
81.1594 49.222633333333334 2365.22 0.0 0.0 1.0
83.47826666666667 65.03293333333333 2365.22 0.0 0.0 1.0
81.99473333333333 74.64566666666667 2355.91 0.0 0.0 1.0
81.5748 75.06563333333334 2355.91 0.0 0.0 1.0
82.2047 78.00526666666667 2355.91 0.0 0.0 1.0
80.52493333333332 82.83466666666668 2355.91 0.0 0.0 1.0
81.78476666666666 88.084 2355.91 0.0 0.0 1.0
82.20469999999999 99.2126 2355.91 0.0 0.0 1.0
83.04463333333335 103.202 2355.91 0.0 0.0 1.0
82.4147 107.40133333333334 2355.91 0.0 0.0 1.0
81.15483333333333 115.38066666666667 2355.91 0.0 0.0 1.0
83.68906666666668 118.15533333333333 2365.22 0.0 0.0 1.0
72.90886666666667 130.93633333333335 2241.2 0.0 0.0 1.0
66.921 139.093 2142.246666666667 3.937662486772044e-17 0.9999520704040754 0.009790653430847614
39.4997 134.13866666666667 1866.14 -0.024318280845000134 -0.9986352955787172 0.04621869363311619
88.19673333333334 -177.37700000000004 2452.46 0.0 0.0 1.0
87.07483333333334 -157.71399999999997 2442.45 0.0 0.0 1.0
87.91329999999999 -145.58233333333334 2432.52 0.0 0.0 1.0
86.77420000000001 -130.215 2412.9 0.0 0.0 1.0
83.96253333333333 -125.62233333333334 2403.21 0.0 0.0 1.0
83.506 -108.89766666666667 2384.06 0.0 0.0 1.0
84.35593333333334 -105.498 2384.06 0.0 0.0 1.0
83.93096666666666 -103.798 2384.06 0.0 0.0 1.0
80.7407 -99.7885 2374.6 0.0 0.0 1.0
81.5873 -86.87830000000001 2374.6 0.0 0.0 1.0
84.5684 -84.03716666666668 2384.06 0.0 0.0 1.0
82.01056666666666 -75.44973333333333 2374.6 0.0 0.0 1.0
80.9486 -42.266133333333336 2365.22 0.0 0.0 1.0
84.76186666666666 -37.77776666666667 2374.6 0.0 0.0 1.0
81.3702 -28.985500000000002 2365.22 0.0 0.0 1.0
83.47826666666667 -22.872200000000003 2365.22 0.0 0.0 1.0
58.62983333333333 -8.66489 2005.83 0.672334644112538 0.7395628315859992 0.03182678844253539
82.63499999999999 -1.791832333333333 2365.22 0.0 0.0 1.0
83.68903333333333 12.7536 2365.22 0.0 0.0 1.0
83.47823333333334 26.666633333333333 2365.22 0.0 0.0 1.0
81.581 36.5744 2365.22 0.0 0.0 1.0
83.05663333333332 39.3149 2365.22 0.0 0.0 1.0
67.05596666666666 40.19466666666667 2183.94 0.0 0.0 1.0
68.13726666666666 40.88236666666666 2200.0 0.0 0.0 1.0
82.21343333333333 52.1739 2365.22 0.0 0.0 1.0
81.3702 60.395266666666664 2365.22 0.0 0.0 1.0
80.52493333333332 66.24673333333334 2355.91 0.0 0.0 1.0
81.5748 75.06563333333334 2355.91 0.0 0.0 1.0
82.2047 78.00526666666667 2355.91 0.0 0.0 1.0
81.78476666666667 88.084 2355.91 0.0 0.0 1.0
81.78476666666666 88.084 2355.91 0.0 0.0 1.0
82.20469999999999 99.2126 2355.91 0.0 0.0 1.0
82.4147 107.40133333333334 2355.91 0.0 0.0 1.0
81.15483333333333 115.38066666666667 2355.91 0.0 0.0 1.0
83.47826666666667 121.31766666666665 2365.22 0.0 0.0 1.0
79.0625 125.93733333333334 2337.5 0.0 0.0 1.0
74.12936666666666 136.617 2232.84 0.0 0.0 1.0
53.53810000000001 136.10266666666666 1922.0633333333333 -7.971100995281373e-17 0.9999221371311547 0.012478768972301473
37.40273333333334 126.86733333333332 1741.2233333333334 -1.8909767845742127e-15 -0.9973580639370463 0.07264222119226837
88.19673333333334 -177.37700000000004 2452.46 0.0 0.0 1.0
87.10383333333334 -172.13133333333334 2452.46 0.0 0.0 1.0
85.52850000000001 -151.43633333333332 2432.52 0.0 0.0 1.0
83.97850000000001 -135.59133333333332 2412.9 0.0 0.0 1.0
83.96253333333333 -125.62233333333334 2403.21 0.0 0.0 1.0
82.65603333333333 -111.02300000000001 2384.06 0.0 0.0 1.0
82.6455 -93.22753333333333 2374.6 0.0 0.0 1.0
82.6455 -93.22753333333333 2374.6 0.0 0.0 1.0
80.95236666666666 -79.8942 2374.6 0.0 0.0 1.0
82.43386666666667 -70.7936 2374.6 0.0 0.0 1.0
80.9486 -42.26613333333333 2365.22 0.0 0.0 1.0
84.3386 -31.4286 2374.6 0.0 0.0 1.0
80.9486 8.115943333333332 2365.22 0.0 0.0 1.0
77.5853 22.572166666666664 2355.91 0.0 0.0 1.0
82.4242 33.201600000000006 2365.22 0.0 0.0 1.0
81.581 36.5744 2365.22 0.0 0.0 1.0
80.9486 61.238499999999995 2365.22 0.0 0.0 1.0
80.10496666666667 69.18636666666667 2355.91 0.0 0.0 1.0
81.5748 75.06563333333334 2355.91 0.0 0.0 1.0
70.6129 139.39499999999998 2170.7466666666664 -6.116141494875517e-17 0.9999547091375292 0.00951733542960677
60.092099999999995 137.909 2040.003333333333 4.9794122591674895e-17 0.9999417782851919 0.010790738614590572
87.51023333333335 -169.46933333333334 2442.45 0.0 0.0 1.0
85.11566666666667 -164.68033333333332 2442.45 0.0 0.0 1.0
85.76870000000001 -161.19766666666666 2442.45 0.0 0.0 1.0
85.52850000000001 -151.43633333333332 2432.52 0.0 0.0 1.0
85.07423333333332 -140.67466666666667 2422.67 0.0 0.0 1.0
83.97850000000001 -135.59133333333332 2412.9 0.0 0.0 1.0
83.53413333333333 -126.69333333333334 2403.21 0.0 0.0 1.0
81.81333333333333 -117.44 2393.6 0.0 0.0 1.0
82.2311 -108.68533333333333 2384.06 0.0 0.0 1.0
81.164 -85.60846666666667 2374.6 0.0 0.0 1.0
81.79893333333332 -78.62433333333333 2374.6 0.0 0.0 1.0
81.5873 -76.71956666666667 2374.6 0.0 0.0 1.0
82.01056666666666 -75.44973333333333 2374.6 0.0 0.0 1.0
80.3162 -29.828699999999998 2365.22 0.0 0.0 1.0
80.3162 -27.299066666666665 2365.22 0.0 0.0 1.0
52.046600000000005 -9.374176666666665 1966.2700000000002 0.7070410074524476 0.7070450375769212 0.013428649168037543
52.812000000000005 -9.709573333333333 1961.9833333333336 -0.8320276280103901 -0.5546713237952898 0.008351573898658926
