ply
format ascii 1.0
comment VCGLIB generated
element vertex 863
property float x
property float y
property float z
property float nx
property float ny
property float nz
element face 0
property list uchar int vertex_indices
end_header
95.80643333333332 -137.09666666666666 2412.9 0.0 0.0 1.0
95.52876666666667 -134.18966666666665 2403.21 0.0 0.0 1.0
94.18666666666667 -109.75999999999999 2393.6 0.0 0.0 1.0
94.18666666666667 -107.41333333333334 2393.6 0.0 0.0 1.0
93.12 -97.38666666666666 2393.6 0.0 0.0 1.0
94.40000000000002 -93.54666666666668 2393.6 0.0 0.0 1.0
94.5551 -78.5126 2384.06 0.0 0.0 1.0
93.70519999999999 -61.30146666666667 2384.06 0.0 0.0 1.0
90.68783333333333 -58.9418 2374.6 0.0 0.0 1.0
91.79283333333335 -48.55243333333333 2384.06 0.0 0.0 1.0
94.13016666666665 -45.79013333333334 2384.06 0.0 0.0 1.0
93.91766666666666 -29.641433333333335 2384.06 0.0 0.0 1.0
95.40503333333334 -27.091633333333334 2384.06 0.0 0.0 1.0
78.92229999999999 -10.528686666666667 2205.4333333333334 -4.094187512350383e-15 0.9028472904649143 0.4299613588453765
59.1153 -8.75446 1944.97 -0.31152440640127305 -0.9345792160546395 0.17179706963458335
91.74603333333334 11.957666666666668 2374.6 0.0 0.0 1.0
92.38093333333332 15.978866666666667 2374.6 0.0 0.0 1.0
92.38093333333332 15.978866666666667 2374.6 0.0 0.0 1.0
90.89946666666667 26.3492 2374.6 0.0 0.0 1.0
88.95363333333334 44.780966666666664 2310.4466666666667 0.7045279580751495 -0.7043708738283552 -0.08661425051768257
92.1693 73.33333333333334 2374.6 0.0 0.0 1.0
91.11110000000001 83.91533333333332 2374.6 0.0 0.0 1.0
94.34263333333332 85.73703333333333 2384.06 0.0 0.0 1.0
93.70519999999999 91.26163333333334 2384.06 0.0 0.0 1.0
91.278 115.62600000000002 2365.22 0.0 0.0 1.0
81.49813333333334 127.74033333333334 2241.2 0.0 0.0 1.0
79.7015 135.821 2232.84 0.0 0.0 1.0
77.03706666666666 139.642 2144.8 0.0 0.0 1.0
43.05946666666667 124.57033333333334 1695.18 0.0 0.0 1.0
96.50273333333332 -179.563 2452.46 0.0 0.0 1.0
96.87076666666667 -155.102 2442.45 0.0 0.0 1.0
96.3686 -149.70166666666668 2432.52 0.0 0.0 1.0
94.08603333333333 -139.03233333333336 2412.9 0.0 0.0 1.0
93.06343333333332 -140.675 2422.67 0.0 0.0 1.0
91.67336666666667 -127.12166666666667 2403.21 0.0 0.0 1.0
93.12 -121.28000000000002 2393.6 0.0 0.0 1.0
92.9585 -121.767 2403.21 0.0 0.0 1.0
90.73039999999999 -111.448 2384.06 0.0 0.0 1.0
89.62963333333333 -50.89946666666666 2374.6 0.0 0.0 1.0
89.418 -39.68253333333333 2374.6 0.0 0.0 1.0
91.5344 -34.39156666666667 2374.6 0.0 0.0 1.0
90.4762 -19.5767 2374.6 0.0 0.0 1.0
78.92229999999999 -10.528686666666667 2205.4333333333334 1.0782092664675667e-14 0.9028472904649151 0.42996135884537484
91.95766666666667 -6.243390000000001 2374.6 0.0 0.0 1.0
91.5344 -4.7619066666666665 2374.6 0.0 0.0 1.0
91.74603333333334 11.957666666666668 2374.6 0.0 0.0 1.0
89.16996666666667 16.5481 2365.22 0.0 0.0 1.0
90.68783333333333 24.867700000000003 2374.6 0.0 0.0 1.0
91.79283333333332 37.2908 2384.06 0.0 0.0 1.0
73.39916666666666 42.20106666666666 2147.3733333333334 5.732074555831308e-17 -0.9998069895532257 0.019646466362075937
91.32273333333332 48.571433333333324 2374.6 0.0 0.0 1.0
90.05293333333334 58.09523333333333 2374.6 0.0 0.0 1.0
92.38096666666667 62.53966666666667 2374.6 0.0 0.0 1.0
92.1693 73.33333333333334 2374.6 0.0 0.0 1.0
91.11110000000001 83.91533333333332 2374.6 0.0 0.0 1.0
91.32276666666667 87.3016 2374.6 0.0 0.0 1.0
90.4762 90.47619999999999 2374.6 0.0 0.0 1.0
90.68783333333333 97.8836 2374.6 0.0 0.0 1.0
90.68783333333333 97.8836 2374.6 0.0 0.0 1.0
90.6456 106.13966666666666 2365.22 0.0 0.0 1.0
91.48880000000001 114.99366666666667 2365.22 0.0 0.0 1.0
90.01316666666666 122.793 2365.22 0.0 0.0 1.0
80.69653333333333 128.259 2232.84 0.0 0.0 1.0
80.49753333333332 132.04 2232.84 0.0 0.0 1.0
74.67793333333333 139.58833333333334 2170.7466666666664 0.3161408802279293 -0.9479320772489251 0.03846713884925612
72.83156666666667 139.642 2144.8 0.0 0.0 1.0
73.85343333333333 138.723 2121.99 0.0 0.0 1.0
58.5879 136.8286666666667 1977.1000000000001 0.09919319565587098 -0.9920258895091564 0.0777518133495464
94.97269999999999 -172.787 2452.46 0.0 0.0 1.0
93.60543333333334 -166.42166666666665 2442.45 0.0 0.0 1.0
97.37713333333335 -166.011 2452.46 0.0 0.0 1.0
95.06773333333335 -155.989 2432.52 0.0 0.0 1.0
94.4173 -154.68833333333333 2432.52 0.0 0.0 1.0
94.14306666666668 -143.69766666666666 2422.67 0.0 0.0 1.0
90.77333333333333 -117.44 2393.6 0.0 0.0 1.0
90.77333333333333 -116.37333333333333 2393.6 0.0 0.0 1.0
90.73039999999999 -111.448 2384.06 0.0 0.0 1.0
90.98666666666668 -91.62666666666667 2393.6 0.0 0.0 1.0
89.668 -87.64943333333333 2384.06 0.0 0.0 1.0
91.83999999999999 -86.71999999999998 2393.6 0.0 0.0 1.0
91.11113333333333 -74.81483333333334 2374.6 0.0 0.0 1.0
90.8995 -61.48146666666667 2374.6 0.0 0.0 1.0
93.06773333333335 -58.53916666666667 2384.06 0.0 0.0 1.0
91.32276666666667 -33.33336666666667 2374.6 0.0 0.0 1.0
91.5344 -20.634900000000002 2374.6 0.0 0.0 1.0
78.92229999999999 -10.528686666666667 2205.4333333333334 1.0782092664675667e-14 0.9028472904649151 0.42996135884537484
89.17 -5.7971 2365.22 0.0 0.0 1.0
91.74606666666666 2.0105799999999996 2374.6 0.0 0.0 1.0
90.68783333333333 24.867700000000003 2374.6 0.0 0.0 1.0
90.4762 25.71426666666667 2374.6 0.0 0.0 1.0
90.05293333333333 27.195733333333333 2374.6 0.0 0.0 1.0
90.89946666666667 85.39683333333333 2374.6 0.0 0.0 1.0
90.68783333333333 86.87829999999998 2374.6 0.0 0.0 1.0
90.4762 90.47619999999999 2374.6 0.0 0.0 1.0
90.89946666666667 99.36513333333335 2374.6 0.0 0.0 1.0
71.20566666666666 138.723 2121.99 0.0 0.0 1.0
56.38313333333334 135.37866666666665 1885.72 2.108334066358104e-17 -0.9974262066993361 0.07170050341087629
93.87976666666668 -170.38233333333332 2452.46 0.0 0.0 1.0
93.5501 -153.82133333333334 2432.52 0.0 0.0 1.0
94.14306666666668 -143.69766666666666 2422.67 0.0 0.0 1.0
90.98666666666668 -91.62666666666667 2393.6 0.0 0.0 1.0
89.418 -75.2381 2374.6 0.0 0.0 1.0
89.418 -62.53966666666667 2374.6 0.0 0.0 1.0
90.68783333333333 -58.9418 2374.6 0.0 0.0 1.0
92.43026666666667 -53.0146 2384.06 0.0 0.0 1.0
88.78306666666667 -44.12696666666667 2374.6 0.0 0.0 1.0
88.99473333333333 -27.619 2374.6 0.0 0.0 1.0
90.4762 -19.5767 2374.6 0.0 0.0 1.0
89.17 -5.7971 2365.22 0.0 0.0 1.0
87.27273333333333 3.6890666666666667 2365.22 0.0 0.0 1.0
91.53443333333333 8.99471 2374.6 0.0 0.0 1.0
89.16996666666667 16.5481 2365.22 0.0 0.0 1.0
86.85113333333334 25.612633333333335 2365.22 0.0 0.0 1.0
90.05293333333334 27.195733333333333 2374.6 0.0 0.0 1.0
90.05293333333334 27.195733333333333 2374.6 0.0 0.0 1.0
73.39916666666667 42.20106666666667 2147.3733333333334 2.602138571569351e-16 -0.9998069895532258 0.019646466362075846
93.06773333333332 51.10223333333334 2384.06 0.0 0.0 1.0
89.41803333333333 57.4603 2374.6 0.0 0.0 1.0
87.90513333333335 75.36229999999999 2365.22 0.0 0.0 1.0
90.47619999999999 90.4762 2374.6 0.0 0.0 1.0
90.68783333333333 97.8836 2374.6 0.0 0.0 1.0
87.48353333333334 98.76146666666666 2365.22 0.0 0.0 1.0
90.4348 106.98299999999999 2365.22 0.0 0.0 1.0
88.71390000000001 110.34100000000001 2355.91 0.0 0.0 1.0
89.13383333333333 114.96066666666665 2355.91 0.0 0.0 1.0
78.90546666666665 139.403 2232.84 0.0 0.0 1.0
58.26840000000001 136.883 1942.86 0.0 0.0 1.0
94.5355 -179.78133333333335 2452.46 0.0 0.0 1.0
94.97269999999999 -172.787 2452.46 0.0 0.0 1.0
92.15056666666668 -138.81733333333332 2412.9 0.0 0.0 1.0
91.0308 -128.621 2403.21 0.0 0.0 1.0
90.8166 -127.97833333333334 2403.21 0.0 0.0 1.0
90.77333333333335 -116.37333333333333 2393.6 0.0 0.0 1.0
87.75563333333334 -104.01066666666667 2384.06 0.0 0.0 1.0
91.2 -95.46666666666665 2393.6 0.0 0.0 1.0
87.96813333333334 -89.98673333333335 2384.06 0.0 0.0 1.0
88.14816666666667 -68.67723333333333 2374.6 0.0 0.0 1.0
89.62963333333335 -50.89946666666666 2374.6 0.0 0.0 1.0
88.3598 -30.793666666666667 2374.6 0.0 0.0 1.0
88.99473333333333 -27.619 2374.6 0.0 0.0 1.0
66.22013333333334 -11.147656666666668 1970.6033333333335 -0.29708273980565814 -0.8912550957100245 0.342645881458509
89.17 -5.7971 2365.22 0.0 0.0 1.0
90.68786666666666 -0.9523799999999999 2374.6 0.0 0.0 1.0
87.06193333333333 11.910400000000001 2365.22 0.0 0.0 1.0
90.05293333333334 25.07936666666667 2374.6 0.0 0.0 1.0
90.51793333333335 35.80343333333334 2384.06 0.0 0.0 1.0
87.72489999999999 35.873 2374.6 0.0 0.0 1.0
90.51793333333335 35.80343333333334 2384.06 0.0 0.0 1.0
89.41803333333333 57.4603 2374.6 0.0 0.0 1.0
89.41803333333333 57.4603 2374.6 0.0 0.0 1.0
90.68783333333333 82.43386666666667 2374.6 0.0 0.0 1.0
88.99473333333333 93.01586666666667 2374.6 0.0 0.0 1.0
87.45406666666668 116.64033333333333 2355.91 0.0 0.0 1.0
88.26143333333334 126.22200000000002 2346.67 0.0 0.0 1.0
79.7015 128.259 2232.84 0.0 0.0 1.0
78.70646666666667 128.657 2232.84 0.0 0.0 1.0
78.90136666666668 129.13866666666667 2241.2 0.0 0.0 1.0
77.91043333333333 137.41299999999998 2232.84 0.0 0.0 1.0
78.90546666666665 139.403 2232.84 0.0 0.0 1.0
74.67793333333333 139.58833333333334 2170.7466666666664 0.3161408802279293 -0.9479320772489251 0.03846713884925612
68.4912 138.57299999999998 2099.65 0.0 0.0 1.0
57.1061 136.077 1924.12 0.0 0.0 1.0
54.85713333333334 135.53433333333334 1899.68 0.0 0.0 1.0
44.5231 128.142 1765.1899999999998 0.0 -1.0 0.0
40.944266666666664 124.11733333333332 1695.18 0.0 0.0 1.0
94.97269999999999 -172.787 2452.46 0.0 0.0 1.0
92.08166666666666 -159.23766666666666 2442.45 0.0 0.0 1.0
90.8166 -128.621 2403.21 0.0 0.0 1.0
90.8166 -127.97833333333334 2403.21 0.0 0.0 1.0
92.9585 -121.767 2403.21 0.0 0.0 1.0
90.77333333333335 -116.37333333333333 2393.6 0.0 0.0 1.0
89.24303333333332 -112.29766666666667 2384.06 0.0 0.0 1.0
90.34666666666668 -92.26666666666667 2393.6 0.0 0.0 1.0
90.34666666666668 -92.26666666666667 2393.6 0.0 0.0 1.0
87.4835 -60.395266666666664 2365.22 0.0 0.0 1.0
87.4835 -60.395266666666664 2365.22 0.0 0.0 1.0
89.62963333333335 -50.89946666666666 2374.6 0.0 0.0 1.0
88.78306666666667 -44.12696666666667 2374.6 0.0 0.0 1.0
90.9429 -37.928266666666666 2384.06 0.0 0.0 1.0
88.35979999999999 -30.793666666666667 2374.6 0.0 0.0 1.0
88.11593333333333 16.969700000000003 2365.22 0.0 0.0 1.0
88.11593333333333 79.15676666666667 2365.22 0.0 0.0 1.0
86.85110000000002 120.474 2365.22 0.0 0.0 1.0
78.90136666666668 129.13866666666667 2241.2 0.0 0.0 1.0
78.10946666666666 136.219 2232.84 0.0 0.0 1.0
68.4912 138.57299999999998 2099.65 0.0 0.0 1.0
62.45276666666666 137.593 2019.3499999999997 2.83307491256047e-16 0.9999393600544719 0.011012548018219335
54.85713333333333 135.53433333333334 1899.68 0.0 0.0 1.0
56.38313333333334 135.37866666666665 1885.72 2.108334066358104e-17 -0.9974262066993361 0.07170050341087629
92.56826666666666 -177.37700000000004 2452.46 0.0 0.0 1.0
90.99323333333332 -169.46900000000002 2442.45 0.0 0.0 1.0
92.517 -165.33333333333334 2442.45 0.0 0.0 1.0
92.517 -165.33333333333334 2442.45 0.0 0.0 1.0
92.08166666666666 -159.23766666666666 2442.45 0.0 0.0 1.0
91.3821 -153.38766666666666 2432.52 0.0 0.0 1.0
91.3821 -153.38766666666666 2432.52 0.0 0.0 1.0
90.47233333333332 -141.32266666666666 2422.67 0.0 0.0 1.0
91.07530000000001 -136.88166666666666 2412.9 0.0 0.0 1.0
90.43013333333333 -133.441 2412.9 0.0 0.0 1.0
90.43013333333333 -133.441 2412.9 0.0 0.0 1.0
90.98666666666668 -87.36 2393.6 0.0 0.0 1.0
87.93650000000001 -75.2381 2374.6 0.0 0.0 1.0
87.72486666666667 -67.83066666666667 2374.6 0.0 0.0 1.0
88.57143333333333 -64.8677 2374.6 0.0 0.0 1.0
87.3016 -46.24336666666667 2374.6 0.0 0.0 1.0
90.9429 -37.928266666666666 2384.06 0.0 0.0 1.0
88.14816666666667 -27.195733333333333 2374.6 0.0 0.0 1.0
85.3755 -26.034266666666667 2365.22 0.0 0.0 1.0
87.06193333333333 11.910400000000001 2365.22 0.0 0.0 1.0
88.11593333333333 16.9697 2365.22 0.0 0.0 1.0
71.887 41.719366666666666 2142.2466666666664 2.6676098997445317e-16 -0.9860423971660423 0.16649441729693276
86.87830000000001 53.86246666666667 2374.6 0.0 0.0 1.0
87.3016 56.61376666666666 2374.6 0.0 0.0 1.0
86.85110000000002 69.0382 2365.22 0.0 0.0 1.0
86.85110000000002 81.4756 2365.22 0.0 0.0 1.0
89.62963333333335 86.03173333333332 2374.6 0.0 0.0 1.0
86.2187 92.64823333333334 2365.22 0.0 0.0 1.0
88.99473333333333 94.92063333333334 2374.6 0.0 0.0 1.0
88.11593333333333 104.24266666666665 2365.22 0.0 0.0 1.0
86.19423333333333 108.45133333333332 2355.91 0.0 0.0 1.0
86.4295 111.83166666666666 2365.22 0.0 0.0 1.0
85.35433333333333 123.35966666666667 2355.91 0.0 0.0 1.0
88.26143333333334 126.22200000000002 2346.67 0.0 0.0 1.0
83.4469 127.55999999999999 2340.556666666667 -1.6296121972505953e-16 0.961135380177201 0.27607749088186656
77.91043333333333 129.05499999999998 2232.84 0.0 0.0 1.0
77.91043333333333 137.41299999999998 2232.84 0.0 0.0 1.0
53.190200000000004 136.68133333333333 1959.8333333333333 1.1527292074965864e-17 0.9999297194188077 0.01185564097906733
54.85713333333333 135.53433333333334 1899.68 0.0 0.0 1.0
92.51700000000001 -165.33333333333334 2442.45 0.0 0.0 1.0
91.5989 -151.65333333333334 2432.52 0.0 0.0 1.0
91.3821 -149.91866666666667 2432.52 0.0 0.0 1.0
90.73169999999999 -149.05133333333333 2432.52 0.0 0.0 1.0
90.73169999999999 -146.233 2432.52 0.0 0.0 1.0
90.43013333333333 -133.441 2412.9 0.0 0.0 1.0
90.38823333333333 -129.692 2403.21 0.0 0.0 1.0
90.17403333333334 -127.97833333333334 2403.21 0.0 0.0 1.0
87.1182 -115.69733333333333 2384.06 0.0 0.0 1.0
87.33066666666667 -99.12343333333332 2384.06 0.0 0.0 1.0
87.33066666666667 -88.92433333333334 2384.06 0.0 0.0 1.0
86.90570000000001 -81.4874 2384.06 0.0 0.0 1.0
88.14816666666665 -68.67723333333333 2374.6 0.0 0.0 1.0
87.4835 -60.395266666666664 2365.22 0.0 0.0 1.0
85.37549999999999 -54.91433333333333 2365.22 0.0 0.0 1.0
87.30160000000001 -46.24336666666667 2374.6 0.0 0.0 1.0
86.24336666666666 -37.98943333333333 2374.6 0.0 0.0 1.0
88.35979999999999 -30.793666666666667 2374.6 0.0 0.0 1.0
87.30160000000001 -26.3492 2374.6 0.0 0.0 1.0
85.58630000000001 -23.5046 2365.22 0.0 0.0 1.0
86.21870000000001 2.0026356666666665 2365.22 0.0 0.0 1.0
86.85113333333334 25.612633333333335 2365.22 0.0 0.0 1.0
86.45503333333333 35.873 2374.6 0.0 0.0 1.0
68.84723333333334 40.9073 2139.693333333333 0.17714631371946546 -0.9743512286895704 0.1387763188974589
84.95389999999999 52.59553333333334 2365.22 0.0 0.0 1.0
87.30160000000001 56.61376666666666 2374.6 0.0 0.0 1.0
86.0079 66.71936666666666 2365.22 0.0 0.0 1.0
85.7971 70.303 2365.22 0.0 0.0 1.0
85.7971 96.0211 2365.22 0.0 0.0 1.0
87.48353333333334 100.65876666666666 2365.22 0.0 0.0 1.0
86.85110000000002 102.34533333333331 2365.22 0.0 0.0 1.0
85.14436666666666 104.46199999999999 2355.91 0.0 0.0 1.0
86.19423333333334 117.26999999999998 2355.91 0.0 0.0 1.0
86.85110000000002 120.474 2365.22 0.0 0.0 1.0
78.90136666666668 129.13866666666667 2241.2 0.0 0.0 1.0
71.18246666666666 139.37 2173.3733333333334 1.5688431953449698e-16 0.9999547091375288 0.009517335429607157
59.957233333333335 137.43833333333336 2017.08 -0.09057653159649347 0.9958377110219547 0.010156044038068881
39.43343333333333 124.11733333333332 1695.18 0.0 0.0 1.0
93.00543333333333 -178.68833333333336 2452.46 0.0 0.0 1.0
92.56826666666666 -177.37700000000004 2452.46 0.0 0.0 1.0
92.34973333333335 -170.38233333333332 2452.46 0.0 0.0 1.0
89.60863333333333 -141.53833333333333 2422.67 0.0 0.0 1.0
90.47233333333332 -141.32266666666666 2422.67 0.0 0.0 1.0
87.75563333333332 -112.29766666666667 2384.06 0.0 0.0 1.0
89.70666666666666 -106.98666666666668 2393.6 0.0 0.0 1.0
89.70666666666666 -106.98666666666668 2393.6 0.0 0.0 1.0
86.90570000000001 -101.46066666666667 2384.06 0.0 0.0 1.0
87.96813333333334 -89.98673333333335 2384.06 0.0 0.0 1.0
87.30160000000001 -46.24336666666667 2374.6 0.0 0.0 1.0
86.03176666666667 -25.714299999999998 2374.6 0.0 0.0 1.0
84.97356666666667 -22.116366666666664 2374.6 0.0 0.0 1.0
85.58630000000001 1.3702246666666664 2365.22 0.0 0.0 1.0
86.21870000000001 2.0026356666666665 2365.22 0.0 0.0 1.0
85.1647 20.764166666666668 2365.22 0.0 0.0 1.0
86.45503333333333 35.873 2374.6 0.0 0.0 1.0
87.30160000000001 56.61376666666666 2374.6 0.0 0.0 1.0
85.7971 90.54016666666666 2365.22 0.0 0.0 1.0
85.14436666666666 104.46199999999999 2355.91 0.0 0.0 1.0
86.4295 111.83166666666666 2365.22 0.0 0.0 1.0
86.4295 111.83166666666666 2365.22 0.0 0.0 1.0
86.85110000000002 120.474 2365.22 0.0 0.0 1.0
84.93436666666666 122.10000000000001 2355.91 0.0 0.0 1.0
76.5174 129.254 2232.84 0.0 0.0 1.0
76.5174 130.249 2232.84 0.0 0.0 1.0
77.91043333333333 137.41299999999998 2232.84 0.0 0.0 1.0
62.45276666666666 137.593 2019.3499999999997 2.83307491256047e-16 0.9999393600544719 0.011012548018219335
54.32143333333334 135.50866666666667 1901.6966666666667 5.126605064993651e-16 -0.9974720727857764 0.07105958072242259
91.3821 -153.38766666666666 2432.52 0.0 0.0 1.0
87.75563333333332 -112.29766666666667 2384.06 0.0 0.0 1.0
86.26823333333334 -105.073 2384.06 0.0 0.0 1.0
86.6932 -103.16066666666666 2384.06 0.0 0.0 1.0
86.90570000000001 -101.46066666666665 2384.06 0.0 0.0 1.0
87.96813333333334 -89.98673333333335 2384.06 0.0 0.0 1.0
86.26826666666666 -82.7623 2384.06 0.0 0.0 1.0
85.4183 -77.0252 2384.06 0.0 0.0 1.0
86.24336666666666 -73.96826666666668 2374.6 0.0 0.0 1.0
86.24336666666666 -67.61903333333333 2374.6 0.0 0.0 1.0
87.93650000000001 -62.53966666666667 2374.6 0.0 0.0 1.0
86.64030000000001 -59.34123333333333 2365.22 0.0 0.0 1.0
86.66663333333332 -50.89946666666666 2374.6 0.0 0.0 1.0
86.24336666666666 -37.98943333333333 2374.6 0.0 0.0 1.0
85.58630000000001 -23.5046 2365.22 0.0 0.0 1.0
57.70433333333333 -8.243723333333334 1947.08 -0.16430762393548912 -0.985855201618419 -0.03305338346645554
84.11066666666666 -4.953883333333334 2365.22 0.0 0.0 1.0
86.0079 12.9644 2365.22 0.0 0.0 1.0
86.0079 12.9644 2365.22 0.0 0.0 1.0
89.84123333333332 16.1905 2374.6 0.0 0.0 1.0
84.95389999999999 21.8182 2365.22 0.0 0.0 1.0
87.08993333333332 29.312166666666666 2374.6 0.0 0.0 1.0
84.74310000000001 35.52043333333334 2365.22 0.0 0.0 1.0
86.85110000000002 81.4756 2365.22 0.0 0.0 1.0
84.74310000000001 94.96706666666667 2365.22 0.0 0.0 1.0
85.7971 96.0211 2365.22 0.0 0.0 1.0
84.9344 116.64033333333333 2355.91 0.0 0.0 1.0
71.20566666666667 138.723 2121.99 0.0 0.0 1.0
68.4912 138.573 2099.65 0.0 0.0 1.0
59.77323333333334 137.77766666666668 2035.37 0.0 0.0 1.0
59.77323333333334 137.77766666666668 2035.37 0.0 0.0 1.0
55.937400000000004 137.181 1992.46 1.7180643805950056e-17 -0.9976431325602949 0.06861617925301311
90.99323333333332 -169.469 2442.45 0.0 0.0 1.0
90.99323333333332 -169.469 2442.45 0.0 0.0 1.0
92.78686666666668 -169.2893333333333 2452.46 0.0 0.0 1.0
90.55783333333333 -159.891 2442.45 0.0 0.0 1.0
89.4309 -148.61766666666665 2432.52 0.0 0.0 1.0
88.96086666666667 -140.89066666666668 2422.67 0.0 0.0 1.0
86.80163333333333 -137.22 2422.67 0.0 0.0 1.0
87.1182 -115.69733333333333 2384.06 0.0 0.0 1.0
86.26826666666666 -82.7623 2384.06 0.0 0.0 1.0
86.26826666666666 -82.7623 2384.06 0.0 0.0 1.0
86.66663333333332 -50.89946666666666 2374.6 0.0 0.0 1.0
83.68906666666668 -48.16863333333333 2365.22 0.0 0.0 1.0
86.66666666666667 -45.396800000000006 2374.6 0.0 0.0 1.0
86.24336666666666 -37.98943333333333 2374.6 0.0 0.0 1.0
87.08993333333332 -31.85186666666667 2374.6 0.0 0.0 1.0
85.1647 -24.980233333333334 2365.22 0.0 0.0 1.0
83.47826666666667 -19.92096666666667 2365.22 0.0 0.0 1.0
55.8864 -10.012993333333332 1953.4366666666665 0.4078129103355214 0.8157818317308455 0.41010807500162505
64.41669999999999 -8.198846666666666 2021.6333333333332 -0.2719538487349784 -0.9623097401912677 -0.0010334850010062478
85.58630000000001 1.3702246666666664 2365.22 0.0 0.0 1.0
88.78306666666667 9.629646666666666 2374.6 0.0 0.0 1.0
85.7971 11.48879 2365.22 0.0 0.0 1.0
83.8999 27.2991 2365.22 0.0 0.0 1.0
83.68906666666668 29.828699999999998 2365.22 0.0 0.0 1.0
85.60843333333332 31.851866666666666 2374.6 0.0 0.0 1.0
86.45503333333333 35.873 2374.6 0.0 0.0 1.0
84.74309999999998 37.62846666666667 2365.22 0.0 0.0 1.0
83.26746666666666 60.606033333333336 2365.22 0.0 0.0 1.0
82.62466666666667 74.85566666666666 2355.91 0.0 0.0 1.0
83.04459999999999 79.05513333333333 2355.91 0.0 0.0 1.0
83.46456666666667 105.932 2355.91 0.0 0.0 1.0
83.46456666666666 115.80066666666666 2355.91 0.0 0.0 1.0
84.74310000000001 118.99866666666667 2365.22 0.0 0.0 1.0
83.67456666666666 124.40933333333334 2355.91 0.0 0.0 1.0
77.46373333333332 126.69266666666668 2258.1333333333337 0.5797209280011258 -0.5851515407789492 0.5670285001316382
74.9064 131.93533333333332 2241.2 0.0 0.0 1.0
37.92256666666667 123.96633333333334 1695.18 0.0 0.0 1.0
90.12243333333333 -163.592 2442.45 0.0 0.0 1.0
88.5637 -156.423 2432.52 0.0 0.0 1.0
88.5637 -156.423 2432.52 0.0 0.0 1.0
87.88123333333333 -142.61800000000002 2422.67 0.0 0.0 1.0
88.96086666666667 -140.89066666666668 2422.67 0.0 0.0 1.0
85.05376666666668 -128.92466666666667 2412.9 0.0 0.0 1.0
85.65333333333332 -121.70666666666666 2393.6 0.0 0.0 1.0
85.20583333333333 -106.98533333333334 2384.06 0.0 0.0 1.0
85.4183 -77.0252 2384.06 0.0 0.0 1.0
85.18516666666666 -71.21696666666668 2374.6 0.0 0.0 1.0
86.03173333333332 -68.25396666666667 2374.6 0.0 0.0 1.0
84.53226666666666 -61.6601 2365.22 0.0 0.0 1.0
85.3968 -51.95766666666666 2374.6 0.0 0.0 1.0
84.74309999999998 -51.9631 2365.22 0.0 0.0 1.0
83.89986666666665 -47.114599999999996 2365.22 0.0 0.0 1.0
85.37549999999999 -26.034266666666667 2365.22 0.0 0.0 1.0
63.85973333333334 -4.73225 2168.1366666666668 0.2589499289658572 0.965222218455082 -0.03593053421851083
84.11066666666666 -4.953883333333334 2365.22 0.0 0.0 1.0
83.05663333333332 4.321476666666666 2365.22 0.0 0.0 1.0
85.1647 20.764166666666668 2365.22 0.0 0.0 1.0
84.74309999999998 33.20156666666667 2365.22 0.0 0.0 1.0
83.68906666666665 38.682500000000005 2365.22 0.0 0.0 1.0
82.42423333333333 51.1199 2365.22 0.0 0.0 1.0
86.45503333333333 54.07410000000001 2374.6 0.0 0.0 1.0
84.11066666666666 54.70356666666667 2365.22 0.0 0.0 1.0
84.11066666666666 65.45453333333334 2365.22 0.0 0.0 1.0
82.20473333333332 68.34643333333334 2355.91 0.0 0.0 1.0
85.7971 90.54016666666666 2365.22 0.0 0.0 1.0
83.46456666666667 105.932 2355.91 0.0 0.0 1.0
85.5863 121.94966666666666 2365.22 0.0 0.0 1.0
77.2109 128.144 2313.4066666666668 2.018922660761891e-16 0.9999057887358358 0.01372638526947535
76.1194 130.05 2232.84 0.0 0.0 1.0
72.83156666666667 139.642 2144.8 0.0 0.0 1.0
58.5879 136.8286666666667 1977.1000000000001 0.09919319565587098 -0.9920258895091564 0.0777518133495464
54.63203333333333 136.71 1942.86 0.0 0.0 1.0
57.1061 136.077 1924.12 0.0 0.0 1.0
53.671933333333335 135.53433333333334 1899.68 0.0 0.0 1.0
89.46940000000001 -161.85033333333334 2442.45 0.0 0.0 1.0
87.6965 -154.255 2432.52 0.0 0.0 1.0
85.69893333333334 -133.87099999999998 2412.9 0.0 0.0 1.0
85.65333333333332 -121.70666666666666 2393.6 0.0 0.0 1.0
85.65333333333332 -121.70666666666666 2393.6 0.0 0.0 1.0
83.28043333333333 -91.95766666666667 2374.6 0.0 0.0 1.0
82.84583333333333 -66.29776666666667 2365.22 0.0 0.0 1.0
83.68906666666666 -48.16863333333333 2365.22 0.0 0.0 1.0
82.42423333333333 -40.3689 2365.22 0.0 0.0 1.0
82.42423333333333 -32.147600000000004 2365.22 0.0 0.0 1.0
84.97356666666667 -24.867733333333334 2374.6 0.0 0.0 1.0
84.127 -23.597866666666665 2374.6 0.0 0.0 1.0
84.97356666666667 -22.116366666666668 2374.6 0.0 0.0 1.0
54.610533333333336 -10.904966666666667 1957.6966666666667 0.4389979935808683 0.8781639282457316 0.19002335845889423
52.38093333333333 -8.225109999999999 1942.86 0.0 0.0 1.0
64.4167 -8.198846666666666 2021.6333333333332 -0.27195384873497847 -0.9623097401912677 -0.0010334850010062582
84.9539 21.8182 2365.22 0.0 0.0 1.0
83.8999 27.2991 2365.22 0.0 0.0 1.0
82.63503333333334 28.985500000000002 2365.22 0.0 0.0 1.0
85.39683333333333 36.507933333333334 2374.6 0.0 0.0 1.0
85.7971 70.303 2365.22 0.0 0.0 1.0
83.67453333333333 77.16536666666667 2355.91 0.0 0.0 1.0
81.78476666666667 82.4147 2355.91 0.0 0.0 1.0
84.11070000000001 94.75626666666666 2365.22 0.0 0.0 1.0
84.11070000000001 95.38866666666667 2365.22 0.0 0.0 1.0
85.58630000000001 101.29133333333334 2365.22 0.0 0.0 1.0
83.0446 105.302 2355.91 0.0 0.0 1.0
82.83463333333333 113.281 2355.91 0.0 0.0 1.0
83.47826666666667 120.47433333333333 2365.22 0.0 0.0 1.0
84.09446666666666 122.51966666666668 2355.91 0.0 0.0 1.0
74.9064 131.93533333333332 2241.2 0.0 0.0 1.0
87.75959999999999 -164.9176666666667 2452.46 0.0 0.0 1.0
87.6965 -154.255 2432.52 0.0 0.0 1.0
87.6965 -154.255 2432.52 0.0 0.0 1.0
87.91329999999999 -149.26833333333335 2432.52 0.0 0.0 1.0
87.23346666666667 -144.12966666666668 2422.67 0.0 0.0 1.0
87.23346666666667 -144.12966666666668 2422.67 0.0 0.0 1.0
85.24763333333333 -124.76566666666668 2403.21 0.0 0.0 1.0
85.24763333333333 -124.76566666666668 2403.21 0.0 0.0 1.0
82.01056666666666 -105.50266666666668 2374.6 0.0 0.0 1.0
83.0688 -92.59259999999999 2374.6 0.0 0.0 1.0
85.4183 -77.0252 2384.06 0.0 0.0 1.0
83.47826666666667 -63.76813333333333 2365.22 0.0 0.0 1.0
83.68906666666666 -48.16863333333333 2365.22 0.0 0.0 1.0
82.42423333333333 -40.3689 2365.22 0.0 0.0 1.0
82.84583333333332 -32.78 2365.22 0.0 0.0 1.0
84.97356666666667 -28.677266666666668 2374.6 0.0 0.0 1.0
84.11066666666666 -4.953883333333334 2365.22 0.0 0.0 1.0
84.53226666666667 0.31620566666666666 2365.22 0.0 0.0 1.0
83.26743333333333 2.6350456666666666 2365.22 0.0 0.0 1.0
79.89503333333333 9.343826666666667 2355.91 0.0 0.0 1.0
83.68906666666666 29.828699999999998 2365.22 0.0 0.0 1.0
83.04459999999999 80.94486666666667 2355.91 0.0 0.0 1.0
82.20469999999999 105.092 2355.91 0.0 0.0 1.0
79.26796666666667 113.04566666666666 2346.67 0.0 0.0 1.0
74.44363333333332 126.76833333333333 2266.69 -0.03997242445391848 -0.9990189127582015 0.01906350530978651
56.59966666666667 136.77766666666668 1981.4733333333334 0.7073133370352275 0.7067031879122018 0.016686744644239804
37.126599999999996 124.23466666666667 1696.7866666666669 0.5996633211417898 -0.7994482114427819 0.03586723432515461
89.50816666666667 -179.56300000000002 2452.46 0.0 0.0 1.0
88.1967 -178.25166666666667 2452.46 0.0 0.0 1.0
87.32240000000002 -174.317 2452.46 0.0 0.0 1.0
87.32240000000002 -174.317 2452.46 0.0 0.0 1.0
87.91329999999999 -149.26833333333335 2432.52 0.0 0.0 1.0
85.69893333333334 -133.87099999999998 2412.9 0.0 0.0 1.0
85.24763333333333 -124.76566666666668 2403.21 0.0 0.0 1.0
82.86853333333333 -111.02266666666667 2384.06 0.0 0.0 1.0
83.93093333333333 -108.68499999999999 2384.06 0.0 0.0 1.0
82.43386666666667 -103.38633333333333 2374.6 0.0 0.0 1.0
81.37566666666667 -100.63503333333334 2374.6 0.0 0.0 1.0
82.2222 -85.39679999999998 2374.6 0.0 0.0 1.0
81.58103333333334 -67.35180000000001 2365.22 0.0 0.0 1.0
82.2134 -32.78 2365.22 0.0 0.0 1.0
83.05663333333332 4.321476666666666 2365.22 0.0 0.0 1.0
82.84583333333332 14.861633333333332 2365.22 0.0 0.0 1.0
81.581 38.471700000000006 2365.22 0.0 0.0 1.0
82.42423333333333 51.1199 2365.22 0.0 0.0 1.0
82.20473333333332 68.34643333333334 2355.91 0.0 0.0 1.0
81.15486666666665 69.18633333333334 2355.91 0.0 0.0 1.0
81.78476666666667 104.25200000000001 2355.91 0.0 0.0 1.0
82.20469999999999 105.092 2355.91 0.0 0.0 1.0
82.4147 114.75099999999999 2355.91 0.0 0.0 1.0
82.4147 114.75099999999999 2355.91 0.0 0.0 1.0
77.2109 128.144 2313.4066666666668 2.018922660761891e-16 0.9999057887358358 0.01372638526947535
72.5373 133.433 2232.84 0.0 0.0 1.0
74.9064 131.93533333333332 2241.2 0.0 0.0 1.0
72.5373 133.433 2232.84 0.0 0.0 1.0
57.5256 138.07366666666667 2058.7233333333334 -0.0586443301036556 -0.9966443962033961 0.05710332795084247
57.412 137.05466666666666 1988.0566666666666 -0.1644621914715218 0.986336814543504 0.00958518922912302
35.80736666666667 123.664 1695.18 0.0 0.0 1.0
87.04609999999998 -154.255 2432.52 0.0 0.0 1.0
86.3698 -140.243 2422.67 0.0 0.0 1.0
86.3698 -140.243 2422.67 0.0 0.0 1.0
84.83873333333334 -134.30100000000002 2412.9 0.0 0.0 1.0
85.914 -130.86033333333333 2412.9 0.0 0.0 1.0
82.86853333333333 -109.74766666666666 2384.06 0.0 0.0 1.0
82.8685 -102.098 2384.06 0.0 0.0 1.0
82.64550000000001 -91.5344 2374.6 0.0 0.0 1.0
85.63080000000001 -89.56176666666666 2384.06 0.0 0.0 1.0
82.2222 -85.39679999999998 2374.6 0.0 0.0 1.0
84.99336666666667 -82.7623 2384.06 0.0 0.0 1.0
81.5873 -79.89416666666666 2374.6 0.0 0.0 1.0
80.31496666666668 -58.05773333333334 2355.91 0.0 0.0 1.0
80.31496666666668 -55.53803333333334 2355.91 0.0 0.0 1.0
81.79180000000001 -31.725966666666665 2365.22 0.0 0.0 1.0
81.79180000000001 -31.725966666666665 2365.22 0.0 0.0 1.0
82.42423333333333 -21.607400000000002 2365.22 0.0 0.0 1.0
68.66526666666667 -15.895366666666668 2331.4333333333334 -0.04753795359340826 -0.9982435777141992 0.03535396046423049
82.63503333333334 28.985500000000002 2365.22 0.0 0.0 1.0
81.581 38.471700000000006 2365.22 0.0 0.0 1.0
71.2782 40.802 2249.62 0.0 0.0 1.0
81.37020000000001 54.071133333333336 2365.22 0.0 0.0 1.0
81.37020000000001 55.75756666666666 2365.22 0.0 0.0 1.0
81.79183333333333 64.82209999999999 2365.22 0.0 0.0 1.0
80.52496666666667 72.12596666666667 2355.91 0.0 0.0 1.0
80.105 91.23359999999998 2355.91 0.0 0.0 1.0
35.80736666666667 123.664 1695.18 0.0 0.0 1.0
83.9785 -134.731 2412.9 0.0 0.0 1.0
82.86853333333333 -111.02266666666667 2384.06 0.0 0.0 1.0
82.22223333333334 -93.86246666666666 2374.6 0.0 0.0 1.0
82.43386666666667 -92.16933333333334 2374.6 0.0 0.0 1.0
82.2222 -85.3968 2374.6 0.0 0.0 1.0
81.58729999999998 -79.89416666666666 2374.6 0.0 0.0 1.0
81.79183333333333 -56.38999999999999 2365.22 0.0 0.0 1.0
82.42423333333333 -48.801066666666664 2365.22 0.0 0.0 1.0
82.42423333333333 -40.3689 2365.22 0.0 0.0 1.0
52.38093333333333 -8.225109999999999 1942.86 0.0 0.0 1.0
79.4751 1.5748006666666665 2355.91 0.0 0.0 1.0
80.105 2.62467 2355.91 0.0 0.0 1.0
80.52493333333332 11.023613333333335 2355.91 0.0 0.0 1.0
81.3702 16.337266666666665 2365.22 0.0 0.0 1.0
82.00263333333334 18.0237 2365.22 0.0 0.0 1.0
78.4252 22.992100000000004 2355.91 0.0 0.0 1.0
78.42523333333334 29.081366666666668 2355.91 0.0 0.0 1.0
81.581 38.471700000000006 2365.22 0.0 0.0 1.0
81.581 52.3847 2365.22 0.0 0.0 1.0
82.42423333333333 57.8656 2365.22 0.0 0.0 1.0
80.9449 70.86613333333334 2355.91 0.0 0.0 1.0
80.31496666666668 73.80576666666667 2355.91 0.0 0.0 1.0
81.78476666666667 82.4147 2355.91 0.0 0.0 1.0
80.105 93.75326666666666 2355.91 0.0 0.0 1.0
80.105 93.75326666666666 2355.91 0.0 0.0 1.0
79.05883333333334 110.327 2346.67 0.0 0.0 1.0
81.37023333333333 121.10699999999999 2365.22 0.0 0.0 1.0
78.84516666666667 123.98966666666668 2355.91 0.0 0.0 1.0
35.80736666666667 123.66399999999999 1695.18 0.0 0.0 1.0
84.02720000000001 -158.36733333333333 2442.45 0.0 0.0 1.0
86.1789 -154.038 2432.52 0.0 0.0 1.0
80.31746666666668 -101.27 2374.6 0.0 0.0 1.0
81.5873 -79.89416666666666 2374.6 0.0 0.0 1.0
80.94863333333332 -61.238499999999995 2365.22 0.0 0.0 1.0
78.42516666666666 -45.45929999999999 2355.91 0.0 0.0 1.0
82.42423333333333 -21.607400000000002 2365.22 0.0 0.0 1.0
77.79526666666666 -2.6246706666666664 2355.91 0.0 0.0 1.0
80.105 2.62467 2355.91 0.0 0.0 1.0
80.52699999999999 11.277986666666665 2365.22 0.0 0.0 1.0
79.26219999999999 34.0448 2365.22 0.0 0.0 1.0
77.63706666666667 42.2584 2307.46 -0.21214330489681762 0.8485535966749693 0.4847184871215761
79.68503333333332 75.2756 2355.91 0.0 0.0 1.0
80.105 93.75326666666666 2355.91 0.0 0.0 1.0
79.05883333333334 110.327 2346.67 0.0 0.0 1.0
80.52286666666667 124.33966666666667 2346.67 0.0 0.0 1.0
72.5373 133.433 2232.84 0.0 0.0 1.0
57.30916666666667 138.04866666666666 2061.0866666666666 -4.597635500781934e-17 -0.997763310103552 0.06684591992936552
86.22950000000002 -175.19133333333332 2452.46 0.0 0.0 1.0
84.2449 -154.44899999999998 2442.45 0.0 0.0 1.0
84.2449 -151.40166666666667 2442.45 0.0 0.0 1.0
84.85833333333333 -139.3793333333333 2422.67 0.0 0.0 1.0
83.33333333333333 -134.516 2412.9 0.0 0.0 1.0
83.54836666666667 -133.87099999999998 2412.9 0.0 0.0 1.0
81.82793333333333 -128.27966666666666 2412.9 0.0 0.0 1.0
82.89156666666666 -124.98 2403.21 0.0 0.0 1.0
80.31746666666668 -101.27 2374.6 0.0 0.0 1.0
80.9524 -69.73546666666668 2374.6 0.0 0.0 1.0
79.2651 -59.3176 2355.91 0.0 0.0 1.0
79.47506666666668 -53.4383 2355.91 0.0 0.0 1.0
78.2152 -46.719166666666666 2355.91 0.0 0.0 1.0
78.2152 -46.719166666666666 2355.91 0.0 0.0 1.0
81.1594 -41.63373333333333 2365.22 0.0 0.0 1.0
51.08723333333333 -10.567533333333332 1959.8333333333333 0.07664282722723445 0.9963421441890427 0.03779164917540795
78.84513333333332 15.013133333333334 2355.91 0.0 0.0 1.0
78.84513333333332 15.013133333333334 2355.91 0.0 0.0 1.0
78.84513333333332 16.482966666666666 2355.91 0.0 0.0 1.0
68.84723333333334 40.9073 2139.693333333333 0.17714631371946546 -0.9743512286895704 0.1387763188974589
59.316066666666664 38.929066666666664 2178.646666666667 -0.13979496963361562 0.9319451072154712 0.3345679058162637
80.3162 49.222633333333334 2365.22 0.0 0.0 1.0
79.6838 64.40050000000001 2365.22 0.0 0.0 1.0
80.52489999999999 76.53546666666666 2355.91 0.0 0.0 1.0
79.68503333333332 92.91336666666666 2355.91 0.0 0.0 1.0
78.43136666666668 111.58166666666666 2346.67 0.0 0.0 1.0
79.2622 121.10699999999999 2365.22 0.0 0.0 1.0
77.60416666666667 126.97933333333333 2337.5 0.0 0.0 1.0
65.87133333333333 138.386 2099.65 0.0 0.0 1.0
59.609199999999994 138.48666666666668 2089.896666666667 -1.5940050806131493e-16 0.9999467400750831 0.010320707980269865
56.3861 137.46333333333334 2014.8100000000002 0.0 0.0 1.0
47.74603333333334 135.873 1899.68 0.0 0.0 1.0
84.0437 -177.5956666666667 2452.46 0.0 0.0 1.0
85.1366 -176.06566666666666 2452.46 0.0 0.0 1.0
84.87806666666667 -155.33899999999997 2432.52 0.0 0.0 1.0
84.2449 -154.44899999999998 2442.45 0.0 0.0 1.0
82.48313333333334 -144.34566666666666 2422.67 0.0 0.0 1.0
82.48313333333334 -144.3456666666667 2422.67 0.0 0.0 1.0
82.89156666666666 -124.98 2403.21 0.0 0.0 1.0
83.94666666666666 -119.78666666666668 2393.6 0.0 0.0 1.0
80.95236666666666 -105.50266666666666 2374.6 0.0 0.0 1.0
79.89416666666666 -101.90499999999999 2374.6 0.0 0.0 1.0
80.31746666666668 -101.27 2374.6 0.0 0.0 1.0
77.15413333333333 -87.79973333333334 2365.22 0.0 0.0 1.0
79.473 -67.56259999999999 2365.22 0.0 0.0 1.0
77.79526666666668 -51.33856666666667 2355.91 0.0 0.0 1.0
77.16536666666667 -23.2021 2355.91 0.0 0.0 1.0
78.4252 -20.47243333333333 2355.91 0.0 0.0 1.0
77.37533333333334 -18.79263333333333 2355.91 0.0 0.0 1.0
52.38093333333333 -8.225109999999999 1942.86 0.0 0.0 1.0
81.37023333333333 9.802376666666666 2365.22 0.0 0.0 1.0
78.84513333333332 16.482966666666666 2355.91 0.0 0.0 1.0
78.4252 22.992100000000004 2355.91 0.0 0.0 1.0
79.26219999999999 34.0448 2365.22 0.0 0.0 1.0
78.00526666666667 37.900266666666674 2355.91 0.0 0.0 1.0
80.3162 49.222633333333334 2365.22 0.0 0.0 1.0
78.00526666666667 55.3281 2355.91 0.0 0.0 1.0
78.00526666666667 55.3281 2355.91 0.0 0.0 1.0
76.74543333333334 63.937000000000005 2355.91 0.0 0.0 1.0
76.75816666666667 73.93463333333334 2346.67 0.0 0.0 1.0
77.38563333333333 87.32029999999999 2346.67 0.0 0.0 1.0
76.54903333333334 98.4052 2346.67 0.0 0.0 1.0
77.59476666666667 113.04566666666666 2346.67 0.0 0.0 1.0
80.52493333333332 114.961 2355.91 0.0 0.0 1.0
78.84516666666667 123.98966666666666 2355.91 0.0 0.0 1.0
68.75623333333333 126.269 2232.84 0.0 0.0 1.0
66.6171 139.28166666666667 2224.54 0.0 0.0 1.0
63.216633333333334 139.05233333333334 2127.023333333333 -1.392698542208918e-16 -0.9978662758668194 0.0652908530169795
37.758133333333326 128.142 1765.1899999999998 0.0 -1.0 0.0
80.10973333333332 -179.86266666666666 2462.55 0.0 0.0 1.0
84.2449 -154.44899999999998 2442.45 0.0 0.0 1.0
84.2449 -151.40166666666667 2442.45 0.0 0.0 1.0
80.53763333333332 -136.66666666666666 2412.9 0.0 0.0 1.0
81.18276666666667 -129.14000000000001 2412.9 0.0 0.0 1.0
79.26219999999999 -63.13573333333333 2365.22 0.0 0.0 1.0
79.2651 -59.3176 2355.91 0.0 0.0 1.0
79.26219999999999 -36.996066666666664 2365.22 0.0 0.0 1.0
79.0514 -31.725966666666668 2365.22 0.0 0.0 1.0
77.5758 -28.142300000000002 2365.22 0.0 0.0 1.0
63.85973333333334 -4.73225 2168.1366666666668 0.2589499289658572 0.965222218455082 -0.03593053421851083
77.16536666666667 0.7349066666666667 2355.91 0.0 0.0 1.0
80.94863333333332 21.39656666666666 2365.22 0.0 0.0 1.0
76.95536666666665 27.611566666666665 2355.91 0.0 0.0 1.0
78.42523333333334 30.341199999999997 2355.91 0.0 0.0 1.0
79.26219999999999 34.0448 2365.22 0.0 0.0 1.0
77.5853 37.06036666666667 2355.91 0.0 0.0 1.0
78.00526666666667 37.900266666666674 2355.91 0.0 0.0 1.0
77.84263333333332 40.57026666666667 2316.3933333333334 -0.2316147488328082 0.9727774633882593 -0.007656033373663704
67.50323333333333 42.5006 2244.0066666666667 -0.15202708494710843 0.9881823945460624 -0.01957857379114005
76.7454 48.6089 2355.91 0.0 0.0 1.0
76.13073333333334 83.55556666666666 2346.67 0.0 0.0 1.0
77.38563333333333 87.32029999999999 2346.67 0.0 0.0 1.0
77.38563333333333 87.32029999999999 2346.67 0.0 0.0 1.0
76.54903333333334 98.4052 2346.67 0.0 0.0 1.0
77.16536666666667 121.46999999999998 2355.91 0.0 0.0 1.0
78.84516666666667 123.98966666666666 2355.91 0.0 0.0 1.0
67.66539999999999 139.32000000000002 2178.646666666667 -3.9305135782616885e-17 0.9999553910023034 0.009445422459088203
47.9846 136.70666666666668 1957.6966666666667 -1.2795166957734032e-16 0.9999297194188075 0.011855640979067751
51.202733333333335 136.56233333333333 1940.7633333333333 -0.11025344405597987 0.9931944643447346 0.037535770523202915
37.758133333333326 128.142 1765.1899999999998 0.0 -1.0 0.0
33.39 124.41933333333333 1695.18 0.0 0.0 1.0
83.82516666666668 -164.9176666666667 2452.46 0.0 0.0 1.0
81.85036666666667 -162.939 2442.45 0.0 0.0 1.0
81.1924 -145.58266666666668 2432.52 0.0 0.0 1.0
82.48313333333334 -144.3456666666667 2422.67 0.0 0.0 1.0
81.39783333333334 -134.30100000000002 2412.9 0.0 0.0 1.0
81.18276666666667 -129.14000000000001 2412.9 0.0 0.0 1.0
81.18276666666667 -129.14 2412.9 0.0 0.0 1.0
79.4688 -110.598 2384.06 0.0 0.0 1.0
77.9814 -107.198 2384.06 0.0 0.0 1.0
78.40636666666667 -104.64799999999998 2384.06 0.0 0.0 1.0
76.94336666666668 -96.65350000000001 2365.22 0.0 0.0 1.0
76.94336666666668 -96.6535 2365.22 0.0 0.0 1.0
79.0476 -90.26456666666667 2374.6 0.0 0.0 1.0
80.74073333333332 -84.76189999999998 2374.6 0.0 0.0 1.0
75.67853333333333 -76.41633333333333 2365.22 0.0 0.0 1.0
57.2493 -10.028043333333335 2102.1499999999996 -0.951520265147593 0.04142688759887539 0.3047835264533244
77.79526666666668 -2.6246706666666664 2355.91 0.0 0.0 1.0
78.21523333333333 2.4146973333333333 2355.91 0.0 0.0 1.0
76.3255 9.13386 2355.91 0.0 0.0 1.0
76.3255 9.13386 2355.91 0.0 0.0 1.0
77.58533333333334 29.921266666666668 2355.91 0.0 0.0 1.0
71.2782 40.802 2249.62 0.0 0.0 1.0
71.2782 40.802 2249.62 0.0 0.0 1.0
78.00526666666667 55.328100000000006 2355.91 0.0 0.0 1.0
78.419 62.9249 2365.22 0.0 0.0 1.0
78.419 62.9249 2365.22 0.0 0.0 1.0
76.74543333333334 63.937000000000005 2355.91 0.0 0.0 1.0
76.54899999999999 72.0523 2346.67 0.0 0.0 1.0
75.92156666666666 76.23526666666667 2346.67 0.0 0.0 1.0
76.13073333333334 83.55556666666666 2346.67 0.0 0.0 1.0
76.33986666666668 113.88233333333334 2346.67 0.0 0.0 1.0
75.92156666666666 123.294 2346.67 0.0 0.0 1.0
68.75623333333333 126.269 2232.84 0.0 0.0 1.0
113.46666666666665 221.19999999999996 2992.0 0.0 0.0 1.0
81.63266666666668 -164.245 2442.45 0.0 0.0 1.0
82.05963333333334 -154.47133333333332 2432.52 0.0 0.0 1.0
81.626 -143.41466666666668 2432.52 0.0 0.0 1.0
81.39783333333334 -133.871 2412.9 0.0 0.0 1.0
77.9814 -107.198 2384.06 0.0 0.0 1.0
77.35450000000002 -73.12173333333334 2374.6 0.0 0.0 1.0
77.3545 -73.12173333333334 2374.6 0.0 0.0 1.0
77.15416666666667 -67.141 2365.22 0.0 0.0 1.0
77.16533333333332 -46.299200000000006 2355.91 0.0 0.0 1.0
75.0656 -40.6299 2355.91 0.0 0.0 1.0
74.85563333333333 -34.1207 2355.91 0.0 0.0 1.0
77.5758 -30.461133333333333 2365.22 0.0 0.0 1.0
77.5758 -28.142299999999995 2365.22 0.0 0.0 1.0
49.8907 -7.548263333333334 1947.08 0.9842239616618752 2.636779683484747e-16 0.17692708467219842
49.8907 -7.548263333333334 1947.08 0.9842239616618752 2.636779683484747e-16 0.17692708467219842
77.16536666666666 0.7349066666666667 2355.91 0.0 0.0 1.0
77.16533333333332 24.251966666666664 2355.91 0.0 0.0 1.0
76.95536666666666 27.611566666666665 2355.91 0.0 0.0 1.0
76.95536666666666 27.611566666666665 2355.91 0.0 0.0 1.0
75.9055 36.0105 2355.91 0.0 0.0 1.0
76.7454 48.6089 2355.91 0.0 0.0 1.0
79.89460000000001 56.39000000000001 2365.22 0.0 0.0 1.0
75.9055 59.94749999999999 2355.91 0.0 0.0 1.0
75.48553333333332 69.18636666666667 2355.91 0.0 0.0 1.0
75.92156666666666 76.23526666666667 2346.67 0.0 0.0 1.0
76.52176666666666 119.63099999999999 2365.22 0.0 0.0 1.0
76.52176666666666 119.63099999999999 2365.22 0.0 0.0 1.0
60.615033333333336 139.631 2208.12 0.0 0.0 1.0
48.640899999999995 136.41466666666668 1938.6666666666667 -7.075440392212295e-17 0.9999270125234215 0.012081789022539601
81.2022 -179.12566666666666 2452.46 0.0 0.0 1.0
81.63266666666668 -164.245 2442.45 0.0 0.0 1.0
81.626 -143.41466666666668 2432.52 0.0 0.0 1.0
78.83596666666666 -102.32833333333333 2374.6 0.0 0.0 1.0
77.36493333333333 -85.0593 2365.22 0.0 0.0 1.0
75.6785 -82.52966666666667 2365.22 0.0 0.0 1.0
74.85563333333334 -48.60893333333333 2355.91 0.0 0.0 1.0
75.9055 -46.719166666666666 2355.91 0.0 0.0 1.0
72.36603333333333 4.49673 2346.67 0.0 0.0 1.0
75.90553333333334 10.183713333333332 2355.91 0.0 0.0 1.0
77.79526666666668 17.7428 2355.91 0.0 0.0 1.0
74.24836666666666 31.058833333333336 2346.67 0.0 0.0 1.0
75.9055 36.0105 2355.91 0.0 0.0 1.0
76.7454 48.6089 2355.91 0.0 0.0 1.0
75.9055 59.94749999999999 2355.91 0.0 0.0 1.0
76.54899999999999 72.0523 2346.67 0.0 0.0 1.0
75.69553333333333 71.49606666666666 2355.91 0.0 0.0 1.0
75.92156666666666 76.23526666666667 2346.67 0.0 0.0 1.0
72.1875 92.1875 2337.5 0.0 0.0 1.0
76.11550000000001 119.16000000000001 2355.91 0.0 0.0 1.0
69.72763333333332 127.31533333333333 2328.4 0.0 0.0 1.0
68.91386666666666 130.537 2241.2 0.0 0.0 1.0
67.16416666666667 137.214 2232.84 0.0 0.0 1.0
67.16416666666667 137.214 2232.84 0.0 0.0 1.0
66.6171 139.28166666666667 2224.54 0.0 0.0 1.0
62.666 138.54833333333332 2102.1133333333332 -4.168151889050895e-17 -0.99783565086063 0.06575723436659399
56.84073333333333 137.934 2037.6866666666665 3.0144546654816323e-18 0.9999417782851917 0.010790738614590789
51.288900000000005 137.333 1994.67 0.0 0.0 1.0
48.29403333333334 136.68133333333333 1959.8333333333333 -1.9946622908586993e-17 0.9999297194188077 0.011855640979067333
79.4558 -169.90433333333334 2442.45 0.0 0.0 1.0
79.89116666666666 -168.59833333333333 2442.45 0.0 0.0 1.0
81.63266666666668 -164.245 2442.45 0.0 0.0 1.0
79.24733333333333 -137.09699999999998 2412.9 0.0 0.0 1.0
77.34396666666667 -111.02300000000001 2384.06 0.0 0.0 1.0
78.1939 -104.64799999999998 2384.06 0.0 0.0 1.0
74.62450000000001 -91.80503333333333 2365.22 0.0 0.0 1.0
78.83596666666666 -90.89949999999999 2374.6 0.0 0.0 1.0
77.35450000000002 -73.12173333333334 2374.6 0.0 0.0 1.0
74.85563333333334 -48.60893333333333 2355.91 0.0 0.0 1.0
73.5958 -16.692899999999998 2355.91 0.0 0.0 1.0
80.52696666666667 0.527009 2365.22 0.0 0.0 1.0
73.83006666666667 28.758166666666668 2346.67 0.0 0.0 1.0
75.9055 36.0105 2355.91 0.0 0.0 1.0
75.9055 59.9475 2355.91 0.0 0.0 1.0
75.29413333333333 82.71896666666667 2346.67 0.0 0.0 1.0
76.13073333333334 83.55556666666666 2346.67 0.0 0.0 1.0
74.03923333333333 95.68626666666667 2346.67 0.0 0.0 1.0
75.08500000000001 97.98689999999999 2346.67 0.0 0.0 1.0
74.0625 98.43766666666666 2337.5 0.0 0.0 1.0
76.33986666666668 113.88233333333334 2346.67 0.0 0.0 1.0
69.76743333333333 127.02833333333335 2319.38 0.0 0.0 1.0
67.97556666666667 126.928 2269.5433333333335 -1.298270158129034e-16 0.999893186295941 0.014615608059547288
66.96516666666666 126.66699999999999 2232.84 0.0 0.0 1.0
60.632600000000004 139.46466666666666 2183.94 0.0 0.0 1.0
51.288900000000005 137.333 1994.67 0.0 0.0 1.0
37.75813333333333 128.142 1765.1899999999998 0.0 1.0 0.0
81.2022 -179.12566666666666 2452.46 0.0 0.0 1.0
79.2412 -155.12166666666664 2432.52 0.0 0.0 1.0
81.1924 -149.485 2432.52 0.0 0.0 1.0
78.17203333333333 -131.72033333333334 2412.9 0.0 0.0 1.0
76.68003333333333 -126.90766666666667 2403.21 0.0 0.0 1.0
77.34396666666667 -108.473 2384.06 0.0 0.0 1.0
76.31093333333332 -93.91306666666667 2365.22 0.0 0.0 1.0
74.2029 -70.30303333333335 2365.22 0.0 0.0 1.0
75.67853333333333 -67.5626 2365.22 0.0 0.0 1.0
72.51643333333334 -57.022400000000005 2365.22 0.0 0.0 1.0
72.99346666666666 -45.490166666666674 2346.67 0.0 0.0 1.0
75.0656 -40.6299 2355.91 0.0 0.0 1.0
73.17586666666666 -31.18106666666667 2355.91 0.0 0.0 1.0
72.96589999999999 -25.721766666666667 2355.91 0.0 0.0 1.0
75.4856 8.293963333333332 2355.91 0.0 0.0 1.0
75.90553333333334 10.183713333333332 2355.91 0.0 0.0 1.0
73.83006666666667 12.0261 2346.67 0.0 0.0 1.0
73.83006666666667 12.0261 2346.67 0.0 0.0 1.0
73.83006666666667 23.738566666666667 2346.67 0.0 0.0 1.0
73.83006666666667 24.993466666666666 2346.67 0.0 0.0 1.0
73.83006666666667 24.993466666666666 2346.67 0.0 0.0 1.0
74.0392 35.8693 2346.67 0.0 0.0 1.0
75.27560000000001 64.98686666666667 2355.91 0.0 0.0 1.0
74.85563333333334 74.01573333333333 2355.91 0.0 0.0 1.0
74.43570000000001 75.9055 2355.91 0.0 0.0 1.0
71.77083333333333 88.85416666666667 2337.5 0.0 0.0 1.0
74.03923333333334 95.68626666666667 2346.67 0.0 0.0 1.0
72.8125 102.60416666666667 2337.5 0.0 0.0 1.0
73.80576666666667 115.80066666666666 2355.91 0.0 0.0 1.0
76.52176666666666 119.63100000000001 2365.22 0.0 0.0 1.0
66.76616666666666 128.458 2232.84 0.0 0.0 1.0
61.556933333333326 139.42 2168.1366666666668 0.00020624032121578084 0.9999555373804422 0.009427657562793162
48.93293333333333 136.678 1974.92 0.0 0.0 1.0
48.640899999999995 136.41466666666668 1938.6666666666667 -7.075440392212295e-17 0.9999270125234215 0.012081789022539601
41.89273333333333 135.857 1887.7 0.0 0.0 1.0
30.217200000000002 124.57033333333334 1695.18 0.0 0.0 1.0
113.46666666666665 221.19999999999996 2992.0 0.0 0.0 1.0
81.2022 -179.12566666666666 2452.46 0.0 0.0 1.0
78.36066666666666 -173.0053333333333 2452.46 0.0 0.0 1.0
78.8027 -153.79600000000002 2442.45 0.0 0.0 1.0
76.25166666666667 -127.55033333333334 2403.21 0.0 0.0 1.0
74.75233333333334 -116.84066666666666 2403.21 0.0 0.0 1.0
77.34396666666667 -111.02300000000001 2384.06 0.0 0.0 1.0
75.67853333333333 -67.5626 2365.22 0.0 0.0 1.0
73.80576666666667 -39.370066666666666 2355.91 0.0 0.0 1.0
77.78656666666666 -22.450633333333332 2365.22 0.0 0.0 1.0
46.1472 -5.62771 1942.86 0.0 0.0 1.0
46.1472 -5.62771 1942.86 0.0 0.0 1.0
73.83006666666667 12.0261 2346.67 0.0 0.0 1.0
76.11546666666668 14.1732 2355.91 0.0 0.0 1.0
73.83006666666667 24.993466666666666 2346.67 0.0 0.0 1.0
72.78433333333332 51.34643333333333 2346.67 0.0 0.0 1.0
72.36603333333333 56.156866666666666 2346.67 0.0 0.0 1.0
73.80576666666666 66.45666666666666 2355.91 0.0 0.0 1.0
74.43570000000001 75.9055 2355.91 0.0 0.0 1.0
73.83006666666667 76.65356666666666 2346.67 0.0 0.0 1.0
74.03923333333334 95.68626666666667 2346.67 0.0 0.0 1.0
66.16913333333333 137.413 2232.84 0.0 0.0 1.0
59.609199999999994 138.48666666666668 2089.896666666667 -1.5940050806131493e-16 0.9999467400750831 0.010320707980269865
52.27 137.909 2040.0033333333333 -1.364386389598217e-16 0.9999417782851919 0.010790738614590616
51.288900000000005 137.333 1994.67 0.0 0.0 1.0
80.54423333333334 -163.592 2442.45 0.0 0.0 1.0
78.81239999999998 -143.05 2422.67 0.0 0.0 1.0
77.5269 -136.02166666666665 2412.9 0.0 0.0 1.0
76.10013333333335 -80.0 2365.22 0.0 0.0 1.0
72.7559 -73.80576666666667 2355.91 0.0 0.0 1.0
71.916 -58.477666666666664 2355.91 0.0 0.0 1.0
74.85563333333334 -48.60893333333333 2355.91 0.0 0.0 1.0
72.36603333333333 -46.74506666666667 2346.67 0.0 0.0 1.0
73.2026 -44.02613333333334 2346.67 0.0 0.0 1.0
74.2257 -36.010466666666666 2355.91 0.0 0.0 1.0
71.70603333333334 -21.312333333333335 2355.91 0.0 0.0 1.0
51.34813333333333 -5.879030333333334 2094.7566666666667 -0.513949154623987 -0.46500340554530845 0.7208523422258919
74.24836666666668 31.058833333333336 2346.67 0.0 0.0 1.0
73.5958 36.22046666666666 2355.91 0.0 0.0 1.0
71.73856666666667 37.5425 2346.67 0.0 0.0 1.0
72.78433333333334 51.34643333333333 2346.67 0.0 0.0 1.0
73.83006666666667 76.65356666666666 2346.67 0.0 0.0 1.0
72.15686666666667 85.0196 2346.67 0.0 0.0 1.0
