ply
format ascii 1.0
element vertex 1311
property float x
property float y
property float z
property uchar red
property uchar green
property uchar blue
end_header
0.41187 5.36503 0.995679 174 4 33
-0.560993 0.083431 0.065828 172 255 36
0.909725 5.37472 0.36681 174 4 33
-0.623852 0.087428 0.031197 172 255 36
-1.49377 4.68566 -1.80154 174 4 33
-0.621723 0.091338 0.013901 172 255 36
-3.11952 5.45441 1.3425 174 4 33
-0.560962 0.083431 0.013937 172 255 36
1.99098 4.32835 -0.622807 174 4 33
-0.560972 0.078985 0.031234 172 255 36
-1.78078 6.74905 -0.943254 174 4 33
-0.617527 0.10786 -0.004007 172 255 36
-1.6123 4.66296 -0.958308 174 4 33
-0.602886 0.134874 -0.022518 172 255 36
-0.646787 4.35747 -0.551395 174 4 33
-0.556753 0.130674 -0.022491 172 255 36
-0.387458 5.37455 -0.592369 174 4 33
-0.556764 0.099954 -0.003971 172 255 36
-0.396922 3.5566 -0.304498 174 4 33
-0.595086 0.165654 -0.022703 172 255 36
-0.0876751 5.31426 -0.647159 174 4 33
-0.578527 0.196247 -0.004552 172 255 36
-0.216331 6.04679 -0.340038 174 4 33
-0.548964 0.196247 -0.004535 172 255 36
-0.280036 4.16852 -1.66695 174 4 33
-0.548953 0.161455 -0.022676 172 255 36
-2.80875 4.65301 -1.62681 174 4 33
-0.571443 0.212594 0.022199 172 255 36
-0.125781 6.7088 0.211587 174 4 33
-0.571465 0.212594 0.057553 172 255 36
1.40145 5.91532 -1.93623 174 4 33
-0.541903 0.212594 0.05757 172 255 36
-0.266613 4.98099 0.0591813 174 4 33
-0.541893 0.212594 0.039894 172 255 36
0.0104223 5.56182 -0.00837196 174 4 33
-0.541882 0.212594 0.022217 172 255 36
0.277837 6.04491 -2.55639 174 4 33
-0.578579 0.196247 0.084294 172 255 36
-0.511885 4.66125 0.866544 174 4 33
-0.59516 0.165654 0.102426 172 255 36
1.32523 4.0673 0.194951 174 4 33
-0.549027 0.161455 0.102454 172 255 36
0.704907 4.99705 -0.689437 174 4 33
-0.549016 0.196247 0.084311 172 255 36
0.191649 5.57346 -0.980268 174 4 33
-0.663126 0.195122 -0.022743 172 255 36
-2.02863 4.83964 1.05313 174 4 33
-0.638961 0.220143 -0.004588 172 255 36
-0.779213 6.91474 -2.30264 174 4 33
-0.612554 0.205841 -0.004573 172 255 36
-1.59111 5.41454 -0.325816 174 4 33
-0.629113 0.175247 -0.022723 172 255 36
0.353563 4.99704 0.0555894 174 4 33
-0.628789 0.234047 0.022165 172 255 36
-0.059657 6.80925 -0.877866 174 4 33
-0.62881 0.234047 0.057518 172 255 36
-2.1217 5.30423 -0.765834 174 4 33
-0.602404 0.219745 0.057534 172 255 36
0.396314 3.98916 -1.09614 174 4 33
-0.602382 0.219745 0.022181 172 255 36
-1.29528 3.48381 -0.77232 174 4 33
-0.639013 0.220143 0.084258 172 255 36
-2.2296 5.54264 0.105746 174 4 33
-0.6632 0.195122 0.102386 172 255 36
-0.4384 3.42708 0.487748 174 4 33
-0.629187 0.175247 0.102406 172 255 36
-1.50339 5.70707 -2.52033 174 4 33
-0.612606 0.205841 0.084274 172 255 36
-0.288935 4.62487 -0.23404 174 4 33
-0.682381 0.168942 0.102186 172 255 36
0.0939259 8.03806 0.15275 174 4 33
-0.703715 0.146849 0.083652 172 255 36
-3.13858 6.93011 1.81406 174 4 33
-0.662987 0.122055 0.083676 172 255 36
0.703898 4.35292 0.443647 174 4 33
-0.648368 0.149068 0.102206 172 255 36
-1.70591 3.49405 -1.23275 174 4 33
-0.714001 0.132796 0.065737 172 255 36
-2.29955 4.99368 0.79826 174 4 33
-0.717082 0.129598 0.048438 172 255 36
-0.98633 5.18754 0.94006 174 4 33
-0.675381 0.10409 0.048462 172 255 36
-0.688623 5.92093 1.04111 174 4 33
-0.673273 0.108001 0.065761 172 255 36
0.236709 3.8329 -3.80483 174 4 33
-0.717071 0.129598 0.031142 172 255 36
-0.300384 4.64803 0.807906 174 4 33
-0.71397 0.132796 0.013846 172 255 36
0.862875 6.08355 -0.630666 174 4 33
-0.673242 0.108001 0.01387 172 255 36
-1.19303 4.79951 1.70897 174 4 33
-0.67537 0.10409 0.031166 172 255 36
1.56967 5.94618 0.522482 174 4 33
-0.703663 0.146849 -0.004058 172 255 36
-1.0701 4.27636 -0.338242 174 4 33
-0.682306 0.168942 -0.022566 172 255 36
-0.379323 5.12268 0.297601 174 4 33
-0.648294 0.149068 -0.022546 172 255 36
-0.26544 4.68321 0.56539 174 4 33
-0.662935 0.122055 -0.004034 172 255 36
-1.59505 5.58066 0.210134 174 4 33
-0.775782 0.189324 0.0657 172 255 36
-0.3747 6.30315 -0.699621 174 4 33
-0.779547 0.186975 0.048401 172 255 36
0.125334 5.36992 -0.349916 174 4 33
-0.751526 0.156966 0.048417 172 255 36
-0.213976 5.12848 -0.772365 174 4 33
-0.748447 0.160164 0.065717 172 255 36
-1.65514 4.27709 -0.303405 174 4 33
-0.779537 0.186975 0.031105 172 255 36
0.610321 5.89512 0.995848 174 4 33
-0.77575 0.189324 0.013809 172 255 36
-0.231628 4.01789 1.25078 174 4 33
-0.748416 0.160164 0.013826 172 255 36
-1.11044 4.30611 -0.825617 174 4 33
-0.751516 0.156966 0.031121 172 255 36
-1.0389 6.57902 -1.65811 174 4 33
-0.762164 0.200289 -0.004093 172 255 36
-1.29746 4.20897 0.759427 174 4 33
-0.736065 0.21651 -0.022598 172 255 36
-0.735409 6.68335 0.25346 174 4 33
-0.713473 0.193222 -0.022584 172 255 36
-0.632483 5.77296 -1.08905 174 4 33
-0.73483 0.171129 -0.004077 172 255 36
-0.0779685 4.05522 0.223376 174 4 33
-0.710775 0.236937 -0.022771 172 255 36
-1.58844 5.90203 1.92903 174 4 33
-0.681239 0.255308 -0.004614 172 255 36
0.33923 7.27661 -1.36377 174 4 33
-0.664018 0.23867 -0.004603 172 255 36
-2.49343 4.65464 -1.86906 174 4 33
-0.688183 0.213647 -0.022758 172 255 36
-0.604213 5.54779 0.34972 174 4 33
-0.667822 0.266156 0.022142 172 255 36
1.51664 4.20955 1.16998 174 4 33
-0.667844 0.266156 0.057495 172 255 36
0.843865 6.14772 -1.40064 174 4 33
-0.650625 0.249518 0.057506 172 255 36
-1.08103 5.67986 -1.77235 174 4 33
-0.650603 0.249518 0.022152 172 255 36
0.236049 6.992 -0.86948 174 4 33
-0.681291 0.255308 0.084233 172 255 36
-2.18446 6.45511 -1.52258 174 4 33
-0.71085 0.236937 0.102358 172 255 36
0.998695 5.84402 0.308573 174 4 33
-0.688258 0.213647 0.102371 172 255 36
-1.92551 4.47036 1.49081 174 4 33
-0.66407 0.23867 0.084243 172 255 36
-0.914469 6.91014 0.039747 174 4 33
-0.736139 0.21651 0.102154 172 255 36
-0.268566 5.59005 1.55002 174 4 33
-0.762216 0.200289 0.083618 172 255 36
-0.421587 6.52617 -1.78897 174 4 33
-0.734882 0.171129 0.083634 172 255 36
-1.58962 3.96509 -0.370476 174 4 33
-0.713547 0.193222 0.102168 172 255 36
-0.967755 4.31578 -2.48648 174 4 33
-0.629623 0.311153 0.004144 172 255 36
0.899874 3.61587 -0.793869 174 4 33
-0.629666 0.311153 0.075538 172 255 36
-1.05194 6.01954 1.98013 174 4 33
-0.660855 0.286702 0.0575 172 255 36
1.16912 6.49711 -0.115815 174 4 33
-0.660834 0.286702 0.022146 172 255 36
-0.608393 6.61565 -1.5983 174 4 33
-0.651994 0.297284 0.115906 172 255 36
-1.46061 4.39297 0.886853 174 4 33
-0.711686 0.260183 0.152508 172 255 36
-0.219085 4.43532 -0.426419 174 4 33
-0.712741 0.254462 0.115992 172 255 36
0.985361 5.88989 -1.45263 174 4 33
-0.683183 0.272833 0.097867 172 255 36
-0.724896 6.21901 -1.27611 174 4 33
-0.753684 0.23407 0.152198 172 255 36
-1.3088 4.51548 1.24474 174 4 33
-0.806348 0.201311 0.114764 172 255 36
-0.987101 5.94282 0.649467 174 4 33
-0.780816 0.212127 0.097144 172 255 36
-3.12004 4.62763 -0.975563 174 4 33
-0.754739 0.228348 0.115681 172 255 36
0.397495 4.04575 -1.98377 174 4 33
-0.828876 0.187294 0.087712 172 255 36
-1.96842 3.41659 0.73938 174 4 33
-0.836482 0.182551 0.052776 172 255 36
-1.87497 4.45846 -0.125996 174 4 33
-0.807111 0.195762 0.052794 172 255 36
-0.416191 7.6335 -1.07463 174 4 33
-0.803346 0.19811 0.070094 172 255 36
1.24965 5.36259 -1.45892 174 4 33
-0.836467 0.182551 0.026662 172 255 36
-0.278298 4.85362 0.549303 174 4 33
-0.828819 0.187294 -0.008267 172 255 36
1.58085 4.22726 1.56926 174 4 33
-0.80331 0.19811 0.009383 172 255 36
-1.58259 3.7336 -0.645392 174 4 33
-0.807096 0.195762 0.026678 172 255 36
-0.332005 5.09029 1.81571 174 4 33
-0.806259 0.201311 -0.03529 172 255 36
-2.64273 5.16434 -2.42544 174 4 33
-0.75355 0.23407 -0.072662 172 255 36
-0.951701 6.31063 0.542096 174 4 33
-0.754649 0.228348 -0.036146 172 255 36
-2.50935 5.46638 0.792914 174 4 33
-0.780748 0.212127 -0.017642 172 255 36
0.71711 5.235 -0.369753 174 4 33
-0.711552 0.260183 -0.072922 172 255 36
-0.248987 6.28375 0.879991 174 4 33
-0.651903 0.297284 -0.03625 172 255 36
-1.5797 4.48481 -2.18663 174 4 33
-0.683114 0.272833 -0.018248 172 255 36
-0.308916 5.25527 0.145968 174 4 33
-0.71265 0.254462 -0.036408 172 255 36
-0.231425 4.06864 0.789634 174 4 33
-1.02904 0.464193 0.022139 172 255 36
0.286676 4.24024 2.01392 174 4 33
-1.02139 0.468935 -0.012789 172 255 36
0.195574 6.32531 0.396294 174 4 33
-0.882223 0.24511 -0.012706 172 255 36
-0.904717 4.52167 -2.48208 174 4 33
-0.889869 0.240367 0.022222 172 255 36
-1.32961 5.99252 -0.620657 174 4 33
-0.991211 0.487686 -0.048939 172 255 36
-1.22006 5.12384 -1.19865 174 4 33
-0.938502 0.520444 -0.08631 172 255 36
-1.24076 5.61044 -2.79124 174 4 33
-0.799336 0.296618 -0.086227 172 255 36
0.087764 3.88762 2.11743 174 4 33
-0.852045 0.26386 -0.048857 172 255 36
0.166535 7.022 -2.96548 174 4 33
-0.882323 0.555374 -0.086658 172 255 36
0.342559 5.83792 0.663856 174 4 33
-0.822676 0.592474 -0.049986 172 255 36
0.896057 4.68368 -1.96585 174 4 33
-0.683508 0.36865 -0.049904 172 255 36
-0.0663219 4.599 -0.455902 174 4 33
-0.743157 0.331548 -0.086576 172 255 36
-1.26336 7.18012 -0.402835 174 4 33
-0.792873 0.611025 0.004047 172 255 36
-1.74521 5.01785 1.18687 174 4 33
-0.792915 0.611025 0.075441 172 255 36
-2.52287 5.9149 -0.0546007 174 4 33
-0.653747 0.387201 0.075523 172 255 36
-1.61625 4.6322 -1.64163 174 4 33
-0.653705 0.387201 0.00413 172 255 36
-1.28823 7.51378 0.670704 174 4 33
-0.822782 0.592474 0.129439 172 255 36
1.65868 5.55295 1.06405 174 4 33
-0.882473 0.555374 0.166042 172 255 36
-1.48897 6.29463 -1.48725 174 4 33
-0.743306 0.331548 0.166125 172 255 36
0.77227 4.94956 -0.705529 174 4 33
-0.683614 0.36865 0.129522 172 255 36
-0.29659 7.46533 -0.801756 174 4 33
-0.938652 0.520444 0.165626 172 255 36
-0.948576 4.43316 0.494976 174 4 33
-0.991316 0.487686 0.128192 172 255 36
-0.767722 6.11025 0.334777 174 4 33
-0.85215 0.26386 0.128274 172 255 36
-0.0927926 4.53893 -2.64225 174 4 33
-0.799486 0.296618 0.165709 172 255 36
-1.27534 7.27028 -1.57093 174 4 33
-1.02145 0.468935 0.092007 172 255 36
0.0467084 5.45729 0.191054 174 4 33
-1.02906 0.464193 0.05707 172 255 36
0.12755 5.53703 1.85519 174 4 33
-0.88989 0.240367 0.057153 172 255 36
-2.10553 4.47138 -0.513634 174 4 33
-0.882285 0.24511 0.09209 172 255 36
-2.6248 4.74166 -0.440389 174 4 33
-0.677263 -0.424318 -0.254715 172 255 36
0.042873 5.33719 0.22716 174 4 33
-0.35746 -0.420842 -0.254526 172 255 36
0.229532 4.066 -0.760578 174 4 33
-0.312657 -0.381852 -0.254499 172 255 36
-1.83577 4.56784 -0.299644 174 4 33
-0.269668 -0.096282 -0.254474 172 255 36
0.43873 5.08621 1.16719 174 4 33
-0.30286 -0.058095 -0.254493 172 255 36
-0.118954 4.84495 -2.32427 174 4 33
-0.665564 -0.061617 -0.254708 172 255 36
0.793192 4.90621 -0.755205 174 4 33
-0.708463 -0.096718 -0.254734 172 255 36
-0.827296 6.3298 -0.679279 174 4 33
-0.755263 -0.151318 -0.254761 172 255 36
-0.853883 4.40756 2.42688 174 4 33
-0.778663 -0.233218 -0.254775 172 255 36
0.588021 5.82083 -2.04795 174 4 33
-0.782564 -0.303418 -0.254778 172 255 36
-1.36996 4.90076 1.67958 174 4 33
-0.763063 -0.361918 -0.254766 172 255 36
-0.33902 3.76117 -0.999119 174 4 33
-0.708463 -0.400918 -0.254734 172 255 36
-3.13085 5.00064 1.27598 174 4 33
-2.56611 -0.391289 1.61448 172 255 36
-0.491279 4.72384 0.428947 174 4 33
-2.55743 -0.308735 1.61451 172 255 36
-2.41187 4.48508 -1.08714 174 4 33
-2.74099 -0.269732 1.62755 172 255 36
-3.40901 4.82612 0.638921 174 4 33
-2.75377 -0.391292 1.62751 172 255 36
-3.39519 5.50012 -0.17663 174 4 33
-2.8904 -0.237981 1.62752 172 255 36
-3.43166 5.83066 1.26919 174 4 33
-2.90651 -0.391292 1.62747 172 255 36
-3.95013 5.07938 -0.836615 174 4 33
-3.00991 -0.212571 1.59694 172 255 36
-4.71108 4.54003 0.504584 174 4 33
-3.02869 -0.391283 1.59688 172 255 36
-2.53986 4.12045 0.698708 174 4 33
-3.11234 -0.190774 1.514 172 255 36
-4.19169 4.66611 0.334315 174 4 33
-3.1334 -0.391258 1.51394 172 255 36
-3.4499 5.56536 1.32935 174 4 33
-3.16779 -0.17894 1.37434 172 255 36
-2.35139 4.00024 1.22744 174 4 33
-3.19009 -0.391217 1.37427 172 255 36
-4.71314 5.39094 -0.719446 174 4 33
-3.18906 -0.174331 1.12995 172 255 36
-2.70992 5.00992 2.029 174 4 33
-3.21184 -0.391144 1.12988 172 255 36
-2.77066 5.16923 1.25491 174 4 33
-2.53179 -0.22979 1.61453 172 255 36
-3.95749 4.5863 0.870929 174 4 33
-2.70323 -0.153482 1.6276 172 255 36
-4.30601 3.5845 0.653312 174 4 33
-2.84277 -0.091368 1.62758 172 255 36
-3.07322 4.95682 1.90334 174 4 33
-2.95439 -0.041667 1.59701 172 255 36
-1.1315 5.79634 0.300593 174 4 33
-3.05005 0.000951 1.51408 172 255 36
-3.90836 5.2806 0.526178 174 4 33
-3.10184 0.024063 1.37442 172 255 36
-3.51318 4.33501 0.0792429 174 4 33
-3.1217 0.033009 1.13003 172 255 36
-3.00222 3.0056 2.74088 174 4 33
-2.49029 -0.1579 1.61457 172 255 36
-2.3684 5.27605 -1.07822 174 4 33
-2.64212 -0.047622 1.62765 172 255 36
-5.08966 3.17369 0.57966 174 4 33
-2.7657 0.042142 1.62764 172 255 36
-3.25466 4.84829 0.621288 174 4 33
-2.86456 0.113963 1.59708 172 255 36
-4.24976 4.84772 -0.132796 174 4 33
-2.94928 0.175541 1.51416 172 255 36
-2.25795 5.1807 0.478905 174 4 33
-2.99514 0.208923 1.37451 172 255 36
-2.20735 4.42287 0.215213 174 4 33
-3.01272 0.22182 1.13012 172 255 36
-3.02467 3.97504 -0.486382 174 4 33
-2.43476 -0.096207 1.6146 172 255 36
-2.66509 3.15592 2.30753 174 4 33
-2.56035 0.043224 1.6277 172 255 36
-3.18535 5.76401 0.378529 174 4 33
-2.66257 0.156717 1.6277 172 255 36
-4.39066 5.76588 0.903537 174 4 33
-2.74434 0.24752 1.59716 172 255 36
-1.21806 5.18214 -0.16339 174 4 33
-2.81441 0.325369 1.51424 172 255 36
-3.52984 6.72724 1.22788 174 4 33
-2.85233 0.367564 1.3746 172 255 36
-3.02279 5.33768 -0.80617 174 4 33
-2.86687 0.383851 1.13021 172 255 36
-1.67455 5.19607 -0.485353 174 4 33
-2.36761 -0.047404 1.61464 172 255 36
-3.24857 5.80595 1.02247 174 4 33
-2.46147 0.115086 1.62775 172 255 36
-1.90931 5.75942 0.959447 174 4 33
-2.53787 0.247349 1.62777 172 255 36
-3.19481 4.51595 0.636762 174 4 33
-2.59898 0.353168 1.59723 172 255 36
-3.28987 5.84071 0.70626 174 4 33
-2.65134 0.443888 1.51433 172 255 36
-4.44967 6.04686 -1.65959 174 4 33
-2.67968 0.493055 1.37468 172 255 36
-4.18862 5.58879 1.4398 174 4 33
-2.69052 0.512023 1.1303 172 255 36
-1.64027 4.16023 0.928741 174 4 33
-2.29179 -0.013627 1.61467 172 255 36
-0.845929 4.01676 0.128596 174 4 33
-2.34982 0.164826 1.6278 172 255 36
-3.38116 3.80608 -0.0580608 174 4 33
-2.39706 0.31008 1.62783 172 255 36
-1.30367 4.36776 0.952178 174 4 33
-2.43483 0.426293 1.5973 172 255 36
-1.78777 3.71468 -0.123062 174 4 33
-2.4672 0.525921 1.51441 172 255 36
-4.64503 5.56146 1.18444 174 4 33
-2.4847 0.579914 1.37477 172 255 36
-1.70932 6.65008 -0.433335 174 4 33
-2.49138 0.600737 1.13038 172 255 36
-2.46996 3.55946 0.160972 174 4 33
-2.2106 0.003652 1.6147 172 255 36
-2.4546 6.87377 0.638967 174 4 33
-2.23027 0.190269 1.62784 172 255 36
-2.63404 5.44731 0.682684 174 4 33
-2.24628 0.34217 1.62788 172 255 36
-3.80071 5.36643 0.0641564 174 4 33
-2.25907 0.463699 1.59737 172 255 36
-3.46707 6.26677 -0.662227 174 4 33
-2.27003 0.567884 1.51448 172 255 36
-2.51784 4.42855 0.610134 174 4 33
-2.27593 0.624345 1.37484 172 255 36
-2.68359 5.29404 0.534458 174 4 33
-2.27815 0.646119 1.13046 172 255 36
-3.98135 6.23863 0.241917 174 4 33
-2.12759 0.003677 1.61472 172 255 36
-2.83303 5.05384 0.871603 174 4 33
-2.10804 0.190306 1.62788 172 255 36
-3.07962 6.23915 3.02495 174 4 33
-2.09212 0.342215 1.62793 172 255 36
-2.25231 6.09056 0.73035 174 4 33
-2.07938 0.463752 1.59742 172 255 36
-2.91393 7.23619 1.18131 174 4 33
-2.06844 0.567944 1.51453 172 255 36
-3.28665 5.04848 0.471059 174 4 33
-2.06249 0.624409 1.3749 172 255 36
-2.56739 4.55951 0.794746 174 4 33
-2.06014 0.646183 1.13052 172 255 36
-2.4669 5.1179 0.492274 174 4 33
-2.0464 -0.013553 1.61474 172 255 36
-4.45878 3.49909 0.534246 174 4 33
-1.98847 0.164932 1.62791 172 255 36
-1.46981 3.02304 0.651816 174 4 33
-1.94133 0.310215 1.62796 172 255 36
-4.0288 6.23612 -0.0462712 174 4 33
-1.9036 0.42645 1.59746 172 255 36
-2.40047 5.23799 1.09296 174 4 33
-1.87124 0.526098 1.51458 172 255 36
-3.65702 6.68516 -1.17134 174 4 33
-1.85369 0.580101 1.37495 172 255 36
-2.07328 5.38699 -0.568763 174 4 33
-1.84688 0.600928 1.13057 172 255 36
-3.20715 4.36225 0.741267 174 4 33
-1.97055 -0.047287 1.61476 172 255 36
-0.646187 5.75682 2.62681 174 4 33
-1.87679 0.115259 1.62792 172 255 36
-1.85364 5.64337 1.24169 174 4 33
-1.80047 0.247567 1.62799 172 255 36
-2.9796 5.75519 2.21245 174 4 33
-1.73941 0.353423 1.59749 172 255 36
-2.40391 6.03735 0.829274 174 4 33
-1.68705 0.444174 1.51461 172 255 36
-5.12865 4.70937 1.24786 174 4 33
-1.65866 0.493358 1.37499 172 255 36
-1.15163 5.01488 3.77705 174 4 33
-1.64769 0.512332 1.13061 172 255 36
-1.92507 5.26057 1.54147 174 4 33
-1.90338 -0.09605 1.61476 172 255 36
-2.3619 5.57318 -0.960408 174 4 33
-1.77788 0.043456 1.62793 172 255 36
-1.71274 5.05425 0.934771 174 4 33
-1.67572 0.157009 1.628 172 255 36
-2.34416 4.59288 1.71114 174 4 33
-1.59399 0.24786 1.5975 172 255 36
-1.7319 3.70447 -0.394976 174 4 33
-1.52392 0.325751 1.51463 172 255 36
-2.59074 5.4012 0.203613 174 4 33
-1.48593 0.367969 1.375 172 255 36
-1.83762 6.27663 0.586381 174 4 33
-1.47127 0.384264 1.13062 172 255 36
-0.350182 5.2011 0.481615 174 4 33
-1.84781 -0.15771 1.61476 172 255 36
-1.76327 4.3769 -0.0631322 174 4 33
-1.69605 -0.047342 1.62793 172 255 36
-2.32538 5.05182 2.42212 174 4 33
-1.57252 0.042496 1.62799 172 255 36
-1.097 5.51136 0.756063 174 4 33
-1.47369 0.114375 1.59749 172 255 36
-1.92183 4.62404 1.26322 174 4 33
-1.38896 0.176004 1.51462 172 255 36
-2.73325 4.9472 -0.202198 174 4 33
-1.34304 0.209413 1.37499 172 255 36
-1.63683 4.6469 -0.611235 174 4 33
-1.32532 0.22232 1.13062 172 255 36
-2.89018 5.60226 1.46667 174 4 33
-1.80627 -0.229575 1.61475 172 255 36
-1.87348 2.82803 2.60935 174 4 33
-1.63488 -0.153165 1.62792 172 255 36
-0.685308 7.06449 2.01411 174 4 33
-1.49538 -0.090968 1.62797 172 255 36
-3.2343 3.65808 1.10299 174 4 33
-1.38376 -0.041201 1.59748 172 255 36
-0.18802 2.22091 1.62188 174 4 33
-1.28808 0.001473 1.5146 172 255 36
-2.65263 5.74356 1.10233 174 4 33
-1.23622 0.024616 1.37497 172 255 36
-1.6891 5.87705 2.78333 174 4 33
-1.21622 0.033574 1.13059 172 255 36
-2.01548 4.95458 0.848299 174 4 33
-1.78058 -0.308505 1.61474 172 255 36
-4.56032 6.64252 1.81522 174 4 33
-1.59705 -0.269393 1.62789 172 255 36
-2.80099 4.81231 0.869204 174 4 33
-1.44766 -0.237553 1.62795 172 255 36
-0.568653 5.65141 0.406713 174 4 33
-1.32814 -0.212073 1.59744 172 255 36
-0.691829 6.42707 -0.685216 174 4 33
-1.22568 -0.190215 1.51456 172 255 36
-1.86167 6.33019 0.198811 174 4 33
-1.17016 -0.178348 1.37493 172 255 36
-1.45694 5.4172 1.68748 174 4 33
-1.14874 -0.173727 1.13055 172 255 36
-1.384 4.63871 0.770702 174 4 33
-1.77185 -0.391053 1.61471 172 255 36
-1.63168 3.60693 1.32412 174 4 33
-1.5842 -0.390946 1.62786 172 255 36
-1.61283 5.35727 1.11526 174 4 33
-1.43146 -0.390855 1.62791 172 255 36
-2.1099 4.74279 1.4725 174 4 33
-1.30926 -0.390774 1.59739 172 255 36
-3.29728 4.36796 1.43208 174 4 33
-1.2045 -0.390686 1.51451 172 255 36
-0.823221 4.89573 3.27743 174 4 33
-1.14772 -0.390612 1.37487 172 255 36
-0.69042 7.45873 1.33624 174 4 33
-1.12583 -0.390526 1.13049 172 255 36
-2.14285 5.08418 0.384232 174 4 33
-1.78048 -0.473611 1.61469 172 255 36
-0.248569 3.34113 2.3156 174 4 33
-1.5969 -0.512513 1.62782 172 255 36
-3.07508 3.97626 0.346824 174 4 33
-1.44748 -0.544176 1.62786 172 255 36
-1.23842 5.67452 0.0821384 174 4 33
-1.32793 -0.569496 1.59733 172 255 36
-0.152516 4.57961 0.876283 174 4 33
-1.22545 -0.591183 1.51444 172 255 36
-0.731477 1.27633 0.971797 174 4 33
-1.1699 -0.602902 1.3748 172 255 36
-0.734162 5.91972 0.962115 174 4 33
-1.14848 -0.607352 1.13042 172 255 36
-3.19302 5.10929 0.513152 174 4 33
-1.80608 -0.552571 1.61465 172 255 36
-1.68442 4.32402 1.65586 174 4 33
-1.6346 -0.628785 1.62777 172 255 36
-0.0147555 3.12972 0.224092 174 4 33
-1.49502 -0.690817 1.6278 172 255 36
-0.354031 3.72518 1.51745 174 4 33
-1.38335 -0.740434 1.59727 172 255 36
-4.09608 4.20388 1.7136 174 4 33
-1.28761 -0.782945 1.51437 172 255 36
-0.0307144 3.70066 2.12719 174 4 33
-1.23573 -0.805944 1.37473 172 255 36
-0.598477 2.8424 -0.90225 174 4 33
-1.21572 -0.814733 1.13034 172 255 36
-4.64433 4.55614 1.66791 174 4 33
-1.84753 -0.624487 1.61462 172 255 36
-2.82706 6.74385 1.04979 174 4 33
-1.69564 -0.734682 1.62773 172 255 36
-0.489803 3.63801 3.47239 174 4 33
-1.57201 -0.824373 1.62774 172 255 36
-2.34559 2.76168 1.23993 174 4 33
-1.47309 -0.896117 1.5972 172 255 36
-2.90308 5.26982 2.00221 174 4 33
-1.38829 -0.957595 1.51428 172 255 36
-1.3677 3.32075 3.26454 174 4 33
-1.34232 -0.990868 1.37464 172 255 36
-1.72527 5.98465 1.52385 174 4 33
-1.32459 -1.00361 1.13025 172 255 36
-2.60653 5.26627 1.96059 174 4 33
-1.90303 -0.686211 1.61459 172 255 36
-3.00244 2.15359 1.66931 174 4 33
-1.77736 -0.825576 1.62767 172 255 36
-2.40839 4.23963 0.39216 174 4 33
-1.67507 -0.939008 1.62767 172 255 36
-2.98512 3.69101 0.0996167 174 4 33
-1.59323 -1.02974 1.59712 172 255 36
-2.44649 2.98305 2.56281 174 4 33
-1.52307 -1.1075 1.5142 172 255 36
-2.3384 5.72416 2.81057 174 4 33
-1.48503 -1.14959 1.37455 172 255 36
-2.75194 4.13782 -0.804045 174 4 33
-1.47035 -1.16572 1.13016 172 255 36
-3.58929 5.13259 1.03235 174 4 33
-1.97014 -0.735054 1.61455 172 255 36
-2.32328 3.6541 0.700245 174 4 33
-1.87619 -0.897497 1.62762 172 255 36
-0.70457 4.7479 1.47219 174 4 33
-1.79972 -1.02971 1.62761 172 255 36
-0.241697 2.46937 1.05548 174 4 33
-1.73853 -1.13548 1.59705 172 255 36
-1.17778 4.43719 2.40201 174 4 33
-1.68606 -1.22612 1.51412 172 255 36
-3.9447 4.5451 0.964534 174 4 33
-1.65762 -1.27519 1.37446 172 255 36
-1.16368 2.65687 -0.191013 174 4 33
-1.64662 -1.294 1.13007 172 255 36
-0.450252 5.74907 2.04733 174 4 33
-2.04595 -0.768878 1.61452 172 255 36
-2.57531 3.15217 0.232149 174 4 33
-1.98782 -0.947302 1.62758 172 255 36
-2.99985 4.61055 1.13336 174 4 33
-1.94049 -1.09253 1.62755 172 255 36
-3.76642 3.05497 -0.10442 174 4 33
-1.90263 -1.2087 1.59697 172 255 36
-1.69076 4.00356 1.28311 174 4 33
-1.87016 -1.30826 1.51404 172 255 36
-3.15327 4.04982 1.35086 174 4 33
-1.85254 -1.36216 1.37438 172 255 36
-1.99865 4.64196 -0.220659 174 4 33
-1.84571 -1.38283 1.12999 172 255 36
-2.54721 5.78543 0.183668 174 4 33
-2.12713 -0.786204 1.61449 172 255 36
-2.46749 6.3234 1.12947 174 4 33
-2.10735 -0.972817 1.62753 172 255 36
-4.00053 4.51325 -0.202933 174 4 33
-2.09125 -1.12471 1.62749 172 255 36
-2.65416 3.18886 0.350671 174 4 33
-2.07837 -1.24621 1.59691 172 255 36
-3.45398 1.68599 0.572046 174 4 33
-2.0673 -1.35034 1.51397 172 255 36
-0.93622 4.57174 2.12841 174 4 33
-2.06128 -1.40672 1.3743 172 255 36
-2.14617 2.60068 1.65673 174 4 33
-2.05891 -1.42834 1.12991 172 255 36
-1.44798 5.104 1.76471 174 4 33
-2.21013 -0.786278 1.61446 172 255 36
-2.86061 2.81125 0.684847 174 4 33
-2.22958 -0.972926 1.6275 172 255 36
-1.89222 3.32688 0.909908 174 4 33
-2.24541 -1.12485 1.62745 172 255 36
-1.74452 6.2271 2.00327 174 4 33
-2.25806 -1.24637 1.59686 172 255 36
-3.23309 4.42319 0.452833 174 4 33
-2.26889 -1.35052 1.51391 172 255 36
-1.74159 3.6287 -0.0375038 174 4 33
-2.27473 -1.40691 1.37424 172 255 36
-3.12043 4.95179 0.381562 174 4 33
-2.27692 -1.42853 1.12985 172 255 36
-3.22152 3.61578 0.663006 174 4 33
-2.29134 -0.769094 1.61445 172 255 36
-3.81971 2.45108 0.622328 174 4 33
-2.34916 -0.947623 1.62747 172 255 36
-2.62213 3.23615 -0.0232663 174 4 33
-2.39622 -1.09293 1.62741 172 255 36
-1.75437 2.97573 1.12218 174 4 33
-2.43387 -1.20917 1.59682 172 255 36
-2.47275 2.82347 -0.885781 174 4 33
-2.46611 -1.30879 1.51386 172 255 36
-2.79372 5.01311 0.249214 174 4 33
-2.48355 -1.36272 1.37419 172 255 36
-2.83233 4.21013 1.50254 174 4 33
-2.4902 -1.38341 1.1298 172 255 36
-1.4367 5.51637 0.63166 174 4 33
-2.3672 -0.735407 1.61443 172 255 36
-2.4469 2.54009 0.653007 174 4 33
-2.46087 -0.898016 1.62745 172 255 36
-1.13901 3.933 1.09132 174 4 33
-2.53711 -1.03037 1.62739 172 255 36
-2.025 3.58031 2.32627 174 4 33
-2.5981 -1.13624 1.59679 172 255 36
-0.0739166 3.24233 -0.462312 174 4 33
-2.65035 -1.22697 1.51383 172 255 36
-3.05882 3.66716 2.49559 174 4 33
-2.67863 -1.27609 1.37416 172 255 36
-3.52382 2.64022 1.03453 174 4 33
-2.68945 -1.29493 1.12976 172 255 36
-1.41943 5.95942 2.00315 174 4 33
-2.43441 -0.686686 1.61443 172 255 36
-2.28291 6.47388 1.12387 174 4 33
-2.55983 -0.826271 1.62744 172 255 36
-3.61224 4.74742 1.09498 174 4 33
-2.66192 -0.939886 1.62738 172 255 36
-2.41232 3.38936 -0.172591 174 4 33
-2.74358 -1.03077 1.59678 172 255 36
-3.13013 3.81285 0.774089 174 4 33
-2.81356 -1.10865 1.51382 172 255 36
-4.20936 4.70931 -0.115659 174 4 33
-2.85143 -1.15081 1.37415 172 255 36
-2.4301 4.49969 0.409528 174 4 33
-2.86595 -1.16697 1.12975 172 255 36
-3.25844 4.9436 -0.702716 174 4 33
-2.49001 -0.625057 1.61443 172 255 36
-2.97566 3.96378 0.408412 174 4 33
-2.64172 -0.735523 1.62744 172 255 36
-3.8134 4.23152 -0.40471 174 4 33
-2.76519 -0.825434 1.62738 172 255 36
-3.64137 4.95725 0.100257 174 4 33
-2.86396 -0.897353 1.59678 172 255 36
-3.02742 4.10981 1.1693 174 4 33
-2.9486 -0.958982 1.51382 172 255 36
-1.78897 3.91194 1.8043 174 4 33
-2.99442 -0.992336 1.37415 172 255 36
-2.34622 3.26237 -0.701035 174 4 33
-3.01199 -1.00511 1.12975 172 255 36
-3.00996 4.69574 0.34028 174 4 33
-2.53159 -0.553216 1.61444 172 255 36
-1.585 5.51698 0.561816 174 4 33
-2.70294 -0.629735 1.62746 172 255 36
-4.55157 3.0913 0.052633 174 4 33
-2.84241 -0.692015 1.6274 172 255 36
-0.642811 3.50398 0.930728 174 4 33
-2.95398 -0.74183 1.5968 172 255 36
-2.38083 4.28109 1.06925 174 4 33
-3.04959 -0.784511 1.51384 172 255 36
-3.90363 2.50965 -0.480779 174 4 33
-3.10135 -0.807602 1.37417 172 255 36
-2.89118 5.8244 0.477754 174 4 33
-3.1212 -0.816427 1.12978 172 255 36
-2.84256 4.04286 2.82285 174 4 33
-2.55733 -0.474302 1.61445 172 255 36
-3.41389 4.77723 -0.0783778 174 4 33
-2.74085 -0.513531 1.62748 172 255 36
-2.56873 3.2851 0.386523 174 4 33
-2.89021 -0.545458 1.62743 172 255 36
-4.40153 3.1035 1.28317 174 4 33
-3.0097 -0.570992 1.59684 172 255 36
-3.91257 3.02736 0.779946 174 4 33
-3.1121 -0.59286 1.51388 172 255 36
-2.7109 3.08971 0.615929 174 4 33
-3.16754 -0.604678 1.37421 172 255 36
-2.72783 5.72317 1.00223 174 4 33
-3.1888 -0.609166 1.12982 172 255 36
-3.21572 5.23172 -0.246026 174 4 33
-2.75347 -0.390998 0.636876 172 255 36
-3.49538 6.36666 1.88397 174 4 33
-2.7407 -0.269438 0.636916 172 255 36
-3.24669 4.59367 -0.944861 174 4 33
-2.55715 -0.308451 0.650051 172 255 36
-1.64267 3.28679 1.43827 174 4 33
-2.56582 -0.391002 0.650024 172 255 36
-2.3132 4.98707 0.449474 174 4 33
-2.90621 -0.390998 0.636831 172 255 36
-2.2121 5.13868 0.816408 174 4 33
-2.8901 -0.237687 0.636881 172 255 36
-3.1608 5.07245 -0.605213 174 4 33
-3.02841 -0.391007 0.667343 172 255 36
-1.48686 5.81272 0.420999 174 4 33
-3.00964 -0.212295 0.667401 172 255 36
-1.81099 5.86114 -0.717586 174 4 33
-3.13318 -0.391032 0.750229 172 255 36
-2.68367 3.67262 1.741 174 4 33
-3.11211 -0.190548 0.750295 172 255 36
-2.71364 5.65274 0.812553 174 4 33
-3.18995 -0.391073 0.889861 172 255 36
-1.10936 4.60845 2.94465 174 4 33
-3.16764 -0.178796 0.889931 172 255 36
-4.38736 5.58616 -0.431063 174 4 33
-2.70293 -0.153188 0.636962 172 255 36
-3.04169 6.93947 0.167764 174 4 33
-2.5315 -0.229504 0.650082 172 255 36
-1.79662 4.96538 -0.412182 174 4 33
-2.84247 -0.091074 0.636939 172 255 36
-2.70902 5.8574 -0.868488 174 4 33
-2.95412 -0.041391 0.667469 172 255 36
-3.50781 5.85878 -0.474717 174 4 33
-3.04983 0.001177 0.750369 172 255 36
-5.35624 6.67661 -0.650017 174 4 33
-3.1017 0.024207 0.89001 172 255 36
-3.50836 3.21152 0.0699751 174 4 33
-2.64183 -0.047328 0.637011 172 255 36
0.924721 6.60927 0.0908949 174 4 33
-2.49001 -0.157614 0.650115 172 255 36
-2.96623 5.96326 1.17757 174 4 33
-2.76541 0.042436 0.637001 172 255 36
-3.14565 4.20185 0.490539 174 4 33
-2.86428 0.114239 0.667541 172 255 36
-2.29773 4.27259 0.00223223 174 4 33
-2.94905 0.175767 0.750451 172 255 36
-1.87086 4.81168 1.18865 174 4 33
-2.99499 0.209067 0.890097 172 255 36
-3.34369 5.61835 1.08211 174 4 33
-2.56005 0.043518 0.637062 172 255 36
-2.53992 5.68847 1.04322 174 4 33
-2.43447 -0.095922 0.650151 172 255 36
-3.33815 4.70944 -0.160257 174 4 33
-2.66228 0.157011 0.637066 172 255 36
-3.66061 5.34789 -0.55182 174 4 33
-2.74406 0.247796 0.667616 172 255 36
-2.4786 7.51151 -0.3847 174 4 33
-2.81418 0.325595 0.750535 172 255 36
-2.87189 6.77939 1.54865 174 4 33
-2.85219 0.367708 0.890186 172 255 36
-1.43936 5.39731 -0.624012 174 4 33
-2.46118 0.11538 0.637113 172 255 36
-2.87882 5.05293 -0.437559 174 4 33
-2.36733 -0.047119 0.650184 172 255 36
-5.18508 6.31835 -0.551048 174 4 33
-2.53758 0.247643 0.637129 172 255 36
-2.34831 5.68874 1.0315 174 4 33
-2.5987 0.353444 0.667691 172 255 36
-2.54918 2.96152 0.70378 174 4 33
-2.65111 0.444114 0.750619 172 255 36
-4.03548 6.76111 -0.0635791 174 4 33
-2.67953 0.493199 0.890274 172 255 36
-3.34474 3.96458 -1.19748 174 4 33
-2.34953 0.16512 0.637161 172 255 36
-3.66207 3.52395 -0.680714 174 4 33
-2.2915 -0.01334 0.650217 172 255 36
-3.13678 7.04665 1.90184 174 4 33
-2.39676 0.310374 0.63719 172 255 36
-3.0229 5.48337 -0.615879 174 4 33
-2.43456 0.426569 0.667761 172 255 36
-3.05266 3.13331 0.306441 174 4 33
-2.46697 0.526147 0.750698 172 255 36
-3.02538 4.55129 -0.958674 174 4 33
-2.48456 0.580058 0.890358 172 255 36
-3.1007 5.1331 -1.03083 174 4 33
-2.22998 0.190563 0.637203 172 255 36
-2.91087 3.47752 0.189577 174 4 33
-2.21031 0.003939 0.650246 172 255 36
-3.14856 5.23399 -1.06393 174 4 33
-2.24599 0.342464 0.637243 172 255 36
-2.06647 3.78116 1.87366 174 4 33
-2.2588 0.463975 0.667824 172 255 36
-4.89155 4.47964 0.931032 174 4 33
-2.2698 0.56811 0.750768 172 255 36
-2.20293 6.81049 0.668943 174 4 33
-2.27579 0.624489 0.890433 172 255 36
-1.49115 2.94516 -0.745782 174 4 33
-2.10775 0.1906 0.637239 172 255 36
-1.35512 4.35263 0.564663 174 4 33
-2.12731 0.003964 0.650271 172 255 36
-2.39407 6.43655 0.734961 174 4 33
-2.09183 0.342509 0.637289 172 255 36
-3.40936 4.75483 1.18756 174 4 33
-2.0791 0.464028 0.667877 172 255 36
-1.73713 5.26948 -1.17643 174 4 33
-2.06821 0.56817 0.750828 172 255 36
-1.45199 6.38847 1.88462 174 4 33
-2.06234 0.624553 0.890496 172 255 36
-2.48548 5.11194 1.20773 174 4 33
-1.98818 0.165226 0.637268 172 255 36
-1.35792 6.25861 -0.989573 174 4 33
-2.04611 -0.013268 0.65029 172 255 36
-1.81737 5.32015 -0.382779 174 4 33
-1.94103 0.310509 0.637325 172 255 36
-2.43498 5.5706 1.2304 174 4 33
-1.90332 0.426726 0.667918 172 255 36
-1.16389 5.23104 1.50011 174 4 33
-1.87102 0.526324 0.750875 172 255 36
-1.70361 5.31264 1.96233 174 4 33
-1.85355 0.580245 0.890545 172 255 36
-3.85345 4.50965 0.696966 174 4 33
-1.8765 0.115553 0.637286 172 255 36
-3.97493 4.73323 -0.315916 174 4 33
-1.97027 -0.047 0.650302 172 255 36
-3.62275 4.45213 -0.895197 174 4 33
-1.80018 0.247861 0.637347 172 255 36
-2.56034 5.43606 -1.21953 174 4 33
-1.73914 0.353699 0.667946 172 255 36
-0.803507 5.40949 0.781713 174 4 33
-1.68683 0.4444 0.750905 172 255 36
-0.160859 6.665 -1.71641 174 4 33
-1.65852 0.493502 0.890577 172 255 36
-1.99247 3.4927 -0.871904 174 4 33
-1.77758 0.04375 0.637294 172 255 36
-2.4885 4.59034 0.423614 174 4 33
-1.90309 -0.095763 0.650308 172 255 36
-2.32567 5.12898 -0.285304 174 4 33
-1.67543 0.157303 0.637358 172 255 36
-0.844486 5.88951 1.30648 174 4 33
-1.59371 0.248136 0.667958 172 255 36
0.499356 6.17579 -1.26811 174 4 33
-1.52369 0.325977 0.750918 172 255 36
-1.70772 5.81718 -0.384992 174 4 33
-1.48579 0.368113 0.890591 172 255 36
-0.720345 3.17789 0.222751 174 4 33
-1.69576 -0.047048 0.637291 172 255 36
0.523442 4.7855 0.141663 174 4 33
-1.84752 -0.157424 0.650305 172 255 36
-4.36159 4.16853 0.0985462 174 4 33
-1.57223 0.04279 0.637355 172 255 36
-0.916973 4.92496 1.68156 174 4 33
-1.47341 0.114651 0.667954 172 255 36
-0.713638 4.15592 0.337602 174 4 33
-1.38873 0.17623 0.750913 172 255 36
-1.91545 4.44717 -0.983365 174 4 33
-1.34289 0.209557 0.890586 172 255 36
-0.437846 2.85468 -2.13388 174 4 33
-1.63459 -0.152871 0.637278 172 255 36
-2.75509 3.40748 0.0359419 174 4 33
-1.80598 -0.229289 0.650297 172 255 36
-0.766394 3.73459 -0.319565 174 4 33
-1.49508 -0.090674 0.637338 172 255 36
-0.798443 4.43195 2.77908 174 4 33
-1.38349 -0.040925 0.667934 172 255 36
-1.39 5.03358 2.06949 174 4 33
-1.28785 0.001699 0.750892 172 255 36
-1.82942 8.0629 -1.61431 174 4 33
-1.23608 0.02476 0.890563 172 255 36
-1.33402 2.56805 0.873643 174 4 33
-1.59676 -0.269099 0.637255 172 255 36
-0.862702 5.14172 -0.00789633 174 4 33
-1.78029 -0.308219 0.650281 172 255 36
-1.20981 4.17003 0.41199 174 4 33
-1.44737 -0.237259 0.637309 172 255 36
-0.830861 4.76378 1.07585 174 4 33
-1.32787 -0.211797 0.6679 172 255 36
-2.7327 4.63265 0.855639 174 4 33
-1.22546 -0.189989 0.750854 172 255 36
-2.11447 3.21699 2.91758 174 4 33
-1.17001 -0.178204 0.890523 172 255 36
-2.96911 5.62185 0.591056 174 4 33
-1.58391 -0.390652 0.637222 172 255 36
-1.55852 4.6665 0.955189 174 4 33
-1.77157 -0.390768 0.650259 172 255 36
-0.5516 3.835 0.75057 174 4 33
-1.43117 -0.390561 0.637268 172 255 36
-0.863982 4.34836 -0.103634 174 4 33
-1.30898 -0.390498 0.667852 172 255 36
-1.19447 4.50491 -1.02138 174 4 33
-1.20427 -0.39046 0.7508 172 255 36
0.060967 5.07286 0.884694 174 4 33
-1.14758 -0.390468 0.890466 172 255 36
-2.48154 5.71466 -0.326393 174 4 33
-1.59661 -0.512219 0.637183 172 255 36
-1.18044 5.64359 1.96973 174 4 33
-1.78019 -0.473324 0.650232 172 255 36
-2.48213 3.47288 0.343314 174 4 33
-1.44719 -0.543882 0.637218 172 255 36
-0.650865 4.58528 0.514352 174 4 33
-1.32766 -0.56922 0.667794 172 255 36
-3.1268 3.51294 -0.0962264 174 4 33
-1.22522 -0.590957 0.750735 172 255 36
-2.0259 3.72604 1.79139 174 4 33
-1.16976 -0.602758 0.890397 172 255 36
-2.23479 3.95052 -0.904732 174 4 33
-1.63431 -0.628491 0.637138 172 255 36
-2.54938 2.72358 -0.674673 174 4 33
-1.80579 -0.552285 0.650201 172 255 36
-0.967494 5.35182 -1.02858 174 4 33
-1.49473 -0.690523 0.63716 172 255 36
-2.60674 5.80531 0.00451656 174 4 33
-1.38307 -0.740158 0.667727 172 255 36
-3.54993 3.23697 2.44056 174 4 33
-1.28739 -0.782719 0.750659 172 255 36
-1.67076 5.47905 0.713103 174 4 33
-1.23559 -0.8058 0.890317 172 255 36
-2.94563 4.48875 -0.265045 174 4 33
-1.69535 -0.734388 0.637087 172 255 36
-2.31465 3.22948 1.53797 174 4 33
-1.84724 -0.6242 0.650168 172 255 36
-0.436295 3.70858 2.61634 174 4 33
-1.57171 -0.824079 0.637098 172 255 36
-1.1543 3.40772 0.362493 174 4 33
-1.47282 -0.895841 0.667655 172 255 36
-0.852404 4.16887 1.62725 174 4 33
-1.38806 -0.957369 0.750578 172 255 36
-2.28388 4.03971 0.828125 174 4 33
-1.34218 -0.990724 0.890231 172 255 36
-1.20161 4.91247 1.87372 174 4 33
-1.77707 -0.825282 0.637036 172 255 36
-0.661346 3.6545 0.584705 174 4 33
-1.90274 -0.685926 0.650133 172 255 36
-0.39517 3.40265 -0.967543 174 4 33
-1.67478 -0.938714 0.637034 172 255 36
-3.48078 3.24185 1.8956 174 4 33
-1.59296 -1.02947 0.667579 172 255 36
-1.55735 3.97853 -0.900916 174 4 33
-1.52284 -1.10728 0.750494 172 255 36
-3.3663 4.82741 0.866429 174 4 33
-1.48489 -1.14945 0.890141 172 255 36
-1.13981 4.67594 -0.186113 174 4 33
-1.8759 -0.897203 0.636986 172 255 36
-0.977914 4.72342 0.620928 174 4 33
-1.96986 -0.734767 0.650098 172 255 36
-3.45727 2.63423 -1.10876 174 4 33
-1.79942 -1.02942 0.63697 172 255 36
-2.37912 3.10924 -1.82669 174 4 33
-1.73825 -1.1352 0.667505 172 255 36
-2.09489 3.57157 0.713478 174 4 33
-1.68584 -1.22589 0.75041 172 255 36
-1.96335 4.32464 2.10996 174 4 33
-1.65747 -1.27504 0.890053 172 255 36
-2.9289 2.86309 -0.606034 174 4 33
-1.98752 -0.947008 0.636938 172 255 36
-1.86528 3.77062 -0.631904 174 4 33
-2.04566 -0.768591 0.650066 172 255 36
-1.97045 3.80112 1.6827 174 4 33
-1.9402 -1.09223 0.636909 172 255 36
-0.809485 5.48406 0.2214 174 4 33
-1.90235 -1.20843 0.667434 172 255 36
-3.2526 4.43583 1.92656 174 4 33
-1.86993 -1.30803 0.750331 172 255 36
-0.582703 4.02296 -0.0209305 174 4 33
-1.8524 -1.36202 0.889969 172 255 36
-2.66716 4.66608 -1.02509 174 4 33
-2.10706 -0.972523 0.636895 172 255 36
-1.03701 5.17247 -0.677378 174 4 33
-2.12684 -0.785918 0.650037 172 255 36
-0.682719 3.51544 -0.254085 174 4 33
-2.09096 -1.12441 0.636855 172 255 36
-3.48113 2.25258 -0.670507 174 4 33
-2.07809 -1.24593 0.667371 172 255 36
-0.248567 4.84299 1.23211 174 4 33
-2.06708 -1.35011 0.75026 172 255 36
-1.54263 4.54121 0.4486 174 4 33
-2.06114 -1.40657 0.889895 172 255 36
-3.49721 3.74881 1.60464 174 4 33
-2.22929 -0.972632 0.636859 172 255 36
-2.30501 5.16849 -1.00176 174 4 33
-2.20985 -0.785993 0.650012 172 255 36
-2.93594 5.06537 0.528055 174 4 33
-2.24512 -1.12455 0.63681 172 255 36
-2.89143 3.50621 0.0555626 174 4 33
-2.25779 -1.24609 0.667318 172 255 36
-3.95042 3.42668 -0.658272 174 4 33
-2.26866 -1.35029 0.750201 172 255 36
-4.66806 5.0443 -0.0495739 174 4 33
-2.27459 -1.40676 0.889831 172 255 36
-1.61927 3.7423 2.32938 174 4 33
-2.34887 -0.947329 0.636831 172 255 36
-1.88069 3.51843 -1.94035 174 4 33
-2.29105 -0.768809 0.649993 172 255 36
-2.89658 2.75435 -1.49139 174 4 33
-2.39593 -1.09264 0.636774 172 255 36
-3.12033 5.32387 -2.18457 174 4 33
-2.43359 -1.2089 0.667277 172 255 36
-2.1632 5.35062 1.86521 174 4 33
-2.46589 -1.30856 0.750154 172 255 36
-1.70806 3.57212 -0.748491 174 4 33
-2.48341 -1.36258 0.889782 172 255 36
-3.22092 1.48728 1.03193 174 4 33
-2.46058 -0.897722 0.636813 172 255 36
-2.86307 4.07744 1.00034 174 4 33
-2.36692 -0.735121 0.649981 172 255 36
-1.49941 4.82917 1.39903 174 4 33
-2.53682 -1.03008 0.636751 172 255 36
-1.22961 3.93583 -0.048199 174 4 33
-2.59782 -1.13597 0.667249 172 255 36
-4.13861 2.86966 -1.15015 174 4 33
-2.65013 -1.22675 0.750124 172 255 36
-3.29726 4.49383 0.831486 174 4 33
-2.67848 -1.27595 0.889751 172 255 36
-1.85586 3.23093 -0.324484 174 4 33
-2.55954 -0.825977 0.636804 172 255 36
-1.58115 4.80002 1.23186 174 4 33
-2.43412 -0.686399 0.649976 172 255 36
-2.67782 3.65617 2.05571 174 4 33
-2.66163 -0.939592 0.636741 172 255 36
-2.94488 4.1135 -1.09242 174 4 33
-2.7433 -1.03049 0.667238 172 255 36
-4.3727 4.39193 -1.30499 174 4 33
-2.81333 -1.10842 0.750111 172 255 36
-2.16757 3.73565 -0.762061 174 4 33
-2.85129 -1.15066 0.889736 172 255 36
-2.87156 3.16744 -0.98225 174 4 33
-2.64142 -0.735229 0.636807 172 255 36
-0.933316 3.87519 -1.16587 174 4 33
-2.48973 -0.624771 0.649977 172 255 36
-2.63864 4.8854 -0.10207 174 4 33
-2.7649 -0.82514 0.636745 172 255 36
-3.64065 5.04016 -1.22807 174 4 33
-2.86368 -0.897077 0.667242 172 255 36
-3.00524 5.20844 0.597973 174 4 33
-2.94838 -0.958756 0.750115 172 255 36
-2.17637 3.10639 -0.643108 174 4 33
-2.99428 -0.992192 0.889741 172 255 36
-1.63686 4.07329 2.42615 174 4 33
-2.70265 -0.629441 0.63682 172 255 36
-0.224978 1.53994 -0.885359 174 4 33
-2.53131 -0.55293 0.649986 172 255 36
-3.33144 3.74798 1.16711 174 4 33
-2.84212 -0.691721 0.636761 172 255 36
-3.37032 3.80718 0.499268 174 4 33
-2.9537 -0.741554 0.667261 172 255 36
-2.89095 4.66058 2.12299 174 4 33
-3.04936 -0.784285 0.750137 172 255 36
-2.76768 5.19619 0.666309 174 4 33
-3.10121 -0.807458 0.889764 172 255 36
-3.20095 4.25853 0.671715 174 4 33
-2.74055 -0.513237 0.636844 172 255 36
-2.16563 4.77806 1.01039 174 4 33
-2.55705 -0.474015 0.650002 172 255 36
-2.81469 3.41738 0.908989 174 4 33
-2.88992 -0.545164 0.636789 172 255 36
-2.12908 6.08718 0.419408 174 4 33
-3.00942 -0.570716 0.667295 172 255 36
-2.72588 3.9654 0.319011 174 4 33
-3.11187 -0.592634 0.750175 172 255 36
-2.27515 5.9714 -1.03689 174 4 33
-3.16739 -0.604534 0.889805 172 255 36
-1.7787 4.46612 -2.2338 174 4 33
-2.75377 -0.391292 -1.62751 172 255 36
-2.6341 6.12267 -1.49325 174 4 33
-2.74099 -0.269732 -1.62755 172 255 36
-2.31223 4.50501 -1.78467 174 4 33
-2.55743 -0.308735 -1.61451 172 255 36
-0.482026 3.51061 -3.50488 174 4 33
-2.56611 -0.391289 -1.61448 172 255 36
-2.15596 4.66652 -4.05657 174 4 33
-2.90651 -0.391292 -1.62747 172 255 36
-0.543055 2.8568 -3.3186 174 4 33
-2.8904 -0.237981 -1.62752 172 255 36
-1.61496 4.30071 -2.04301 174 4 33
-3.02869 -0.391283 -1.59688 172 255 36
-2.37901 2.76789 -2.72481 174 4 33
-3.00991 -0.212571 -1.59694 172 255 36
-3.93102 5.71155 -2.88226 174 4 33
-3.1334 -0.391258 -1.51394 172 255 36
-2.39048 5.53839 -1.13186 174 4 33
-3.11234 -0.190774 -1.514 172 255 36
-2.2808 3.71 -1.70522 174 4 33
-3.19009 -0.391217 -1.37427 172 255 36
-1.53804 5.86425 -3.86217 174 4 33
-3.16779 -0.17894 -1.37434 172 255 36
-2.94562 3.52954 -4.34445 174 4 33
-3.21184 -0.391144 -1.12988 172 255 36
-1.64283 5.65137 -0.963381 174 4 33
-3.18906 -0.174331 -1.12995 172 255 36
-1.47438 3.73917 -1.94511 174 4 33
-2.70323 -0.153482 -1.6276 172 255 36
-2.17513 4.73735 -3.32206 174 4 33
-2.53179 -0.22979 -1.61453 172 255 36
-2.1196 4.27297 -2.63837 174 4 33
-2.84277 -0.091368 -1.62758 172 255 36
-3.33705 5.22429 -1.43705 174 4 33
-2.95439 -0.041667 -1.59701 172 255 36
-2.25796 4.10317 -3.35029 174 4 33
-3.05005 0.000951 -1.51408 172 255 36
-3.46656 4.73608 -1.66695 174 4 33
-3.10184 0.024063 -1.37442 172 255 36
-2.38387 4.3502 -1.45131 174 4 33
-3.1217 0.033009 -1.13003 172 255 36
-1.11197 2.76747 -2.44485 174 4 33
-2.64212 -0.047622 -1.62765 172 255 36
-1.67588 4.56671 -0.277561 174 4 33
-2.49029 -0.1579 -1.61457 172 255 36
-2.26774 4.12397 -0.466607 174 4 33
-2.7657 0.042142 -1.62764 172 255 36
-2.62595 4.62919 -2.23817 174 4 33
-2.86456 0.113963 -1.59708 172 255 36
-2.78767 5.33548 -1.57225 174 4 33
-2.94928 0.175541 -1.51416 172 255 36
-3.21749 5.62612 -2.76998 174 4 33
-2.99514 0.208923 -1.37451 172 255 36
-3.7449 3.91518 -0.924929 174 4 33
-3.01272 0.22182 -1.13012 172 255 36
-0.231163 6.56329 -3.66382 174 4 33
-2.56035 0.043224 -1.6277 172 255 36
-3.43174 5.47115 -3.456 174 4 33
-2.43476 -0.096207 -1.6146 172 255 36
-3.45164 5.26341 -1.85979 174 4 33
-2.66257 0.156717 -1.6277 172 255 36
-1.64804 4.98038 -2.25065 174 4 33
-2.74434 0.24752 -1.59716 172 255 36
-1.40057 5.95404 -3.40333 174 4 33
-2.81441 0.325369 -1.51424 172 255 36
-2.69055 5.86377 -3.86628 174 4 33
-2.85233 0.367564 -1.3746 172 255 36
-2.24263 7.16028 -1.0891 174 4 33
-2.86687 0.383851 -1.13021 172 255 36
-2.5627 7.12411 -1.69484 174 4 33
-2.46147 0.115086 -1.62775 172 255 36
-2.37547 3.81487 -1.6459 174 4 33
-2.36761 -0.047404 -1.61464 172 255 36
-2.36345 5.02766 -3.37355 174 4 33
-2.53787 0.247349 -1.62777 172 255 36
-2.78566 4.61991 -3.18398 174 4 33
-2.59898 0.353168 -1.59723 172 255 36
-4.156 6.72655 -1.93064 174 4 33
-2.65134 0.443888 -1.51433 172 255 36
-1.64666 4.80648 -0.158612 174 4 33
-2.67968 0.493055 -1.37468 172 255 36
-2.40824 5.41312 -2.03626 174 4 33
-2.69052 0.512023 -1.1303 172 255 36
-2.41461 4.23962 -2.85978 174 4 33
-2.34982 0.164826 -1.6278 172 255 36
-2.17743 4.47083 -3.44069 174 4 33
-2.29179 -0.013627 -1.61467 172 255 36
-1.76778 7.48635 -2.68283 174 4 33
-2.39706 0.31008 -1.62783 172 255 36
-1.59121 4.41005 -2.15026 174 4 33
-2.43483 0.426293 -1.5973 172 255 36
-2.17386 3.9775 -0.775688 174 4 33
-2.4672 0.525921 -1.51441 172 255 36
-0.723754 6.34636 -3.78076 174 4 33
-2.4847 0.579914 -1.37477 172 255 36
-2.38831 7.08224 -1.91432 174 4 33
-2.49138 0.600737 -1.13038 172 255 36
-1.81106 4.10693 -1.85925 174 4 33
-2.23027 0.190269 -1.62784 172 255 36
-2.37244 6.17705 -1.84647 174 4 33
-2.2106 0.003652 -1.6147 172 255 36
-2.76722 4.20466 -2.81184 174 4 33
-2.24628 0.34217 -1.62788 172 255 36
0.207355 5.97043 -1.77589 174 4 33
-2.25907 0.463699 -1.59737 172 255 36
-1.77787 4.79575 -1.18201 174 4 33
-2.27003 0.567884 -1.51448 172 255 36
-0.839219 5.34814 -2.53143 174 4 33
-2.27593 0.624345 -1.37484 172 255 36
-1.94047 5.31982 -2.9843 174 4 33
-2.27815 0.646119 -1.13046 172 255 36
0.637193 6.70085 -1.69867 174 4 33
-2.10804 0.190306 -1.62788 172 255 36
-2.51116 4.22577 -2.21861 174 4 33
-2.12759 0.003677 -1.61472 172 255 36
-1.48764 4.14121 -2.61457 174 4 33
-2.09212 0.342215 -1.62793 172 255 36
-2.05061 5.99031 -2.48884 174 4 33
-2.07938 0.463752 -1.59742 172 255 36
-4.14885 4.84932 -1.55831 174 4 33
-2.06844 0.567944 -1.51453 172 255 36
1.18091 5.87946 -2.75307 174 4 33
-2.06249 0.624409 -1.3749 172 255 36
-2.80188 3.90563 -0.877158 174 4 33
-2.06014 0.646183 -1.13052 172 255 36
-2.06673 5.80509 -2.00039 174 4 33
-1.98847 0.164932 -1.62791 172 255 36
-1.77221 4.58081 -0.710115 174 4 33
-2.0464 -0.013553 -1.61474 172 255 36
-1.45518 7.49802 -1.75302 174 4 33
-1.94133 0.310215 -1.62796 172 255 36
-3.02329 7.29654 -1.88308 174 4 33
-1.9036 0.42645 -1.59746 172 255 36
-1.33098 5.0942 -0.524824 174 4 33
-1.87124 0.526098 -1.51458 172 255 36
-2.29315 6.3732 -2.37856 174 4 33
-1.85369 0.580101 -1.37495 172 255 36
0.0778842 3.7711 -0.981637 174 4 33
-1.84688 0.600928 -1.13057 172 255 36
-0.656744 5.49154 -0.579189 174 4 33
-1.87679 0.115259 -1.62792 172 255 36
-0.687938 4.85414 -3.13993 174 4 33
-1.97055 -0.047287 -1.61476 172 255 36
-1.45401 5.35798 -1.34185 174 4 33
-1.80047 0.247567 -1.62799 172 255 36
-1.08088 4.80817 -3.32416 174 4 33
-1.73941 0.353423 -1.59749 172 255 36
-0.193799 5.34301 -1.54988 174 4 33
-1.68705 0.444174 -1.51461 172 255 36
-0.705412 4.72308 -1.66562 174 4 33
-1.65866 0.493358 -1.37499 172 255 36
-0.243954 6.21315 0.194324 174 4 33
-1.64769 0.512332 -1.13061 172 255 36
-0.9743 4.82564 -2.01023 174 4 33
-1.77788 0.043456 -1.62793 172 255 36
-3.15752 5.01438 -1.18083 174 4 33
-1.90338 -0.09605 -1.61476 172 255 36
-0.098277 3.94717 -3.31874 174 4 33
-1.67572 0.157009 -1.628 172 255 36
-2.55055 5.30307 -2.73692 174 4 33
-1.59399 0.24786 -1.5975 172 255 36
-2.42197 5.12422 -2.20014 174 4 33
-1.52392 0.325751 -1.51463 172 255 36
0.107764 5.24482 -0.593442 174 4 33
-1.48593 0.367969 -1.375 172 255 36
-2.06038 5.89062 -2.17861 174 4 33
-1.47127 0.384264 -1.13062 172 255 36
-0.596652 5.70119 -2.15025 174 4 33
-1.69605 -0.047342 -1.62793 172 255 36
-2.93954 4.05334 -2.98536 174 4 33
-1.84781 -0.15771 -1.61476 172 255 36
-1.07794 4.08567 -3.36095 174 4 33
-1.57252 0.042496 -1.62799 172 255 36
-1.41505 4.15932 -1.95315 174 4 33
-1.47369 0.114375 -1.59749 172 255 36
-1.61483 5.13238 -0.752576 174 4 33
-1.38896 0.176004 -1.51462 172 255 36
-0.182389 3.88816 -1.9889 174 4 33
-1.34304 0.209413 -1.37499 172 255 36
-2.25789 4.81053 -0.990433 174 4 33
-1.32532 0.22232 -1.13062 172 255 36
-0.341223 3.97114 -1.906 174 4 33
-1.63488 -0.153165 -1.62792 172 255 36
-2.10678 4.28998 -1.63268 174 4 33
-1.80627 -0.229575 -1.61475 172 255 36
0.406827 4.87943 -2.75938 174 4 33
-1.49538 -0.090968 -1.62797 172 255 36
0.761416 4.4589 -2.57766 174 4 33
-1.38376 -0.041201 -1.59748 172 255 36
-0.677722 4.80221 -1.91485 174 4 33
-1.28808 0.001473 -1.5146 172 255 36
-0.88923 6.03163 -2.70118 174 4 33
-1.23622 0.024616 -1.37497 172 255 36
-0.251986 5.41223 -2.68379 174 4 33
-1.21622 0.033574 -1.13059 172 255 36
-1.99319 5.66088 -1.83852 174 4 33
-1.59705 -0.269393 -1.62789 172 255 36
-0.723855 4.63297 -2.88396 174 4 33
-1.78058 -0.308505 -1.61474 172 255 36
0.366644 4.00275 -2.73566 174 4 33
-1.44766 -0.237553 -1.62795 172 255 36
0.862962 5.43586 -1.26847 174 4 33
-1.32814 -0.212073 -1.59744 172 255 36
1.01365 4.56251 -2.91736 174 4 33
-1.22568 -0.190215 -1.51456 172 255 36
-0.504666 5.98508 -3.73122 174 4 33
-1.17016 -0.178348 -1.37493 172 255 36
-0.496336 4.6631 -0.820075 174 4 33
-1.14874 -0.173727 -1.13055 172 255 36
-1.16722 4.53183 -0.79438 174 4 33
-1.5842 -0.390946 -1.62786 172 255 36
-0.710081 4.30962 -3.19062 174 4 33
-1.77185 -0.391053 -1.61471 172 255 36
-1.22837 6.17959 -1.01149 174 4 33
-1.43146 -0.390855 -1.62791 172 255 36
-2.36218 4.80305 -3.59634 174 4 33
-1.30926 -0.390774 -1.59739 172 255 36
-1.42732 5.67408 -2.32923 174 4 33
-1.2045 -0.390686 -1.51451 172 255 36
0.0105197 5.86852 -1.83438 174 4 33
-1.14772 -0.390612 -1.37487 172 255 36
0.43689 2.25689 -2.22267 174 4 33
-1.12583 -0.390526 -1.13049 172 255 36
-0.907791 3.05472 -2.51807 174 4 33
-1.5969 -0.512513 -1.62782 172 255 36
-2.25707 3.28206 -1.7552 174 4 33
-1.78048 -0.473611 -1.61469 172 255 36
-0.235985 3.6943 -2.39118 174 4 33
-1.44748 -0.544176 -1.62786 172 255 36
-2.62686 3.09824 -0.278117 174 4 33
-1.32793 -0.569496 -1.59733 172 255 36
0.647245 4.13434 -3.57909 174 4 33
-1.22545 -0.591183 -1.51444 172 255 36
-1.05718 3.44323 0.661918 174 4 33
-1.1699 -0.602902 -1.3748 172 255 36
-1.32061 4.34918 0.634444 174 4 33
-1.14848 -0.607352 -1.13042 172 255 36
-1.91188 5.66405 -2.74018 174 4 33
