ply
format ascii 1.0
element vertex 1301
property float x
property float y
property float z
property uchar red
property uchar green
property uchar blue
end_header
-3.03433 0.363785 0.526925 174 4 33
-0.760087 -0.199423 0.653118 172 255 36
-1.87334 -0.565747 -0.64193 174 4 33
-0.798247 -0.20297 0.653097 172 255 36
-1.8768 -0.261127 -3.13751 174 4 33
-2.80005 0.816248 -1.44074 172 255 36
-2.4754 1.28018 -3.98735 174 4 33
-2.80005 0.798058 -1.44074 172 255 36
-2.90943 -0.842443 0.0551738 174 4 33
-2.94098 0.798076 -0.817159 172 255 36
-3.26212 2.39277 0.167542 174 4 33
-2.94098 0.816266 -0.817158 172 255 36
-3.05232 -1.31364 -0.5098 174 4 33
-2.74404 0.819433 -1.51936 172 255 36
-2.71704 0.917989 -0.46363 174 4 33
-2.74404 0.802056 -1.51936 172 255 36
-1.63064 -0.658292 0.484029 174 4 33
-2.66413 0.833634 -1.63182 172 255 36
-3.52108 -1.82578 -0.270721 174 4 33
-2.66413 0.816258 -1.63182 172 255 36
-3.76549 -0.699813 -2.67014 174 4 33
-2.50785 0.861432 -1.68798 172 255 36
-2.33904 1.91961 -2.50651 174 4 33
-2.51252 0.84058 -1.68798 172 255 36
-4.49833 -0.24648 -1.58177 174 4 33
-2.04408 0.922798 -1.68749 172 255 36
-4.19167 1.14308 -2.10488 174 4 33
-2.00034 0.947216 -1.68747 172 255 36
-3.42223 1.66191 -2.27503 174 4 33
-1.58133 0.94055 -1.68713 172 255 36
-1.96722 1.72907 -1.96796 174 4 33
-1.58133 0.915735 -1.68713 172 255 36
-5.94169 0.821917 -0.697575 174 4 33
-2.74928 0.848106 -0.723109 172 255 36
-2.93244 1.23447 -0.134849 174 4 33
-2.74928 0.829916 -0.723109 172 255 36
-1.9067 0.624976 0.291088 174 4 33
-2.6062 0.829901 -1.22872 172 255 36
-4.36142 0.441518 -0.932972 174 4 33
-2.57902 0.833901 -1.28948 172 255 36
-2.04927 -0.625982 -0.623532 174 4 33
-2.54025 0.848102 -1.3764 172 255 36
-2.22676 1.56175 -1.22477 174 4 33
-2.46671 0.872426 -1.41982 172 255 36
-2.1436 0.0428557 -1.74681 174 4 33
-2.36306 0.877712 -1.6879 172 255 36
-0.717945 0.875801 -1.14364 174 4 33
-2.37972 0.921083 -1.41973 172 255 36
-0.910814 0.305008 -2.31161 174 4 33
-2.29324 0.909537 -1.68765 172 255 36
-4.40213 0.345971 -1.23083 174 4 33
-2.30337 0.962786 -1.41949 172 255 36
-2.36717 1.28332 -2.69316 174 4 33
-2.05154 0.980163 -1.41932 172 255 36
-1.82528 1.2064 -1.93202 174 4 33
-1.46288 0.914843 -1.61751 172 255 36
-3.16812 0.731469 -1.82347 174 4 33
-1.46288 0.939649 -1.6175 172 255 36
-3.25461 0.472019 -1.98297 174 4 33
-2.28253 0.937124 -1.68765 172 255 36
-2.51836 0.131492 -1.35721 174 4 33
-2.35627 0.901802 -1.68789 172 255 36
-3.68911 -0.41384 1.35968 174 4 33
-2.5099 0.861531 1.68526 172 255 36
-2.26403 1.2849 -0.172589 174 4 33
-2.51456 0.84068 1.68526 172 255 36
-2.39974 1.30322 3.38126 174 4 33
-2.3651 0.877811 1.68534 172 255 36
-2.78619 0.231737 2.6187 174 4 33
-2.35832 0.901901 1.68535 172 255 36
-2.43135 2.16305 1.75989 174 4 33
-2.2954 0.909637 1.68559 172 255 36
-3.20725 2.4913 1.56176 174 4 33
-2.28468 0.937223 1.68559 172 255 36
-1.78486 1.07942 2.49742 174 4 33
-2.04628 0.922897 1.68575 172 255 36
-3.35936 0.344491 3.42499 174 4 33
-2.00254 0.947316 1.68577 172 255 36
-4.39182 1.35125 1.82633 174 4 33
-2.94197 0.798124 0.814095 172 255 36
-6.52087 0.237819 -0.0953401 174 4 33
-2.94197 0.816314 0.814096 172 255 36
-3.82234 1.62842 0.121769 174 4 33
-2.75016 0.848149 0.720271 172 255 36
-4.13476 -0.311426 -1.37646 174 4 33
-2.75016 0.829959 0.720271 172 255 36
-1.36907 2.75505 1.697 174 4 33
-1.58353 0.940648 1.68611 172 255 36
-2.47472 1.29373 2.00819 174 4 33
-1.58353 0.915833 1.6861 172 255 36
-2.78692 1.02323 1.75065 174 4 33
-1.46499 0.914938 1.6166 172 255 36
1.21338 0.494563 3.03756 174 4 33
-1.46499 0.939744 1.6166 172 255 36
-1.75856 0.898229 -0.0150805 174 4 33
-2.8018 0.816332 1.43768 172 255 36
-2.90615 -0.644959 0.633005 174 4 33
-2.74588 0.819523 1.51636 172 255 36
-3.24151 -0.643735 0.911562 174 4 33
-2.66611 0.833729 1.62892 172 255 36
-2.63009 0.947221 1.89542 174 4 33
-2.05339 0.980246 1.41773 172 255 36
-1.22279 1.33887 1.96611 174 4 33
-2.30518 0.962869 1.41756 172 255 36
-2.9929 1.1226 0.713944 174 4 33
-2.38144 0.921166 1.41732 172 255 36
-0.967794 -0.399325 -0.225669 174 4 33
-2.46843 0.872509 1.41724 172 255 36
-2.78737 0.779466 1.09696 174 4 33
-2.66611 0.816353 1.62892 172 255 36
-3.01865 0.698333 0.81941 174 4 33
-2.54192 0.848183 1.37373 172 255 36
-0.514284 1.53953 0.148867 174 4 33
-2.74588 0.802146 1.51636 172 255 36
-2.18459 2.87753 0.327188 174 4 33
-2.58058 0.833977 1.28677 172 255 36
-2.67389 2.02553 0.626922 174 4 33
-2.8018 0.798142 1.43768 172 255 36
-4.54363 0.664947 -0.188681 174 4 33
-2.60769 0.829974 1.22598 172 255 36
-1.14803 -0.337725 -0.114564 174 4 33
-0.675467 -0.108795 -0.300649 172 255 36
-0.404445 -1.07155 -1.77862 174 4 33
-0.675663 -0.108786 0.000149 172 255 36
-1.03689 -0.64065 -0.195611 174 4 33
-0.766146 -0.558501 8.8e-05 172 255 36
-1.28927 -1.42872 0.752753 174 4 33
-0.765949 -0.55851 -0.300709 172 255 36
-1.56164 -0.996305 -1.81973 174 4 33
-0.759372 -0.519958 -0.338879 172 255 36
0.337511 0.847079 1.22568 174 4 33
-0.730975 -0.352872 -0.33886 172 255 36
-2.11095 0.684702 0.794739 174 4 33
-0.68413 -0.146979 -0.338829 172 255 36
-2.16209 -0.225349 -1.08563 174 4 33
-1.24714 -0.503969 -0.339142 172 255 36
-0.814814 -2.39307 -0.625628 174 4 33
-1.24758 -0.50395 0.338802 172 255 36
-2.13875 -0.190425 -0.256698 174 4 33
-1.27811 -0.511046 0.338786 172 255 36
-2.11498 -1.81543 -0.267917 174 4 33
-1.27767 -0.511066 -0.339158 172 255 36
-1.17031 -1.14973 1.04557 174 4 33
-1.61976 -0.062471 -0.000641 172 255 36
-3.03692 0.151011 0.253705 174 4 33
-1.61954 -0.062481 -0.339613 172 255 36
-0.857048 -0.664278 -0.904033 174 4 33
-1.56802 -0.30909 -0.339592 172 255 36
-1.08978 -2.55449 -0.171938 174 4 33
-1.51373 -0.511066 -0.339567 172 255 36
-1.17136 -0.121683 -1.18267 174 4 33
-1.51395 -0.511056 -0.000595 172 255 36
-1.37057 -2.15926 -0.471699 174 4 33
-1.12191 -0.04132 0.338882 172 255 36
0.833132 -0.00306804 0.0998894 174 4 33
-1.08004 -0.038462 0.300731 172 255 36
0.21284 -1.16104 -0.173914 174 4 33
-1.07965 -0.03848 -0.300865 172 255 36
-1.71694 -1.61536 -1.75241 174 4 33
-1.12147 -0.041341 -0.339061 172 255 36
-0.921735 -0.201242 -0.689488 174 4 33
-1.08831 -0.076663 -0.339045 172 255 36
-0.521952 -0.412955 -0.826783 174 4 33
-1.13516 -0.282556 -0.339076 172 255 36
-2.79259 -0.450407 -1.08721 174 4 33
-1.16355 -0.449642 -0.339095 172 255 36
-2.49911 -1.76339 -0.135256 174 4 33
-1.19578 -0.493453 -0.339114 172 255 36
-0.829914 -0.297567 -0.741808 174 4 33
-1.17013 -0.488194 -0.300926 172 255 36
-1.49534 -0.783602 1.95297 174 4 33
-1.17052 -0.488176 0.300669 172 255 36
-2.3876 -0.979741 2.20791 174 4 33
-1.19622 -0.493432 0.33883 172 255 36
-2.49249 0.493625 1.4014 174 4 33
-0.766341 -0.558492 0.300885 172 255 36
0.403737 -1.08554 0.640951 174 4 33
-0.675859 -0.108777 0.300947 172 255 36
-4.09704 -0.985692 1.39227 174 4 33
-1.51417 -0.511046 0.338377 172 255 36
-2.24586 -1.15575 1.19135 174 4 33
-1.61998 -0.062461 0.338331 172 255 36
-0.977605 0.632834 0.101408 174 4 33
-2.07744 1.02507 0.44844 172 255 36
-2.68029 0.24337 -1.09204 174 4 33
-2.07685 1.02504 -0.449996 172 255 36
-1.76481 -0.848666 0.766965 174 4 33
-1.56846 -0.30907 0.338352 172 255 36
-0.513612 -2.23536 -0.138832 174 4 33
-0.759814 -0.519937 0.339064 172 255 36
-1.59509 -1.54194 -0.344462 174 4 33
-1.164 -0.449621 0.338848 172 255 36
-2.3088 -0.619999 -0.104032 174 4 33
-1.08875 -0.076642 0.338898 172 255 36
-0.122759 -0.544048 -0.172363 174 4 33
-0.684571 -0.146958 0.339114 172 255 36
-0.603788 -0.645342 -0.328352 174 4 33
-0.731417 -0.352851 0.339083 172 255 36
-2.8391 -0.517485 0.159962 174 4 33
-1.1356 -0.282535 0.338867 172 255 36
-1.24142 -0.178069 0.165806 174 4 33
-2.93826 0.728072 -0.654719 172 255 36
-4.12997 0.162697 -0.568648 174 4 33
-3.06592 0.808181 -0.6547 172 255 36
-2.09933 2.00556 -0.340566 174 4 33
-2.90517 0.808184 -0.559112 172 255 36
-5.1935 0.869083 0.33378 174 4 33
-2.93832 0.728075 -0.559132 172 255 36
-3.29864 -0.0831624 -1.49583 174 4 33
-2.95053 0.824436 -0.654723 172 255 36
-3.59374 1.47618 -1.81204 174 4 33
-2.95059 0.824439 -0.559136 172 255 36
-3.91455 -0.779113 -1.04655 174 4 33
-3.02782 0.777418 -0.559179 172 255 36
-5.05744 1.43442 0.0586573 174 4 33
-3.02776 0.777414 -0.654766 172 255 36
-2.22127 0.445805 -0.188765 174 4 33
-2.99601 0.888938 -0.559159 172 255 36
-2.98832 1.41054 -1.28564 174 4 33
-3.08812 0.883333 -0.559208 172 255 36
-5.97537 -0.182426 -1.35982 174 4 33
-3.08806 0.88333 -0.654796 172 255 36
-0.750485 1.96663 -0.557907 174 4 33
-2.99595 0.888935 -0.654746 172 255 36
-3.08292 1.36071 0.163686 174 4 33
-3.08813 0.951065 -0.559207 172 255 36
-3.67274 0.25751 -0.440845 174 4 33
-3.09106 0.993528 -0.645249 172 255 36
-4.25502 1.9246 -0.530696 174 4 33
-2.99895 0.999134 -0.645199 172 255 36
-3.35872 1.13922 -0.605419 174 4 33
-2.99601 0.95667 -0.559157 172 255 36
-2.90147 2.56476 -1.70371 174 4 33
-3.09684 1.07527 -0.594194 172 255 36
-2.37229 1.84584 1.15778 174 4 33
-3.00473 1.08088 -0.594144 172 255 36
-2.93295 1.72191 0.0892699 174 4 33
-2.99924 1.00237 -0.537474 172 255 36
-2.82394 1.12639 1.63419 174 4 33
-3.09135 0.996763 -0.537524 172 255 36
-3.8772 1.42513 -0.958675 174 4 33
-3.00934 1.14517 -0.459077 172 255 36
-2.36984 0.463642 -0.085704 174 4 33
-3.00256 1.04909 -0.475253 172 255 36
-4.05866 1.84682 0.446318 174 4 33
-3.09468 1.04348 -0.475303 172 255 36
-3.92181 2.01815 0.789744 174 4 33
-3.10145 1.13957 -0.459126 172 255 36
-2.03798 1.72394 1.63724 174 4 33
-3.00287 1.0491 -0.001411 172 255 36
-3.18137 1.55487 -0.656081 174 4 33
-3.09499 1.0435 -0.001462 172 255 36
-3.91103 -1.70708 -0.917795 174 4 33
-3.10175 1.13958 -0.001448 172 255 36
-2.88285 -0.302624 -1.38879 174 4 33
-3.00963 1.14518 -0.001399 172 255 36
-4.1204 2.11419 0.190881 174 4 33
-3.00993 1.1452 0.456021 172 255 36
-2.78008 1.56214 0.153618 174 4 33
-3.00318 1.04912 0.4722 172 255 36
-4.64713 0.963764 -0.00296156 174 4 33
-3.10205 1.13959 0.455972 172 255 36
-3.45014 0.533972 1.32278 174 4 33
-3.09529 1.04351 0.47215 172 255 36
-3.11551 0.675623 0.857279 174 4 33
-3.09761 1.0753 0.591041 172 255 36
-5.10395 0.193279 1.4992 174 4 33
-3.0055 1.08091 0.59109 172 255 36
-2.42834 0.758524 -0.3136 174 4 33
-3.09205 0.996795 0.534371 172 255 36
-2.6227 2.67493 -0.0259355 174 4 33
-2.99994 1.0024 0.534421 172 255 36
-4.77559 -0.163359 1.53444 174 4 33
-3.08885 0.951097 0.556056 172 255 36
-3.47088 0.21064 1.71607 174 4 33
-3.0919 0.993567 0.642097 172 255 36
-0.98192 0.15447 -0.460025 174 4 33
-2.99674 0.956702 0.556105 172 255 36
-2.44232 1.7647 -1.2251 174 4 33
-2.99978 0.999172 0.642147 172 255 36
-3.43123 0.798391 1.71266 174 4 33
-2.99674 0.88897 0.556103 172 255 36
-3.2458 -0.193999 1.22715 174 4 33
-3.08885 0.883365 0.556054 172 255 36
-3.15011 2.39005 0.981941 174 4 33
-2.9968 0.888974 0.651691 172 255 36
-3.186 1.38886 0.656261 174 4 33
-3.08891 0.883368 0.651641 172 255 36
-3.52002 0.765944 1.79951 174 4 33
-2.95138 0.824474 0.651713 172 255 36
-3.41841 -0.433651 1.04404 174 4 33
-2.95132 0.824471 0.556126 172 255 36
-2.08158 0.424708 1.32722 174 4 33
-3.02861 0.777453 0.651671 172 255 36
-4.05751 1.75478 1.25948 174 4 33
-3.02855 0.77745 0.556083 172 255 36
-3.43134 2.11492 -1.26384 174 4 33
-2.93911 0.728111 0.651718 172 255 36
-4.19387 0.935888 0.838043 174 4 33
-2.90596 0.80822 0.651738 172 255 36
-2.70328 2.07344 -0.502713 174 4 33
-2.93905 0.728108 0.556131 172 255 36
-3.48007 1.22447 0.444952 174 4 33
-2.90589 0.808217 0.55615 172 255 36
-0.924636 1.68391 0.623433 174 4 33
0.513765 1.26415 0.355398 172 255 36
1.69635 0.203698 -0.352533 174 4 33
0.52567 1.2754 0.355635 172 255 36
0.540009 0.0356258 1.89076 174 4 33
0.587247 1.4423 0.379483 172 255 36
-0.933174 0.162056 -0.279792 174 4 33
0.269732 1.3958 0.41348 172 255 36
0.86377 0.902789 0.0267883 174 4 33
0.285117 1.2143 0.387366 172 255 36
1.0617 -0.514757 0.93463 174 4 33
0.530369 1.23803 0.229764 172 255 36
0.814189 2.31132 -0.911202 174 4 33
0.295528 1.1873 0.243076 172 255 36
-0.036276 1.77615 -0.093422 174 4 33
0.278813 1.38447 0.242819 172 255 36
1.06531 0.266241 -0.411427 174 4 33
0.614309 1.43427 0.248584 172 255 36
0.529916 0.0814975 -0.0300312 174 4 33
0.55144 1.25781 0.229738 172 255 36
0.83555 2.23428 -1.41185 174 4 33
0.125661 1.74697 -0.063773 172 255 36
0.12307 1.87754 -2.12922 174 4 33
0.126174 1.74672 -0.000471 172 255 36
-1.64547 0.991177 0.560732 174 4 33
0.126209 1.7463 0.062845 172 255 36
-1.11301 1.4231 0.28751 174 4 33
0.269316 1.7766 0.064735 172 255 36
-0.914329 1.03498 -0.0905483 174 4 33
0.269039 1.77732 -0.067029 172 255 36
1.62289 0.440953 2.22557 174 4 33
0.492492 1.14689 0.246398 172 255 36
0.046857 -0.345758 0.561369 174 4 33
0.492469 1.1472 0.28706 172 255 36
1.00151 -0.544021 0.416808 174 4 33
0.257504 1.09796 0.3128 172 255 36
0.0573256 0.446243 1.65025 174 4 33
0.257558 1.09727 0.260659 172 255 36
1.17082 0.674024 -0.96695 174 4 33
0.683825 1.29606 0.244281 172 255 36
1.58743 1.85712 1.39535 174 4 33
0.746847 1.47071 0.249007 172 255 36
1.22361 1.66461 0.610956 174 4 33
0.746789 1.47143 0.288746 172 255 36
1.0587 -2.09416 0.306708 174 4 33
0.683804 1.29637 0.283047 172 255 36
-0.392708 0.0409454 -1.38255 174 4 33
-0.612671 1.10622 0.159966 172 255 36
0.131254 0.645725 1.82023 174 4 33
-0.617564 1.16395 0.164836 172 255 36
-0.776977 0.802385 -0.745799 174 4 33
-0.619052 1.18149 0.163806 172 255 36
-0.98845 0.428402 0.113236 174 4 33
-0.620429 1.19765 0.098701 172 255 36
-1.48509 0.133836 -0.319184 174 4 33
-0.620976 1.20393 0.05741 172 255 36
-3.10045 0.296411 0.86535 174 4 33
-0.619809 1.19014 0.057295 172 255 36
-0.266953 1.41683 0.637265 174 4 33
-0.61758 1.16383 0.057074 172 255 36
-3.43139 0.194006 -1.16522 174 4 33
-0.617564 1.16391 0.139258 172 255 36
-1.10806 1.05038 1.31581 174 4 33
-0.612671 1.10619 0.134593 172 255 36
1.61743 0.312799 0.668495 174 4 33
0.556809 1.63871 0.397941 172 255 36
-0.529911 -0.72784 1.42016 174 4 33
0.240719 1.60001 0.429933 172 255 36
0.368744 3.10764 0.822915 174 4 33
0.247186 1.52373 0.430035 172 255 36
-0.0970781 0.570285 0.206494 174 4 33
0.564525 1.5723 0.39467 172 255 36
2.44527 -0.560902 1.32194 174 4 33
0.755837 1.65745 0.104677 172 255 36
-0.00124265 0.793928 0.152655 174 4 33
0.759532 1.65181 0.261232 172 255 36
1.55956 0.843786 -2.60342 174 4 33
0.761692 1.58864 0.266272 172 255 36
0.902554 1.29659 3.05348 174 4 33
0.761733 1.58811 0.226532 172 255 36
-0.888002 1.19662 -0.269735 174 4 33
0.684833 1.75979 0.050567 172 255 36
0.658547 1.8459 0.562266 174 4 33
0.684835 1.75985 0.105937 172 255 36
-0.68453 2.49585 0.838125 174 4 33
0.733907 1.70894 0.203847 172 255 36
-0.314575 2.62601 -1.20606 174 4 33
0.73002 1.71684 0.04729 172 255 36
-0.211135 0.983016 0.402105 174 4 33
0.464816 1.7672 0.181125 172 255 36
0.553321 1.66845 1.32538 174 4 33
0.356643 1.75859 0.179694 172 255 36
1.54471 0.40019 0.968288 174 4 33
0.213183 1.73247 0.177801 172 255 36
0.165933 1.32928 -0.372094 174 4 33
0.218307 1.67221 0.345659 172 255 36
0.129485 3.08959 1.14928 174 4 33
0.53453 1.70935 0.320559 172 255 36
1.30004 -0.0845024 -0.19899 174 4 33
0.595255 1.53878 0.182525 172 255 36
-0.0355473 2.5665 1.08978 174 4 33
0.260091 1.48506 0.164429 172 255 36
-0.603453 2.83776 2.37807 174 4 33
0.260106 1.48488 0.055603 172 255 36
2.46005 1.74296 -0.721301 174 4 33
0.595833 1.53168 0.053507 172 255 36
0.892252 3.47795 0.522381 174 4 33
0.762204 1.57299 0.156924 172 255 36
-0.528256 2.15127 1.37854 174 4 33
0.762418 1.5702 0.034373 172 255 36
0.547376 0.660934 -1.12872 174 4 33
0.755955 1.6465 0.035062 172 255 36
-0.874747 0.266521 -0.209909 174 4 33
-0.017549 1.06714 0.306377 172 255 36
-0.366865 0.917727 -1.10814 174 4 33
-0.017549 1.06709 0.263003 172 255 36
-0.860118 0.466174 -0.238585 174 4 33
0.077331 1.07422 0.265922 172 255 36
-0.739631 0.813176 0.206852 174 4 33
0.07733 1.07427 0.309778 172 255 36
0.602787 1.21885 0.284725 174 4 33
-0.025146 1.15669 0.241198 172 255 36
1.19424 0.647945 1.02788 174 4 33
-0.040034 1.33228 0.240969 172 255 36
0.0588233 1.55029 1.09908 174 4 33
0.05299 1.3613 0.243617 172 255 36
0.229242 1.69533 -0.822399 174 4 33
0.069451 1.16714 0.243872 172 255 36
-1.60553 0.417729 2.15338 174 4 33
-0.046744 1.41142 0.162024 172 255 36
0.494132 0.321607 1.3252 174 4 33
-0.04672 1.41117 0.052673 172 255 36
-0.6664 0.0317392 -0.477153 174 4 33
0.04605 1.44314 0.052792 172 255 36
0.109556 1.25984 0.931039 174 4 33
0.046031 1.44337 0.163795 172 255 36
0.225373 1.45554 1.78421 174 4 33
-0.068921 1.67291 0.03234 172 255 36
-1.01716 1.49125 0.373179 174 4 33
-0.068828 1.6718 0.096254 172 255 36
-0.977747 0.433924 -1.64635 174 4 33
0.022937 1.71566 0.096903 172 255 36
0.542639 1.69736 -0.513052 174 4 33
0.02287 1.71645 0.03232 172 255 36
-0.572837 2.39173 0.463893 174 4 33
-0.066384 1.64304 0.190778 172 255 36
0.479293 -0.120987 0.86172 174 4 33
-0.061665 1.58756 0.35073 172 255 36
-1.14916 1.43068 0.416317 174 4 33
0.030519 1.62647 0.354585 172 255 36
-1.1732 2.15155 -0.811785 174 4 33
0.02541 1.68655 0.192475 172 255 36
-0.0355263 0.46475 -0.336333 174 4 33
-0.056216 1.52337 0.420254 172 255 36
-1.46979 2.32875 0.545758 174 4 33
-0.050452 1.45537 0.420343 172 255 36
-1.28793 2.42871 0.70659 174 4 33
0.042381 1.48663 0.42498 172 255 36
-0.104815 0.904517 -0.165036 174 4 33
0.036068 1.5611 0.424882 172 255 36
1.74177 0.573403 0.629035 174 4 33
-0.041304 1.34746 0.407739 172 255 36
-0.449212 0.520429 1.23061 174 4 33
-0.027286 1.18208 0.382786 172 255 36
-0.138816 0.464262 -0.992361 174 4 33
0.067246 1.19331 0.386382 172 255 36
-0.755537 2.71134 -1.32212 174 4 33
0.051787 1.37567 0.412239 172 255 36
-1.02971 2.01748 0.239655 174 4 33
-0.352472 1.46649 0.17729 172 255 36
-0.910498 1.85537 1.3166 174 4 33
-0.349229 1.42837 0.291461 172 255 36
-0.369904 1.49696 0.583696 174 4 33
-0.188643 1.52619 0.33585 172 255 36
-0.799496 2.24979 -1.7723 174 4 33
-0.193187 1.57963 0.203151 172 255 36
0.54221 2.1949 -0.790115 174 4 33
-0.345109 1.37984 0.348832 172 255 36
-0.57953 1.28316 -1.99076 174 4 33
-0.341208 1.33383 0.348889 172 255 36
-0.275189 -0.25434 0.803409 174 4 33
-0.178675 1.40869 0.402027 172 255 36
-1.2171 0.964094 0.102583 174 4 33
-0.184165 1.47344 0.401944 172 255 36
-0.574821 1.44246 -0.103994 174 4 33
-0.333577 1.24382 0.340253 172 255 36
-0.646327 0.0694901 -0.677789 174 4 33
-0.324269 1.13401 0.326296 172 255 36
-1.89783 -0.0198636 0.149949 174 4 33
-0.157072 1.15384 0.368207 172 255 36
0.286568 1.86318 -0.1633 174 4 33
-0.170387 1.31093 0.392075 172 255 36
-0.936695 0.516671 -0.447628 174 4 33
-0.316724 1.04494 0.259524 172 255 36
-0.591206 -0.0826834 1.46779 174 4 33
-0.316724 1.04489 0.220405 172 255 36
0.50838 0.620122 -0.719437 174 4 33
-0.148905 1.05739 0.252954 172 255 36
-0.494422 -1.73672 0.678525 174 4 33
-0.148905 1.05743 0.294439 172 255 36
1.28915 0.860443 2.6945 174 4 33
-0.322407 1.11191 0.202102 172 255 36
0.47156 1.14817 1.34755 174 4 33
-0.332475 1.23066 0.204202 172 255 36
1.07667 -0.339472 -0.150277 174 4 33
-0.169094 1.29548 0.231655 172 255 36
0.517414 -0.486467 -0.804531 174 4 33
-0.155058 1.12993 0.231869 172 255 36
0.120803 1.55265 -2.78179 174 4 33
-0.338299 1.29937 0.153611 172 255 36
0.0763831 1.07673 -0.428852 174 4 33
-0.338279 1.29915 0.05013 172 255 36
1.67812 1.43432 0.579826 174 4 33
-0.175417 1.3701 0.057248 172 255 36
-0.913288 2.20534 -0.537666 174 4 33
-0.17544 1.37036 0.173372 172 255 36
-0.907526 2.15952 0.508179 174 4 33
-0.35448 1.49011 0.030618 172 255 36
-1.46769 1.18187 0.833371 174 4 33
-0.354335 1.48841 0.090303 172 255 36
0.767499 0.214584 0.45862 174 4 33
-0.195209 1.60342 0.102938 172 255 36
-0.238351 -0.634777 -0.300388 174 4 33
-0.195328 1.60482 0.035066 172 255 36
-1.05812 1.0663 1.14394 174 4 33
-0.558058 1.31576 0.022989 172 255 36
-0.394478 1.111 0.13251 174 4 33
-0.557954 1.31464 0.068854 172 255 36
-0.411825 1.16339 0.872241 174 4 33
-0.475284 1.39253 0.076818 172 255 36
0.314526 1.26267 -1.2259 174 4 33
-0.475414 1.39406 0.026317 172 255 36
-1.63484 1.54787 0.472942 174 4 33
-0.556517 1.30084 0.133864 172 255 36
-2.19744 0.463987 -0.0591009 174 4 33
-0.553594 1.27878 0.218113 172 255 36
0.542284 0.819007 -0.146512 174 4 33
-0.470789 1.34279 0.247025 172 255 36
0.790534 1.37077 0.365518 174 4 33
-0.473781 1.37796 0.150421 172 255 36
-1.57821 -0.515295 0.0890192 174 4 33
-0.549751 1.24642 0.260528 172 255 36
-0.346791 -0.273225 0.796275 174 4 33
-0.543484 1.21183 0.260567 172 255 36
-2.37963 0.0745856 1.13464 174 4 33
-0.463124 1.26533 0.295097 172 255 36
-0.183019 0.450059 1.07025 174 4 33
-0.466781 1.30848 0.295045 172 255 36
-1.78652 0.666275 -0.357048 174 4 33
-0.544036 1.14588 0.25625 172 255 36
-1.43885 -0.599995 -1.18841 174 4 33
-0.53949 1.09225 0.251044 172 255 36
0.0288128 0.276117 0.310997 174 4 33
-0.531512 1.08735 0.250149 172 255 36
-1.36188 1.06198 -0.0646044 174 4 33
-0.454789 1.09456 0.278399 172 255 36
-0.42262 1.01705 0.0854992 174 4 33
-0.463454 1.19677 0.290204 172 255 36
0.338467 2.04018 -0.6001 174 4 33
-0.527105 1.02839 0.201382 172 255 36
-0.848187 1.65849 -0.731861 174 4 33
-0.527105 1.02836 0.173325 172 255 36
-0.125597 0.245747 0.774891 174 4 33
-0.442784 1.03515 0.190172 172 255 36
-0.956891 0.612167 -0.296129 174 4 33
-0.442784 1.03519 0.22327 172 255 36
0.511281 -0.753652 0.243128 174 4 33
-0.54608 1.06589 0.162119 172 255 36
-1.87579 0.945385 0.911697 174 4 33
-0.565329 1.07761 0.165225 172 255 36
0.743133 1.14912 -0.354492 174 4 33
-0.570242 1.13556 0.1703 172 255 36
-1.05015 1.03917 0.69566 174 4 33
-0.471326 1.1855 0.179255 172 255 36
-0.202404 0.936197 -0.74229 174 4 33
-0.461818 1.07336 0.177486 172 255 36
0.243104 0.55859 1.38865 174 4 33
-0.568002 1.18769 0.130384 172 255 36
-1.21562 0.612627 -0.898862 174 4 33
-0.568017 1.18759 0.04104 172 255 36
-1.22802 0.919894 1.61456 174 4 33
-0.469225 1.23931 0.046509 172 255 36
-0.308741 1.53457 0.565804 174 4 33
-0.469242 1.23948 0.134065 172 255 36
-1.11875 0.430396 -0.553415 174 4 33
-0.598128 1.04244 0.191154 172 255 36
-0.718654 -0.324173 -1.57154 174 4 33
-0.598128 1.04241 0.165781 172 255 36
-1.87453 0.765336 -0.945182 174 4 33
-0.578881 1.03073 0.177201 172 255 36
-1.11171 2.79508 1.26791 174 4 33
-0.578881 1.03077 0.205257 172 255 36
2.09569 0.773127 1.07783 174 4 33
0.590725 1.17078 0.28704 172 255 36
-1.48764 2.91393 -0.323602 174 4 33
0.590725 1.17074 0.246378 172 255 36
-0.0422027 2.30613 -0.370543 174 4 33
0.611821 1.19022 0.246352 172 255 36
0.488659 -0.769396 -0.413584 174 4 33
0.611821 1.19027 0.287059 172 255 36
-0.0563417 0.530985 0.242662 174 4 33
0.642911 1.78762 -0.059432 172 255 36
1.24044 1.02532 0.704562 174 4 33
0.598786 1.79637 -0.072375 172 255 36
-0.414353 0.652889 1.31077 174 4 33
0.599074 1.79562 0.064538 172 255 36
0.301477 2.3112 -0.323254 174 4 33
0.643391 1.78703 0.051301 172 255 36
1.79337 2.10877 0.290638 174 4 33
0.643389 1.78697 -0.004069 172 255 36
0.876138 0.821949 0.0811439 174 4 33
0.624494 1.76903 0.184671 172 255 36
0.806773 0.0520751 -1.56564 174 4 33
0.694203 1.7112 0.308749 172 255 36
0.956434 3.61443 1.03212 174 4 33
0.717879 1.70955 0.266058 172 255 36
0.667425 1.82392 -0.624159 174 4 33
0.668809 1.76044 0.171434 172 255 36
0.888736 1.78001 1.68025 174 4 33
0.72634 1.65197 0.367504 172 255 36
1.0521 3.03442 -0.986236 174 4 33
0.733997 1.58625 0.364391 172 255 36
0.650185 -0.832034 0.667471 174 4 33
0.75216 1.58733 0.326911 172 255 36
1.37716 0.379901 0.057997 174 4 33
0.75002 1.65026 0.321869 172 255 36
0.547848 1.45359 -0.913467 174 4 33
0.719835 1.47262 0.354003 172 255 36
-0.382332 0.962315 -0.864544 174 4 33
0.658104 1.30753 0.331296 172 255 36
0.676106 0.779118 -1.99898 174 4 33
0.675014 1.2986 0.312846 172 255 36
2.16592 -0.619911 0.384757 174 4 33
0.738035 1.47325 0.31705 172 255 36
1.22385 2.00008 0.914845 174 4 33
0.588721 1.20613 0.336409 172 255 36
-0.512774 -0.302691 0.476847 174 4 33
0.576796 1.19512 0.336172 172 255 36
1.01026 1.12431 -0.161186 174 4 33
0.584553 1.1775 0.317015 172 255 36
1.33507 2.40834 -0.0936327 174 4 33
0.605649 1.19698 0.317033 172 255 36
1.82752 1.84365 0.517333 174 4 33
0.482382 1.17387 0.336155 172 255 36
0.946056 1.09433 0.123162 174 4 33
0.253673 1.12474 0.3664 172 255 36
-1.97076 0.794268 1.30033 174 4 33
0.255201 1.10669 0.345408 172 255 36
-0.606574 1.73202 -0.303843 174 4 33
0.490115 1.15653 0.316997 172 255 36
-0.909798 -0.187173 0.885761 174 4 33
-0.018238 1.07532 0.338506 172 255 36
0.474988 1.14831 1.07635 174 4 33
0.076615 1.08275 0.342261 172 255 36
-0.56691 0.561628 0.718747 174 4 33
0.075181 1.09968 0.36305 172 255 36
1.65037 0.655685 -0.814894 174 4 33
-0.01962 1.09164 0.359707 172 255 36
-0.466249 1.3291 0.324131 174 4 33
-0.317324 1.05205 0.287792 172 255 36
-0.385924 1.82414 0.796142 174 4 33
-0.149555 1.06513 0.327006 172 255 36
-0.690723 3.52799 -1.52724 174 4 33
-0.150856 1.08051 0.347284 172 255 36
-1.54274 1.15249 0.954054 174 4 33
-0.318526 1.06626 0.308136 172 255 36
-1.71853 0.764272 0.344597 174 4 33
-0.52579 1.03522 0.223324 172 255 36
0.710102 -0.290495 -0.355452 174 4 33
-0.441481 1.04213 0.248115 172 255 36
-1.42179 1.24303 1.25268 174 4 33
-0.442629 1.0557 0.265328 172 255 36
0.987045 1.75964 -0.30924 174 4 33
-0.519409 1.04917 0.238607 172 255 36
-2.32312 0.50009 -0.610446 174 4 33
-0.566482 1.0499 0.241655 172 255 36
0.678041 -0.437586 0.0163835 174 4 33
-0.574455 1.05475 0.242551 172 255 36
-0.873033 1.53764 -0.375628 174 4 33
-0.592116 1.0477 0.229007 172 255 36
0.520887 0.829322 0.59894 174 4 33
-0.572868 1.03601 0.226372 172 255 36
-0.69969 2.21316 -0.841715 174 4 33
-0.606189 1.13756 0.218672 172 255 36
-0.474036 2.39925 0.121103 174 4 33
-0.601261 1.07942 0.213804 172 255 36
-0.674028 1.17002 -1.03395 174 4 33
-0.583612 1.08662 0.246059 172 255 36
-0.322925 -0.140202 -0.0309517 174 4 33
-0.588094 1.1395 0.251266 172 255 36
1.31621 0.652458 0.921822 174 4 33
-0.611944 1.1956 0.21979 172 255 36
-1.58598 0.276011 0.646647 174 4 33
-0.610448 1.17796 0.22082 172 255 36
-0.441428 1.3232 0.721657 174 4 33
-0.592364 1.18003 0.253603 172 255 36
0.801047 2.43459 2.58054 174 4 33
-0.598597 1.21421 0.233154 172 255 36
-1.23457 -0.808323 0.214474 174 4 33
-0.616286 1.23377 0.118768 172 255 36
1.14811 0.75404 -0.640857 174 4 33
-0.614904 1.21756 0.183874 172 255 36
-0.251992 1.13763 -1.29487 174 4 33
-0.601548 1.23606 0.197237 172 255 36
-2.00881 -1.42031 -0.178703 174 4 33
-0.604439 1.25774 0.119739 172 255 36
-0.392724 1.32181 0.541193 174 4 33
-0.618087 1.25167 0.020955 172 255 36
-0.739646 1.54292 -0.044385 174 4 33
-0.61749 1.24478 0.062247 172 255 36
1.12512 2.11434 -0.533031 174 4 33
-0.605648 1.26881 0.063218 172 255 36
0.827535 0.984524 0.0831428 174 4 33
-0.605703 1.26936 0.02103 172 255 36
-1.72118 0.180215 1.10813 174 4 33
-0.618303 1.24553 -0.062198 172 255 36
-0.784369 1.74769 -0.365783 174 4 33
-0.61836 1.25192 -0.020807 172 255 36
-2.35247 0.90741 -0.703395 174 4 33
-0.605976 1.26961 -0.020735 172 255 36
-1.37246 0.292271 -1.80207 174 4 33
-0.606473 1.26957 -0.062914 172 255 36
0.189237 2.35942 -0.745439 174 4 33
-0.617308 1.21975 -0.184262 172 255 36
-0.962178 1.35179 -0.594624 174 4 33
-0.617838 1.23519 -0.118895 172 255 36
0.779615 1.79172 -1.78918 174 4 33
-0.606004 1.25917 -0.119612 172 255 36
-0.804626 0.912914 1.30776 174 4 33
-0.604128 1.23842 -0.197467 172 255 36
0.84983 1.66528 1.45004 174 4 33
-0.613341 1.18061 -0.221878 172 255 36
-0.190636 1.00884 -0.337975 174 4 33
-0.614821 1.19823 -0.220556 172 255 36
-2.01044 -0.242198 -0.522263 174 4 33
-0.60165 1.21702 -0.233761 172 255 36
0.368085 1.34492 -0.915952 174 4 33
-0.59542 1.18282 -0.234394 172 255 36
-1.89876 0.755799 0.27696 174 4 33
-0.604072 1.08199 -0.216512 172 255 36
-1.50336 -0.560604 -1.65402 174 4 33
-0.609059 1.14018 -0.220414 172 255 36
-2.23254 2.34516 -0.616828 174 4 33
-0.591127 1.14225 -0.253134 172 255 36
-0.260298 1.49861 0.94696 174 4 33
-0.586587 1.08931 -0.248885 172 255 36
-1.72673 0.627457 -2.32102 174 4 33
-0.577391 1.05739 -0.246023 172 255 36
0.495401 1.48706 1.65843 174 4 33
-0.569408 1.05254 -0.245292 172 255 36
0.116966 -0.839393 -0.23306 174 4 33
-0.575611 1.03847 -0.230191 172 255 36
-0.716111 0.787158 -0.154293 174 4 33
-0.594888 1.05021 -0.213875 172 255 36
-0.071097 -1.56437 -0.189942 174 4 33
-0.444149 1.04455 -0.253558 172 255 36
-0.388616 3.00677 -0.741195 174 4 33
-0.528501 1.03767 -0.22763 172 255 36
-0.635446 0.819608 1.21696 174 4 33
-0.522303 1.05179 -0.242732 172 255 36
0.771245 1.14099 -1.11036 174 4 33
-0.44548 1.05828 -0.27049 172 255 36
-0.537796 0.922658 -1.27755 174 4 33
-0.152186 1.06774 -0.337565 172 255 36
-1.24985 1.8866 1.02271 174 4 33
-0.319961 1.05449 -0.295299 172 255 36
0.200772 1.88795 -1.29425 174 4 33
-0.321346 1.06888 -0.315308 172 255 36
-0.404597 0.492325 -1.45303 174 4 33
-0.153648 1.08328 -0.357458 172 255 36
0.750102 1.47487 -0.956237 174 4 33
0.073968 1.08567 -0.356454 172 255 36
-0.694611 0.0369537 -0.268988 174 4 33
-0.020869 1.0781 -0.351261 172 255 36
-0.908018 0.357363 0.269451 174 4 33
-0.022412 1.0946 -0.372062 172 255 36
1.19282 1.28943 -1.30082 174 4 33
0.072377 1.10278 -0.376838 172 255 36
-1.34298 0.812446 1.59419 174 4 33
0.250845 1.12803 -0.382845 172 255 36
0.490712 -0.041457 -2.42597 174 4 33
0.479532 1.17733 -0.354854 172 255 36
-0.312983 1.32144 2.2549 174 4 33
0.487422 1.1598 -0.336148 172 255 36
0.704183 -0.377744 -0.427893 174 4 33
0.25253 1.1098 -0.362259 172 255 36
-0.186228 1.16716 -1.38495 174 4 33
0.57394 1.19859 -0.356554 172 255 36
-0.215388 1.06129 -1.69238 174 4 33
0.58587 1.20952 -0.356756 172 255 36
1.59125 -0.0459795 -0.865861 174 4 33
0.602949 1.20026 -0.337804 172 255 36
-0.0709979 0.247126 -0.565131 174 4 33
0.581853 1.18078 -0.337847 172 255 36
0.12753 1.88029 -1.27041 174 4 33
0.655207 1.31055 -0.34929 172 255 36
-1.80504 0.268772 -0.356229 174 4 33
0.716794 1.47541 -0.350665 172 255 36
0.666952 1.41184 -0.782116 174 4 33
0.735113 1.47648 -0.331746 172 255 36
-0.591467 1.72746 -0.957971 174 4 33
0.672244 1.3018 -0.331241 172 255 36
0.979541 -0.540572 0.978839 174 4 33
0.730855 1.58939 -0.358477 172 255 36
-0.124501 0.874262 0.950035 174 4 33
0.72315 1.65545 -0.360098 172 255 36
0.763574 0.939241 1.49341 174 4 33
0.747063 1.6536 -0.333312 172 255 36
-0.266489 2.13372 0.431136 174 4 33
0.749169 1.59052 -0.339559 172 255 36
0.280497 3.34018 -0.872202 174 4 33
0.691566 1.7145 -0.318835 172 255 36
1.57267 2.00154 -1.92483 174 4 33
0.623239 1.77106 -0.193249 172 255 36
1.50326 1.46096 -0.200291 174 4 33
0.667362 1.76231 -0.180305 172 255 36
-0.754357 1.00746 -0.293801 174 4 33
0.715486 1.71258 -0.276136 172 255 36
1.02453 1.35268 1.37165 174 4 33
0.588606 1.17331 -0.26744 172 255 36
1.44293 -0.097614 -0.0760554 174 4 33
0.588271 1.17376 -0.308095 172 255 36
0.311645 0.949269 -0.179055 174 4 33
0.609367 1.19325 -0.308049 172 255 36
1.44387 1.6303 0.105664 174 4 33
0.609702 1.1928 -0.267351 172 255 36
-0.768828 -0.0356997 -0.512458 174 4 33
-0.600316 1.0444 -0.169115 172 255 36
-1.27906 -0.866925 -0.721221 174 4 33
-0.600647 1.04473 -0.194483 172 255 36
-0.549786 1.46365 0.676316 174 4 33
-0.58137 1.033 -0.209109 172 255 36
-0.881976 0.792458 0.228642 174 4 33
-0.581033 1.03267 -0.181058 172 255 36
-1.07193 0.945831 0.907392 174 4 33
-0.568518 1.18804 -0.042291 172 255 36
-2.45883 1.25695 -0.333434 174 4 33
-0.569577 1.1891 -0.13162 172 255 36
-2.35604 0.915226 -0.817975 174 4 33
-0.470675 1.24078 -0.13538 172 255 36
-1.04595 -1.53928 -0.145877 174 4 33
-0.469727 1.23977 -0.04784 172 255 36
-1.05432 -0.0804272 0.388034 174 4 33
-0.572302 1.13742 -0.172418 172 255 36
-1.37007 1.34866 -1.01785 174 4 33
-0.567334 1.07941 -0.168402 172 255 36
-0.919332 -0.992506 0.294355 174 4 33
-0.54805 1.06767 -0.165695 172 255 36
-1.15702 2.52481 0.637026 174 4 33
-0.46373 1.07508 -0.182098 172 255 36
1.53574 1.99929 -0.120025 174 4 33
-0.473245 1.18724 -0.181575 172 255 36
0.274938 2.42423 -0.637251 174 4 33
-0.529215 1.03026 -0.177744 172 255 36
-0.479839 1.05951 -1.92572 174 4 33
-0.529552 1.0306 -0.205795 172 255 36
0.155059 0.596585 0.387564 174 4 33
-0.445189 1.03736 -0.228837 172 255 36
0.465052 1.12602 -1.95517 174 4 33
-0.444837 1.037 -0.195744 172 255 36
-1.19591 1.59282 -0.35 174 4 33
-0.534541 1.0901 -0.25349 172 255 36
0.268544 1.13993 1.09738 174 4 33
-0.542529 1.09501 -0.254221 172 255 36
-1.2948 1.29981 1.17843 174 4 33
-0.547134 1.14873 -0.258469 172 255 36
1.83439 -0.442515 0.436962 174 4 33
-0.466562 1.19968 -0.292463 172 255 36
-1.67449 0.479669 -0.434655 174 4 33
-0.457775 1.09727 -0.282668 172 255 36
-3.47942 0.207374 -1.13875 174 4 33
-0.546628 1.21473 -0.261672 172 255 36
-0.0871371 1.05932 -0.680772 174 4 33
-0.552891 1.24932 -0.260984 172 255 36
0.564975 1.04385 0.0142562 174 4 33
-0.469931 1.31145 -0.295188 172 255 36
0.160259 0.989195 2.47001 174 4 33
-0.466278 1.2683 -0.296086 172 255 36
-1.0937 1.76081 -1.80479 174 4 33
-0.55622 1.2812 -0.21798 172 255 36
-1.27306 0.0445821 0.832395 174 4 33
-0.558126 1.30232 -0.133341 172 255 36
0.234414 1.93995 0.294465 174 4 33
-0.475382 1.37949 -0.14925 172 255 36
0.604796 0.135861 -0.325418 174 4 33
-0.473424 1.34528 -0.246498 172 255 36
-1.55147 1.49292 -0.647137 174 4 33
-0.558779 1.3154 -0.068095 172 255 36
-2.17356 0.58077 0.270919 174 4 33
-0.55833 1.31601 -0.022241 172 255 36
0.0839702 1.3843 0.561015 174 4 33
-0.475688 1.39432 -0.02489 172 255 36
-0.00280669 2.07838 -0.09928 174 4 33
-0.476097 1.3933 -0.075378 172 255 36
-2.16772 0.0989431 -2.25903 174 4 33
-0.355149 1.48923 -0.088343 172 255 36
0.141494 1.44533 -1.82876 174 4 33
-0.35475 1.49038 -0.028674 172 255 36
0.739018 1.06971 -0.243757 174 4 33
-0.195601 1.60511 -0.033241 172 255 36
-0.390423 1.11872 -1.99586 174 4 33
-0.196024 1.6043 -0.101096 172 255 36
0.386351 -0.286239 -0.598124 174 4 33
-0.33874 1.29959 -0.052 172 255 36
-1.0489 0.416224 1.84384 174 4 33
-0.339699 1.30069 -0.155462 172 255 36
0.346269 0.842027 -0.362887 174 4 33
-0.176829 1.37176 -0.176514 172 255 36
-1.56295 1.02498 -0.64471 174 4 33
-0.175883 1.37057 -0.06041 172 255 36
-1.63486 1.0531 0.148473 174 4 33
-0.334339 1.23241 -0.2076 172 255 36
-0.112462 0.56677 0.246553 174 4 33
-0.324263 1.11363 -0.208229 172 255 36
-0.415237 1.66651 -2.11887 174 4 33
-0.15693 1.13179 -0.240837 172 255 36
-0.76973 0.714624 0.0363486 174 4 33
-0.17095 1.29735 -0.236582 172 255 36
-0.832538 1.78022 1.00115 174 4 33
-0.318752 1.04677 -0.228089 172 255 36
0.477236 1.95745 -0.884778 174 4 33
-0.319106 1.04715 -0.267201 172 255 36
-0.91403 1.18447 1.39803 174 4 33
-0.151279 1.05979 -0.305196 172 255 36
-0.355244 0.602319 -0.695744 174 4 33
-0.150951 1.05941 -0.263718 172 255 36
-1.55849 0.242891 0.919501 174 4 33
-0.327263 1.13697 -0.331906 172 255 36
0.833055 1.56183 -0.436851 174 4 33
-0.336684 1.24685 -0.343477 172 255 36
0.0429893 0.477949 -1.10914 174 4 33
-0.173527 1.31422 -0.396801 172 255 36
-0.879839 0.775117 -1.16617 174 4 33
-0.160025 1.15681 -0.376579 172 255 36
-2.18476 -0.923507 -1.88712 174 4 33
-0.344386 1.33696 -0.350151 172 255 36
-0.412816 1.86098 -2.84999 174 4 33
-0.348282 1.38297 -0.349086 172 255 36
0.591983 1.48754 -0.974393 174 4 33
-0.187372 1.47684 -0.402913 172 255 36
0.345826 1.39692 -2.55557 174 4 33
-0.181888 1.41208 -0.404489 172 255 36
-0.266899 1.93177 -1.45939 174 4 33
-0.351877 1.431 -0.290701 172 255 36
-1.29286 1.38625 1.52645 174 4 33
-0.354078 1.4681 -0.175764 172 255 36
-1.41122 0.66414 0.134091 174 4 33
-0.194803 1.58137 -0.20181 172 255 36
0.198314 0.485949 0.638473 174 4 33
-0.191321 1.52904 -0.33565 172 255 36
-0.777857 0.429983 -1.08988 174 4 33
-0.030286 1.1857 -0.392956 172 255 36
0.560221 -0.165511 -0.17414 174 4 33
-0.044453 1.35094 -0.414104 172 255 36
-0.638936 -0.815124 0.351815 174 4 33
0.048624 1.37928 -0.419693 172 255 36
0.324937 -0.346988 -0.791567 174 4 33
0.064239 1.197 -0.397967 172 255 36
0.721869 3.13959 1.16525 174 4 33
-0.053689 1.45898 -0.423895 172 255 36
0.332797 3.63656 0.268113 174 4 33
-0.059448 1.52697 -0.42225 172 255 36
-0.775528 2.71835 0.125927 174 4 33
0.032822 1.56484 -0.427821 172 255 36
-0.493259 1.78656 -0.685221 174 4 33
0.039129 1.49036 -0.429596 172 255 36
-0.0515068 0.933698 -0.652031 174 4 33
-0.064359 1.59058 -0.351305 172 255 36
2.66923 1.74079 1.10297 174 4 33
-0.068009 1.64491 -0.190515 172 255 36
-0.145053 1.72649 -0.016287 174 4 33
0.02378 1.68848 -0.19297 172 255 36
1.10216 2.0857 -2.08102 174 4 33
0.027812 1.6296 -0.356088 172 255 36
-0.535922 -0.231693 -0.592732 174 4 33
-0.069645 1.67275 -0.095447 172 255 36
-0.467034 1.86626 0.906696 174 4 33
-0.069194 1.67322 -0.031548 172 255 36
-0.104266 0.409353 -1.74327 174 4 33
0.022596 1.71678 -0.032276 172 255 36
0.567827 0.39889 0.20271 174 4 33
0.022117 1.71663 -0.096846 172 255 36
-1.2274 -0.462629 -1.51081 174 4 33
-0.047186 1.41168 -0.056887 172 255 36
-2.74514 0.0470682 0.771072 174 4 33
-0.048137 1.41295 -0.16622 172 255 36
-1.23488 1.1512 -0.579134 174 4 33
0.044628 1.44498 -0.168966 172 255 36
0.6382 0.577504 -0.483543 174 4 33
0.045584 1.44367 -0.057983 172 255 36
-1.08335 0.914537 1.37615 174 4 33
-0.041898 1.33428 -0.247544 172 255 36
-0.231093 0.569062 1.20949 174 4 33
-0.027028 1.15869 -0.251988 172 255 36
1.11933 -1.18155 -1.13355 174 4 33
0.067557 1.16923 -0.256082 172 255 36
-0.373166 1.18887 0.0233465 174 4 33
0.051113 1.36339 -0.251287 172 255 36
1.04529 2.8484 -1.45963 174 4 33
-0.019604 1.06927 -0.275971 172 255 36
-0.932402 -0.693544 -1.47882 174 4 33
-0.019934 1.06966 -0.319337 172 255 36
1.83794 0.150792 0.525485 174 4 33
0.074928 1.07692 -0.324176 172 255 36
0.649236 1.08671 -0.473483 174 4 33
0.075261 1.0765 -0.280328 172 255 36
1.54886 1.55804 -0.11257 174 4 33
0.760715 1.57483 -0.169862 172 255 36
1.38622 1.53455 -0.642348 174 4 33
0.755582 1.64696 -0.049017 172 255 36
1.67368 2.59735 -1.22037 174 4 33
0.762045 1.57066 -0.049747 172 255 36
0.383596 3.20157 -2.39035 174 4 33
0.258635 1.48682 -0.17212 172 255 36
-0.479688 0.0960193 -0.106182 174 4 33
0.593622 1.54078 -0.194421 172 255 36
1.89817 3.17008 -0.353444 174 4 33
0.595318 1.53231 -0.065409 172 255 36
-1.77059 2.21009 0.418395 174 4 33
0.259592 1.4855 -0.063313 172 255 36
0.338954 1.74135 -0.505069 174 4 33
0.211752 1.73437 -0.180444 172 255 36
-1.99224 0.580782 -0.319847 174 4 33
0.355483 1.76055 -0.183693 172 255 36
-0.49824 2.18538 0.753771 174 4 33
0.463645 1.76919 -0.187412 172 255 36
0.201804 1.54621 -1.49935 174 4 33
0.531973 1.71261 -0.32859 172 255 36
-0.220803 2.51126 -0.0692865 174 4 33
0.215795 1.67535 -0.349535 172 255 36
0.229943 1.67642 -0.662591 174 4 33
0.683878 1.76102 -0.114932 172 255 36
1.02723 1.26395 -0.217422 174 4 33
0.684356 1.76037 -0.059571 172 255 36
1.16061 2.46078 0.168241 174 4 33
0.729543 1.71743 -0.060268 172 255 36
0.369985 1.37073 -0.621792 174 4 33
0.732003 1.71128 -0.214041 172 255 36
0.190583 2.29978 -0.894454 174 4 33
0.757113 1.65463 -0.272774 172 255 36
1.02019 1.02179 0.535833 174 4 33
0.75483 1.65868 -0.122102 172 255 36
-0.464718 3.12907 -1.00487 174 4 33
0.75961 1.59073 -0.239287 172 255 36
0.490541 0.725472 0.574901 174 4 33
0.759232 1.5914 -0.27902 172 255 36
-0.397518 0.29954 0.227877 174 4 33
0.237444 1.60391 -0.435661 172 255 36
-0.276361 2.87958 -2.50574 174 4 33
0.553572 1.64174 -0.407665 172 255 36
0.819014 2.0776 0.00284054 174 4 33
0.561287 1.57557 -0.405879 172 255 36
-0.917382 -0.700583 -0.85557 174 4 33
0.243904 1.52764 -0.437453 172 255 36
-0.409941 0.339086 0.504516 174 4 33
-0.618333 1.16451 -0.058305 172 255 36
-1.6362 -0.0751328 -0.461855 174 4 33
-0.620563 1.19083 -0.058085 172 255 36
-1.97308 -0.383063 0.777879 174 4 33
-0.621729 1.20462 -0.05797 172 255 36
-0.505848 2.97965 -0.513945 174 4 33
-0.621723 1.19883 -0.09936 172 255 36
-0.0324625 0.317977 -0.885751 174 4 33
-0.621198 1.18344 -0.164726 172 255 36
-1.02232 1.74642 -0.533276 174 4 33
-0.619725 1.16591 -0.166049 172 255 36
-0.877338 1.4366 -1.61561 174 4 33
-0.614775 1.10813 -0.162147 172 255 36
-0.743975 0.63826 0.305629 174 4 33
-0.614444 1.1078 -0.136778 172 255 36
-1.556 1.16139 -0.632829 174 4 33
-0.619391 1.16558 -0.140476 172 255 36
0.288251 0.792019 0.793092 174 4 33
0.744509 1.4736 -0.263861 172 255 36
1.39949 0.470304 -1.56786 174 4 33
0.68163 1.29875 -0.262843 172 255 36
1.82719 0.470042 0.560782 174 4 33
0.681272 1.29947 -0.301602 172 255 36
0.0186198 0.610607 -0.441164 174 4 33
0.744126 1.47434 -0.303593 172 255 36
1.06565 2.38938 -0.296862 174 4 33
0.490023 1.15017 -0.306418 172 255 36
-0.318416 -1.71837 0.280097 174 4 33
0.490381 1.14945 -0.265762 172 255 36
1.58575 0.952773 1.28757 174 4 33
0.255466 1.09972 -0.285601 172 255 36
0.44782 1.70005 1.08926 174 4 33
0.255078 1.10079 -0.329881 172 255 36
1.69609 0.549978 -0.901272 174 4 33
0.276879 1.38676 -0.261392 172 255 36
-0.676855 0.622851 0.686988 174 4 33
0.293576 1.18963 -0.239891 172 255 36
0.170989 2.08084 -0.202166 174 4 33
0.528399 1.24042 -0.247985 172 255 36
1.67717 1.18584 -0.491661 174 4 33
0.54947 1.2602 -0.247898 172 255 36
1.31839 2.26646 -0.510847 174 4 33
0.612197 1.43683 -0.263517 172 255 36
0.215455 1.67057 -0.0625763 174 4 33
0.584149 1.44511 -0.393865 172 255 36
1.4323 1.93125 0.680714 174 4 33
0.522665 1.27905 -0.373059 172 255 36
-0.386338 1.90748 0.980906 174 4 33
0.510762 1.2678 -0.372858 172 255 36
1.2805 1.76474 -1.26859 174 4 33
0.282132 1.21782 -0.402446 172 255 36
0.350492 4.21525 1.32644 174 4 33
0.266542 1.3998 -0.424383 172 255 36
-0.396833 1.91329 0.960552 174 4 33
0.367222 1.78458 0.056708 172 255 36
-0.525145 1.10846 0.038957 174 4 33
0.37016 1.78505 0.016517 172 255 36
-2.61658 3.42153 -1.65631 174 4 33
0.370083 1.78524 -0.019895 172 255 36
1.53799 1.20078 0.0514976 174 4 33
0.366976 1.78523 -0.060022 172 255 36
-0.0640208 2.03232 -0.422287 174 4 33
0.360915 1.78478 -0.067476 172 255 36
0.252096 0.790221 0.531229 174 4 33
0.361193 1.78406 0.064287 172 255 36
0.418746 0.740625 -0.00491432 174 4 33
0.415895 1.78947 -0.121325 172 255 36
0.441005 1.48766 -0.38604 174 4 33
0.448931 1.79208 -0.11863 172 255 36
1.14721 1.61704 0.75524 174 4 33
0.478947 1.79448 -0.119662 172 255 36
0.133782 1.16499 0.788907 174 4 33
0.511968 1.79714 -0.124628 172 255 36
1.19156 1.30729 -0.0656056 174 4 33
0.517996 1.79766 -0.132498 172 255 36
-0.598091 1.22453 0.421309 174 4 33
0.409834 1.78903 -0.12878 172 255 36
1.37283 3.89106 -0.12055 174 4 33
0.561141 1.80072 -0.064362 172 255 36
-0.170293 1.20849 0.117722 174 4 33
0.558207 1.80025 -0.022599 172 255 36
-0.58824 1.58533 0.250436 174 4 33
0.558287 1.80004 0.015241 172 255 36
-1.36015 2.0615 -0.580216 174 4 33
0.561396 1.80005 0.05694 172 255 36
1.55294 2.66199 1.3827 174 4 33
0.567458 1.80049 0.064679 172 255 36
1.50816 2.55213 1.41044 174 4 33
0.56717 1.80124 -0.072232 172 255 36
0.896596 0.905999 -0.577087 174 4 33
0.512477 1.79581 0.118242 172 255 36
-0.926764 2.3489 1.39666 174 4 33
0.479438 1.7932 0.113977 172 255 36
0.823707 1.23334 -0.169972 174 4 33
0.449419 1.79081 0.11358 172 255 36
-0.422345 0.741775 -2.53014 174 4 33
0.416395 1.78816 0.116973 172 255 36
-1.3467 1.74917 1.2516 174 4 33
0.410367 1.78764 0.124553 172 255 36
-0.54104 1.12158 0.559307 174 4 33
0.518539 1.79625 0.125984 172 255 36
1.44662 1.33379 0.93457 174 4 33
0.44632 1.82497 -0.113208 172 255 36
0.789262 2.52095 1.6464 174 4 33
0.476336 1.82737 -0.114241 172 255 36
1.4869 1.85576 1.1057 174 4 33
0.478084 1.80542 -0.11445 172 255 36
0.753046 1.89194 1.2597 174 4 33
0.448068 1.80303 -0.113418 172 255 36
0.245752 0.868442 -0.800006 174 4 33
0.551555 1.83284 -0.022241 172 255 36
0.40333 2.36895 1.27789 174 4 33
0.551635 1.83263 0.015598 172 255 36
1.00402 1.94668 -1.10845 174 4 33
0.553383 1.81069 0.015389 172 255 36
1.03854 1.23637 -0.270153 174 4 33
0.553303 1.8109 -0.022451 172 255 36
-0.462649 0.0500828 0.422915 174 4 33
0.476805 1.82614 0.109183 172 255 36
-1.4051 1.87866 -1.16397 174 4 33
0.446787 1.82375 0.108788 172 255 36
0.485881 2.19526 -0.335785 174 4 33
0.448535 1.80181 0.108578 172 255 36
0.905379 1.40591 0.199234 174 4 33
0.478553 1.8042 0.108975 172 255 36
-0.346696 1.2294 -0.645709 174 4 33
0.371567 1.81828 0.016789 172 255 36
0.952503 2.31226 -0.339497 174 4 33
0.371491 1.81848 -0.019622 172 255 36
-0.312383 2.98814 -0.599057 174 4 33
0.373238 1.79654 -0.019832 172 255 36
0.0443551 0.519004 1.245 174 4 33
0.373315 1.79634 0.01658 172 255 36
-1.93315 -0.270144 -0.853416 174 4 33
0.548022 1.79992 -0.109426 172 255 36
-0.662268 1.05023 -1.74032 174 4 33
0.515001 1.79727 -0.10446 172 255 36
1.48762 0.580416 -1.97414 174 4 33
0.545088 1.79946 -0.067662 172 255 36
-1.17684 2.06041 0.29829 174 4 33
0.548467 1.79876 0.10228 172 255 36
-0.996994 -0.149315 1.11447 174 4 33
0.545356 1.79875 0.060581 172 255 36
-0.621398 2.97576 -1.00903 174 4 33
0.515427 1.79616 0.098014 172 255 36
1.82401 -0.187235 0.552787 174 4 33
0.380339 1.78538 0.100533 172 255 36
0.692506 -0.671154 -0.458633 174 4 33
0.413363 1.78803 0.09714 172 255 36
0.849562 2.66025 0.896421 174 4 33
0.383276 1.78584 0.060343 172 255 36
0.409969 2.09126 0.232012 174 4 33
0.379909 1.7865 -0.104122 172 255 36
0.16094 1.21162 -0.98769 174 4 33
0.383016 1.78653 -0.063996 172 255 36
0.436578 0.978703 1.72369 174 4 33
0.412946 1.78912 -0.101428 172 255 36
0.984352 0.418024 0.373497 174 4 33
0.536473 1.83185 -0.059561 172 255 36
2.52576 4.12594 -0.496425 174 4 33
0.53822 1.80991 -0.05977 172 255 36
0.415418 1.32998 -1.27815 174 4 33
0.508135 1.80772 -0.096567 172 255 36
0.126146 2.6841 -0.321107 174 4 33
0.506387 1.82966 -0.096358 172 255 36
0.541905 1.52314 -0.584725 174 4 33
0.50678 1.82863 0.090666 172 255 36
0.335856 1.48833 -0.0102144 174 4 33
0.508528 1.80669 0.090457 172 255 36
1.70715 1.34256 1.14131 174 4 33
0.538458 1.80929 0.053025 172 255 36
0.531383 0.625589 0.603344 174 4 33
0.53671 1.83123 0.053234 172 255 36
1.65591 1.35877 0.503683 174 4 33
0.386648 1.81927 0.053394 172 255 36
0.588591 2.11171 0.551894 174 4 33
0.388396 1.79733 0.053183 172 255 36
-1.60678 1.14477 -1.23908 174 4 33
0.418482 1.79952 0.089981 172 255 36
-0.229942 1.56556 2.9612 174 4 33
0.416735 1.82146 0.09019 172 255 36
0.529893 -0.105275 -1.38766 174 4 33
0.416347 1.82247 -0.093977 172 255 36
3.5272 1.34674 -0.114467 174 4 33
0.418096 1.80053 -0.094185 172 255 36
-1.47362 1.22139 0.22924 174 4 33
0.388166 1.79794 -0.056754 172 255 36
-0.103781 0.138527 -0.282659 174 4 33
0.386418 1.81988 -0.056544 172 255 36
-1.18111 3.52134 -0.387088 174 4 33
0.548104 1.84311 0.046959 172 255 36
-0.169351 0.520404 0.297449 174 4 33
0.512782 1.84004 0.080582 172 255 36
0.711843 2.34583 1.73159 174 4 33
0.509097 1.83984 0.094854 172 255 36
1.57995 2.11744 1.24178 174 4 33
0.539027 1.84243 0.057422 172 255 36
0.778161 0.65801 1.56565 174 4 33
0.479614 1.83728 0.095941 172 255 36
0.454179 2.22113 -0.257058 174 4 33
0.442212 1.8343 0.095566 172 255 36
1.4108 -0.0892911 0.481212 174 4 33
0.44591 1.83469 0.114637 172 255 36
-0.207373 0.332459 1.76566 174 4 33
0.475928 1.83708 0.115034 172 255 36
-0.95529 2.9087 -0.156464 174 4 33
0.408975 1.83177 0.080146 172 255 36
-0.360891 0.486764 -0.101677 174 4 33
0.373529 1.82921 0.04715 172 255 36
0.333455 1.02683 1.09578 174 4 33
0.382586 1.82997 0.05758 172 255 36
-0.0453062 1.2958 0.783442 174 4 33
0.412672 1.83216 0.094377 172 255 36
0.63763 3.49923 -0.628844 174 4 33
0.357103 1.82814 0.016201 172 255 36
0.720813 1.39332 1.01784 174 4 33
0.357006 1.8284 -0.018882 172 255 36
1.81148 1.68529 -2.18668 174 4 33
0.366083 1.82909 -0.019495 172 255 36
0.193618 1.37513 -0.417602 174 4 33
0.36616 1.82889 0.016916 172 255 36
0.499377 1.93046 -1.88237 174 4 33
0.373241 1.82993 -0.050076 172 255 36
0.435323 2.76111 -0.841486 174 4 33
0.408421 1.83299 -0.083565 172 255 36
-0.774699 -0.153296 -1.81959 174 4 33
0.412247 1.83321 -0.097912 172 255 36
2.07911 0.96472 0.0197062 174 4 33
0.382318 1.83061 -0.060479 172 255 36
-0.420977 2.28618 0.747215 174 4 33
0.441552 1.83575 -0.099501 172 255 36
0.786943 0.643649 1.26366 174 4 33
0.478949 1.83874 -0.100479 172 255 36
0.982049 3.0135 -0.361228 174 4 33
0.475394 1.83836 -0.11988 172 255 36
2.45445 2.12275 0.377236 174 4 33
0.445379 1.83597 -0.118849 172 255 36
1.47864 4.09946 0.624544 174 4 33
0.512221 1.84127 -0.085638 172 255 36
0.1825 0.81998 0.0856865 174 4 33
0.547809 1.84386 -0.052509 172 255 36
-0.694252 2.60869 1.26894 174 4 33
