ply
format ascii 1.0
element vertex 1330
property float x
property float y
property float z
property uchar red
property uchar green
property uchar blue
end_header
0.914338 2.19777 1.3287 172 255 36
0.490041 2.93418 1.0226 174 4 33
0.930635 2.2059 1.32871 172 255 36
0.622579 1.69524 2.24295 174 4 33
0.889318 2.21046 1.41716 172 255 36
0.174802 2.4605 1.76466 174 4 33
0.903569 2.2159 1.4232 172 255 36
0.395315 0.613794 0.838077 174 4 33
0.915729 2.22107 1.39188 172 255 36
1.33552 1.2558 1.60764 174 4 33
0.899818 2.21499 1.38582 172 255 36
1.57367 0.269278 -0.738984 174 4 33
0.913033 2.21446 1.42624 172 255 36
1.64771 1.16551 3.04881 174 4 33
0.916856 2.20579 1.42629 172 255 36
1.23475 0.0989675 0.959623 174 4 33
0.929061 2.21098 1.39497 172 255 36
0.301546 2.8042 3.2487 174 4 33
0.925192 2.21962 1.39492 172 255 36
0.921437 2.28737 1.70494 174 4 33
0.911533 2.19777 1.42326 172 255 36
-0.553047 2.05306 1.1591 174 4 33
0.897879 2.19069 1.41718 172 255 36
0.966241 2.56407 2.8947 174 4 33
0.908408 2.19523 1.38584 172 255 36
-0.272219 1.5654 1.48675 174 4 33
0.923738 2.20295 1.39194 172 255 36
0.531652 3.66739 3.51473 174 4 33
0.888416 2.19214 1.41414 172 255 36
-0.135347 1.1606 2.49111 174 4 33
0.883995 2.20243 1.41414 172 255 36
-0.154634 1.08355 1.75364 174 4 33
0.894495 2.20696 1.3828 172 255 36
0.284867 1.82453 0.450352 174 4 33
0.898945 2.19668 1.3828 172 255 36
2.04995 1.14353 1.30428 174 4 33
0.901479 2.20955 1.45567 172 255 36
1.20185 2.53346 0.31068 174 4 33
0.905276 2.20088 1.45571 172 255 36
1.88002 1.65024 1.60515 174 4 33
0.908939 2.20243 1.44653 172 255 36
0.857473 1.47871 1.22445 174 4 33
0.905116 2.2111 1.44649 172 255 36
0.673321 2.39459 1.12302 174 4 33
0.900334 2.19299 1.45417 172 255 36
1.79339 0.058673 0.261433 174 4 33
0.886598 2.18585 1.45401 172 255 36
0.168264 1.72766 0.00311705 174 4 33
0.890343 2.18747 1.43892 172 255 36
0.288679 2.01116 1.63712 174 4 33
0.903997 2.19454 1.44499 172 255 36
0.787464 1.40093 1.83543 174 4 33
0.877551 2.18745 1.45244 172 255 36
-2.11667 0.828189 2.38933 174 4 33
0.873174 2.19776 1.45239 172 255 36
1.56625 2.78133 1.98933 174 4 33
0.876876 2.19936 1.43734 172 255 36
2.91943 0.617018 2.07461 174 4 33
0.881297 2.18906 1.43734 172 255 36
2.08244 2.52035 2.01227 174 4 33
0.878116 2.20565 1.45393 172 255 36
1.86532 0.647048 0.794672 174 4 33
0.892432 2.21115 1.4541 172 255 36
0.785898 2.85262 0.621135 174 4 33
0.896069 2.2127 1.44492 172 255 36
-0.997817 1.68769 1.79192 174 4 33
0.881818 2.20725 1.43888 172 255 36
-0.316871 2.24534 1.91702 174 4 33
0.890361 2.18957 1.5788 172 255 36
0.975678 0.619356 2.76199 174 4 33
0.881877 2.18445 1.57871 172 255 36
0.0989386 3.5503 0.970315 174 4 33
0.882914 2.18452 1.49961 172 255 36
-1.08197 2.51953 1.3614 174 4 33
0.89665 2.19166 1.49977 172 255 36
0.443724 1.29852 0.798736 174 4 33
0.874166 2.18655 1.57862 172 255 36
1.84187 3.42657 0.208097 174 4 33
0.869921 2.19691 1.57857 172 255 36
1.00128 2.27403 2.40698 174 4 33
0.870826 2.19694 1.49948 172 255 36
-0.983379 1.72509 2.12862 174 4 33
0.875203 2.18662 1.49952 172 255 36
0.534323 1.63856 2.62305 174 4 33
0.873614 2.20433 1.57862 172 255 36
1.95567 2.82099 2.29226 174 4 33
0.882694 2.20782 1.57872 172 255 36
-0.0291159 0.0177378 1.84568 174 4 33
0.888836 2.20986 1.49969 172 255 36
-0.650293 1.89538 -0.964595 174 4 33
0.87452 2.20435 1.49952 172 255 36
2.44777 0.591081 0.419319 174 4 33
0.890405 2.20572 1.57881 172 255 36
0.550053 1.76038 1.10548 174 4 33
0.894055 2.19699 1.57885 172 255 36
1.27906 0.879189 0.0927169 174 4 33
0.900344 2.19908 1.49982 172 255 36
0.0467179 2.83307 2.1098 174 4 33
0.896547 2.20775 1.49977 172 255 36
0.298169 2.39702 -0.609153 174 4 33
0.873352 2.20454 1.6393 172 255 36
2.76046 2.62647 2.59965 174 4 33
0.881099 2.20745 1.63418 172 255 36
-0.420626 3.7657 0.852471 174 4 33
0.88121 2.20745 1.62443 172 255 36
1.37822 1.33243 3.63695 174 4 33
0.87213 2.20396 1.62433 172 255 36
1.62373 2.91541 3.23489 174 4 33
0.88713 2.20468 1.63295 172 255 36
2.09944 3.30237 1.38885 174 4 33
0.89078 2.19595 1.63299 172 255 36
0.48538 1.68472 2.29269 174 4 33
0.890891 2.19596 1.62324 172 255 36
1.02966 1.12876 2.75408 174 4 33
0.887242 2.20469 1.6232 172 255 36
1.01464 3.31016 1.02196 174 4 33
0.888698 2.18917 1.63428 172 255 36
-1.01668 1.40363 1.64259 174 4 33
0.881558 2.18464 1.63944 172 255 36
2.48123 2.56201 2.71928 174 4 33
0.880325 2.18405 1.62443 172 255 36
-2.35622 2.21565 2.00682 174 4 33
0.88881 2.18918 1.62453 172 255 36
-0.156482 2.42391 2.66395 174 4 33
0.882021 2.20826 1.66022 172 255 36
0.0578685 3.39334 0.279095 174 4 33
0.889768 2.21117 1.65511 172 255 36
0.484882 1.05592 3.09732 174 4 33
0.884174 2.20879 1.64528 172 255 36
0.575835 2.1375 0.0848332 174 4 33
0.876426 2.20588 1.65039 172 255 36
-0.808318 2.71289 1.67115 174 4 33
0.895466 2.20826 1.65257 172 255 36
1.26487 0.476237 2.54667 174 4 33
0.899116 2.19953 1.65261 172 255 36
0.565047 1.97484 1.93151 174 4 33
0.893521 2.19714 1.64278 172 255 36
-1.28992 1.37251 1.60166 174 4 33
0.889872 2.20587 1.64274 172 255 36
0.297526 1.21846 3.80353 174 4 33
0.89737 2.19289 1.65521 172 255 36
-0.348232 0.991869 2.5801 174 4 33
0.89023 2.18836 1.66037 172 255 36
0.390577 1.84205 1.3761 174 4 33
0.884635 2.18597 1.65055 172 255 36
0.485196 0.878045 1.11119 174 4 33
0.891776 2.19051 1.64538 172 255 36
1.83283 2.06398 3.56822 174 4 33
0.884531 2.19127 1.66291 172 255 36
1.13155 2.14169 1.95639 174 4 33
0.880275 2.20163 1.66282 172 255 36
0.269723 2.88209 2.64754 174 4 33
0.874681 2.19924 1.65299 172 255 36
1.70487 1.55131 3.21347 174 4 33
0.878937 2.18888 1.65308 172 255 36
0.381476 2.6776 2.31213 174 4 33
0.902249 2.21654 1.6535 172 255 36
0.85175 1.76869 1.60843 174 4 33
0.909453 2.1993 1.65358 172 255 36
1.17209 3.16763 1.85937 174 4 33
0.903834 2.20166 1.6562 172 255 36
0.445141 1.42915 0.842792 174 4 33
0.900184 2.2104 1.65616 172 255 36
0.763082 2.7851 2.69858 174 4 33
0.906759 2.18937 1.65752 172 255 36
0.0264535 1.30487 3.67267 174 4 33
0.892267 2.18017 1.66799 172 255 36
0.824913 1.03218 2.72636 174 4 33
0.893999 2.1872 1.66531 172 255 36
-0.17833 1.95125 2.06538 174 4 33
0.901139 2.19174 1.66014 172 255 36
2.42907 1.91869 2.07225 174 4 33
0.883686 2.18446 1.67184 172 255 36
0.41494 1.16413 2.0936 174 4 33
0.875248 2.20499 1.67166 172 255 36
-1.08596 1.43149 2.25149 174 4 33
0.881161 2.20185 1.66906 172 255 36
0.842965 2.03326 2.56611 174 4 33
0.885417 2.19149 1.66915 172 255 36
0.613823 0.750904 1.78437 174 4 33
0.877943 2.21492 1.66772 172 255 36
1.41014 0.317354 -0.126343 174 4 33
0.893668 2.22082 1.65734 172 255 36
1.78929 -0.839368 2.0484 174 4 33
0.891603 2.21468 1.66001 172 255 36
0.699528 2.83683 1.78973 174 4 33
0.883856 2.21177 1.66512 172 255 36
1.69228 4.61499 2.11536 174 4 33
0.918749 2.19172 1.67689 172 255 36
-0.534643 2.85676 1.97658 174 4 33
0.904258 2.18251 1.68737 172 255 36
-0.505655 2.62613 1.97342 174 4 33
0.896912 2.17938 1.67446 172 255 36
2.71088 1.39282 3.32604 174 4 33
0.911404 2.18859 1.66399 172 255 36
0.334867 2.06445 1.74267 174 4 33
0.892793 2.18818 1.69252 172 255 36
1.76941 1.38591 1.48654 174 4 33
0.884355 2.20871 1.69235 172 255 36
-0.517463 3.76207 2.12154 174 4 33
0.87701 2.20559 1.67944 172 255 36
-0.247131 1.15707 0.909167 174 4 33
0.885447 2.18505 1.67962 172 255 36
-0.525818 0.306618 0.814082 174 4 33
0.887999 2.22194 1.68707 172 255 36
0.655551 0.608989 2.04515 174 4 33
0.903724 2.22784 1.67669 172 255 36
-0.376028 3.14818 2.27603 174 4 33
0.896379 2.22471 1.66378 172 255 36
0.684492 2.7343 0.090671 174 4 33
0.880653 2.21881 1.67416 172 255 36
0.999488 2.35869 1.06781 174 4 33
0.915189 2.22218 1.67154 172 255 36
1.68841 0.465773 0.767596 174 4 33
0.922393 2.20494 1.67161 172 255 36
3.13972 3.29237 2.71172 174 4 33
0.915047 2.20181 1.65871 172 255 36
0.870261 2.1005 0.649685 174 4 33
0.907843 2.21905 1.65863 172 255 36
1.63488 2.20272 1.25267 174 4 33
0.874294 2.18682 1.62566 172 255 36
0.144529 0.845737 1.21339 174 4 33
0.870049 2.19718 1.62561 172 255 36
2.03896 3.12852 2.27461 174 4 33
0.87127 2.19776 1.64058 172 255 36
0.333476 1.92582 1.10027 174 4 33
0.875526 2.1874 1.64067 172 255 36
-2.08446 0.918552 -2.14823 174 4 33
0.891558 2.20627 -1.14652 172 255 36
-0.158273 2.74922 -1.96727 174 4 33
0.880349 2.19902 -1.09033 172 255 36
0.990543 2.27581 0.380081 174 4 33
0.884016 2.19045 -1.09902 172 255 36
0.967773 2.34843 -0.796693 174 4 33
0.895434 2.19762 -1.14652 172 255 36
2.574 0.358003 -1.51672 174 4 33
0.85877 2.16735 -1.1552 172 255 36
1.63073 2.95745 0.0640476 174 4 33
0.863222 2.15933 -1.09484 172 255 36
2.04602 1.09739 -1.13968 174 4 33
0.848177 2.14665 -1.09141 172 255 36
1.22146 2.00495 -2.74156 174 4 33
0.864502 2.19434 -1.17245 172 255 36
2.11612 0.851727 1.2354 174 4 33
0.867469 2.18748 -1.17245 172 255 36
0.833955 0.594229 -2.62667 174 4 33
0.854551 2.14864 -1.05843 172 255 36
2.50129 1.2347 -0.588788 174 4 33
0.869595 2.16132 -1.06187 172 255 36
0.613492 1.07715 -2.85643 174 4 33
0.864677 2.15704 -1.03275 172 255 36
0.631422 1.82184 0.514607 174 4 33
0.860481 2.15515 -1.03275 172 255 36
-0.938367 2.46886 0.396373 174 4 33
0.876384 2.18292 -1.06066 172 255 36
-1.12064 1.78881 -1.15285 174 4 33
0.872716 2.19148 -1.05198 172 255 36
0.418447 2.65392 -1.49242 174 4 33
0.868886 2.18318 -1.03146 172 255 36
-0.595912 0.137959 -1.22856 174 4 33
0.872311 2.17551 -1.03146 172 255 36
0.0668756 1.49562 1.58884 174 4 33
0.850426 2.19977 -1.04862 172 255 36
0.697587 3.06715 -0.753682 174 4 33
0.848408 2.18908 -1.02889 172 255 36
0.521511 1.99641 -0.0974145 174 4 33
0.866821 2.20334 -1.14415 172 255 36
-0.237644 2.16294 0.331141 174 4 33
0.865428 2.20617 -1.08717 172 255 36
0.092163 2.84888 -0.864294 174 4 33
0.872482 2.20259 -1.08796 172 255 36
1.10667 2.54891 -2.87405 174 4 33
0.883691 2.20984 -1.14415 172 255 36
4.36659 1.23114 -2.54865 174 4 33
0.864039 2.18844 -1.02909 172 255 36
-1.75422 1.14027 -0.200502 174 4 33
0.867869 2.19674 -1.04961 172 255 36
1.62539 2.5943 1.72917 174 4 33
0.860815 2.20032 -1.04882 172 255 36
0.528435 4.20881 -2.12832 174 4 33
0.858797 2.18962 -1.02909 172 255 36
0.508847 0.161277 -1.59042 174 4 33
0.851716 2.15233 -1.03131 172 255 36
2.35489 1.93704 -0.911764 174 4 33
0.879747 2.17445 -1.1011 172 255 36
1.11608 2.77134 -0.843542 174 4 33
0.876532 2.18122 -1.14868 172 255 36
2.16142 2.34332 -1.87126 174 4 33
0.892829 2.18935 -1.14868 172 255 36
0.787797 1.40739 -1.63251 174 4 33
0.881412 2.18218 -1.10117 172 255 36
1.82695 1.42707 -0.216022 174 4 33
0.870531 2.16377 -1.03362 172 255 36
-1.73553 2.90481 -1.73772 174 4 33
0.875449 2.16805 -1.06275 172 255 36
0.393791 1.6293 -0.900849 174 4 33
0.877114 2.17577 -1.06282 172 255 36
2.68646 1.05518 -1.4124 174 4 33
0.873041 2.16836 -1.03362 172 255 36
1.36299 1.37819 -3.13982 174 4 33
0.895582 2.21506 -1.69227 172 255 36
0.31462 0.371864 -3.00727 174 4 33
0.911308 2.22096 -1.68189 172 255 36
1.73365 2.89268 0.463471 174 4 33
0.918511 2.20372 -1.68198 172 255 36
1.56457 1.7527 -1.29797 174 4 33
0.90402 2.19452 -1.69246 172 255 36
-0.285328 1.57608 0.420864 174 4 33
0.903879 2.19632 -1.20748 172 255 36
-0.697773 3.33249 -0.151958 174 4 33
0.887582 2.18819 -1.20748 172 255 36
-0.237118 3.34293 -2.72926 174 4 33
0.905582 2.19516 -1.27753 172 255 36
0.505208 1.09127 -1.74976 174 4 33
0.921879 2.2033 -1.27753 172 255 36
2.15386 0.0426724 0.204624 174 4 33
0.88776 2.20536 -1.26585 172 255 36
0.367262 -0.125262 -1.39914 174 4 33
0.892209 2.19507 -1.26586 172 255 36
1.87546 1.76087 -2.38378 174 4 33
0.878971 2.20794 -1.20747 172 255 36
1.30139 2.05311 0.509805 174 4 33
0.895841 2.21443 -1.20747 172 255 36
0.4757 1.21745 -1.75231 174 4 33
0.91384 2.22141 -1.27752 172 255 36
-0.648693 2.30954 -0.551729 174 4 33
0.89697 2.21491 -1.27752 172 255 36
1.05207 1.98801 -1.73979 174 4 33
0.906214 2.21336 -1.20747 172 255 36
2.07321 2.12538 -1.56398 174 4 33
0.91009 2.20472 -1.20747 172 255 36
0.500657 0.955185 -2.88766 174 4 33
0.928089 2.21169 -1.27753 172 255 36
3.56283 0.344425 -3.8302 174 4 33
0.924213 2.22034 -1.27752 172 255 36
3.75304 2.90335 -1.20278 174 4 33
0.904207 2.19973 -1.32587 172 255 36
1.2942 2.992 -0.453114 174 4 33
0.899758 2.21002 -1.32587 172 255 36
0.270884 3.69218 -1.7397 174 4 33
0.899754 2.21003 -1.3525 172 255 36
0.299795 2.28419 -0.101297 174 4 33
0.904204 2.19975 -1.35251 172 255 36
-0.357467 1.73604 -2.10902 174 4 33
0.905728 2.2183 -1.32738 172 255 36
1.22575 2.70967 -1.76253 174 4 33
0.922599 2.2248 -1.32738 172 255 36
0.313709 3.32616 -0.736043 174 4 33
0.921635 2.22441 -1.36007 172 255 36
0.350785 2.0335 0.953232 174 4 33
0.905725 2.21832 -1.35401 172 255 36
1.00529 1.38598 -0.698941 174 4 33
0.93273 2.22363 -1.3289 172 255 36
0.0691717 2.23622 -2.62829 174 4 33
0.936606 2.21498 -1.32891 172 255 36
0.968095 1.5618 -1.77684 174 4 33
0.935636 2.21458 -1.36164 172 255 36
1.09024 2.49881 -0.917393 174 4 33
0.931767 2.22323 -1.36159 172 255 36
0.493548 1.19942 -3.4927 174 4 33
0.930635 2.20669 -1.3274 172 255 36
-0.459961 1.82425 -0.716405 174 4 33
0.914338 2.19855 -1.3274 172 255 36
2.28682 3.38779 -1.49026 174 4 33
0.914335 2.19857 -1.35404 172 255 36
-0.020708 1.75569 -1.98331 174 4 33
0.929665 2.20629 -1.36013 172 255 36
-0.320257 0.605172 -0.756975 174 4 33
0.899818 2.21581 -1.38451 172 255 36
0.602532 1.35616 -2.72925 174 4 33
0.915729 2.2219 -1.39056 172 255 36
1.08815 2.72628 0.417567 174 4 33
0.903569 2.21675 -1.42189 172 255 36
0.951142 2.52637 0.84455 174 4 33
0.889318 2.2113 -1.41585 172 255 36
1.1749 1.86334 0.232198 174 4 33
0.925192 2.22045 -1.39361 172 255 36
-0.919357 1.35178 -2.10343 174 4 33
0.929061 2.2118 -1.39366 172 255 36
0.538317 2.7001 -1.53696 174 4 33
0.916856 2.20664 -1.42498 172 255 36
0.13528 1.97299 -2.01864 174 4 33
0.913033 2.2153 -1.42493 172 255 36
-0.527822 1.24468 -0.889382 174 4 33
0.923738 2.20377 -1.39064 172 255 36
2.40604 3.67228 -0.63739 174 4 33
0.908408 2.19605 -1.38454 172 255 36
0.891381 1.34901 -1.97374 174 4 33
0.897879 2.19153 -1.41588 172 255 36
-0.0931165 1.25291 -1.04116 174 4 33
0.911533 2.19861 -1.42196 172 255 36
0.995149 3.98739 0.882332 174 4 33
0.898945 2.19749 -1.3815 172 255 36
0.873216 1.44782 -3.58024 174 4 33
0.894495 2.20778 -1.38149 172 255 36
0.523216 2.00332 -1.69338 174 4 33
0.883995 2.20327 -1.41283 172 255 36
1.8618 2.71744 -0.774556 174 4 33
0.888416 2.19297 -1.41284 172 255 36
2.18217 3.51866 -2.81677 174 4 33
0.905116 2.21195 -1.44518 172 255 36
0.849359 0.38224 -1.65565 174 4 33
0.908939 2.20329 -1.44523 172 255 36
0.867769 3.74181 -1.89637 174 4 33
0.905276 2.20174 -1.45441 172 255 36
1.09009 0.222543 -1.92165 174 4 33
0.901479 2.21042 -1.45436 172 255 36
-0.2052 2.52734 0.257495 174 4 33
0.903997 2.1954 -1.44369 172 255 36
1.3636 2.13531 -0.926871 174 4 33
0.890343 2.18832 -1.43762 172 255 36
-1.12442 2.21656 -0.652723 174 4 33
0.886598 2.18671 -1.45272 172 255 36
-0.133876 1.59119 -0.90066 174 4 33
0.900334 2.19385 -1.45287 172 255 36
1.6854 1.60162 -2.48682 174 4 33
0.881297 2.18992 -1.43605 172 255 36
1.06683 3.67296 0.0622522 174 4 33
0.876876 2.20021 -1.43604 172 255 36
1.79777 3.41758 -0.819314 174 4 33
0.873174 2.19862 -1.45109 172 255 36
-1.32381 2.65407 -0.738565 174 4 33
0.877551 2.18831 -1.45115 172 255 36
0.873134 2.07154 -1.32061 174 4 33
0.881818 2.2081 -1.43757 172 255 36
1.21145 1.39357 -0.244745 174 4 33
0.896069 2.21355 -1.44361 172 255 36
0.0456171 3.33972 -0.269733 174 4 33
0.892432 2.21201 -1.45279 172 255 36
0.92469 3.35725 -0.228651 174 4 33
0.878116 2.20651 -1.45263 172 255 36
0.152981 -0.431131 0.63391 174 4 33
0.89665 2.19255 -1.49847 172 255 36
1.03941 1.88499 -1.38887 174 4 33
0.882914 2.18541 -1.49832 172 255 36
1.20787 2.71491 -2.53433 174 4 33
0.881877 2.18538 -1.57741 172 255 36
2.57212 2.49579 -1.56768 174 4 33
0.890361 2.19051 -1.57751 172 255 36
2.30557 1.61678 -3.06054 174 4 33
0.875203 2.18751 -1.49823 172 255 36
2.33682 2.1525 -1.11652 174 4 33
0.870826 2.19782 -1.49818 172 255 36
0.739144 0.691088 -2.2818 174 4 33
0.869921 2.19785 -1.57727 172 255 36
-0.747081 1.78201 -1.67597 174 4 33
0.874166 2.18749 -1.57732 172 255 36
1.04601 1.33379 -1.33286 174 4 33
0.87452 2.20524 -1.49821 172 255 36
-0.163444 1.65629 -0.83694 174 4 33
0.888836 2.21074 -1.49838 172 255 36
1.55604 3.04499 -0.0376081 174 4 33
0.882694 2.20876 -1.57741 172 255 36
1.28106 0.939768 -1.24315 174 4 33
0.873614 2.20527 -1.57731 172 255 36
1.17096 3.26975 -2.61309 174 4 33
0.896547 2.20864 -1.49847 172 255 36
0.310791 2.29589 -0.135834 174 4 33
0.900344 2.19997 -1.49851 172 255 36
0.741172 -0.659979 -1.08522 174 4 33
0.894055 2.19792 -1.57755 172 255 36
0.788083 0.885511 0.0981726 174 4 33
0.890405 2.20665 -1.5775 172 255 36
0.0197387 0.636423 -0.49328 174 4 33
0.87213 2.20493 -1.62302 172 255 36
-0.506409 -0.107602 -2.03001 174 4 33
0.88121 2.20842 -1.62312 172 255 36
-0.39652 0.982574 -2.66834 174 4 33
0.881099 2.20842 -1.63287 172 255 36
0.548006 1.68707 -1.1534 174 4 33
0.873352 2.20551 -1.63799 172 255 36
0.464218 2.58116 -2.98547 174 4 33
0.887242 2.20565 -1.62189 172 255 36
0.893899 0.450733 -2.73431 174 4 33
0.890891 2.19692 -1.62194 172 255 36
-0.207668 0.960702 -2.97463 174 4 33
0.89078 2.19692 -1.63169 172 255 36
3.94682 1.93851 -1.16016 174 4 33
0.88713 2.20565 -1.63164 172 255 36
0.083267 2.15357 -2.36389 174 4 33
0.88881 2.19014 -1.62323 172 255 36
0.670845 1.02717 -1.19454 174 4 33
0.880325 2.18502 -1.62313 172 255 36
0.26163 2.66357 -3.52478 174 4 33
0.881558 2.18561 -1.63814 172 255 36
1.91027 2.05349 -1.20286 174 4 33
0.888698 2.19014 -1.63298 172 255 36
0.665436 2.53996 1.30851 174 4 33
0.876426 2.20686 -1.64908 172 255 36
2.31879 3.13186 -1.25684 174 4 33
0.884174 2.20976 -1.64397 172 255 36
1.18797 0.925272 -1.42905 174 4 33
0.889768 2.21215 -1.6538 172 255 36
1.30386 2.01092 -3.44017 174 4 33
0.882021 2.20924 -1.65891 172 255 36
1.51646 2.07695 -2.91866 174 4 33
0.889872 2.20685 -1.64143 172 255 36
-0.570084 0.763231 -2.5291 174 4 33
0.893521 2.19812 -1.64148 172 255 36
1.48741 3.62115 -0.448487 174 4 33
0.899116 2.20051 -1.6513 172 255 36
-0.584201 0.733996 -1.29386 174 4 33
0.895466 2.20924 -1.65126 172 255 36
-1.24884 2.53834 -1.15082 174 4 33
0.891776 2.19148 -1.64408 172 255 36
1.44637 1.41765 -0.452603 174 4 33
0.884635 2.18695 -1.64925 172 255 36
2.38391 1.11969 -2.00961 174 4 33
0.89023 2.18934 -1.65908 172 255 36
0.181591 2.47904 -1.04019 174 4 33
0.89737 2.19387 -1.65391 172 255 36
2.19591 1.83843 -0.798223 174 4 33
0.878937 2.18986 -1.65178 172 255 36
2.44296 0.82472 0.0271793 174 4 33
0.874681 2.20022 -1.65169 172 255 36
1.14188 1.62575 -0.924562 174 4 33
0.880275 2.20261 -1.66152 172 255 36
-0.586372 3.05163 -1.72848 174 4 33
0.884531 2.19225 -1.66161 172 255 36
2.30041 2.5599 -0.832956 174 4 33
0.900184 2.21138 -1.65485 172 255 36
0.458974 2.46094 -0.214012 174 4 33
0.903834 2.20264 -1.6549 172 255 36
1.78895 2.01606 -1.2133 174 4 33
0.909453 2.20028 -1.65227 172 255 36
2.72356 2.11967 -2.03768 174 4 33
0.902249 2.21752 -1.65218 172 255 36
0.145036 2.74788 -2.02687 174 4 33
0.901139 2.19272 -1.65884 172 255 36
1.92819 1.61544 -2.81216 174 4 33
0.893999 2.18818 -1.66401 172 255 36
0.536238 1.60227 -3.60756 174 4 33
0.892267 2.18115 -1.6667 172 255 36
-0.115484 1.78993 0.158794 174 4 33
0.906759 2.19036 -1.65622 172 255 36
1.88889 1.23002 -0.852095 174 4 33
0.885417 2.19248 -1.66785 172 255 36
-0.917744 1.46705 -0.933603 174 4 33
0.881161 2.20284 -1.66776 172 255 36
-1.19803 3.33776 -2.10512 174 4 33
0.875248 2.20598 -1.67036 172 255 36
0.394403 1.51248 -0.700619 174 4 33
0.883686 2.18545 -1.67054 172 255 36
1.49821 2.26498 -2.73246 174 4 33
0.883856 2.21276 -1.66381 172 255 36
0.809189 1.39518 -0.617495 174 4 33
0.891603 2.21567 -1.65869 172 255 36
0.983091 0.312106 -0.482215 174 4 33
0.893668 2.22181 -1.65603 172 255 36
2.82933 2.08741 -0.959941 174 4 33
0.877943 2.21591 -1.66641 172 255 36
0.29951 1.89902 -3.58947 174 4 33
0.911404 2.18957 -1.66269 172 255 36
1.21569 2.01392 0.47268 174 4 33
0.896912 2.18038 -1.67317 172 255 36
1.5398 2.76435 -3.5744 174 4 33
0.904258 2.18351 -1.68608 172 255 36
2.46677 0.821067 -1.88416 174 4 33
0.918749 2.19271 -1.67559 172 255 36
1.9628 2.15433 -0.286775 174 4 33
0.885447 2.18604 -1.67832 172 255 36
-0.224691 2.37292 -1.72182 174 4 33
0.87701 2.20658 -1.67813 172 255 36
0.203809 3.50984 -1.00905 174 4 33
0.884355 2.20972 -1.69104 172 255 36
0.656139 2.46459 -2.27131 174 4 33
0.892793 2.18918 -1.69123 172 255 36
3.98101 2.09973 -0.344686 174 4 33
0.880653 2.2198 -1.67285 172 255 36
1.30205 3.17396 -1.22695 174 4 33
0.896379 2.2257 -1.66246 172 255 36
-1.07125 2.58593 -0.517708 174 4 33
0.903724 2.22883 -1.67537 172 255 36
-0.0199115 1.34144 -2.70105 174 4 33
0.887999 2.22293 -1.68575 172 255 36
0.788672 3.76127 -1.69934 174 4 33
0.907843 2.22003 -1.65731 172 255 36
2.63299 1.08437 -1.10625 174 4 33
0.915047 2.20279 -1.6574 172 255 36
-0.772562 1.95561 -2.51591 174 4 33
0.922393 2.20593 -1.67031 172 255 36
1.84313 2.03509 -1.79099 174 4 33
0.915189 2.22317 -1.67022 172 255 36
2.79964 1.46961 0.551788 174 4 33
0.874294 2.18778 -1.62436 172 255 36
0.969158 3.36374 -1.5991 174 4 33
0.870049 2.19815 -1.62431 172 255 36
1.1579 2.31772 -2.08342 174 4 33
0.87127 2.19873 -1.63928 172 255 36
0.865409 2.0336 -1.87813 174 4 33
0.875526 2.18837 -1.63938 172 255 36
-0.172249 2.57331 -0.369659 174 4 33
0.769782 2.07637 0.982837 172 255 36
1.8585 -0.270305 2.71708 174 4 33
0.775477 2.12509 0.971088 172 255 36
0.812834 3.03096 1.63337 174 4 33
0.723926 2.05581 0.982831 172 255 36
0.432442 1.05497 1.36229 174 4 33
0.683765 2.08397 0.971075 172 255 36
1.05503 3.25185 0.174872 174 4 33
0.68946 2.13269 0.959325 172 255 36
1.42865 2.12036 1.34738 174 4 33
0.735316 2.15325 0.959331 172 255 36
0.777565 3.11032 0.941766 174 4 33
0.781251 2.05081 0.910804 172 255 36
-0.0828884 -0.513754 3.37676 174 4 33
0.788576 2.0959 0.888822 172 255 36
2.0904 3.09977 1.0746 174 4 33
0.735395 2.03025 0.910798 172 255 36
1.84578 1.42891 1.22735 174 4 33
0.696863 2.05478 0.88881 172 255 36
2.04337 1.99522 1.56274 174 4 33
0.704188 2.09987 0.866827 172 255 36
0.083149 0.18168 1.33539 174 4 33
0.750044 2.12043 0.866833 172 255 36
1.449 2.65173 0.481289 174 4 33
0.800695 2.00746 0.851419 172 255 36
-0.695625 2.63926 0.508391 174 4 33
0.811021 2.04586 0.820267 172 255 36
0.247012 2.06395 0.808478 174 4 33
0.754839 1.9869 0.851413 172 255 36
0.193392 1.69049 0.210855 174 4 33
0.719309 2.00474 0.820255 172 255 36
-1.12534 0.27356 0.255861 174 4 33
0.729635 2.04314 0.789104 172 255 36
1.064 1.17499 1.36912 174 4 33
0.775492 2.0637 0.78911 172 255 36
1.90537 1.87637 0.567908 174 4 33
0.872851 1.84657 0.713522 172 255 36
0.851359 3.48889 -0.12796 174 4 33
0.88396 1.88322 0.680876 172 255 36
0.909327 0.664414 -0.231882 174 4 33
0.826994 1.82601 0.713516 172 255 36
0.754883 1.30874 0.756709 174 4 33
0.792247 1.8421 0.680864 172 255 36
1.30948 1.61074 -0.277322 174 4 33
0.803356 1.87875 0.648217 172 255 36
-0.569944 1.75967 2.35165 174 4 33
0.849212 1.89931 0.648223 172 255 36
-0.203514 1.7999 0.0264834 174 4 33
0.905053 1.77477 0.634834 172 255 36
-0.989167 0.639087 0.892933 174 4 33
0.91295 1.81858 0.610037 172 255 36
0.416694 2.31592 1.33543 174 4 33
0.859197 1.75421 0.634828 172 255 36
0.634235 0.977631 0.0695439 174 4 33
0.821237 1.77746 0.610025 172 255 36
-0.327368 3.7386 0.690192 174 4 33
0.829134 1.82127 0.585228 172 255 36
2.38025 1.35219 1.40344 174 4 33
0.87499 1.84183 0.585234 172 255 36
1.04571 1.85994 0.578875 174 4 33
0.923035 1.73469 0.531487 172 255 36
-0.13828 2.48767 1.19906 174 4 33
0.928854 1.78313 0.51863 172 255 36
0.569827 0.731592 0.252134 174 4 33
0.877179 1.71413 0.531481 172 255 36
1.93763 1.14381 0.689409 174 4 33
0.837142 1.74201 0.518618 172 255 36
-0.173689 2.71642 0.491202 174 4 33
0.842961 1.79046 0.505763 172 255 36
1.49475 0.451035 -0.534326 174 4 33
0.888817 1.81102 0.505769 172 255 36
-0.348203 0.948522 2.80794 174 4 33
0.936839 1.70395 0.360631 172 255 36
-0.0170498 0.918049 -0.239304 174 4 33
0.941962 1.75394 0.356384 172 255 36
2.01888 1.83982 2.03204 174 4 33
0.890982 1.68339 0.360625 172 255 36
0.507937 2.28894 0.955868 174 4 33
0.85025 1.71282 0.356372 172 255 36
-0.905862 1.48868 1.7168 174 4 33
0.855373 1.76282 0.352123 172 255 36
1.85169 3.31204 0.502699 174 4 33
0.90123 1.78338 0.352129 172 255 36
0.707957 1.9375 1.77672 174 4 33
0.936859 1.70393 0.287332 172 255 36
1.8401 1.2721 0.599072 174 4 33
0.941982 1.75392 0.287335 172 255 36
-1.98523 2.42424 -1.54224 174 4 33
0.891003 1.68337 0.287326 172 255 36
0.473167 3.37815 0.663008 174 4 33
0.85027 1.7128 0.287322 172 255 36
0.130132 0.953535 -0.166217 174 4 33
0.855393 1.76279 0.287325 172 255 36
1.20452 1.01074 0.731321 174 4 33
0.901249 1.78335 0.287331 172 255 36
2.49881 1.38647 1.19913 174 4 33
0.936888 1.70395 0.000505 172 255 36
1.19673 1.42316 0.76554 174 4 33
0.891031 1.68339 0.000499 172 255 36
1.37918 2.27004 0.354203 174 4 33
0.850298 1.71282 0.000508 172 255 36
-0.144382 3.26126 0.698025 174 4 33
0.855421 1.76281 0.000522 172 255 36
0.495285 1.61079 0.842138 174 4 33
0.901278 1.78337 0.000528 172 255 36
-0.482908 3.11076 -0.34004 174 4 33
0.942011 1.75394 0.00052 172 255 36
-1.21552 1.17842 1.11756 174 4 33
0.850284 1.71281 0.1641 172 255 36
1.52575 1.90153 -0.0486301 174 4 33
0.855407 1.7628 0.164101 172 255 36
-0.6465 2.13496 -0.463038 174 4 33
0.891017 1.68337 0.164103 172 255 36
-0.311392 2.70377 1.54003 174 4 33
0.936873 1.70393 0.164109 172 255 36
0.382085 1.52282 0.203437 174 4 33
0.941997 1.75392 0.164112 172 255 36
-0.33495 1.08814 -1.03104 174 4 33
0.901263 1.78336 0.164107 172 255 36
0.832909 3.01296 -0.515094 174 4 33
0.775477 2.12567 -0.969828 172 255 36
2.27785 1.76974 -0.302282 174 4 33
0.769782 2.07696 -0.981607 172 255 36
0.340351 1.17643 -2.15522 174 4 33
0.723926 2.0564 -0.981613 172 255 36
1.49124 0.839878 0.378917 174 4 33
0.683765 2.08455 -0.96984 172 255 36
1.14477 1.58218 -2.32837 174 4 33
0.68946 2.13326 -0.958061 172 255 36
-0.241519 3.73548 -1.18839 174 4 33
0.735316 2.15382 -0.958055 172 255 36
1.09335 2.77079 -2.51138 174 4 33
0.788576 2.09643 -0.88758 172 255 36
0.246209 2.84523 -2.01783 174 4 33
0.781251 2.05135 -0.909588 172 255 36
1.31589 0.394112 0.652908 174 4 33
0.735395 2.03079 -0.909594 172 255 36
-0.598815 2.33524 -0.097932 174 4 33
0.696863 2.05531 -0.887592 172 255 36
-0.919053 1.59787 -0.989512 174 4 33
0.704188 2.10039 -0.865583 172 255 36
2.14504 1.38581 -0.474074 174 4 33
0.750044 2.12094 -0.865577 172 255 36
-1.21262 3.04413 0.539414 174 4 33
0.811021 2.04635 -0.819055 172 255 36
1.20074 2.78323 -0.228286 174 4 33
0.800695 2.00797 -0.850229 172 255 36
-0.921322 2.14703 1.53219 174 4 33
0.754839 1.98741 -0.850235 172 255 36
-0.868812 0.313236 -1.2648 174 4 33
0.719309 2.00523 -0.819067 172 255 36
-0.237272 2.53621 -1.01411 174 4 33
0.729635 2.0436 -0.787893 172 255 36
1.54132 2.87444 -0.523311 174 4 33
0.775492 2.06416 -0.787887 172 255 36
3.41516 1.11816 -0.931417 174 4 33
0.88396 1.88362 -0.67976 172 255 36
1.03179 1.61358 0.0636394 174 4 33
0.872851 1.84699 -0.712428 172 255 36
1.73131 0.750967 -0.931587 174 4 33
0.826994 1.82643 -0.712434 172 255 36
-0.0768931 1.69897 0.108515 174 4 33
0.792247 1.8425 -0.679772 172 255 36
-0.148387 0.297878 -1.33377 174 4 33
0.803356 1.87913 -0.647103 172 255 36
0.390499 3.00818 -0.711884 174 4 33
0.849212 1.89969 -0.647097 172 255 36
0.0555346 1.84439 -0.946644 174 4 33
0.91295 1.81894 -0.608959 172 255 36
1.46954 2.93601 -0.891088 174 4 33
0.905053 1.77514 -0.633782 172 255 36
1.64664 1.73516 0.0938319 174 4 33
0.859197 1.75458 -0.633788 172 255 36
-1.9287 0.75236 -0.982883 174 4 33
0.821237 1.77782 -0.608971 172 255 36
-0.324969 1.20393 0.153204 174 4 33
0.829134 1.82162 -0.584148 172 255 36
0.633659 2.54048 1.08278 174 4 33
0.87499 1.84218 -0.584142 172 255 36
0.577276 2.63482 0.74356 174 4 33
0.928854 1.78344 -0.517574 172 255 36
0.49628 1.18418 0.297471 174 4 33
0.923035 1.735 -0.530459 172 255 36
1.5052 3.11961 0.490092 174 4 33
0.877179 1.71444 -0.530465 172 255 36
0.763934 -0.381862 -1.90023 174 4 33
0.837142 1.74232 -0.517586 172 255 36
-0.757269 2.83267 -0.6114 174 4 33
0.842961 1.79076 -0.504701 172 255 36
0.786625 2.49572 -0.734972 174 4 33
0.888817 1.81132 -0.504695 172 255 36
-0.0328653 2.08101 -2.56976 174 4 33
0.941962 1.75416 -0.355344 172 255 36
1.20707 2.21926 -0.642901 174 4 33
0.936839 1.70416 -0.359621 172 255 36
-0.966282 0.558453 -3.11635 174 4 33
0.890982 1.68361 -0.359627 172 255 36
0.110213 0.945237 -0.712008 174 4 33
0.85025 1.71304 -0.355356 172 255 36
1.36417 1.89815 0.439943 174 4 33
0.855373 1.76303 -0.351079 172 255 36
0.8662 0.559455 -0.296916 174 4 33
0.90123 1.78358 -0.351073 172 255 36
-1.07337 2.84642 -1.1773 174 4 33
0.941982 1.75409 -0.286295 172 255 36
1.03567 -0.0376953 -0.0815141 174 4 33
0.936859 1.7041 -0.286322 172 255 36
0.981109 2.16737 -0.557806 174 4 33
0.891003 1.68354 -0.286328 172 255 36
0.698922 0.838374 2.31569 174 4 33
0.85027 1.71297 -0.286307 172 255 36
0.791025 1.14133 1.11172 174 4 33
0.855393 1.76296 -0.286281 172 255 36
-0.849404 1.6491 0.511949 174 4 33
0.901249 1.78352 -0.286275 172 255 36
0.999882 1.2362 0.634559 174 4 33
0.855407 1.76289 -0.163057 172 255 36
0.378577 1.3788 -1.83299 174 4 33
0.850284 1.7129 -0.163084 172 255 36
-0.191205 2.60525 0.644624 174 4 33
0.891017 1.68347 -0.163105 172 255 36
0.169385 -0.37476 0.184095 174 4 33
0.936873 1.70403 -0.163099 172 255 36
0.726537 1.16164 -0.824216 174 4 33
0.941997 1.75402 -0.163072 172 255 36
1.34087 -0.59906 0.116838 174 4 33
0.901263 1.78345 -0.163051 172 255 36
0.709217 1.32694 2.20841 174 4 33
1.00199 1.73313 0.164118 172 255 36
-0.158012 1.60744 -0.354398 174 4 33
0.984184 1.77284 0.164117 172 255 36
0.0927591 3.34139 -0.966692 174 4 33
0.98417 1.77284 0.28734 172 255 36
0.522677 2.03698 2.24613 174 4 33
1.00198 1.73312 0.287341 172 255 36
0.406737 1.95969 -0.203491 174 4 33
0.966379 1.81255 0.164116 172 255 36
0.895916 1.15341 1.96863 174 4 33
0.966365 1.81255 0.28734 172 255 36
0.606616 2.70862 -0.0375853 174 4 33
0.921508 1.88804 0.238279 172 255 36
0.46668 2.48613 -0.816979 174 4 33
0.921511 1.88804 0.21317 172 255 36
1.44664 2.07699 1.04876 174 4 33
0.907756 1.88188 0.198093 172 255 36
0.986463 3.03457 0.311479 174 4 33
0.888496 1.87324 0.19809 172 255 36
-1.10554 1.95013 -0.504901 174 4 33
0.874738 1.86707 0.213164 172 255 36
0.681282 1.59528 0.985432 174 4 33
0.874735 1.86707 0.238273 172 255 36
2.07712 1.70237 0.52759 174 4 33
0.88849 1.87324 0.253352 172 255 36
0.383829 3.10894 0.684872 174 4 33
0.907749 1.88188 0.253355 172 255 36
0.819443 2.23898 0.0681202 174 4 33
0.782587 1.73015 0.164092 172 255 36
0.586415 2.66508 -0.30324 174 4 33
0.800392 1.69044 0.164093 172 255 36
-0.0714603 1.45498 -1.92321 174 4 33
0.800378 1.69043 0.287316 172 255 36
1.43185 1.38338 1.14737 174 4 33
0.782573 1.73014 0.287316 172 255 36
2.27784 1.88493 2.73109 174 4 33
0.818197 1.65072 0.164093 172 255 36
1.70646 1.37436 1.28537 174 4 33
0.818183 1.65072 0.287316 172 255 36
1.48048 0.792494 0.0945597 174 4 33
0.894829 1.47977 0.287319 172 255 36
0.839343 1.41978 -0.0585857 174 4 33
0.894843 1.47977 0.164095 172 255 36
2.09527 2.00715 -1.65285 174 4 33
1.07863 1.56217 0.16412 172 255 36
0.815874 1.14019 0.473727 174 4 33
1.07862 1.56217 0.287344 172 255 36
0.575046 0.493988 -0.922586 174 4 33
0.944572 1.86116 0.287338 172 255 36
0.710765 0.916586 0.621976 174 4 33
0.879456 1.83196 0.28733 172 255 36
1.41573 3.19249 1.2847 174 4 33
0.8336 1.8114 0.287324 172 255 36
1.2739 1.71992 2.30389 174 4 33
0.76078 1.77875 0.287314 172 255 36
0.799113 2.01373 -2.23311 174 4 33
0.760794 1.77876 0.164091 172 255 36
0.289947 0.860143 2.25291 174 4 33
0.833614 1.8114 0.164101 172 255 36
1.67376 2.15843 0.580524 174 4 33
0.87947 1.83196 0.164107 172 255 36
0.244234 2.37196 -0.303939 174 4 33
0.944586 1.86116 0.164115 172 255 36
-0.809157 2.52199 2.2226 174 4 33
0.769814 1.82003 0.253336 172 255 36
0.0154803 0.802836 0.63279 174 4 33
0.796777 1.83212 0.25334 172 255 36
-0.686308 1.3203 1.04756 174 4 33
0.810536 1.83829 0.238265 172 255 36
2.1607 2.39245 0.157005 174 4 33
0.810539 1.83829 0.213156 172 255 36
-0.0203655 2.52328 1.57975 174 4 33
0.796784 1.83212 0.198078 172 255 36
1.23424 1.50418 0.618787 174 4 33
0.76982 1.82003 0.198074 172 255 36
1.20103 -0.206081 0.448111 174 4 33
0.756062 1.81387 0.213148 172 255 36
-0.0849393 0.15505 0.754027 174 4 33
0.756059 1.81386 0.238257 172 255 36
1.62639 0.33103 -0.282063 174 4 33
0.885573 1.8347 0.264676 172 255 36
1.62147 2.30342 1.60074 174 4 33
0.888633 1.83607 0.238274 172 255 36
0.970005 1.53029 2.37054 174 4 33
0.888636 1.83607 0.213165 172 255 36
2.13365 -0.0954015 -0.587511 174 4 33
0.885582 1.83471 0.186763 172 255 36
0.0897495 2.07483 -0.296564 174 4 33
0.902394 1.84224 0.198091 172 255 36
1.67446 1.45679 0.430624 174 4 33
0.921654 1.85088 0.198093 172 255 36
0.186461 1.17156 1.75952 174 4 33
0.938469 1.85842 0.18677 172 255 36
0.603878 1.44453 0.0821082 174 4 33
0.935409 1.85705 0.213171 172 255 36
0.776768 3.42042 -0.41474 174 4 33
0.935406 1.85705 0.23828 172 255 36
-0.213246 2.422 -0.128559 174 4 33
0.93846 1.85842 0.264683 172 255 36
2.90264 1.95867 0.628042 174 4 33
0.921648 1.85088 0.253354 172 255 36
1.5684 1.81287 0.268377 174 4 33
0.902388 1.84224 0.253352 172 255 36
-0.687388 -0.198899 0.777128 174 4 33
0.766906 1.7815 0.186747 172 255 36
-1.4313 1.52701 -0.766002 174 4 33
0.783718 1.78903 0.198075 172 255 36
0.374559 0.949805 -0.922761 174 4 33
0.810682 1.80112 0.198079 172 255 36
-0.183557 2.76145 1.7687 174 4 33
0.827497 1.80866 0.186755 172 255 36
0.586184 1.54145 -1.57274 174 4 33
0.824437 1.80729 0.213157 172 255 36
0.915372 3.68944 -1.42282 174 4 33
0.824434 1.80729 0.238266 172 255 36
1.26529 1.60443 1.59295 174 4 33
0.827488 1.80866 0.264668 172 255 36
-0.938375 -0.513634 1.58496 174 4 33
0.810675 1.80112 0.25334 172 255 36
1.81861 2.81908 1.946 174 4 33
0.783712 1.78903 0.253336 172 255 36
-1.23052 1.47131 0.347112 174 4 33
0.766897 1.78149 0.26466 172 255 36
0.225512 2.86997 0.371863 174 4 33
0.769957 1.78287 0.238258 172 255 36
-0.385084 1.80131 0.386699 174 4 33
0.76996 1.78287 0.213149 172 255 36
-0.906195 0.31612 0.552827 174 4 33
0.875503 1.52287 0.287318 172 255 36
0.800895 2.54353 1.05864 174 4 33
1.0593 1.60528 0.287343 172 255 36
0.416047 1.72027 -0.245093 174 4 33
1.05931 1.60528 0.16412 172 255 36
-0.417972 0.706396 -0.0804151 174 4 33
0.875517 1.52288 0.164095 172 255 36
2.85555 1.38008 0.65947 174 4 33
1.05932 1.6053 0.000476 172 255 36
0.372411 0.8315 0.49701 174 4 33
1.07865 1.56219 0.000463 172 255 36
-0.404151 0.256125 1.0354 174 4 33
0.894856 1.47979 0.000438 172 255 36
-1.2666 1.23652 0.464888 174 4 33
0.875531 1.5229 0.000451 172 255 36
-0.0157639 1.57703 1.35442 174 4 33
1.00198 1.73329 -0.286313 172 255 36
1.31004 3.695 -1.85292 174 4 33
0.98417 1.77301 -0.28629 172 255 36
2.70494 1.12546 0.602667 174 4 33
0.984184 1.77294 -0.163067 172 255 36
0.825461 1.9504 -0.402394 174 4 33
1.00199 1.73322 -0.16309 172 255 36
0.14542 0.845891 -0.680764 174 4 33
0.966365 1.81272 -0.286266 172 255 36
0.683577 1.48999 -1.58599 174 4 33
0.966379 1.81265 -0.163042 172 255 36
0.0181598 1.99134 0.731899 174 4 33
0.907749 1.88203 -0.252239 172 255 36
0.868052 -0.0175451 0.044352 174 4 33
0.88849 1.87339 -0.252242 172 255 36
1.74036 1.91743 -0.428879 174 4 33
0.874735 1.86721 -0.237167 172 255 36
-1.40905 1.55059 -1.3871 174 4 33
0.874738 1.8672 -0.212058 172 255 36
1.2489 1.77713 0.946928 174 4 33
0.888496 1.87336 -0.19698 172 255 36
0.466652 1.44722 -1.52903 174 4 33
0.907756 1.88199 -0.196977 172 255 36
2.11789 1.67583 -2.59119 174 4 33
0.921511 1.88817 -0.212052 172 255 36
-1.69442 0.276406 0.971091 174 4 33
0.921508 1.88818 -0.237161 172 255 36
0.600959 0.689991 -1.30863 174 4 33
0.782573 1.73031 -0.28629 172 255 36
2.04485 2.8346 -1.4165 174 4 33
0.800378 1.6906 -0.286314 172 255 36
0.523002 0.554211 -0.798769 174 4 33
0.800392 1.69053 -0.163091 172 255 36
-0.521316 1.77489 0.452029 174 4 33
0.782587 1.73025 -0.163066 172 255 36
1.57941 0.485033 -1.66913 174 4 33
0.818183 1.65089 -0.286338 172 255 36
-0.510581 2.08477 -1.00867 174 4 33
0.818197 1.65082 -0.163115 172 255 36
0.941652 0.549501 -0.15179 174 4 33
1.07862 1.56234 -0.286418 172 255 36
0.0738978 2.78085 1.73374 174 4 33
1.07863 1.56227 -0.163194 172 255 36
0.527685 2.5602 -0.224152 174 4 33
0.894843 1.47987 -0.163218 172 255 36
1.05403 1.86954 -1.09799 174 4 33
0.894829 1.47994 -0.286442 172 255 36
-0.116961 1.43911 -0.5477 174 4 33
0.879456 1.83213 -0.286244 172 255 36
-0.326775 3.39102 0.0421682 174 4 33
0.944572 1.86133 -0.286235 172 255 36
0.74402 0.790674 0.294774 174 4 33
0.8336 1.81157 -0.28625 172 255 36
1.11851 2.9366 -0.372915 174 4 33
0.76078 1.77892 -0.28626 172 255 36
0.186488 1.438 0.671224 174 4 33
0.760794 1.77885 -0.163037 172 255 36
0.872912 1.64169 -0.303242 174 4 33
0.833614 1.8115 -0.163027 172 255 36
1.07337 0.224054 0.267771 174 4 33
0.87947 1.83206 -0.163021 172 255 36
0.546789 2.4204 -0.853458 174 4 33
0.944586 1.86126 -0.163012 172 255 36
0.691215 1.37729 -0.845236 174 4 33
0.756059 1.81401 -0.237182 172 255 36
0.937365 1.41765 1.53298 174 4 33
0.756062 1.81399 -0.212074 172 255 36
0.927337 3.26592 0.321897 174 4 33
0.76982 1.82015 -0.196996 172 255 36
1.2701 2.44326 -1.53454 174 4 33
0.796784 1.83224 -0.196992 172 255 36
1.30302 3.11438 -0.108815 174 4 33
0.810539 1.83842 -0.212066 172 255 36
0.0242666 2.11466 -0.488511 174 4 33
0.810536 1.83843 -0.237175 172 255 36
1.23538 1.10469 -0.313797 174 4 33
0.796777 1.83227 -0.252254 172 255 36
0.459854 0.70364 -0.212548 174 4 33
0.769814 1.82018 -0.252258 172 255 36
0.053125 2.91633 1.49566 174 4 33
0.885582 1.83482 -0.185675 172 255 36
0.693863 2.47151 0.420046 174 4 33
0.888636 1.8362 -0.212077 172 255 36
-0.167097 1.14936 0.480237 174 4 33
0.888633 1.83622 -0.237186 172 255 36
-0.314909 0.794059 0.467915 174 4 33
0.885573 1.83486 -0.263588 172 255 36
1.11262 0.957693 -0.68769 174 4 33
0.938469 1.85853 -0.185668 172 255 36
-0.158144 1.76525 0.327466 174 4 33
0.921654 1.85099 -0.196997 172 255 36
0.220268 1.2582 0.392161 174 4 33
0.902394 1.84236 -0.196999 172 255 36
1.15479 2.15957 1.27461 174 4 33
0.93846 1.85857 -0.263581 172 255 36
-0.583441 2.36933 1.17392 174 4 33
0.935406 1.85719 -0.23718 172 255 36
-0.138148 2.92367 0.76745 174 4 33
0.935409 1.85717 -0.212071 172 255 36
0.406034 0.671359 0.0926526 174 4 33
0.902388 1.84239 -0.25226 172 255 36
2.24626 1.40382 0.425115 174 4 33
0.921648 1.85103 -0.252258 172 255 36
0.245191 2.48205 1.88305 174 4 33
0.827497 1.80877 -0.185683 172 255 36
0.690852 1.62106 0.690158 174 4 33
0.810682 1.80124 -0.197011 172 255 36
0.979151 0.529952 0.550461 174 4 33
0.783718 1.78915 -0.197015 172 255 36
-0.792673 1.97487 -1.60787 174 4 33
0.766906 1.78161 -0.185691 172 255 36
2.12499 1.36302 0.0361881 174 4 33
0.827488 1.80882 -0.263596 172 255 36
-0.750885 2.40834 0.168319 174 4 33
0.824434 1.80743 -0.237194 172 255 36
-0.225718 0.746501 -0.181565 174 4 33
0.824437 1.80742 -0.212085 172 255 36
1.96327 2.66355 -0.944005 174 4 33
0.766897 1.78165 -0.263604 172 255 36
1.41334 1.53085 0.200794 174 4 33
0.783712 1.78918 -0.252276 172 255 36
2.83066 1.38679 0.768844 174 4 33
0.810675 1.80127 -0.252272 172 255 36
0.394726 1.73438 0.790825 174 4 33
0.76996 1.78299 -0.212093 172 255 36
1.47018 2.12545 -0.744248 174 4 33
0.769957 1.78301 -0.237202 172 255 36
2.79239 2.72162 0.0773344 174 4 33
1.0593 1.60545 -0.286391 172 255 36
1.06994 2.36361 -0.0903064 174 4 33
0.875503 1.52304 -0.286416 172 255 36
0.417424 0.838346 0.435064 174 4 33
1.05931 1.60538 -0.163168 172 255 36
-1.63129e-05 0.93804 0.983286 174 4 33
0.875517 1.52297 -0.163193 172 255 36
2.2151 2.80893 -0.156424 174 4 33
0.438772 1.86669 0.052413 172 255 36
-0.907671 2.19408 -0.576364 174 4 33
0.478528 1.86985 0.052816 172 255 36
-1.13531 2.3203 -0.229646 174 4 33
0.516072 1.87316 0.017081 172 255 36
0.311343 2.06452 -0.103542 174 4 33
0.515966 1.87349 -0.021364 172 255 36
0.55676 3.01112 0.745367 174 4 33
0.478138 1.87079 -0.056581 172 255 36
1.0058 2.4813 0.246452 174 4 33
0.438388 1.86762 -0.055545 172 255 36
0.655409 0.872637 -0.978291 174 4 33
0.400994 1.86432 -0.019952 172 255 36
0.917187 3.82114 0.669453 174 4 33
0.401097 1.864 0.017337 172 255 36
-1.85547 0.661047 -0.774047 174 4 33
0.43881 1.85989 -0.10995 172 255 36
0.506164 1.11015 0.710286 174 4 33
0.47856 1.86307 -0.110987 172 255 36
-0.893863 0.975335 1.13105 174 4 33
0.479865 1.84668 -0.111122 172 255 36
0.0275693 -0.372302 1.19053 174 4 33
0.440115 1.84351 -0.110085 172 255 36
-0.37458 2.43831 0.757586 174 4 33
0.517349 1.866 -0.093898 172 255 36
-0.168787 0.613383 -0.179942 174 4 33
0.555176 1.8687 -0.058682 172 255 36
2.26659 0.66546 -0.527101 174 4 33
0.556481 1.85232 -0.058817 172 255 36
0.0580562 0.905381 0.703279 174 4 33
0.518654 1.84962 -0.094032 172 255 36
0.919713 2.39086 -1.14024 174 4 33
0.574143 1.86989 -0.02185 172 255 36
0.929182 1.34316 -1.3985 174 4 33
0.574249 1.86955 0.016595 172 255 36
-1.01682 2.29767 0.786526 174 4 33
0.575554 1.85317 0.01646 172 255 36
1.13671 1.59144 -0.220971 174 4 33
0.575448 1.8535 -0.021985 172 255 36
0.614321 1.25828 0.448267 174 4 33
0.55553 1.86773 0.053686 172 255 36
1.44937 -0.188051 -0.423413 174 4 33
0.517986 1.86442 0.08942 172 255 36
-1.89581 2.86888 -0.585808 174 4 33
0.519291 1.84804 0.089286 172 255 36
0.754287 2.77284 -0.665794 174 4 33
0.556835 1.85135 0.05355 172 255 36
0.279384 1.08124 -0.95711 174 4 33
0.479336 1.86119 0.107086 172 255 36
-1.23099 1.72348 -1.66269 174 4 33
0.439581 1.85803 0.106683 172 255 36
0.377341 0.295236 0.743168 174 4 33
0.440886 1.84164 0.106549 172 255 36
2.80026 1.44406 -1.11268 174 4 33
0.480641 1.84481 0.106952 172 255 36
0.975333 1.33205 0.604505 174 4 33
0.400865 1.8551 0.088944 172 255 36
1.10913 0.530878 -0.34102 174 4 33
0.36319 1.85241 0.053869 172 255 36
2.32555 2.37278 -0.867667 174 4 33
0.364495 1.83603 0.053735 172 255 36
-0.85809 1.91718 0.196686 174 4 33
0.40217 1.83872 0.08881 172 255 36
-1.51548 0.802387 -1.91527 174 4 33
0.3443 1.85123 0.017687 172 255 36
-0.0193081 2.02478 0.768716 174 4 33
0.344197 1.85155 -0.019602 172 255 36
-0.266225 0.955707 -1.21843 174 4 33
0.345502 1.83517 -0.019737 172 255 36
0.308109 1.9167 0.531194 174 4 33
0.345605 1.83484 0.017552 172 255 36
1.10909 1.49546 -0.69897 174 4 33
0.362843 1.85336 -0.056043 172 255 36
1.06439 2.03503 0.210644 174 4 33
0.400238 1.85665 -0.091635 172 255 36
-0.685255 2.05321 0.728074 174 4 33
0.401543 1.84027 -0.09177 172 255 36
-0.830181 2.47593 0.0803253 174 4 33
0.364148 1.83698 -0.056178 172 255 36
0.357973 0.214879 -1.35415 174 4 33
0.553783 1.84383 -0.055546 172 255 36
0.205828 1.09844 -0.324044 174 4 33
0.571282 1.84493 -0.022035 172 255 36
-0.266108 1.10548 -0.923014 174 4 33
0.48059 1.83845 -0.106542 172 255 36
-0.245917 1.45352 -1.57529 174 4 33
0.515955 1.84113 -0.090763 172 255 36
0.0325724 3.33565 -0.162876 174 4 33
0.405624 1.83232 -0.08857 172 255 36
-0.849822 1.82197 0.363434 174 4 33
0.44084 1.83528 -0.105506 172 255 36
1.92577 2.224 -1.17006 174 4 33
0.350974 1.82736 -0.019823 172 255 36
0.275897 0.028338 0.577977 174 4 33
0.36823 1.82903 -0.052977 172 255 36
1.57185 3.55769 0.349757 174 4 33
0.368536 1.82814 0.050365 172 255 36
1.31028 0.102361 2.1331 174 4 33
0.351077 1.82704 0.017468 172 255 36
-0.408462 1.23061 -1.3513 174 4 33
0.441541 1.83349 0.101834 172 255 36
2.80198 1.89958 0.777979 174 4 33
0.406212 1.83082 0.085441 172 255 36
0.660799 1.44262 0.411275 174 4 33
0.516552 1.83961 0.085915 172 255 36
1.77292 3.59083 0.282222 174 4 33
0.481297 1.83666 0.102237 172 255 36
1.4859 2.5679 0.551161 174 4 33
0.571388 1.84459 0.01641 172 255 36
1.70243 -0.816473 -1.09501 174 4 33
0.554096 1.84292 0.05018 172 255 36
-0.885144 -0.615816 -1.86446 174 4 33
-0.805195 -0.033683 -1.34763 172 255 36
-1.15232 0.188253 -1.33829 174 4 33
-0.839218 -0.038316 -1.34765 172 255 36
0.338938 0.580695 -0.570285 174 4 33
-0.839403 0.027906 -1.34764 172 255 36
-1.03782 -0.650901 0.335299 174 4 33
-0.81024 0.034856 -1.34763 172 255 36
-2.69989 -1.48792 -0.177022 174 4 33
-0.797396 -0.203008 -0.65334 172 255 36
-2.22017 -0.333472 -1.44081 174 4 33
-0.759236 -0.19946 -0.653319 172 255 36
-1.33506 -1.46334 1.22255 174 4 33
-0.765079 -0.122863 -0.557733 172 255 36
-0.619461 0.0904973 -0.272692 174 4 33
-0.803238 -0.12641 -0.557753 172 255 36
-0.79606 -0.176815 -1.44386 174 4 33
-0.7745 0.002795 -0.653322 172 255 36
-3.00478 0.607485 -2.13934 174 4 33
-0.774562 0.002797 -0.557735 172 255 36
-1.62145 -0.871497 -0.365284 174 4 33
-0.87753 0.492465 -0.653365 172 255 36
-2.19832 1.10244 -1.05657 174 4 33
-0.877592 0.492467 -0.557777 172 255 36
-0.405244 0.475659 0.157611 174 4 33
-0.957664 0.662785 -0.653404 172 255 36
-0.697344 1.65109 -0.0272838 174 4 33
-0.957726 0.662788 -0.557817 172 255 36
-0.609058 1.40449 -1.76448 174 4 33
-1.09885 0.854396 -0.653474 172 255 36
-2.51483 1.14914 1.05581 174 4 33
-1.09891 0.854398 -0.557887 172 255 36
-1.09278 0.127133 -0.982116 174 4 33
-1.18662 0.950201 -0.653519 172 255 36
-0.258361 1.99773 0.691362 174 4 33
-1.18668 0.950203 -0.557931 172 255 36
-2.29075 2.08004 -0.496992 174 4 33
-1.24386 0.975039 -0.653549 172 255 36
-1.87239 1.35602 0.338937 174 4 33
-1.24392 0.975041 -0.557962 172 255 36
-1.47841 -0.461988 -1.39863 174 4 33
-1.35452 0.989233 -0.653609 172 255 36
-0.973873 0.469969 0.259668 174 4 33
-1.35458 0.989235 -0.558022 172 255 36
-1.58274 1.32444 -1.74312 174 4 33
-2.03093 0.999877 -0.654006 172 255 36
-1.06192 2.06246 -0.201103 174 4 33
-2.03099 0.99988 -0.558419 172 255 36
-4.0069 1.48326 -1.83254 174 4 33
-2.33054 0.985684 -0.654193 172 255 36
-1.68027 0.581439 -1.25518 174 4 33
-2.3306 0.985687 -0.558606 172 255 36
-2.51282 1.53899 -0.013534 174 4 33
-2.42862 0.936007 -0.65445 172 255 36
-3.5699 2.14852 -0.386599 174 4 33
-2.42867 0.93601 -0.558863 172 255 36
-2.08147 0.988372 -0.139424 174 4 33
-2.66662 0.850847 -0.65459 172 255 36
-3.32262 2.7465 0.0400178 174 4 33
-2.66667 0.85085 -0.559002 172 255 36
-2.64998 0.875433 -1.94241 174 4 33
-2.66662 0.833105 -0.65459 172 255 36
-2.49038 -0.762824 1.03904 174 4 33
-2.66667 0.833109 -0.559003 172 255 36
-1.99212 -0.266841 -1.94972 174 4 33
-0.797374 -0.208031 -0.686628 172 255 36
-1.96799 -0.395431 1.18427 174 4 33
-0.759215 -0.204393 -0.686607 172 255 36
-2.00923 -2.30308 -1.16254 174 4 33
-0.774478 0.002972 -0.68661 172 255 36
-0.0251256 1.01166 0.570465 174 4 33
-0.877508 0.505015 -0.686651 172 255 36
-1.54285 0.0431728 -2.10935 174 4 33
-0.957642 0.67964 -0.686691 172 255 36
-3.50899 0.793309 -2.05524 174 4 33
-1.09883 0.876091 -0.686761 172 255 36
-1.10854 2.16424 0.000693539 174 4 33
-1.1866 0.974317 -0.686806 172 255 36
-1.66611 0.261474 -1.83513 174 4 33
-1.24384 0.999783 -0.686836 172 255 36
-1.681 0.57468 -0.645184 174 4 33
-1.3545 1.01434 -0.686895 172 255 36
-0.910035 0.758091 -1.86808 174 4 33
-2.03091 1.02525 -0.687292 172 255 36
-1.64676 1.80335 -0.0180373 174 4 33
-2.33052 1.0107 -0.68748 172 255 36
-3.11397 1.83895 0.342813 174 4 33
-2.4286 0.959765 -0.687737 172 255 36
-2.16224 0.536716 0.0747676 174 4 33
-2.66659 0.848107 -0.687877 172 255 36
-2.59586 -0.0858852 -2.41901 174 4 33
-2.66659 0.829918 -0.687877 172 255 36
-1.2005 0.1205 -0.993077 174 4 33
-0.797022 -0.208064 -1.16603 172 255 36
-0.735773 0.600677 -0.69389 174 4 33
-0.758862 -0.204426 -1.16601 172 255 36
-1.60667 -0.953686 -2.5108 174 4 33
-0.774126 0.002938 -1.16601 172 255 36
0.511145 -0.656648 -1.16899 174 4 33
-0.877156 0.505 -1.2275 172 255 36
-1.47789 0.248263 -0.693514 174 4 33
-0.95729 0.679624 -1.22754 172 255 36
-1.54487 0.181138 -0.444401 174 4 33
-1.09848 0.876075 -1.22761 172 255 36
-3.05604 0.296648 -0.228563 174 4 33
-1.18624 0.974301 -1.22765 172 255 36
-2.42869 1.73661 -0.229312 174 4 33
-1.24348 0.999767 -1.22768 172 255 36
-1.45747 -0.300208 -2.6003 174 4 33
-1.35415 1.01432 -1.22774 172 255 36
-2.59585 0.635088 -1.50636 174 4 33
-2.03056 1.02523 -1.22814 172 255 36
-3.1628 0.382056 -2.66668 174 4 33
-2.33017 1.01068 -1.22833 172 255 36
-2.10393 1.26568 -1.69855 174 4 33
-2.42827 0.959749 -1.22858 172 255 36
-4.5198 2.49291 -1.82614 174 4 33
-2.6062 0.848091 -1.22872 172 255 36
-2.23631 -1.53469 -0.891121 174 4 33
