ply
format ascii 1.0
element vertex 1326
property float x
property float y
property float z
property uchar red
property uchar green
property uchar blue
end_header
1.11689 0.906788 0.564756 174 4 33
1.11689 0.90678 0.563965 172 255 36
1.15035 0.921005 0.514777 174 4 33
1.15035 0.920997 0.513986 172 255 36
1.17225 0.907404 0.53522 174 4 33
1.17225 0.907396 0.534429 172 255 36
1.21269 0.924587 0.520971 174 4 33
1.21269 0.924579 0.52018 172 255 36
1.14724 0.896778 0.572575 174 4 33
1.14724 0.89677 0.571784 172 255 36
1.14721 0.896767 0.618768 174 4 33
1.14721 0.896759 0.617977 172 255 36
1.17218 0.907376 0.656156 174 4 33
1.17218 0.907368 0.655365 172 255 36
1.2126 0.924552 0.670456 174 4 33
1.2126 0.924544 0.669665 172 255 36
1.25305 0.941735 0.656208 174 4 33
1.25305 0.941727 0.655417 172 255 36
1.27806 0.952361 0.618853 174 4 33
1.27806 0.952353 0.618062 172 255 36
1.27808 0.952372 0.572659 174 4 33
1.27808 0.952364 0.571868 172 255 36
1.25311 0.941763 0.535272 174 4 33
1.25311 0.941755 0.534481 172 255 36
1.22094 0.905191 0.495714 174 4 33
1.22094 0.905183 0.494923 172 255 36
1.27503 0.928172 0.514847 174 4 33
1.27503 0.928164 0.514056 172 255 36
1.30844 0.942366 0.564868 174 4 33
1.30844 0.942358 0.564077 172 255 36
1.30841 0.942351 0.626672 174 4 33
1.30841 0.942343 0.625881 172 255 36
1.27494 0.928134 0.67665 174 4 33
1.27494 0.928126 0.675859 172 255 36
1.22083 0.905145 0.695714 174 4 33
1.22083 0.905137 0.694923 172 255 36
1.16675 0.882165 0.676581 174 4 33
1.16675 0.882157 0.67579 172 255 36
1.13334 0.867971 0.626559 174 4 33
1.13334 0.867963 0.625768 172 255 36
1.13337 0.867985 0.564756 174 4 33
1.13337 0.867977 0.563965 172 255 36
1.16683 0.882202 0.514777 174 4 33
1.16683 0.882194 0.513986 172 255 36
1.18873 0.868601 0.53522 174 4 33
1.18873 0.868593 0.534429 172 255 36
1.22917 0.885784 0.520971 174 4 33
1.22917 0.885776 0.52018 172 255 36
1.16372 0.857975 0.572575 174 4 33
1.16372 0.857967 0.571784 172 255 36
1.1637 0.857964 0.618768 174 4 33
1.1637 0.857956 0.617977 172 255 36
1.18867 0.868573 0.656156 174 4 33
1.18867 0.868565 0.655365 172 255 36
1.22909 0.885749 0.670456 174 4 33
1.22909 0.885741 0.669665 172 255 36
1.26953 0.902932 0.656208 174 4 33
1.26953 0.902924 0.655417 172 255 36
1.29454 0.913558 0.618853 174 4 33
1.29454 0.91355 0.618062 172 255 36
1.29457 0.913569 0.572659 174 4 33
1.29457 0.913561 0.571868 172 255 36
1.2696 0.90296 0.535272 174 4 33
1.2696 0.902952 0.534481 172 255 36
1.23743 0.866388 0.495714 174 4 33
1.23743 0.86638 0.494923 172 255 36
1.29152 0.889369 0.514847 174 4 33
1.29152 0.889361 0.514056 172 255 36
1.32492 0.903563 0.564868 174 4 33
1.32492 0.903555 0.564077 172 255 36
1.32489 0.903548 0.626672 174 4 33
1.32489 0.90354 0.625881 172 255 36
1.29143 0.889331 0.67665 174 4 33
1.29143 0.889323 0.675859 172 255 36
1.23732 0.866342 0.695714 174 4 33
1.23732 0.866334 0.694923 172 255 36
1.18323 0.843362 0.676581 174 4 33
1.18323 0.843354 0.67579 172 255 36
1.14983 0.829168 0.626559 174 4 33
1.14983 0.82916 0.625768 172 255 36
1.14986 0.829182 0.564756 174 4 33
1.14986 0.829174 0.563965 172 255 36
1.18332 0.843399 0.514777 174 4 33
1.18332 0.843391 0.513986 172 255 36
1.20522 0.829798 0.53522 174 4 33
1.20522 0.82979 0.534429 172 255 36
1.24566 0.846981 0.520971 174 4 33
1.24566 0.846973 0.52018 172 255 36
1.18021 0.819172 0.572575 174 4 33
1.18021 0.819164 0.571784 172 255 36
1.18018 0.819162 0.618768 174 4 33
1.18018 0.819154 0.617977 172 255 36
1.20515 0.82977 0.656156 174 4 33
1.20515 0.829762 0.655365 172 255 36
1.24558 0.846946 0.670456 174 4 33
1.24558 0.846938 0.669665 172 255 36
1.28602 0.864129 0.656208 174 4 33
1.28602 0.864121 0.655417 172 255 36
1.31103 0.874755 0.618853 174 4 33
1.31103 0.874747 0.618062 172 255 36
1.31105 0.874766 0.572659 174 4 33
1.31105 0.874758 0.571868 172 255 36
1.28609 0.864157 0.535272 174 4 33
1.28609 0.864149 0.534481 172 255 36
1.25392 0.827586 0.495714 174 4 33
1.25392 0.827578 0.494923 172 255 36
1.308 0.850566 0.514847 174 4 33
1.308 0.850558 0.514056 172 255 36
1.34141 0.86476 0.564868 174 4 33
1.34141 0.864752 0.564077 172 255 36
1.34138 0.864746 0.626672 174 4 33
1.34138 0.864738 0.625881 172 255 36
1.30792 0.850528 0.67665 174 4 33
1.30792 0.85052 0.675859 172 255 36
1.25381 0.827539 0.695714 174 4 33
1.25381 0.827531 0.694923 172 255 36
1.19972 0.804559 0.676581 174 4 33
1.19972 0.804551 0.67579 172 255 36
1.16631 0.790365 0.626559 174 4 33
1.16631 0.790357 0.625768 172 255 36
1.16635 0.790379 0.564756 174 4 33
1.16635 0.790371 0.563965 172 255 36
1.19981 0.804596 0.514777 174 4 33
1.19981 0.804588 0.513986 172 255 36
1.2217 0.790995 0.53522 174 4 33
1.2217 0.790987 0.534429 172 255 36
1.26215 0.808178 0.520971 174 4 33
1.26215 0.80817 0.52018 172 255 36
1.19669 0.780369 0.572575 174 4 33
1.19669 0.780361 0.571784 172 255 36
1.19667 0.780359 0.618768 174 4 33
1.19667 0.780351 0.617977 172 255 36
1.22164 0.790967 0.656156 174 4 33
1.22164 0.790959 0.655365 172 255 36
1.26206 0.808144 0.670456 174 4 33
1.26206 0.808136 0.669665 172 255 36
1.30251 0.825326 0.656208 174 4 33
1.30251 0.825318 0.655417 172 255 36
1.32752 0.835953 0.618853 174 4 33
1.32752 0.835945 0.618062 172 255 36
1.32754 0.835963 0.572659 174 4 33
1.32754 0.835955 0.571868 172 255 36
1.30257 0.825354 0.535272 174 4 33
1.30257 0.825346 0.534481 172 255 36
1.2704 0.788783 0.495714 174 4 33
1.2704 0.788775 0.494923 172 255 36
1.32449 0.811763 0.514847 174 4 33
1.32449 0.811755 0.514056 172 255 36
1.3579 0.825957 0.564868 174 4 33
1.3579 0.825949 0.564077 172 255 36
1.35786 0.825943 0.626672 174 4 33
1.35786 0.825935 0.625881 172 255 36
1.3244 0.811726 0.67665 174 4 33
1.3244 0.811718 0.675859 172 255 36
1.27029 0.788736 0.695714 174 4 33
1.27029 0.788728 0.694923 172 255 36
1.21621 0.765756 0.676581 174 4 33
1.21621 0.765748 0.67579 172 255 36
1.1828 0.751562 0.626559 174 4 33
1.1828 0.751554 0.625768 172 255 36
1.18283 0.751576 0.564756 174 4 33
1.18283 0.751568 0.563965 172 255 36
1.21629 0.765793 0.514777 174 4 33
1.21629 0.765785 0.513986 172 255 36
1.23819 0.752193 0.53522 174 4 33
1.23819 0.752185 0.534429 172 255 36
1.27863 0.769375 0.520971 174 4 33
1.27863 0.769367 0.52018 172 255 36
1.21318 0.741566 0.572575 174 4 33
1.21318 0.741558 0.571784 172 255 36
1.21316 0.741556 0.618768 174 4 33
1.21316 0.741548 0.617977 172 255 36
1.23812 0.752164 0.656156 174 4 33
1.23812 0.752156 0.655365 172 255 36
1.27855 0.769341 0.670456 174 4 33
1.27855 0.769333 0.669665 172 255 36
1.31899 0.786523 0.656208 174 4 33
1.31899 0.786515 0.655417 172 255 36
1.344 0.79715 0.618853 174 4 33
1.344 0.797142 0.618062 172 255 36
1.34403 0.79716 0.572659 174 4 33
1.34403 0.797152 0.571868 172 255 36
1.31906 0.786551 0.535272 174 4 33
1.31906 0.786543 0.534481 172 255 36
1.28689 0.74998 0.495714 174 4 33
1.28689 0.749972 0.494923 172 255 36
1.34098 0.77296 0.514847 174 4 33
1.34098 0.772952 0.514056 172 255 36
1.37438 0.787154 0.564868 174 4 33
1.37438 0.787146 0.564077 172 255 36
1.37435 0.78714 0.626672 174 4 33
1.37435 0.787132 0.625881 172 255 36
1.34089 0.772923 0.67665 174 4 33
1.34089 0.772915 0.675859 172 255 36
1.28678 0.749933 0.695714 174 4 33
1.28678 0.749925 0.694923 172 255 36
1.23269 0.726953 0.676581 174 4 33
1.23269 0.726945 0.67579 172 255 36
1.19929 0.712759 0.626559 174 4 33
1.19929 0.712751 0.625768 172 255 36
1.19932 0.712773 0.564756 174 4 33
1.19932 0.712765 0.563965 172 255 36
1.23278 0.72699 0.514777 174 4 33
1.23278 0.726982 0.513986 172 255 36
1.25468 0.71339 0.53522 174 4 33
1.25468 0.713382 0.534429 172 255 36
1.29512 0.730572 0.520971 174 4 33
1.29512 0.730564 0.52018 172 255 36
1.22967 0.702763 0.572575 174 4 33
1.22967 0.702755 0.571784 172 255 36
1.22964 0.702753 0.618768 174 4 33
1.22964 0.702745 0.617977 172 255 36
1.25461 0.713362 0.656156 174 4 33
1.25461 0.713354 0.655365 172 255 36
1.29504 0.730538 0.670456 174 4 33
1.29504 0.73053 0.669665 172 255 36
1.33548 0.747721 0.656208 174 4 33
1.33548 0.747713 0.655417 172 255 36
1.36049 0.758347 0.618853 174 4 33
1.36049 0.758339 0.618062 172 255 36
1.36051 0.758357 0.572659 174 4 33
1.36051 0.758349 0.571868 172 255 36
1.33554 0.747749 0.535272 174 4 33
1.33554 0.747741 0.534481 172 255 36
1.30338 0.711177 0.495714 174 4 33
1.30338 0.711169 0.494923 172 255 36
1.35746 0.734157 0.514847 174 4 33
1.35746 0.734149 0.514056 172 255 36
1.39087 0.748351 0.564868 174 4 33
1.39087 0.748343 0.564077 172 255 36
1.39084 0.748337 0.626672 174 4 33
1.39084 0.748329 0.625881 172 255 36
1.35738 0.73412 0.67665 174 4 33
1.35738 0.734112 0.675859 172 255 36
1.30327 0.71113 0.695714 174 4 33
1.30327 0.711122 0.694923 172 255 36
1.24918 0.68815 0.676581 174 4 33
1.24918 0.688142 0.67579 172 255 36
1.21577 0.673956 0.626559 174 4 33
1.21577 0.673948 0.625768 172 255 36
1.21581 0.67397 0.564756 174 4 33
1.21581 0.673962 0.563965 172 255 36
1.24927 0.688187 0.514777 174 4 33
1.24927 0.688179 0.513986 172 255 36
1.27116 0.674587 0.53522 174 4 33
1.27116 0.674579 0.534429 172 255 36
1.3116 0.691769 0.520971 174 4 33
1.3116 0.691761 0.52018 172 255 36
1.24615 0.663961 0.572575 174 4 33
1.24615 0.663953 0.571784 172 255 36
1.24613 0.66395 0.618768 174 4 33
1.24613 0.663942 0.617977 172 255 36
1.2711 0.674559 0.656156 174 4 33
1.2711 0.674551 0.655365 172 255 36
1.31152 0.691735 0.670456 174 4 33
1.31152 0.691727 0.669665 172 255 36
1.35196 0.708918 0.656208 174 4 33
1.35196 0.70891 0.655417 172 255 36
1.37698 0.719544 0.618853 174 4 33
1.37698 0.719536 0.618062 172 255 36
1.377 0.719554 0.572659 174 4 33
1.377 0.719546 0.571868 172 255 36
1.35203 0.708946 0.535272 174 4 33
1.35203 0.708938 0.534481 172 255 36
1.31986 0.672374 0.495714 174 4 33
1.31986 0.672366 0.494923 172 255 36
1.37395 0.695354 0.514847 174 4 33
1.37395 0.695346 0.514056 172 255 36
1.40736 0.709548 0.564868 174 4 33
1.40736 0.70954 0.564077 172 255 36
1.40732 0.709534 0.626672 174 4 33
1.40732 0.709526 0.625881 172 255 36
1.37386 0.695317 0.67665 174 4 33
1.37386 0.695309 0.675859 172 255 36
1.31975 0.672328 0.695714 174 4 33
1.31975 0.67232 0.694923 172 255 36
1.26567 0.649347 0.676581 174 4 33
1.26567 0.649339 0.67579 172 255 36
1.23226 0.635153 0.626559 174 4 33
1.23226 0.635145 0.625768 172 255 36
1.23229 0.635168 0.564756 174 4 33
1.23229 0.63516 0.563965 172 255 36
1.26575 0.649385 0.514777 174 4 33
1.26575 0.649377 0.513986 172 255 36
1.28765 0.635784 0.53522 174 4 33
1.28765 0.635776 0.534429 172 255 36
1.32809 0.652967 0.520971 174 4 33
1.32809 0.652959 0.52018 172 255 36
1.26264 0.625158 0.572575 174 4 33
1.26264 0.62515 0.571784 172 255 36
1.26261 0.625147 0.618768 174 4 33
1.26261 0.625139 0.617977 172 255 36
1.28758 0.635756 0.656156 174 4 33
1.28758 0.635748 0.655365 172 255 36
1.32801 0.652932 0.670456 174 4 33
1.32801 0.652924 0.669665 172 255 36
1.36845 0.670115 0.656208 174 4 33
1.36845 0.670107 0.655417 172 255 36
1.39346 0.680741 0.618853 174 4 33
1.39346 0.680733 0.618062 172 255 36
1.39349 0.680752 0.572659 174 4 33
1.39349 0.680744 0.571868 172 255 36
1.36852 0.670143 0.535272 174 4 33
1.36852 0.670135 0.534481 172 255 36
1.33635 0.633571 0.495714 174 4 33
1.33635 0.633563 0.494923 172 255 36
1.39044 0.656551 0.514847 174 4 33
1.39044 0.656543 0.514056 172 255 36
1.42384 0.670745 0.564868 174 4 33
1.42384 0.670737 0.564077 172 255 36
1.42381 0.670731 0.626672 174 4 33
1.42381 0.670723 0.625881 172 255 36
1.39035 0.656514 0.67665 174 4 33
1.39035 0.656506 0.675859 172 255 36
1.33624 0.633525 0.695714 174 4 33
1.33624 0.633517 0.694923 172 255 36
1.28215 0.610544 0.676581 174 4 33
1.28215 0.610536 0.67579 172 255 36
1.24874 0.59635 0.626559 174 4 33
1.24874 0.596342 0.625768 172 255 36
1.24878 0.596365 0.564756 174 4 33
1.24878 0.596357 0.563965 172 255 36
1.28224 0.610582 0.514777 174 4 33
1.28224 0.610574 0.513986 172 255 36
1.30413 0.596981 0.53522 174 4 33
1.30413 0.596973 0.534429 172 255 36
1.34458 0.614164 0.520971 174 4 33
1.34458 0.614156 0.52018 172 255 36
1.27912 0.586355 0.572575 174 4 33
1.27912 0.586347 0.571784 172 255 36
1.2791 0.586344 0.618768 174 4 33
1.2791 0.586336 0.617977 172 255 36
1.30407 0.596953 0.656156 174 4 33
1.30407 0.596945 0.655365 172 255 36
1.3445 0.614129 0.670456 174 4 33
1.3445 0.614121 0.669665 172 255 36
1.38494 0.631312 0.656208 174 4 33
1.38494 0.631304 0.655417 172 255 36
1.40995 0.641938 0.618853 174 4 33
1.40995 0.64193 0.618062 172 255 36
1.40997 0.641949 0.572659 174 4 33
1.40997 0.641941 0.571868 172 255 36
1.385 0.63134 0.535272 174 4 33
1.385 0.631332 0.534481 172 255 36
1.35283 0.594768 0.495714 174 4 33
1.35283 0.59476 0.494923 172 255 36
1.40692 0.617749 0.514847 174 4 33
1.40692 0.617741 0.514056 172 255 36
1.44033 0.631942 0.564868 174 4 33
1.44033 0.631934 0.564077 172 255 36
1.4403 0.631928 0.626672 174 4 33
1.4403 0.63192 0.625881 172 255 36
1.40683 0.617711 0.67665 174 4 33
1.40683 0.617703 0.675859 172 255 36
1.35273 0.594722 0.695714 174 4 33
1.35273 0.594714 0.694923 172 255 36
1.29864 0.571741 0.676581 174 4 33
1.29864 0.571733 0.67579 172 255 36
1.26523 0.557547 0.626559 174 4 33
1.26523 0.557539 0.625768 172 255 36
1.26526 0.557562 0.564756 174 4 33
1.26526 0.557554 0.563965 172 255 36
1.29873 0.571779 0.514777 174 4 33
1.29873 0.571771 0.513986 172 255 36
1.32062 0.558178 0.53522 174 4 33
1.32062 0.55817 0.534429 172 255 36
1.36106 0.575361 0.520971 174 4 33
1.36106 0.575353 0.52018 172 255 36
1.29561 0.547552 0.572575 174 4 33
1.29561 0.547544 0.571784 172 255 36
1.29559 0.547541 0.618768 174 4 33
1.29559 0.547533 0.617977 172 255 36
1.32056 0.55815 0.656156 174 4 33
1.32056 0.558142 0.655365 172 255 36
1.36098 0.575326 0.670456 174 4 33
1.36098 0.575318 0.669665 172 255 36
1.40142 0.592509 0.656208 174 4 33
1.40142 0.592501 0.655417 172 255 36
1.42643 0.603135 0.618853 174 4 33
1.42643 0.603127 0.618062 172 255 36
1.42646 0.603146 0.572659 174 4 33
1.42646 0.603138 0.571868 172 255 36
1.40149 0.592537 0.535272 174 4 33
1.40149 0.592529 0.534481 172 255 36
1.36932 0.555965 0.495714 174 4 33
1.36932 0.555957 0.494923 172 255 36
1.42341 0.578946 0.514847 174 4 33
1.42341 0.578938 0.514056 172 255 36
1.45682 0.593139 0.564868 174 4 33
1.45682 0.593131 0.564077 172 255 36
1.45678 0.593125 0.626672 174 4 33
1.45678 0.593117 0.625881 172 255 36
1.42332 0.578908 0.67665 174 4 33
1.42332 0.5789 0.675859 172 255 36
1.36921 0.555919 0.695714 174 4 33
1.36921 0.555911 0.694923 172 255 36
1.31512 0.532938 0.676581 174 4 33
1.31512 0.53293 0.67579 172 255 36
1.28172 0.518744 0.626559 174 4 33
1.28172 0.518736 0.625768 172 255 36
1.28175 0.518759 0.564756 174 4 33
1.28175 0.518751 0.563965 172 255 36
1.31521 0.532976 0.514777 174 4 33
1.31521 0.532968 0.513986 172 255 36
1.33711 0.519375 0.53522 174 4 33
1.33711 0.519367 0.534429 172 255 36
1.37755 0.536558 0.520971 174 4 33
1.37755 0.53655 0.52018 172 255 36
1.3121 0.508749 0.572575 174 4 33
1.3121 0.508741 0.571784 172 255 36
1.31207 0.508738 0.618768 174 4 33
1.31207 0.50873 0.617977 172 255 36
1.33704 0.519347 0.656156 174 4 33
1.33704 0.519339 0.655365 172 255 36
1.37747 0.536523 0.670456 174 4 33
1.37747 0.536515 0.669665 172 255 36
1.41791 0.553706 0.656208 174 4 33
1.41791 0.553698 0.655417 172 255 36
1.44292 0.564332 0.618853 174 4 33
1.44292 0.564324 0.618062 172 255 36
1.44295 0.564343 0.572659 174 4 33
1.44295 0.564335 0.571868 172 255 36
1.41798 0.553734 0.535272 174 4 33
1.41798 0.553726 0.534481 172 255 36
1.38581 0.517162 0.495714 174 4 33
1.38581 0.517154 0.494923 172 255 36
1.4399 0.540143 0.514847 174 4 33
1.4399 0.540135 0.514056 172 255 36
1.4733 0.554337 0.564868 174 4 33
1.4733 0.554329 0.564077 172 255 36
1.47327 0.554322 0.626672 174 4 33
1.47327 0.554314 0.625881 172 255 36
1.43981 0.540105 0.67665 174 4 33
1.43981 0.540097 0.675859 172 255 36
1.3857 0.517116 0.695714 174 4 33
1.3857 0.517108 0.694923 172 255 36
1.33161 0.494135 0.676581 174 4 33
1.33161 0.494127 0.67579 172 255 36
1.2982 0.479942 0.626559 174 4 33
1.2982 0.479934 0.625768 172 255 36
1.29824 0.479956 0.564756 174 4 33
1.29824 0.479948 0.563965 172 255 36
1.3317 0.494173 0.514777 174 4 33
1.3317 0.494165 0.513986 172 255 36
1.35359 0.480572 0.53522 174 4 33
1.35359 0.480564 0.534429 172 255 36
1.39404 0.497755 0.520971 174 4 33
1.39404 0.497747 0.52018 172 255 36
1.32858 0.469946 0.572575 174 4 33
1.32858 0.469938 0.571784 172 255 36
1.32856 0.469935 0.618768 174 4 33
1.32856 0.469927 0.617977 172 255 36
1.35353 0.480544 0.656156 174 4 33
1.35353 0.480536 0.655365 172 255 36
1.39395 0.49772 0.670456 174 4 33
1.39395 0.497712 0.669665 172 255 36
1.4344 0.514903 0.656208 174 4 33
1.4344 0.514895 0.655417 172 255 36
1.45941 0.525529 0.618853 174 4 33
1.45941 0.525521 0.618062 172 255 36
1.45943 0.52554 0.572659 174 4 33
1.45943 0.525532 0.571868 172 255 36
1.43446 0.514931 0.535272 174 4 33
1.43446 0.514923 0.534481 172 255 36
1.40229 0.478359 0.495714 174 4 33
1.40229 0.478351 0.494923 172 255 36
1.45638 0.50134 0.514847 174 4 33
1.45638 0.501332 0.514056 172 255 36
1.48979 0.515534 0.564868 174 4 33
1.48979 0.515526 0.564077 172 255 36
1.48976 0.515519 0.626672 174 4 33
1.48976 0.515511 0.625881 172 255 36
1.45629 0.501302 0.67665 174 4 33
1.45629 0.501294 0.675859 172 255 36
1.40218 0.478313 0.695714 174 4 33
1.40218 0.478305 0.694923 172 255 36
1.3481 0.455333 0.676581 174 4 33
1.3481 0.455325 0.67579 172 255 36
1.31469 0.441139 0.626559 174 4 33
1.31469 0.441131 0.625768 172 255 36
1.31472 0.441153 0.564756 174 4 33
1.31472 0.441145 0.563965 172 255 36
1.34818 0.45537 0.514777 174 4 33
1.34818 0.455362 0.513986 172 255 36
1.37008 0.441769 0.53522 174 4 33
1.37008 0.441761 0.534429 172 255 36
1.41052 0.458952 0.520971 174 4 33
1.41052 0.458944 0.52018 172 255 36
1.34507 0.431143 0.572575 174 4 33
1.34507 0.431135 0.571784 172 255 36
1.34504 0.431132 0.618768 174 4 33
1.34504 0.431124 0.617977 172 255 36
1.37002 0.441741 0.656156 174 4 33
1.37002 0.441733 0.655365 172 255 36
1.41044 0.458917 0.670456 174 4 33
1.41044 0.458909 0.669665 172 255 36
1.45088 0.4761 0.656208 174 4 33
1.45088 0.476092 0.655417 172 255 36
1.47589 0.486726 0.618853 174 4 33
1.47589 0.486718 0.618062 172 255 36
1.47592 0.486737 0.572659 174 4 33
1.47592 0.486729 0.571868 172 255 36
1.45095 0.476128 0.535272 174 4 33
1.45095 0.47612 0.534481 172 255 36
1.41878 0.439556 0.495714 174 4 33
1.41878 0.439548 0.494923 172 255 36
1.47287 0.462537 0.514847 174 4 33
1.47287 0.462529 0.514056 172 255 36
1.50628 0.476731 0.564868 174 4 33
1.50628 0.476723 0.564077 172 255 36
1.50624 0.476716 0.626672 174 4 33
1.50624 0.476708 0.625881 172 255 36
1.47278 0.462499 0.67665 174 4 33
1.47278 0.462491 0.675859 172 255 36
1.41867 0.43951 0.695714 174 4 33
1.41867 0.439502 0.694923 172 255 36
1.36458 0.41653 0.676581 174 4 33
1.36458 0.416522 0.67579 172 255 36
1.33118 0.402336 0.626559 174 4 33
1.33118 0.402328 0.625768 172 255 36
1.33121 0.40235 0.564756 174 4 33
1.33121 0.402342 0.563965 172 255 36
1.36467 0.416567 0.514777 174 4 33
1.36467 0.416559 0.513986 172 255 36
1.38657 0.402966 0.53522 174 4 33
1.38657 0.402958 0.534429 172 255 36
1.42701 0.420149 0.520971 174 4 33
1.42701 0.420141 0.52018 172 255 36
1.36156 0.39234 0.572575 174 4 33
1.36156 0.392332 0.571784 172 255 36
1.36153 0.392329 0.618768 174 4 33
1.36153 0.392321 0.617977 172 255 36
1.3865 0.402938 0.656156 174 4 33
1.3865 0.40293 0.655365 172 255 36
1.42693 0.420114 0.670456 174 4 33
1.42693 0.420106 0.669665 172 255 36
1.46737 0.437297 0.656208 174 4 33
1.46737 0.437289 0.655417 172 255 36
1.49238 0.447923 0.618853 174 4 33
1.49238 0.447915 0.618062 172 255 36
1.49241 0.447934 0.572659 174 4 33
1.49241 0.447926 0.571868 172 255 36
1.46744 0.437325 0.535272 174 4 33
1.46744 0.437317 0.534481 172 255 36
1.43527 0.400753 0.495714 174 4 33
1.43527 0.400745 0.494923 172 255 36
1.48935 0.423734 0.514847 174 4 33
1.48935 0.423726 0.514056 172 255 36
1.52276 0.437928 0.564868 174 4 33
1.52276 0.43792 0.564077 172 255 36
1.52273 0.437913 0.626672 174 4 33
1.52273 0.437905 0.625881 172 255 36
1.48927 0.423696 0.67665 174 4 33
1.48927 0.423688 0.675859 172 255 36
1.43516 0.400707 0.695714 174 4 33
1.43516 0.400699 0.694923 172 255 36
1.38107 0.377727 0.676581 174 4 33
1.38107 0.377719 0.67579 172 255 36
1.34766 0.363533 0.626559 174 4 33
1.34766 0.363525 0.625768 172 255 36
1.3477 0.363547 0.564756 174 4 33
1.3477 0.363539 0.563965 172 255 36
1.38116 0.377764 0.514777 174 4 33
1.38116 0.377756 0.513986 172 255 36
1.52925 0.42265 0.564868 174 4 33
1.52925 0.422642 0.564077 172 255 36
1.49584 0.408456 0.514847 174 4 33
1.49584 0.408448 0.514056 172 255 36
1.44176 0.385475 0.495714 174 4 33
1.44176 0.385467 0.494923 172 255 36
1.38765 0.362486 0.514777 174 4 33
1.38765 0.362478 0.513986 172 255 36
1.35419 0.348269 0.564756 174 4 33
1.35419 0.348261 0.563965 172 255 36
1.35415 0.348255 0.626559 174 4 33
1.35415 0.348247 0.625768 172 255 36
1.38756 0.362449 0.676581 174 4 33
1.38756 0.362441 0.67579 172 255 36
1.44165 0.385429 0.695714 174 4 33
1.44165 0.385421 0.694923 172 255 36
1.49576 0.408418 0.67665 174 4 33
1.49576 0.40841 0.675859 172 255 36
1.52922 0.422635 0.626672 174 4 33
1.52922 0.422627 0.625881 172 255 36
1.44165 0.385431 0.687462 174 4 33
1.44165 0.385423 0.686671 172 255 36
1.4913 0.406523 0.669972 174 4 33
1.4913 0.406515 0.669181 172 255 36
1.522 0.419567 0.624117 174 4 33
1.522 0.419559 0.623326 172 255 36
1.52203 0.41958 0.567414 174 4 33
1.52203 0.419572 0.566623 172 255 36
1.49138 0.406558 0.52152 174 4 33
1.49138 0.40655 0.520729 172 255 36
1.44175 0.385473 0.503965 174 4 33
1.44175 0.385465 0.503174 172 255 36
1.39211 0.364381 0.521456 174 4 33
1.39211 0.364373 0.520665 172 255 36
1.36141 0.351337 0.56731 174 4 33
1.36141 0.351329 0.566519 172 255 36
1.36138 0.351324 0.624014 174 4 33
1.36138 0.351316 0.623223 172 255 36
1.39203 0.364347 0.669908 174 4 33
1.39203 0.364339 0.669117 172 255 36
1.37954 0.308669 0.56731 174 4 33
1.37954 0.308661 0.566519 172 255 36
1.37951 0.308656 0.624014 174 4 33
1.37951 0.308648 0.623223 172 255 36
1.41016 0.321678 0.669908 174 4 33
1.41016 0.32167 0.669117 172 255 36
1.45978 0.342762 0.687462 174 4 33
1.45978 0.342754 0.686671 172 255 36
1.50943 0.363855 0.669972 174 4 33
1.50943 0.363847 0.669181 172 255 36
1.54013 0.376899 0.624117 174 4 33
1.54013 0.376891 0.623326 172 255 36
1.54016 0.376912 0.567414 174 4 33
1.54016 0.376904 0.566623 172 255 36
1.50951 0.363889 0.52152 174 4 33
1.50951 0.363881 0.520729 172 255 36
1.45988 0.342805 0.503965 174 4 33
1.45988 0.342797 0.503174 172 255 36
1.41024 0.321713 0.521456 174 4 33
1.41024 0.321705 0.520665 172 255 36
1.51327 0.359707 0.51901 174 4 33
1.51327 0.359699 0.518219 172 255 36
1.46196 0.337909 0.500861 174 4 33
1.46196 0.337901 0.50007 172 255 36
1.41064 0.316103 0.518943 174 4 33
1.41064 0.316095 0.518152 172 255 36
1.3789 0.302618 0.566349 174 4 33
1.3789 0.30261 0.565558 172 255 36
1.37887 0.302605 0.624971 174 4 33
1.37887 0.302597 0.62418 172 255 36
1.41056 0.316068 0.672418 174 4 33
1.41056 0.31606 0.671627 172 255 36
1.46186 0.337865 0.690566 174 4 33
1.46186 0.337857 0.689775 172 255 36
1.51318 0.359671 0.672484 174 4 33
1.51318 0.359663 0.671693 172 255 36
1.54492 0.373157 0.625078 174 4 33
1.54492 0.373149 0.624287 172 255 36
1.54496 0.37317 0.566456 174 4 33
1.54496 0.373162 0.565665 172 255 36
1.10816 1.0203 0.514777 174 4 33
1.10816 1.02029 0.513986 172 255 36
1.16227 1.04329 0.495714 174 4 33
1.16227 1.04328 0.494923 172 255 36
1.21636 1.06627 0.514847 174 4 33
1.21636 1.06626 0.514056 172 255 36
1.24977 1.08046 0.564868 174 4 33
1.24977 1.08045 0.564077 172 255 36
1.24973 1.08045 0.626672 174 4 33
1.24973 1.08044 0.625881 172 255 36
1.21627 1.06623 0.67665 174 4 33
1.21627 1.06622 0.675859 172 255 36
1.16216 1.04324 0.695714 174 4 33
1.16216 1.04323 0.694923 172 255 36
1.10808 1.02026 0.676581 174 4 33
1.10808 1.02025 0.67579 172 255 36
1.07467 1.00606 0.626559 174 4 33
1.07467 1.00605 0.625768 172 255 36
1.0747 1.00608 0.564756 174 4 33
1.0747 1.00607 0.563965 172 255 36
1.11092 1.02147 0.672329 174 4 33
1.11092 1.02146 0.671538 172 255 36
1.07927 1.00802 0.624938 174 4 33
1.07927 1.00801 0.624147 172 255 36
1.0793 1.00804 0.566383 174 4 33
1.0793 1.00803 0.565592 172 255 36
1.111 1.0215 0.519032 174 4 33
1.111 1.02149 0.518241 172 255 36
1.16227 1.04328 0.500971 174 4 33
1.16227 1.04327 0.50018 172 255 36
1.21351 1.06506 0.519098 174 4 33
1.21351 1.06505 0.518307 172 255 36
1.24516 1.07851 0.56649 174 4 33
1.24516 1.0785 0.565699 172 255 36
1.24513 1.07849 0.625044 174 4 33
1.24513 1.07848 0.624253 172 255 36
1.21343 1.06502 0.672395 174 4 33
1.21343 1.06501 0.671604 172 255 36
1.16217 1.04324 0.690456 174 4 33
1.16217 1.04323 0.689665 172 255 36
1.23141 1.11078 0.625044 174 4 33
1.23141 1.11077 0.624253 172 255 36
1.19971 1.09731 0.672395 174 4 33
1.19971 1.0973 0.671604 172 255 36
1.14845 1.07553 0.690456 174 4 33
1.14845 1.07552 0.689665 172 255 36
1.0972 1.05376 0.672329 174 4 33
1.0972 1.05375 0.671538 172 255 36
1.06555 1.04031 0.624938 174 4 33
1.06555 1.0403 0.624147 172 255 36
1.06559 1.04032 0.566383 174 4 33
1.06559 1.04031 0.565592 172 255 36
1.09729 1.05379 0.519032 174 4 33
1.09729 1.05378 0.518241 172 255 36
1.14855 1.07557 0.500971 174 4 33
1.14855 1.07556 0.50018 172 255 36
1.1998 1.09734 0.519098 174 4 33
1.1998 1.09733 0.518307 172 255 36
1.23145 1.11079 0.56649 174 4 33
1.23145 1.11078 0.565699 172 255 36
1.14854 1.07557 0.525862 174 4 33
1.14854 1.07556 0.525071 172 255 36
1.18632 1.09162 0.539227 174 4 33
1.18632 1.09161 0.538436 172 255 36
1.20965 1.10153 0.574168 174 4 33
1.20965 1.10152 0.573377 172 255 36
1.20963 1.10152 0.617339 174 4 33
1.20963 1.10151 0.616548 172 255 36
1.18626 1.09159 0.65225 174 4 33
1.18626 1.09158 0.651459 172 255 36
1.14846 1.07553 0.665566 174 4 33
1.14846 1.07552 0.664775 172 255 36
1.11068 1.05948 0.652201 174 4 33
1.11068 1.05947 0.65141 172 255 36
1.08734 1.04957 0.61726 174 4 33
1.08734 1.04956 0.616469 172 255 36
1.08737 1.04958 0.574089 174 4 33
1.08737 1.04957 0.573298 172 255 36
1.11074 1.05951 0.539178 174 4 33
1.11074 1.0595 0.538387 172 255 36
1.17971 1.00219 -0.519389 174 4 33
1.17971 1.00218 -0.52018 172 255 36
1.17148 1.0216 -0.494132 174 4 33
1.17148 1.02159 -0.494923 172 255 36
1.11738 0.998611 -0.513195 174 4 33
1.11738 0.998603 -0.513986 172 255 36
1.13927 0.98501 -0.533638 174 4 33
1.13927 0.985002 -0.534429 172 255 36
1.08391 0.984394 -0.563174 174 4 33
1.08391 0.984386 -0.563965 172 255 36
1.11426 0.974384 -0.570993 174 4 33
1.11426 0.974376 -0.571784 172 255 36
1.08388 0.984379 -0.624977 174 4 33
1.08388 0.984371 -0.625768 172 255 36
1.11424 0.974373 -0.617186 174 4 33
1.11424 0.974365 -0.617977 172 255 36
1.11729 0.998573 -0.674999 174 4 33
1.11729 0.998565 -0.67579 172 255 36
1.13921 0.984982 -0.654574 174 4 33
1.13921 0.984974 -0.655365 172 255 36
1.17138 1.02156 -0.694132 174 4 33
1.17138 1.02155 -0.694923 172 255 36
1.17963 1.00216 -0.668874 174 4 33
1.17963 1.00215 -0.669665 172 255 36
1.22548 1.04455 -0.675068 174 4 33
1.22548 1.04454 -0.675859 172 255 36
1.22008 1.01934 -0.654626 174 4 33
1.22008 1.01933 -0.655417 172 255 36
1.25895 1.05876 -0.62509 174 4 33
1.25895 1.05875 -0.625881 172 255 36
1.24509 1.02997 -0.617271 174 4 33
1.24509 1.02996 -0.618062 172 255 36
1.25898 1.05878 -0.563286 174 4 33
1.25898 1.05877 -0.564077 172 255 36
1.24511 1.02998 -0.571077 174 4 33
1.24511 1.02997 -0.571868 172 255 36
1.22557 1.04458 -0.513265 174 4 33
1.22557 1.04457 -0.514056 172 255 36
1.22014 1.01937 -0.53369 174 4 33
1.22014 1.01936 -0.534481 172 255 36
1.24206 1.00578 -0.513265 174 4 33
1.24206 1.00577 -0.514056 172 255 36
1.18797 0.982797 -0.494132 174 4 33
1.18797 0.982789 -0.494923 172 255 36
1.27547 1.01997 -0.563286 174 4 33
1.27547 1.01996 -0.564077 172 255 36
1.27543 1.01996 -0.62509 174 4 33
1.27543 1.01995 -0.625881 172 255 36
1.24197 1.00574 -0.675068 174 4 33
1.24197 1.00573 -0.675859 172 255 36
1.18786 0.982751 -0.694132 174 4 33
1.18786 0.982743 -0.694923 172 255 36
1.13377 0.95977 -0.674999 174 4 33
1.13377 0.959762 -0.67579 172 255 36
1.10037 0.945577 -0.624977 174 4 33
1.10037 0.945569 -0.625768 172 255 36
1.1004 0.945591 -0.563174 174 4 33
1.1004 0.945583 -0.563965 172 255 36
1.13386 0.959808 -0.513195 174 4 33
1.13386 0.9598 -0.513986 172 255 36
1.1962 0.96339 -0.519389 174 4 33
1.1962 0.963382 -0.52018 172 255 36
1.15576 0.946207 -0.533638 174 4 33
1.15576 0.946199 -0.534429 172 255 36
1.13075 0.935581 -0.570993 174 4 33
1.13075 0.935573 -0.571784 172 255 36
1.13072 0.93557 -0.617186 174 4 33
1.13072 0.935562 -0.617977 172 255 36
1.15569 0.946179 -0.654574 174 4 33
1.15569 0.946171 -0.655365 172 255 36
1.19612 0.963355 -0.668874 174 4 33
1.19612 0.963347 -0.669665 172 255 36
1.23656 0.980538 -0.654626 174 4 33
1.23656 0.98053 -0.655417 172 255 36
1.26157 0.991164 -0.617271 174 4 33
1.26157 0.991156 -0.618062 172 255 36
1.2616 0.991175 -0.571077 174 4 33
1.2616 0.991167 -0.571868 172 255 36
1.23663 0.980566 -0.53369 174 4 33
1.23663 0.980558 -0.534481 172 255 36
1.25855 0.966975 -0.513265 174 4 33
1.25855 0.966967 -0.514056 172 255 36
1.20446 0.943994 -0.494132 174 4 33
1.20446 0.943986 -0.494923 172 255 36
1.29195 0.981169 -0.563286 174 4 33
1.29195 0.981161 -0.564077 172 255 36
1.29192 0.981154 -0.62509 174 4 33
1.29192 0.981146 -0.625881 172 255 36
1.25846 0.966937 -0.675068 174 4 33
1.25846 0.966929 -0.675859 172 255 36
1.20435 0.943948 -0.694132 174 4 33
1.20435 0.94394 -0.694923 172 255 36
1.15026 0.920967 -0.674999 174 4 33
1.15026 0.920959 -0.67579 172 255 36
1.11685 0.906774 -0.624977 174 4 33
1.11685 0.906766 -0.625768 172 255 36
1.11689 0.906788 -0.563174 174 4 33
1.11689 0.90678 -0.563965 172 255 36
1.15035 0.921005 -0.513195 174 4 33
1.15035 0.920997 -0.513986 172 255 36
1.21269 0.924587 -0.519389 174 4 33
1.21269 0.924579 -0.52018 172 255 36
1.17225 0.907404 -0.533638 174 4 33
1.17225 0.907396 -0.534429 172 255 36
1.14724 0.896778 -0.570993 174 4 33
1.14724 0.89677 -0.571784 172 255 36
1.14721 0.896767 -0.617186 174 4 33
1.14721 0.896759 -0.617977 172 255 36
1.17218 0.907376 -0.654574 174 4 33
1.17218 0.907368 -0.655365 172 255 36
1.2126 0.924552 -0.668874 174 4 33
1.2126 0.924544 -0.669665 172 255 36
1.25305 0.941735 -0.654626 174 4 33
1.25305 0.941727 -0.655417 172 255 36
1.27806 0.952361 -0.617271 174 4 33
1.27806 0.952353 -0.618062 172 255 36
1.27808 0.952372 -0.571077 174 4 33
1.27808 0.952364 -0.571868 172 255 36
1.25311 0.941763 -0.53369 174 4 33
1.25311 0.941755 -0.534481 172 255 36
1.27503 0.928172 -0.513265 174 4 33
1.27503 0.928164 -0.514056 172 255 36
1.22094 0.905191 -0.494132 174 4 33
1.22094 0.905183 -0.494923 172 255 36
1.30844 0.942366 -0.563286 174 4 33
1.30844 0.942358 -0.564077 172 255 36
1.30841 0.942351 -0.62509 174 4 33
1.30841 0.942343 -0.625881 172 255 36
1.27494 0.928134 -0.675068 174 4 33
1.27494 0.928126 -0.675859 172 255 36
1.22083 0.905145 -0.694132 174 4 33
1.22083 0.905137 -0.694923 172 255 36
1.16675 0.882165 -0.674999 174 4 33
1.16675 0.882157 -0.67579 172 255 36
1.13334 0.867971 -0.624977 174 4 33
1.13334 0.867963 -0.625768 172 255 36
1.13337 0.867985 -0.563174 174 4 33
1.13337 0.867977 -0.563965 172 255 36
1.16683 0.882202 -0.513195 174 4 33
1.16683 0.882194 -0.513986 172 255 36
1.22917 0.885784 -0.519389 174 4 33
1.22917 0.885776 -0.52018 172 255 36
1.18873 0.868601 -0.533638 174 4 33
1.18873 0.868593 -0.534429 172 255 36
1.16372 0.857975 -0.570993 174 4 33
1.16372 0.857967 -0.571784 172 255 36
1.1637 0.857964 -0.617186 174 4 33
1.1637 0.857956 -0.617977 172 255 36
1.18867 0.868573 -0.654574 174 4 33
1.18867 0.868565 -0.655365 172 255 36
1.22909 0.885749 -0.668874 174 4 33
1.22909 0.885741 -0.669665 172 255 36
1.26953 0.902932 -0.654626 174 4 33
1.26953 0.902924 -0.655417 172 255 36
1.29454 0.913558 -0.617271 174 4 33
1.29454 0.91355 -0.618062 172 255 36
1.29457 0.913569 -0.571077 174 4 33
1.29457 0.913561 -0.571868 172 255 36
1.2696 0.90296 -0.53369 174 4 33
1.2696 0.902952 -0.534481 172 255 36
1.29152 0.889369 -0.513265 174 4 33
1.29152 0.889361 -0.514056 172 255 36
1.23743 0.866388 -0.494132 174 4 33
1.23743 0.86638 -0.494923 172 255 36
1.32492 0.903563 -0.563286 174 4 33
1.32492 0.903555 -0.564077 172 255 36
1.32489 0.903548 -0.62509 174 4 33
1.32489 0.90354 -0.625881 172 255 36
1.29143 0.889331 -0.675068 174 4 33
1.29143 0.889323 -0.675859 172 255 36
1.23732 0.866342 -0.694132 174 4 33
1.23732 0.866334 -0.694923 172 255 36
1.18323 0.843362 -0.674999 174 4 33
1.18323 0.843354 -0.67579 172 255 36
1.14983 0.829168 -0.624977 174 4 33
1.14983 0.82916 -0.625768 172 255 36
1.14986 0.829182 -0.563174 174 4 33
1.14986 0.829174 -0.563965 172 255 36
1.18332 0.843399 -0.513195 174 4 33
1.18332 0.843391 -0.513986 172 255 36
1.24566 0.846981 -0.519389 174 4 33
1.24566 0.846973 -0.52018 172 255 36
1.20522 0.829798 -0.533638 174 4 33
1.20522 0.82979 -0.534429 172 255 36
1.18021 0.819172 -0.570993 174 4 33
1.18021 0.819164 -0.571784 172 255 36
1.18018 0.819162 -0.617186 174 4 33
1.18018 0.819154 -0.617977 172 255 36
1.20515 0.82977 -0.654574 174 4 33
1.20515 0.829762 -0.655365 172 255 36
1.24558 0.846946 -0.668874 174 4 33
1.24558 0.846938 -0.669665 172 255 36
1.28602 0.864129 -0.654626 174 4 33
1.28602 0.864121 -0.655417 172 255 36
1.31103 0.874755 -0.617271 174 4 33
1.31103 0.874747 -0.618062 172 255 36
1.31105 0.874766 -0.571077 174 4 33
1.31105 0.874758 -0.571868 172 255 36
1.28609 0.864157 -0.53369 174 4 33
1.28609 0.864149 -0.534481 172 255 36
1.308 0.850566 -0.513265 174 4 33
1.308 0.850558 -0.514056 172 255 36
1.25392 0.827586 -0.494132 174 4 33
1.25392 0.827578 -0.494923 172 255 36
1.34141 0.86476 -0.563286 174 4 33
1.34141 0.864752 -0.564077 172 255 36
1.34138 0.864746 -0.62509 174 4 33
1.34138 0.864738 -0.625881 172 255 36
1.30792 0.850528 -0.675068 174 4 33
1.30792 0.85052 -0.675859 172 255 36
1.25381 0.827539 -0.694132 174 4 33
1.25381 0.827531 -0.694923 172 255 36
1.19972 0.804559 -0.674999 174 4 33
1.19972 0.804551 -0.67579 172 255 36
1.16631 0.790365 -0.624977 174 4 33
1.16631 0.790357 -0.625768 172 255 36
1.16635 0.790379 -0.563174 174 4 33
1.16635 0.790371 -0.563965 172 255 36
1.19981 0.804596 -0.513195 174 4 33
1.19981 0.804588 -0.513986 172 255 36
1.26215 0.808178 -0.519389 174 4 33
1.26215 0.80817 -0.52018 172 255 36
1.2217 0.790995 -0.533638 174 4 33
1.2217 0.790987 -0.534429 172 255 36
1.19669 0.780369 -0.570993 174 4 33
1.19669 0.780361 -0.571784 172 255 36
1.19667 0.780359 -0.617186 174 4 33
1.19667 0.780351 -0.617977 172 255 36
1.22164 0.790967 -0.654574 174 4 33
1.22164 0.790959 -0.655365 172 255 36
1.26206 0.808144 -0.668874 174 4 33
1.26206 0.808136 -0.669665 172 255 36
1.30251 0.825326 -0.654626 174 4 33
1.30251 0.825318 -0.655417 172 255 36
1.32752 0.835953 -0.617271 174 4 33
1.32752 0.835945 -0.618062 172 255 36
1.32754 0.835963 -0.571077 174 4 33
1.32754 0.835955 -0.571868 172 255 36
1.30257 0.825354 -0.53369 174 4 33
1.30257 0.825346 -0.534481 172 255 36
1.32449 0.811763 -0.513265 174 4 33
1.32449 0.811755 -0.514056 172 255 36
1.2704 0.788783 -0.494132 174 4 33
1.2704 0.788775 -0.494923 172 255 36
1.3579 0.825957 -0.563286 174 4 33
1.3579 0.825949 -0.564077 172 255 36
1.35786 0.825943 -0.62509 174 4 33
1.35786 0.825935 -0.625881 172 255 36
1.3244 0.811726 -0.675068 174 4 33
1.3244 0.811718 -0.675859 172 255 36
1.27029 0.788736 -0.694132 174 4 33
1.27029 0.788728 -0.694923 172 255 36
1.21621 0.765756 -0.674999 174 4 33
1.21621 0.765748 -0.67579 172 255 36
1.1828 0.751562 -0.624977 174 4 33
1.1828 0.751554 -0.625768 172 255 36
1.18283 0.751576 -0.563174 174 4 33
1.18283 0.751568 -0.563965 172 255 36
1.21629 0.765793 -0.513195 174 4 33
1.21629 0.765785 -0.513986 172 255 36
1.27863 0.769375 -0.519389 174 4 33
1.27863 0.769367 -0.52018 172 255 36
1.23819 0.752193 -0.533638 174 4 33
1.23819 0.752185 -0.534429 172 255 36
1.21318 0.741566 -0.570993 174 4 33
1.21318 0.741558 -0.571784 172 255 36
1.21316 0.741556 -0.617186 174 4 33
1.21316 0.741548 -0.617977 172 255 36
1.23812 0.752164 -0.654574 174 4 33
1.23812 0.752156 -0.655365 172 255 36
1.27855 0.769341 -0.668874 174 4 33
1.27855 0.769333 -0.669665 172 255 36
1.31899 0.786523 -0.654626 174 4 33
1.31899 0.786515 -0.655417 172 255 36
1.344 0.79715 -0.617271 174 4 33
1.344 0.797142 -0.618062 172 255 36
1.34403 0.79716 -0.571077 174 4 33
1.34403 0.797152 -0.571868 172 255 36
1.31906 0.786551 -0.53369 174 4 33
1.31906 0.786543 -0.534481 172 255 36
1.34098 0.77296 -0.513265 174 4 33
1.34098 0.772952 -0.514056 172 255 36
1.28689 0.74998 -0.494132 174 4 33
1.28689 0.749972 -0.494923 172 255 36
1.37438 0.787154 -0.563286 174 4 33
1.37438 0.787146 -0.564077 172 255 36
1.37435 0.78714 -0.62509 174 4 33
1.37435 0.787132 -0.625881 172 255 36
1.34089 0.772923 -0.675068 174 4 33
1.34089 0.772915 -0.675859 172 255 36
1.28678 0.749933 -0.694132 174 4 33
1.28678 0.749925 -0.694923 172 255 36
1.23269 0.726953 -0.674999 174 4 33
1.23269 0.726945 -0.67579 172 255 36
1.19929 0.712759 -0.624977 174 4 33
1.19929 0.712751 -0.625768 172 255 36
1.19932 0.712773 -0.563174 174 4 33
1.19932 0.712765 -0.563965 172 255 36
1.23278 0.72699 -0.513195 174 4 33
1.23278 0.726982 -0.513986 172 255 36
1.29512 0.730572 -0.519389 174 4 33
1.29512 0.730564 -0.52018 172 255 36
1.25468 0.71339 -0.533638 174 4 33
1.25468 0.713382 -0.534429 172 255 36
1.22967 0.702763 -0.570993 174 4 33
1.22967 0.702755 -0.571784 172 255 36
1.22964 0.702753 -0.617186 174 4 33
1.22964 0.702745 -0.617977 172 255 36
1.25461 0.713362 -0.654574 174 4 33
1.25461 0.713354 -0.655365 172 255 36
1.29504 0.730538 -0.668874 174 4 33
1.29504 0.73053 -0.669665 172 255 36
1.33548 0.747721 -0.654626 174 4 33
1.33548 0.747713 -0.655417 172 255 36
1.36049 0.758347 -0.617271 174 4 33
1.36049 0.758339 -0.618062 172 255 36
1.36051 0.758357 -0.571077 174 4 33
1.36051 0.758349 -0.571868 172 255 36
1.33554 0.747749 -0.53369 174 4 33
1.33554 0.747741 -0.534481 172 255 36
1.35746 0.734157 -0.513265 174 4 33
1.35746 0.734149 -0.514056 172 255 36
1.30338 0.711177 -0.494132 174 4 33
1.30338 0.711169 -0.494923 172 255 36
1.39087 0.748351 -0.563286 174 4 33
1.39087 0.748343 -0.564077 172 255 36
1.39084 0.748337 -0.62509 174 4 33
1.39084 0.748329 -0.625881 172 255 36
1.35738 0.73412 -0.675068 174 4 33
1.35738 0.734112 -0.675859 172 255 36
1.30327 0.71113 -0.694132 174 4 33
1.30327 0.711122 -0.694923 172 255 36
1.24918 0.68815 -0.674999 174 4 33
1.24918 0.688142 -0.67579 172 255 36
1.21577 0.673956 -0.624977 174 4 33
1.21577 0.673948 -0.625768 172 255 36
1.21581 0.67397 -0.563174 174 4 33
1.21581 0.673962 -0.563965 172 255 36
1.24927 0.688187 -0.513195 174 4 33
1.24927 0.688179 -0.513986 172 255 36
1.3116 0.691769 -0.519389 174 4 33
1.3116 0.691761 -0.52018 172 255 36
1.27116 0.674587 -0.533638 174 4 33
1.27116 0.674579 -0.534429 172 255 36
1.24615 0.663961 -0.570993 174 4 33
1.24615 0.663953 -0.571784 172 255 36
1.24613 0.66395 -0.617186 174 4 33
1.24613 0.663942 -0.617977 172 255 36
1.2711 0.674559 -0.654574 174 4 33
1.2711 0.674551 -0.655365 172 255 36
1.31152 0.691735 -0.668874 174 4 33
1.31152 0.691727 -0.669665 172 255 36
1.35196 0.708918 -0.654626 174 4 33
1.35196 0.70891 -0.655417 172 255 36
1.37698 0.719544 -0.617271 174 4 33
1.37698 0.719536 -0.618062 172 255 36
1.377 0.719554 -0.571077 174 4 33
1.377 0.719546 -0.571868 172 255 36
1.35203 0.708946 -0.53369 174 4 33
1.35203 0.708938 -0.534481 172 255 36
1.37395 0.695354 -0.513265 174 4 33
1.37395 0.695346 -0.514056 172 255 36
1.31986 0.672374 -0.494132 174 4 33
1.31986 0.672366 -0.494923 172 255 36
1.40736 0.709548 -0.563286 174 4 33
1.40736 0.70954 -0.564077 172 255 36
1.40732 0.709534 -0.62509 174 4 33
1.40732 0.709526 -0.625881 172 255 36
1.37386 0.695317 -0.675068 174 4 33
1.37386 0.695309 -0.675859 172 255 36
1.31975 0.672328 -0.694132 174 4 33
1.31975 0.67232 -0.694923 172 255 36
1.26567 0.649347 -0.674999 174 4 33
1.26567 0.649339 -0.67579 172 255 36
1.23226 0.635153 -0.624977 174 4 33
1.23226 0.635145 -0.625768 172 255 36
1.23229 0.635168 -0.563174 174 4 33
1.23229 0.63516 -0.563965 172 255 36
1.26575 0.649385 -0.513195 174 4 33
1.26575 0.649377 -0.513986 172 255 36
1.32809 0.652967 -0.519389 174 4 33
1.32809 0.652959 -0.52018 172 255 36
1.28765 0.635784 -0.533638 174 4 33
1.28765 0.635776 -0.534429 172 255 36
1.26264 0.625158 -0.570993 174 4 33
1.26264 0.62515 -0.571784 172 255 36
1.26261 0.625147 -0.617186 174 4 33
1.26261 0.625139 -0.617977 172 255 36
1.28758 0.635756 -0.654574 174 4 33
1.28758 0.635748 -0.655365 172 255 36
1.32801 0.652932 -0.668874 174 4 33
1.32801 0.652924 -0.669665 172 255 36
1.36845 0.670115 -0.654626 174 4 33
1.36845 0.670107 -0.655417 172 255 36
1.39346 0.680741 -0.617271 174 4 33
1.39346 0.680733 -0.618062 172 255 36
1.39349 0.680752 -0.571077 174 4 33
1.39349 0.680744 -0.571868 172 255 36
1.36852 0.670143 -0.53369 174 4 33
1.36852 0.670135 -0.534481 172 255 36
1.39044 0.656551 -0.513265 174 4 33
1.39044 0.656543 -0.514056 172 255 36
1.33635 0.633571 -0.494132 174 4 33
1.33635 0.633563 -0.494923 172 255 36
1.42384 0.670745 -0.563286 174 4 33
1.42384 0.670737 -0.564077 172 255 36
1.42381 0.670731 -0.62509 174 4 33
1.42381 0.670723 -0.625881 172 255 36
1.39035 0.656514 -0.675068 174 4 33
1.39035 0.656506 -0.675859 172 255 36
1.33624 0.633525 -0.694132 174 4 33
1.33624 0.633517 -0.694923 172 255 36
1.28215 0.610544 -0.674999 174 4 33
1.28215 0.610536 -0.67579 172 255 36
1.24874 0.59635 -0.624977 174 4 33
1.24874 0.596342 -0.625768 172 255 36
1.24878 0.596365 -0.563174 174 4 33
1.24878 0.596357 -0.563965 172 255 36
1.28224 0.610582 -0.513195 174 4 33
1.28224 0.610574 -0.513986 172 255 36
1.34458 0.614164 -0.519389 174 4 33
1.34458 0.614156 -0.52018 172 255 36
1.30413 0.596981 -0.533638 174 4 33
1.30413 0.596973 -0.534429 172 255 36
1.27912 0.586355 -0.570993 174 4 33
1.27912 0.586347 -0.571784 172 255 36
1.2791 0.586344 -0.617186 174 4 33
1.2791 0.586336 -0.617977 172 255 36
1.30407 0.596953 -0.654574 174 4 33
1.30407 0.596945 -0.655365 172 255 36
1.3445 0.614129 -0.668874 174 4 33
1.3445 0.614121 -0.669665 172 255 36
1.38494 0.631312 -0.654626 174 4 33
1.38494 0.631304 -0.655417 172 255 36
1.40995 0.641938 -0.617271 174 4 33
1.40995 0.64193 -0.618062 172 255 36
1.40997 0.641949 -0.571077 174 4 33
1.40997 0.641941 -0.571868 172 255 36
1.385 0.63134 -0.53369 174 4 33
1.385 0.631332 -0.534481 172 255 36
1.40692 0.617749 -0.513265 174 4 33
1.40692 0.617741 -0.514056 172 255 36
1.35283 0.594768 -0.494132 174 4 33
1.35283 0.59476 -0.494923 172 255 36
1.44033 0.631942 -0.563286 174 4 33
1.44033 0.631934 -0.564077 172 255 36
1.4403 0.631928 -0.62509 174 4 33
1.4403 0.63192 -0.625881 172 255 36
1.40683 0.617711 -0.675068 174 4 33
1.40683 0.617703 -0.675859 172 255 36
1.35273 0.594722 -0.694132 174 4 33
1.35273 0.594714 -0.694923 172 255 36
1.29864 0.571741 -0.674999 174 4 33
1.29864 0.571733 -0.67579 172 255 36
1.26523 0.557547 -0.624977 174 4 33
1.26523 0.557539 -0.625768 172 255 36
1.26526 0.557562 -0.563174 174 4 33
1.26526 0.557554 -0.563965 172 255 36
1.29873 0.571779 -0.513195 174 4 33
1.29873 0.571771 -0.513986 172 255 36
1.36106 0.575361 -0.519389 174 4 33
1.36106 0.575353 -0.52018 172 255 36
1.32062 0.558178 -0.533638 174 4 33
1.32062 0.55817 -0.534429 172 255 36
1.29561 0.547552 -0.570993 174 4 33
1.29561 0.547544 -0.571784 172 255 36
1.29559 0.547541 -0.617186 174 4 33
1.29559 0.547533 -0.617977 172 255 36
1.32056 0.55815 -0.654574 174 4 33
1.32056 0.558142 -0.655365 172 255 36
1.36098 0.575326 -0.668874 174 4 33
1.36098 0.575318 -0.669665 172 255 36
1.40142 0.592509 -0.654626 174 4 33
1.40142 0.592501 -0.655417 172 255 36
1.42643 0.603135 -0.617271 174 4 33
1.42643 0.603127 -0.618062 172 255 36
1.42646 0.603146 -0.571077 174 4 33
1.42646 0.603138 -0.571868 172 255 36
1.40149 0.592537 -0.53369 174 4 33
1.40149 0.592529 -0.534481 172 255 36
1.42341 0.578946 -0.513265 174 4 33
1.42341 0.578938 -0.514056 172 255 36
1.36932 0.555965 -0.494132 174 4 33
1.36932 0.555957 -0.494923 172 255 36
1.45682 0.593139 -0.563286 174 4 33
1.45682 0.593131 -0.564077 172 255 36
1.45678 0.593125 -0.62509 174 4 33
1.45678 0.593117 -0.625881 172 255 36
1.42332 0.578908 -0.675068 174 4 33
1.42332 0.5789 -0.675859 172 255 36
1.36921 0.555919 -0.694132 174 4 33
1.36921 0.555911 -0.694923 172 255 36
1.31512 0.532938 -0.674999 174 4 33
1.31512 0.53293 -0.67579 172 255 36
1.28172 0.518744 -0.624977 174 4 33
1.28172 0.518736 -0.625768 172 255 36
1.28175 0.518759 -0.563174 174 4 33
1.28175 0.518751 -0.563965 172 255 36
1.31521 0.532976 -0.513195 174 4 33
1.31521 0.532968 -0.513986 172 255 36
1.37755 0.536558 -0.519389 174 4 33
1.37755 0.53655 -0.52018 172 255 36
1.33711 0.519375 -0.533638 174 4 33
1.33711 0.519367 -0.534429 172 255 36
1.3121 0.508749 -0.570993 174 4 33
1.3121 0.508741 -0.571784 172 255 36
1.31207 0.508738 -0.617186 174 4 33
1.31207 0.50873 -0.617977 172 255 36
1.33704 0.519347 -0.654574 174 4 33
1.33704 0.519339 -0.655365 172 255 36
1.37747 0.536523 -0.668874 174 4 33
1.37747 0.536515 -0.669665 172 255 36
1.41791 0.553706 -0.654626 174 4 33
1.41791 0.553698 -0.655417 172 255 36
1.44292 0.564332 -0.617271 174 4 33
1.44292 0.564324 -0.618062 172 255 36
1.44295 0.564343 -0.571077 174 4 33
1.44295 0.564335 -0.571868 172 255 36
1.41798 0.553734 -0.53369 174 4 33
1.41798 0.553726 -0.534481 172 255 36
1.4399 0.540143 -0.513265 174 4 33
1.4399 0.540135 -0.514056 172 255 36
1.38581 0.517162 -0.494132 174 4 33
1.38581 0.517154 -0.494923 172 255 36
1.4733 0.554337 -0.563286 174 4 33
1.4733 0.554329 -0.564077 172 255 36
1.47327 0.554322 -0.62509 174 4 33
1.47327 0.554314 -0.625881 172 255 36
1.43981 0.540105 -0.675068 174 4 33
1.43981 0.540097 -0.675859 172 255 36
1.3857 0.517116 -0.694132 174 4 33
1.3857 0.517108 -0.694923 172 255 36
1.33161 0.494135 -0.674999 174 4 33
1.33161 0.494127 -0.67579 172 255 36
1.2982 0.479942 -0.624977 174 4 33
1.2982 0.479934 -0.625768 172 255 36
1.29824 0.479956 -0.563174 174 4 33
1.29824 0.479948 -0.563965 172 255 36
1.3317 0.494173 -0.513195 174 4 33
1.3317 0.494165 -0.513986 172 255 36
1.39404 0.497755 -0.519389 174 4 33
1.39404 0.497747 -0.52018 172 255 36
1.35359 0.480572 -0.533638 174 4 33
1.35359 0.480564 -0.534429 172 255 36
1.32858 0.469946 -0.570993 174 4 33
1.32858 0.469938 -0.571784 172 255 36
1.32856 0.469935 -0.617186 174 4 33
1.32856 0.469927 -0.617977 172 255 36
1.35353 0.480544 -0.654574 174 4 33
1.35353 0.480536 -0.655365 172 255 36
1.39395 0.49772 -0.668874 174 4 33
1.39395 0.497712 -0.669665 172 255 36
1.4344 0.514903 -0.654626 174 4 33
1.4344 0.514895 -0.655417 172 255 36
1.45941 0.525529 -0.617271 174 4 33
1.45941 0.525521 -0.618062 172 255 36
1.45943 0.52554 -0.571077 174 4 33
1.45943 0.525532 -0.571868 172 255 36
1.43446 0.514931 -0.53369 174 4 33
1.43446 0.514923 -0.534481 172 255 36
1.45638 0.50134 -0.513265 174 4 33
1.45638 0.501332 -0.514056 172 255 36
1.40229 0.478359 -0.494132 174 4 33
1.40229 0.478351 -0.494923 172 255 36
1.48979 0.515534 -0.563286 174 4 33
1.48979 0.515526 -0.564077 172 255 36
1.48976 0.515519 -0.62509 174 4 33
1.48976 0.515511 -0.625881 172 255 36
1.45629 0.501302 -0.675068 174 4 33
1.45629 0.501294 -0.675859 172 255 36
1.40218 0.478313 -0.694132 174 4 33
1.40218 0.478305 -0.694923 172 255 36
1.3481 0.455333 -0.674999 174 4 33
1.3481 0.455325 -0.67579 172 255 36
1.31469 0.441139 -0.624977 174 4 33
1.31469 0.441131 -0.625768 172 255 36
1.31472 0.441153 -0.563174 174 4 33
1.31472 0.441145 -0.563965 172 255 36
1.34818 0.45537 -0.513195 174 4 33
1.34818 0.455362 -0.513986 172 255 36
1.41052 0.458952 -0.519389 174 4 33
1.41052 0.458944 -0.52018 172 255 36
1.37008 0.441769 -0.533638 174 4 33
1.37008 0.441761 -0.534429 172 255 36
1.34507 0.431143 -0.570993 174 4 33
1.34507 0.431135 -0.571784 172 255 36
1.34504 0.431132 -0.617186 174 4 33
1.34504 0.431124 -0.617977 172 255 36
1.37002 0.441741 -0.654574 174 4 33
1.37002 0.441733 -0.655365 172 255 36
1.41044 0.458917 -0.668874 174 4 33
1.41044 0.458909 -0.669665 172 255 36
1.45088 0.4761 -0.654626 174 4 33
1.45088 0.476092 -0.655417 172 255 36
1.47589 0.486726 -0.617271 174 4 33
1.47589 0.486718 -0.618062 172 255 36
1.47592 0.486737 -0.571077 174 4 33
1.47592 0.486729 -0.571868 172 255 36
1.45095 0.476128 -0.53369 174 4 33
1.45095 0.47612 -0.534481 172 255 36
1.47287 0.462537 -0.513265 174 4 33
1.47287 0.462529 -0.514056 172 255 36
