ply
format ascii 1.0
element vertex 1275
property float x
property float y
property float z
property uchar red
property uchar green
property uchar blue
end_header
-2.74299 -0.509158 1.61707 174 4 33
-2.74085 -0.513531 1.62748 172 255 36
-2.89235 -0.541082 1.61701 174 4 33
-2.89021 -0.545458 1.62743 172 255 36
-3.01183 -0.566659 1.58641 174 4 33
-3.0097 -0.570992 1.59684 172 255 36
-3.11419 -0.588648 1.50344 174 4 33
-3.1121 -0.59286 1.51388 172 255 36
-3.16958 -0.600671 1.36376 174 4 33
-3.16754 -0.604678 1.37421 172 255 36
-3.19074 -0.605519 1.11937 174 4 33
-3.1888 -0.609166 1.12982 172 255 36
-2.75522 -0.388084 0.62628 174 4 33
-2.75347 -0.390998 0.636876 172 255 36
-2.74244 -0.266524 0.626146 174 4 33
-2.7407 -0.269438 0.636916 172 255 36
-2.5589 -0.305521 0.63941 174 4 33
-2.55715 -0.308451 0.650051 172 255 36
-2.56757 -0.388072 0.639502 174 4 33
-2.56582 -0.391002 0.650024 172 255 36
-2.90796 -0.388082 0.626174 174 4 33
-2.90621 -0.390998 0.636831 172 255 36
-2.89184 -0.234771 0.626005 174 4 33
-2.8901 -0.237687 0.636881 172 255 36
-3.03017 -0.388044 0.656638 174 4 33
-3.02841 -0.391007 0.667343 172 255 36
-3.01139 -0.209332 0.65644 174 4 33
-3.00964 -0.212295 0.667401 172 255 36
-3.13497 -0.387945 0.739483 174 4 33
-3.13318 -0.391032 0.750229 172 255 36
-3.1139 -0.187462 0.739262 174 4 33
-3.11211 -0.190548 0.750295 172 255 36
-3.1918 -0.38778 0.879092 174 4 33
-3.18995 -0.391073 0.889861 172 255 36
-3.16948 -0.175503 0.878858 174 4 33
-3.16764 -0.178796 0.889931 172 255 36
-2.70467 -0.150275 0.626035 174 4 33
-2.70293 -0.153188 0.636962 172 255 36
-2.53325 -0.226574 0.639335 174 4 33
-2.5315 -0.229504 0.650082 172 255 36
-2.84421 -0.0881589 0.625866 174 4 33
-2.84247 -0.091074 0.636939 172 255 36
-2.95587 -0.0384292 0.656278 174 4 33
-2.95412 -0.041391 0.667469 172 255 36
-3.05161 0.00426236 0.739078 174 4 33
-3.04983 0.001177 0.750369 172 255 36
-3.10354 0.0274989 0.878664 174 4 33
-3.1017 0.024207 0.89001 172 255 36
-2.64357 -0.0444159 0.625952 174 4 33
-2.64183 -0.047328 0.637011 172 255 36
-2.49176 -0.154685 0.639279 174 4 33
-2.49001 -0.157614 0.650115 172 255 36
-2.76715 0.0453499 0.625761 174 4 33
-2.76541 0.042436 0.637001 172 255 36
-2.86603 0.117199 0.656157 174 4 33
-2.86428 0.114239 0.667541 172 255 36
-2.95083 0.178851 0.738942 174 4 33
-2.94905 0.175767 0.750451 172 255 36
-2.99683 0.212357 0.878521 174 4 33
-2.99499 0.209067 0.890097 172 255 36
-2.56179 0.0464288 0.625902 174 4 33
-2.56005 0.043518 0.637062 172 255 36
-2.43622 -0.0929937 0.639246 174 4 33
-2.43447 -0.095922 0.650151 172 255 36
-2.66402 0.159923 0.625698 174 4 33
-2.66228 0.157011 0.637066 172 255 36
-2.74581 0.250754 0.656082 174 4 33
-2.74406 0.247796 0.667616 172 255 36
-2.81596 0.328677 0.738859 174 4 33
-2.81418 0.325595 0.750535 172 255 36
-2.85402 0.370996 0.878433 174 4 33
-2.85219 0.367708 0.890186 172 255 36
-2.46292 0.118289 0.625886 174 4 33
-2.46118 0.11538 0.637113 172 255 36
-2.36908 -0.0441918 0.639233 174 4 33
-2.36733 -0.047119 0.650184 172 255 36
-2.53932 0.250553 0.625677 174 4 33
-2.53758 0.247643 0.637129 172 255 36
-2.60045 0.3564 0.656059 174 4 33
-2.5987 0.353444 0.667691 172 255 36
-2.65289 0.447193 0.738832 174 4 33
-2.65111 0.444114 0.750619 172 255 36
-2.68136 0.496484 0.878404 174 4 33
-2.67953 0.493199 0.890274 172 255 36
-2.35127 0.168028 0.625905 174 4 33
-2.34953 0.16512 0.637161 172 255 36
-2.29324 -0.0104139 0.639246 174 4 33
-2.2915 -0.01334 0.650217 172 255 36
-2.39849 0.313282 0.625701 174 4 33
-2.39676 0.310374 0.63719 172 255 36
-2.4363 0.429523 0.656086 174 4 33
-2.43456 0.426569 0.667761 172 255 36
-2.46875 0.529223 0.738863 174 4 33
-2.46697 0.526147 0.750698 172 255 36
-2.48639 0.58334 0.878437 174 4 33
-2.48456 0.580058 0.890358 172 255 36
-2.23172 0.193469 0.625956 174 4 33
-2.22998 0.190563 0.637203 172 255 36
-2.21205 0.00686384 0.639282 174 4 33
-2.21031 0.003939 0.650246 172 255 36
-2.24772 0.34537 0.625766 174 4 33
-2.24599 0.342464 0.637243 172 255 36
-2.26054 0.466926 0.656163 174 4 33
-2.2588 0.463975 0.667824 172 255 36
-2.27158 0.571183 0.738949 174 4 33
-2.2698 0.56811 0.750768 172 255 36
-2.27762 0.627768 0.878528 174 4 33
-2.27579 0.624489 0.890433 172 255 36
-2.10949 0.193504 0.62604 174 4 33
-2.10775 0.1906 0.637239 172 255 36
-2.12905 0.0068876 0.63934 174 4 33
-2.12731 0.003964 0.650271 172 255 36
-2.09356 0.345413 0.625873 174 4 33
-2.09183 0.342509 0.637289 172 255 36
-2.08084 0.466976 0.656287 174 4 33
-2.0791 0.464028 0.667877 172 255 36
-2.06998 0.57124 0.739088 174 4 33
-2.06821 0.56817 0.750828 172 255 36
-2.06417 0.627829 0.878676 174 4 33
-2.06234 0.624553 0.890496 172 255 36
-1.98992 0.168128 0.626154 174 4 33
-1.98818 0.165226 0.637268 172 255 36
-2.04785 -0.0103456 0.639416 174 4 33
-2.04611 -0.013268 0.65029 172 255 36
-1.94276 0.31341 0.626015 174 4 33
-1.94103 0.310509 0.637325 172 255 36
-1.90506 0.429672 0.656452 174 4 33
-1.90332 0.426726 0.667918 172 255 36
-1.8728 0.529391 0.739275 174 4 33
-1.87102 0.526324 0.750875 172 255 36
-1.85538 0.583518 0.878872 174 4 33
-1.85355 0.580245 0.890545 172 255 36
-1.87824 0.118453 0.626289 174 4 33
-1.8765 0.115553 0.637286 172 255 36
-1.97202 -0.0440787 0.639508 174 4 33
-1.97027 -0.047 0.650302 172 255 36
-1.80192 0.25076 0.626185 174 4 33
-1.80018 0.247861 0.637347 172 255 36
-1.74089 0.356642 0.656652 174 4 33
-1.73914 0.353699 0.667946 172 255 36
-1.68861 0.447465 0.739498 174 4 33
-1.68683 0.4444 0.750905 172 255 36
-1.66035 0.496772 0.879109 174 4 33
-1.65852 0.493502 0.890577 172 255 36
-1.77932 0.046649 0.626442 174 4 33
-1.77758 0.04375 0.637294 172 255 36
-1.90484 -0.0928427 0.639612 174 4 33
-1.90309 -0.095763 0.650308 172 255 36
-1.67717 0.1602 0.626379 174 4 33
-1.67543 0.157303 0.637358 172 255 36
-1.59546 0.251077 0.656877 174 4 33
-1.59371 0.248136 0.667958 172 255 36
-1.52547 0.329039 0.73975 174 4 33
-1.52369 0.325977 0.750918 172 255 36
-1.48762 0.37138 0.879376 174 4 33
-1.48579 0.368113 0.890591 172 255 36
-1.6975 -0.0441502 0.626605 174 4 33
-1.69576 -0.047048 0.637291 172 255 36
-1.84927 -0.154505 0.639722 174 4 33
-1.84752 -0.157424 0.650305 172 255 36
-1.57397 0.0456859 0.626585 174 4 33
-1.57223 0.04279 0.637355 172 255 36
-1.47516 0.11759 0.657117 174 4 33
-1.47341 0.114651 0.667954 172 255 36
-1.39051 0.17929 0.740019 174 4 33
-1.38873 0.17623 0.750913 172 255 36
-1.34473 0.212822 0.879661 174 4 33
-1.34289 0.209557 0.890586 172 255 36
-1.63633 -0.149974 0.626772 174 4 33
-1.63459 -0.152871 0.637278 172 255 36
-1.80773 -0.22637 0.639836 174 4 33
-1.80598 -0.229289 0.650297 172 255 36
-1.49682 -0.0877791 0.626795 174 4 33
-1.49508 -0.090674 0.637338 172 255 36
-1.38524 -0.0379868 0.657362 174 4 33
-1.38349 -0.040925 0.667934 172 255 36
-1.28963 0.00475786 0.740295 174 4 33
-1.28785 0.001699 0.750892 172 255 36
-1.23792 0.0280238 0.879952 174 4 33
-1.23608 0.02476 0.890563 172 255 36
-1.5985 -0.266202 0.626935 174 4 33
-1.59676 -0.269099 0.637255 172 255 36
-1.78204 -0.3053 0.639946 174 4 33
-1.78029 -0.308219 0.650281 172 255 36
-1.44911 -0.234365 0.627001 174 4 33
-1.44737 -0.237259 0.637309 172 255 36
-1.32963 -0.20886 0.657602 174 4 33
-1.32787 -0.211797 0.6679 172 255 36
-1.22725 -0.186931 0.740564 174 4 33
-1.22546 -0.189989 0.750854 172 255 36
-1.17185 -0.174941 0.880237 174 4 33
-1.17001 -0.178204 0.890523 172 255 36
-1.58566 -0.387756 0.627086 174 4 33
-1.58391 -0.390652 0.637222 172 255 36
-1.77332 -0.387849 0.640049 174 4 33
-1.77157 -0.390768 0.650259 172 255 36
-1.43292 -0.387667 0.627192 174 4 33
-1.43117 -0.390561 0.637268 172 255 36
-1.31074 -0.387561 0.657824 174 4 33
-1.30898 -0.390498 0.667852 172 255 36
-1.20606 -0.387402 0.740814 174 4 33
-1.20427 -0.39046 0.7508 172 255 36
-1.14943 -0.387205 0.880502 174 4 33
-1.14758 -0.390468 0.890466 172 255 36
-1.59836 -0.509322 0.627221 174 4 33
-1.59661 -0.512219 0.637183 172 255 36
-1.78194 -0.470405 0.640141 174 4 33
-1.78019 -0.473324 0.650232 172 255 36
-1.44894 -0.540988 0.627362 174 4 33
-1.44719 -0.543882 0.637218 172 255 36
-1.32942 -0.566282 0.658022 174 4 33
-1.32766 -0.56922 0.667794 172 255 36
-1.22701 -0.587899 0.741036 174 4 33
-1.22522 -0.590957 0.750735 172 255 36
-1.17161 -0.599495 0.880737 174 4 33
-1.16976 -0.602758 0.890397 172 255 36
-1.63606 -0.625594 0.627333 174 4 33
-1.63431 -0.628491 0.637138 172 255 36
-1.80754 -0.549366 0.640216 174 4 33
-1.80579 -0.552285 0.650201 172 255 36
-1.49648 -0.687628 0.627501 174 4 33
-1.49473 -0.690523 0.63716 172 255 36
-1.38483 -0.737219 0.658185 174 4 33
-1.38307 -0.740158 0.667727 172 255 36
-1.28919 -0.77966 0.741218 174 4 33
-1.28739 -0.782719 0.750659 172 255 36
-1.23744 -0.802536 0.88093 174 4 33
-1.23559 -0.8058 0.890317 172 255 36
-1.6971 -0.73149 0.627414 174 4 33
-1.69535 -0.734388 0.637087 172 255 36
-1.84899 -0.62128 0.640272 174 4 33
-1.84724 -0.6242 0.650168 172 255 36
-1.57346 -0.821182 0.627606 174 4 33
-1.57171 -0.824079 0.637098 172 255 36
-1.47459 -0.892901 0.658307 174 4 33
-1.47282 -0.895841 0.667655 172 255 36
-1.38986 -0.954308 0.741354 174 4 33
-1.38806 -0.957369 0.750578 172 255 36
-1.34404 -0.987458 0.881074 174 4 33
-1.34218 -0.990724 0.890231 172 255 36
-1.77882 -0.822382 0.627464 174 4 33
-1.77707 -0.825282 0.637036 172 255 36
-1.9045 -0.683005 0.640307 174 4 33
-1.90274 -0.685926 0.650133 172 255 36
-1.67653 -0.935816 0.62767 174 4 33
-1.67478 -0.938714 0.637034 172 255 36
-1.59473 -1.02653 0.658381 174 4 33
-1.59296 -1.02947 0.667579 172 255 36
-1.52464 -1.10422 0.741438 174 4 33
-1.52284 -1.10728 0.750494 172 255 36
-1.48675 -1.14618 0.881162 174 4 33
-1.48489 -1.14945 0.890141 172 255 36
-1.87765 -0.894302 0.627481 174 4 33
-1.8759 -0.897203 0.636986 172 255 36
-1.97162 -0.731845 0.640317 174 4 33
-1.96986 -0.734767 0.650098 172 255 36
-1.80118 -1.02652 0.62769 174 4 33
-1.79942 -1.02942 0.63697 172 255 36
-1.74002 -1.13226 0.658405 174 4 33
-1.73825 -1.1352 0.667505 172 255 36
-1.68764 -1.22282 0.741465 174 4 33
-1.68584 -1.22589 0.75041 172 255 36
-1.65933 -1.27177 0.881191 174 4 33
-1.65747 -1.27504 0.890053 172 255 36
-1.98927 -0.944105 0.627463 174 4 33
-1.98752 -0.947008 0.636938 172 255 36
-2.04742 -0.765668 0.640305 174 4 33
-2.04566 -0.768591 0.650066 172 255 36
-1.94196 -1.08933 0.627666 174 4 33
-1.9402 -1.09223 0.636909 172 255 36
-1.90412 -1.20548 0.658378 174 4 33
-1.90235 -1.20843 0.667434 172 255 36
-1.87174 -1.30496 0.741434 174 4 33
-1.86993 -1.30803 0.750331 172 255 36
-1.85426 -1.35875 0.881158 174 4 33
-1.8524 -1.36202 0.889969 172 255 36
-2.10881 -0.969618 0.62741 174 4 33
-2.10706 -0.972523 0.636895 172 255 36
-2.1286 -0.782994 0.64027 174 4 33
-2.12684 -0.785918 0.650037 172 255 36
-2.09272 -1.12151 0.6276 174 4 33
-2.09096 -1.12441 0.636855 172 255 36
-2.07986 -1.24298 0.6583 174 4 33
-2.07809 -1.24593 0.667371 172 255 36
-2.06889 -1.34704 0.741347 174 4 33
-2.06708 -1.35011 0.75026 172 255 36
-2.063 -1.40329 0.881068 174 4 33
-2.06114 -1.40657 0.889895 172 255 36
-2.23104 -0.969726 0.627326 174 4 33
-2.22929 -0.972632 0.636859 172 255 36
-2.21161 -0.783068 0.640212 174 4 33
-2.20985 -0.785993 0.650012 172 255 36
-2.24688 -1.12164 0.627495 174 4 33
-2.24512 -1.12455 0.63681 172 255 36
-2.25956 -1.24314 0.658177 174 4 33
-2.25779 -1.24609 0.667318 172 255 36
-2.27047 -1.34722 0.741209 174 4 33
-2.26866 -1.35029 0.750201 172 255 36
-2.27645 -1.40348 0.88092 174 4 33
-2.27459 -1.40676 0.889831 172 255 36
-2.35062 -0.944421 0.627214 174 4 33
-2.34887 -0.947329 0.636831 172 255 36
-2.29281 -0.765882 0.640136 174 4 33
-2.29105 -0.768809 0.649993 172 255 36
-2.39769 -1.08973 0.627352 174 4 33
-2.39593 -1.09264 0.636774 172 255 36
-2.43536 -1.20595 0.658012 174 4 33
-2.43359 -1.2089 0.667277 172 255 36
-2.46769 -1.30548 0.741023 174 4 33
-2.46589 -1.30856 0.750154 172 255 36
-2.48527 -1.3593 0.880723 174 4 33
-2.48341 -1.36258 0.889782 172 255 36
-2.46233 -0.894812 0.627079 174 4 33
-2.46058 -0.897722 0.636813 172 255 36
-2.36868 -0.732193 0.640044 174 4 33
-2.36692 -0.735121 0.649981 172 255 36
-2.53858 -1.02717 0.627182 174 4 33
-2.53682 -1.03008 0.636751 172 255 36
-2.59959 -1.13301 0.657812 174 4 33
-2.59782 -1.13597 0.667249 172 255 36
-2.65193 -1.22367 0.7408 174 4 33
-2.65013 -1.22675 0.750124 172 255 36
-2.68034 -1.27266 0.880488 174 4 33
-2.67848 -1.27595 0.889751 172 255 36
-2.56129 -0.823066 0.626925 174 4 33
-2.55954 -0.825977 0.636804 172 255 36
-2.43588 -0.68347 0.639941 174 4 33
-2.43412 -0.686399 0.649976 172 255 36
-2.66338 -0.936679 0.626989 174 4 33
-2.66163 -0.939592 0.636741 172 255 36
-2.74507 -1.02753 0.657588 174 4 33
-2.7433 -1.03049 0.667238 172 255 36
-2.81513 -1.10534 0.740548 174 4 33
-2.81333 -1.10842 0.750111 172 255 36
-2.85315 -1.14737 0.88022 174 4 33
-2.85129 -1.15066 0.889736 172 255 36
-2.64317 -0.732316 0.626762 174 4 33
-2.64142 -0.735229 0.636807 172 255 36
-2.49148 -0.621842 0.639829 174 4 33
-2.48973 -0.624771 0.649977 172 255 36
-2.76665 -0.822226 0.626784 174 4 33
-2.7649 -0.82514 0.636745 172 255 36
-2.86545 -0.894116 0.657348 174 4 33
-2.86368 -0.897077 0.667242 172 255 36
-2.95018 -0.955672 0.740278 174 4 33
-2.94838 -0.958756 0.750115 172 255 36
-2.99613 -0.988901 0.879935 174 4 33
-2.99428 -0.992192 0.889741 172 255 36
-2.7044 -0.626528 0.626595 174 4 33
-2.70265 -0.629441 0.63682 172 255 36
-2.53306 -0.55 0.639716 174 4 33
-2.53131 -0.55293 0.649986 172 255 36
-2.84387 -0.688806 0.626573 174 4 33
-2.84212 -0.691721 0.636761 172 255 36
-2.95546 -0.738592 0.657102 174 4 33
-2.9537 -0.741554 0.667261 172 255 36
-3.05116 -0.781199 0.740003 174 4 33
-3.04936 -0.784285 0.750137 172 255 36
-3.10306 -0.804166 0.879644 174 4 33
-3.10121 -0.807458 0.889764 172 255 36
-2.7423 -0.510323 0.626433 174 4 33
-2.74055 -0.513237 0.636844 172 255 36
-2.5588 -0.471085 0.639605 174 4 33
-2.55705 -0.474015 0.650002 172 255 36
-2.89167 -0.542248 0.626366 174 4 33
-2.88992 -0.545164 0.636789 172 255 36
-3.01118 -0.567753 0.656862 174 4 33
-3.00942 -0.570716 0.667295 172 255 36
-3.11366 -0.589547 0.739734 174 4 33
-3.11187 -0.592634 0.750175 172 255 36
-3.16924 -0.601241 0.87936 174 4 33
-3.16739 -0.604534 0.889805 172 255 36
-2.75462 -0.391714 -1.6381 174 4 33
-2.75377 -0.391292 -1.62751 172 255 36
-2.74184 -0.270155 -1.63832 174 4 33
-2.74099 -0.269732 -1.62755 172 255 36
-2.55829 -0.309141 -1.62515 174 4 33
-2.55743 -0.308735 -1.61451 172 255 36
-2.56697 -0.391695 -1.625 174 4 33
-2.56611 -0.391289 -1.61448 172 255 36
-2.90736 -0.391712 -1.63812 174 4 33
-2.90651 -0.391292 -1.62747 172 255 36
-2.89125 -0.238401 -1.63839 174 4 33
-2.8904 -0.237981 -1.62752 172 255 36
-3.02955 -0.391656 -1.60758 174 4 33
-3.02869 -0.391283 -1.59688 172 255 36
-3.01077 -0.212944 -1.6079 174 4 33
-3.00991 -0.212571 -1.59694 172 255 36
-3.1343 -0.391507 -1.52468 174 4 33
-3.1334 -0.391258 -1.51394 172 255 36
-3.11323 -0.191024 -1.52503 174 4 33
-3.11234 -0.190774 -1.514 172 255 36
-3.19104 -0.391259 -1.38504 174 4 33
-3.19009 -0.391217 -1.37427 172 255 36
-3.16874 -0.178983 -1.38541 174 4 33
-3.16779 -0.17894 -1.37434 172 255 36
-3.21289 -0.390826 -1.14065 174 4 33
-3.21184 -0.391144 -1.12988 172 255 36
-3.19011 -0.174014 -1.14104 174 4 33
-3.18906 -0.174331 -1.12995 172 255 36
-2.70408 -0.153905 -1.63852 174 4 33
-2.70323 -0.153482 -1.6276 172 255 36
-2.53265 -0.230197 -1.62527 174 4 33
-2.53179 -0.22979 -1.61453 172 255 36
-2.84362 -0.0917893 -1.63865 174 4 33
-2.84277 -0.091368 -1.62758 172 255 36
-2.95525 -0.0420416 -1.6082 174 4 33
-2.95439 -0.041667 -1.59701 172 255 36
-3.05094 0.000699993 -1.52537 174 4 33
-3.05005 0.000951 -1.51408 172 255 36
-3.10279 0.0240185 -1.38576 174 4 33
-3.10184 0.024063 -1.37442 172 255 36
-3.12274 0.0333249 -1.14139 174 4 33
-3.1217 0.033009 -1.13003 172 255 36
-2.64297 -0.0480466 -1.63871 174 4 33
-2.64212 -0.047622 -1.62765 172 255 36
-2.49114 -0.158308 -1.6254 174 4 33
-2.49029 -0.1579 -1.61457 172 255 36
-2.76655 0.0417192 -1.63888 174 4 33
-2.7657 0.042142 -1.62764 172 255 36
-2.86542 0.113587 -1.60846 174 4 33
-2.86456 0.113963 -1.59708 172 255 36
-2.95017 0.175288 -1.52567 174 4 33
-2.94928 0.175541 -1.51416 172 255 36
-2.99608 0.208877 -1.38608 174 4 33
-2.99514 0.208923 -1.37451 172 255 36
-3.01376 0.222134 -1.14172 174 4 33
-3.01272 0.22182 -1.13012 172 255 36
-2.5612 0.042798 -1.63886 174 4 33
-2.56035 0.043224 -1.6277 172 255 36
-2.43561 -0.0966155 -1.6255 174 4 33
-2.43476 -0.096207 -1.6146 172 255 36
-2.66341 0.156292 -1.63906 174 4 33
-2.66257 0.156717 -1.6277 172 255 36
-2.74519 0.247142 -1.60869 174 4 33
-2.74434 0.24752 -1.59716 172 255 36
-2.8153 0.325114 -1.52591 174 4 33
-2.81441 0.325369 -1.51424 172 255 36
-2.85327 0.367515 -1.38635 174 4 33
-2.85233 0.367564 -1.3746 172 255 36
-2.86791 0.384162 -1.14199 174 4 33
-2.86687 0.383851 -1.13021 172 255 36
-2.46231 0.114658 -1.63897 174 4 33
-2.46147 0.115086 -1.62775 172 255 36
-2.36846 -0.0478137 -1.62559 174 4 33
-2.36761 -0.047404 -1.61464 172 255 36
-2.53871 0.246922 -1.63922 174 4 33
-2.53787 0.247349 -1.62777 172 255 36
-2.59983 0.352787 -1.60886 174 4 33
-2.59898 0.353168 -1.59723 172 255 36
-2.65222 0.44363 -1.52611 174 4 33
-2.65134 0.443888 -1.51433 172 255 36
-2.68062 0.493003 -1.38655 174 4 33
-2.67968 0.493055 -1.37468 172 255 36
-2.69155 0.512331 -1.1422 174 4 33
-2.69052 0.512023 -1.1303 172 255 36
-2.35066 0.164396 -1.63905 174 4 33
-2.34982 0.164826 -1.6278 172 255 36
-2.29264 -0.0140379 -1.62564 174 4 33
-2.29179 -0.013627 -1.61467 172 255 36
-2.3979 0.309651 -1.63932 174 4 33
-2.39706 0.31008 -1.62783 172 255 36
-2.43568 0.425909 -1.60897 174 4 33
-2.43483 0.426293 -1.5973 172 255 36
-2.46808 0.52566 -1.52624 174 4 33
-2.4672 0.525921 -1.51441 172 255 36
-2.48564 0.579859 -1.38669 174 4 33
-2.4847 0.579914 -1.37477 172 255 36
-2.49241 0.601042 -1.14233 174 4 33
-2.49138 0.600737 -1.13038 172 255 36
-2.23111 0.189837 -1.63908 174 4 33
-2.23027 0.190269 -1.62784 172 255 36
-2.21145 0.00323975 -1.62566 174 4 33
-2.2106 0.003652 -1.6147 172 255 36
-2.24712 0.341739 -1.63935 174 4 33
-2.24628 0.34217 -1.62788 172 255 36
-2.25992 0.463313 -1.60903 174 4 33
-2.25907 0.463699 -1.59737 172 255 36
-2.27091 0.56762 -1.5263 174 4 33
-2.27003 0.567884 -1.51448 172 255 36
-2.27687 0.624286 -1.38674 174 4 33
-2.27593 0.624345 -1.37484 172 255 36
-2.27918 0.646421 -1.1424 174 4 33
-2.27815 0.646119 -1.13046 172 255 36
-2.10888 0.189873 -1.63908 174 4 33
-2.10804 0.190306 -1.62788 172 255 36
-2.12844 0.00326343 -1.62565 174 4 33
-2.12759 0.003677 -1.61472 172 255 36
-2.09296 0.341781 -1.63934 174 4 33
-2.09212 0.342215 -1.62793 172 255 36
-2.08023 0.463363 -1.60901 174 4 33
-2.07938 0.463752 -1.59742 172 255 36
-2.06932 0.567677 -1.52627 174 4 33
-2.06844 0.567944 -1.51453 172 255 36
-2.06343 0.624347 -1.38672 174 4 33
-2.06249 0.624409 -1.3749 172 255 36
-2.06117 0.646481 -1.14237 174 4 33
-2.06014 0.646183 -1.13052 172 255 36
-1.98931 0.164497 -1.63902 174 4 33
-1.98847 0.164932 -1.62791 172 255 36
-2.04725 -0.0139678 -1.62561 174 4 33
-2.0464 -0.013553 -1.61474 172 255 36
-1.94217 0.309779 -1.63927 174 4 33
-1.94133 0.310215 -1.62796 172 255 36
-1.90445 0.426058 -1.60892 174 4 33
-1.9036 0.42645 -1.59746 172 255 36
-1.87212 0.525827 -1.52618 174 4 33
-1.87124 0.526098 -1.51458 172 255 36
-1.85463 0.580036 -1.38662 174 4 33
-1.85369 0.580101 -1.37495 172 255 36
-1.84791 0.601223 -1.14227 174 4 33
-1.84688 0.600928 -1.13057 172 255 36
-1.87763 0.114822 -1.63891 174 4 33
-1.87679 0.115259 -1.62792 172 255 36
-1.9714 -0.047703 -1.62555 174 4 33
-1.97055 -0.047287 -1.61476 172 255 36
-1.80131 0.247129 -1.63915 174 4 33
-1.80047 0.247567 -1.62799 172 255 36
-1.74026 0.353028 -1.60878 174 4 33
-1.73941 0.353423 -1.59749 172 255 36
-1.68793 0.443901 -1.52601 174 4 33
-1.68705 0.444174 -1.51461 172 255 36
-1.6596 0.49329 -1.38646 174 4 33
-1.65866 0.493358 -1.37499 172 255 36
-1.64872 0.512624 -1.1421 174 4 33
-1.64769 0.512332 -1.13061 172 255 36
-1.77873 0.0430175 -1.63878 174 4 33
-1.77788 0.043456 -1.62793 172 255 36
-1.90423 -0.096467 -1.62545 174 4 33
-1.90338 -0.09605 -1.61476 172 255 36
-1.67656 0.156569 -1.63898 174 4 33
-1.67572 0.157009 -1.628 172 255 36
-1.59484 0.247463 -1.60858 174 4 33
-1.59399 0.24786 -1.5975 172 255 36
-1.52481 0.325475 -1.5258 174 4 33
-1.52392 0.325751 -1.51463 172 255 36
-1.48687 0.367898 -1.38621 174 4 33
-1.48593 0.367969 -1.375 172 255 36
-1.47231 0.384553 -1.14185 174 4 33
-1.47127 0.384264 -1.13062 172 255 36
-1.6969 -0.0477817 -1.63861 174 4 33
-1.69605 -0.047342 -1.62793 172 255 36
-1.84866 -0.158128 -1.62534 174 4 33
-1.84781 -0.15771 -1.61476 172 255 36
-1.57337 0.0420542 -1.63876 174 4 33
-1.57252 0.042496 -1.62799 172 255 36
-1.47455 0.113977 -1.60832 174 4 33
-1.47369 0.114375 -1.59749 172 255 36
-1.38985 0.175726 -1.52551 174 4 33
-1.38896 0.176004 -1.51462 172 255 36
-1.34398 0.20934 -1.38591 174 4 33
-1.34304 0.209413 -1.37499 172 255 36
-1.32636 0.222607 -1.14155 174 4 33
-1.32532 0.22232 -1.13062 172 255 36
-1.63573 -0.153605 -1.63842 174 4 33
-1.63488 -0.153165 -1.62792 172 255 36
-1.80713 -0.229993 -1.62521 174 4 33
-1.80627 -0.229575 -1.61475 172 255 36
-1.49623 -0.0914108 -1.63851 174 4 33
-1.49538 -0.090968 -1.62797 172 255 36
-1.38462 -0.0416006 -1.60805 174 4 33
-1.38376 -0.041201 -1.59748 172 255 36
-1.28897 0.00119395 -1.52519 174 4 33
-1.28808 0.001473 -1.5146 172 255 36
-1.23717 0.0245419 -1.38558 174 4 33
-1.23622 0.024616 -1.37497 172 255 36
-1.21726 0.0338596 -1.1412 174 4 33
-1.21622 0.033574 -1.13059 172 255 36
-1.5979 -0.269834 -1.63821 174 4 33
-1.59705 -0.269393 -1.62789 172 255 36
-1.78144 -0.308924 -1.62507 174 4 33
-1.78058 -0.308505 -1.61474 172 255 36
-1.44851 -0.237996 -1.63825 174 4 33
-1.44766 -0.237553 -1.62795 172 255 36
-1.329 -0.212473 -1.60774 174 4 33
-1.32814 -0.212073 -1.59744 172 255 36
-1.22657 -0.190495 -1.52485 174 4 33
-1.22568 -0.190215 -1.51456 172 255 36
-1.17111 -0.178423 -1.38521 174 4 33
-1.17016 -0.178348 -1.37493 172 255 36
-1.14979 -0.173442 -1.14083 174 4 33
-1.14874 -0.173727 -1.13055 172 255 36
-1.58505 -0.391387 -1.63799 174 4 33
-1.5842 -0.390946 -1.62786 172 255 36
-1.77271 -0.391472 -1.62492 174 4 33
-1.77185 -0.391053 -1.61471 172 255 36
-1.43231 -0.391298 -1.63798 174 4 33
-1.43146 -0.390855 -1.62791 172 255 36
-1.31012 -0.391174 -1.60741 174 4 33
-1.30926 -0.390774 -1.59739 172 255 36
-1.2054 -0.390966 -1.52449 174 4 33
-1.2045 -0.390686 -1.51451 172 255 36
-1.14867 -0.390687 -1.38483 174 4 33
-1.14772 -0.390612 -1.37487 172 255 36
-1.12688 -0.390241 -1.14044 174 4 33
-1.12583 -0.390526 -1.13049 172 255 36
-1.59775 -0.512954 -1.63778 174 4 33
-1.5969 -0.512513 -1.62782 172 255 36
-1.78134 -0.474029 -1.62478 174 4 33
-1.78048 -0.473611 -1.61469 172 255 36
-1.44834 -0.544619 -1.63771 174 4 33
-1.44748 -0.544176 -1.62786 172 255 36
-1.3288 -0.569896 -1.6071 174 4 33
-1.32793 -0.569496 -1.59733 172 255 36
-1.22635 -0.591462 -1.52414 174 4 33
-1.22545 -0.591183 -1.51444 172 255 36
-1.17086 -0.602976 -1.38446 174 4 33
-1.1699 -0.602902 -1.3748 172 255 36
-1.14953 -0.607067 -1.14006 174 4 33
-1.14848 -0.607352 -1.13042 172 255 36
-1.63546 -0.629225 -1.63757 174 4 33
-1.6346 -0.628785 -1.62777 172 255 36
-1.80694 -0.552989 -1.62463 174 4 33
-1.80608 -0.552571 -1.61465 172 255 36
-1.49588 -0.691259 -1.63746 174 4 33
-1.49502 -0.690817 -1.6278 172 255 36
-1.38422 -0.740833 -1.60681 174 4 33
-1.38335 -0.740434 -1.59727 172 255 36
-1.28851 -0.783223 -1.52381 174 4 33
-1.28761 -0.782945 -1.51437 172 255 36
-1.23669 -0.806017 -1.38411 174 4 33
-1.23573 -0.805944 -1.37473 172 255 36
-1.21678 -0.814446 -1.1397 174 4 33
-1.21572 -0.814733 -1.13034 172 255 36
-1.6965 -0.735121 -1.6374 174 4 33
-1.69564 -0.734682 -1.62773 172 255 36
-1.84839 -0.624904 -1.62451 174 4 33
-1.84753 -0.624487 -1.61462 172 255 36
-1.57287 -0.824813 -1.63723 174 4 33
-1.57201 -0.824373 -1.62774 172 255 36
-1.47396 -0.896514 -1.60654 174 4 33
-1.47309 -0.896117 -1.5972 172 255 36
-1.3892 -0.957871 -1.5235 174 4 33
-1.38829 -0.957595 -1.51428 172 255 36
-1.34328 -0.990939 -1.38379 174 4 33
-1.34232 -0.990868 -1.37464 172 255 36
-1.32565 -1.00332 -1.13938 174 4 33
-1.32459 -1.00361 -1.13025 172 255 36
-1.77822 -0.826013 -1.63724 174 4 33
-1.77736 -0.825576 -1.62767 172 255 36
-1.90389 -0.686627 -1.62441 174 4 33
-1.90303 -0.686211 -1.61459 172 255 36
-1.67593 -0.939447 -1.63703 174 4 33
-1.67507 -0.939008 -1.62767 172 255 36
-1.59411 -1.03013 -1.60632 174 4 33
-1.59323 -1.02974 -1.59712 172 255 36
-1.52398 -1.10777 -1.52325 174 4 33
-1.52307 -1.1075 -1.5142 172 255 36
-1.48599 -1.14966 -1.38353 174 4 33
-1.48503 -1.14959 -1.37455 172 255 36
-1.47141 -1.16543 -1.13911 174 4 33
-1.47035 -1.16572 -1.13016 172 255 36
-1.87705 -0.897932 -1.63712 174 4 33
-1.87619 -0.897497 -1.62762 172 255 36
-1.971 -0.735469 -1.62433 174 4 33
-1.97014 -0.735054 -1.61455 172 255 36
-1.80058 -1.03015 -1.63689 174 4 33
-1.79972 -1.02971 -1.62761 172 255 36
-1.73941 -1.13587 -1.60615 174 4 33
-1.73853 -1.13548 -1.59705 172 255 36
-1.68697 -1.22639 -1.52306 174 4 33
-1.68606 -1.22612 -1.51412 172 255 36
-1.65859 -1.27526 -1.38332 174 4 33
-1.65762 -1.27519 -1.37446 172 255 36
-1.64768 -1.29371 -1.1389 174 4 33
-1.64662 -1.294 -1.13007 172 255 36
-1.98868 -0.947736 -1.63705 174 4 33
-1.98782 -0.947302 -1.62758 172 255 36
-2.04681 -0.769292 -1.62428 174 4 33
-2.04595 -0.768878 -1.61452 172 255 36
-1.94135 -1.09296 -1.63679 174 4 33
-1.94049 -1.09253 -1.62755 172 255 36
-1.90351 -1.20909 -1.60602 174 4 33
-1.90263 -1.2087 -1.59697 172 255 36
-1.87107 -1.30853 -1.52293 174 4 33
-1.87016 -1.30826 -1.51404 172 255 36
-1.85351 -1.36222 -1.38319 174 4 33
-1.85254 -1.36216 -1.37438 172 255 36
-1.84677 -1.38253 -1.13877 174 4 33
-1.84571 -1.38283 -1.12999 172 255 36
-2.10821 -0.973249 -1.63701 174 4 33
-2.10735 -0.972817 -1.62753 172 255 36
-2.12799 -0.786616 -1.62425 174 4 33
-2.12713 -0.786204 -1.61449 172 255 36
-2.09211 -1.12514 -1.63674 174 4 33
-2.09125 -1.12471 -1.62749 172 255 36
-2.07925 -1.2466 -1.60598 174 4 33
-2.07837 -1.24621 -1.59691 172 255 36
-2.06821 -1.3506 -1.52288 174 4 33
-2.0673 -1.35034 -1.51397 172 255 36
-2.06225 -1.40678 -1.38312 174 4 33
-2.06128 -1.40672 -1.3743 172 255 36
-2.05998 -1.42804 -1.1387 174 4 33
-2.05891 -1.42834 -1.12991 172 255 36
-2.23044 -0.973356 -1.63703 174 4 33
-2.22958 -0.972926 -1.6275 172 255 36
-2.21099 -0.786689 -1.62426 174 4 33
-2.21013 -0.786278 -1.61446 172 255 36
-2.24627 -1.12528 -1.63676 174 4 33
-2.24541 -1.12485 -1.62745 172 255 36
-2.25894 -1.24675 -1.606 174 4 33
-2.25806 -1.24637 -1.59686 172 255 36
-2.2698 -1.35078 -1.5229 174 4 33
-2.26889 -1.35052 -1.51391 172 255 36
-2.2757 -1.40697 -1.38315 174 4 33
-2.27473 -1.40691 -1.37424 172 255 36
-2.27799 -1.42823 -1.13873 174 4 33
-2.27692 -1.42853 -1.12985 172 255 36
-2.35002 -0.948051 -1.63708 174 4 33
-2.34916 -0.947623 -1.62747 172 255 36
-2.2922 -0.769504 -1.6243 174 4 33
-2.29134 -0.769094 -1.61445 172 255 36
-2.39708 -1.09336 -1.63683 174 4 33
-2.39622 -1.09293 -1.62741 172 255 36
-2.43475 -1.20955 -1.60608 174 4 33
-2.43387 -1.20917 -1.59682 172 255 36
-2.46702 -1.30905 -1.52299 174 4 33
-2.46611 -1.30879 -1.51386 172 255 36
-2.48452 -1.36277 -1.38325 174 4 33
-2.48355 -1.36272 -1.37419 172 255 36
-2.49126 -1.3831 -1.13883 174 4 33
-2.4902 -1.38341 -1.1298 172 255 36
-2.46173 -0.898442 -1.63718 174 4 33
-2.46087 -0.898016 -1.62745 172 255 36
-2.36806 -0.735816 -1.62436 174 4 33
-2.3672 -0.735407 -1.61443 172 255 36
-2.53797 -1.03079 -1.63696 174 4 33
-2.53711 -1.03037 -1.62739 172 255 36
-2.59898 -1.13662 -1.60622 174 4 33
-2.5981 -1.13624 -1.59679 172 255 36
-2.65126 -1.22723 -1.52315 174 4 33
-2.65035 -1.22697 -1.51383 172 255 36
-2.6796 -1.27614 -1.38342 174 4 33
-2.67863 -1.27609 -1.37416 172 255 36
-2.69051 -1.29462 -1.139 174 4 33
-2.68945 -1.29493 -1.12976 172 255 36
-2.56069 -0.826696 -1.63732 174 4 33
-2.55983 -0.826271 -1.62744 172 255 36
-2.43527 -0.687094 -1.62446 174 4 33
-2.43441 -0.686686 -1.61443 172 255 36
-2.66278 -0.940309 -1.63713 174 4 33
-2.66192 -0.939886 -1.62738 172 255 36
-2.74446 -1.03115 -1.60643 174 4 33
-2.74358 -1.03077 -1.59678 172 255 36
-2.81447 -1.1089 -1.52338 174 4 33
-2.81356 -1.10865 -1.51382 172 255 36
-2.85239 -1.15086 -1.38366 174 4 33
-2.85143 -1.15081 -1.37415 172 255 36
-2.86701 -1.16666 -1.13925 174 4 33
-2.86595 -1.16697 -1.12975 172 255 36
-2.64258 -0.735947 -1.63748 174 4 33
-2.64172 -0.735523 -1.62744 172 255 36
-2.49087 -0.625464 -1.62457 174 4 33
-2.49001 -0.625057 -1.61443 172 255 36
-2.76605 -0.825855 -1.63734 174 4 33
-2.76519 -0.825434 -1.62738 172 255 36
-2.86483 -0.897728 -1.60667 174 4 33
-2.86396 -0.897353 -1.59678 172 255 36
-2.94951 -0.959233 -1.52365 174 4 33
-2.9486 -0.958982 -1.51382 172 255 36
-2.99538 -0.992381 -1.38395 174 4 33
-2.99442 -0.992336 -1.37415 172 255 36
-3.01305 -1.00479 -1.13954 174 4 33
-3.01199 -1.00511 -1.12975 172 255 36
-2.7038 -0.630158 -1.63768 174 4 33
-2.70294 -0.629735 -1.62746 172 255 36
-2.53245 -0.553622 -1.62471 174 4 33
-2.53159 -0.553216 -1.61444 172 255 36
-2.84327 -0.692435 -1.63759 174 4 33
-2.84241 -0.692015 -1.6274 172 255 36
-2.95485 -0.742204 -1.60696 174 4 33
-2.95398 -0.74183 -1.5968 172 255 36
-3.05049 -0.784761 -1.52397 174 4 33
-3.04959 -0.784511 -1.51384 172 255 36
-3.10231 -0.807645 -1.38429 174 4 33
-3.10135 -0.807602 -1.37417 172 255 36
-3.12226 -0.81611 -1.13989 174 4 33
-3.1212 -0.816427 -1.12978 172 255 36
-2.7417 -0.513953 -1.63789 174 4 33
-2.74085 -0.513531 -1.62748 172 255 36
-2.55819 -0.474708 -1.62484 174 4 33
-2.55733 -0.474302 -1.61445 172 255 36
-2.89107 -0.545878 -1.63785 174 4 33
-2.89021 -0.545458 -1.62743 172 255 36
-3.01057 -0.571365 -1.60727 174 4 33
-3.0097 -0.570992 -1.59684 172 255 36
-3.113 -0.593109 -1.52432 174 4 33
-3.1121 -0.59286 -1.51388 172 255 36
-3.1685 -0.60472 -1.38465 174 4 33
-3.16754 -0.604678 -1.37421 172 255 36
-3.18985 -0.608848 -1.14026 174 4 33
-3.1888 -0.609166 -1.12982 172 255 36
-2.56706 -0.389987 -0.660545 174 4 33
-2.56582 -0.391002 -0.650024 172 255 36
-2.55839 -0.307436 -0.66069 174 4 33
-2.55715 -0.308451 -0.650051 172 255 36
-2.74194 -0.268401 -0.647685 174 4 33
-2.7407 -0.269438 -0.636916 172 255 36
-2.75471 -0.389961 -0.647471 174 4 33
-2.75347 -0.390998 -0.636876 172 255 36
-2.89134 -0.236648 -0.647756 174 4 33
-2.8901 -0.237687 -0.636881 172 255 36
-2.90745 -0.389958 -0.647486 174 4 33
-2.90621 -0.390998 -0.636831 172 255 36
-3.01087 -0.211299 -0.67836 174 4 33
-3.00964 -0.212295 -0.667401 172 255 36
-3.02964 -0.39001 -0.678046 174 4 33
-3.02841 -0.391007 -0.667343 172 255 36
-3.11331 -0.189673 -0.761327 174 4 33
-3.11211 -0.190548 -0.750295 172 255 36
-3.13438 -0.390156 -0.760973 174 4 33
-3.13318 -0.391032 -0.750229 172 255 36
-3.16878 -0.178125 -0.901002 174 4 33
-3.16764 -0.178796 -0.889931 172 255 36
-3.19109 -0.390402 -0.900628 174 4 33
-3.18995 -0.391073 -0.889861 172 255 36
-2.53274 -0.22849 -0.660827 174 4 33
-2.5315 -0.229504 -0.650082 172 255 36
-2.70417 -0.152152 -0.647887 174 4 33
-2.70293 -0.153188 -0.636962 172 255 36
-2.84371 -0.0900358 -0.648011 174 4 33
-2.84247 -0.091074 -0.636939 172 255 36
-2.95535 -0.0403961 -0.678658 174 4 33
-2.95412 -0.041391 -0.667469 172 255 36
-3.05102 0.00205122 -0.761658 174 4 33
-3.04983 0.001177 -0.750369 172 255 36
-3.10284 0.0248763 -0.901354 174 4 33
-3.1017 0.024207 -0.89001 172 255 36
-2.49124 -0.156601 -0.66095 174 4 33
-2.49001 -0.157614 -0.650115 172 255 36
-2.64307 -0.046293 -0.648068 174 4 33
-2.64183 -0.047328 -0.637011 172 255 36
-2.76665 0.0434728 -0.648239 174 4 33
-2.76541 0.042436 -0.637001 172 255 36
-2.8655 0.115232 -0.678924 174 4 33
-2.86428 0.114239 -0.667541 172 255 36
-2.95024 0.176639 -0.761958 174 4 33
-2.94905 0.175767 -0.750451 172 255 36
-2.99612 0.209734 -0.901671 174 4 33
-2.99499 0.209067 -0.890097 172 255 36
-2.4357 -0.0949095 -0.661055 174 4 33
-2.43447 -0.095922 -0.650151 172 255 36
-2.56129 0.0445515 -0.648221 174 4 33
-2.56005 0.043518 -0.637062 172 255 36
-2.66351 0.158046 -0.648432 174 4 33
-2.66228 0.157011 -0.637066 172 255 36
-2.74528 0.248787 -0.679148 174 4 33
-2.74406 0.247796 -0.667616 172 255 36
-2.81537 0.326465 -0.76221 174 4 33
-2.81418 0.325595 -0.750535 172 255 36
-2.85332 0.368373 -0.901937 174 4 33
-2.85219 0.367708 -0.890186 172 255 36
-2.36856 -0.0461077 -0.661133 174 4 33
-2.36733 -0.047119 -0.650184 172 255 36
-2.46242 0.116412 -0.648339 174 4 33
-2.46118 0.11538 -0.637113 172 255 36
-2.53881 0.248676 -0.64858 174 4 33
-2.53758 0.247643 -0.637129 172 255 36
-2.59992 0.354433 -0.679322 174 4 33
-2.5987 0.353444 -0.667691 172 255 36
-2.6523 0.444981 -0.762404 174 4 33
-2.65111 0.444114 -0.750619 172 255 36
-2.68066 0.493861 -0.902142 174 4 33
-2.67953 0.493199 -0.890274 172 255 36
-2.29273 -0.0123299 -0.661186 174 4 33
-2.2915 -0.01334 -0.650217 172 255 36
-2.35076 0.16615 -0.648416 174 4 33
-2.34953 0.16512 -0.637161 172 255 36
-2.39799 0.311405 -0.648678 174 4 33
-2.39676 0.310374 -0.63719 172 255 36
-2.43578 0.427555 -0.679435 174 4 33
-2.43456 0.426569 -0.667761 172 255 36
-2.46815 0.527011 -0.762531 174 4 33
-2.46697 0.526147 -0.750698 172 255 36
-2.48569 0.580717 -0.902277 174 4 33
-2.48456 0.580058 -0.890358 172 255 36
-2.21154 0.00494774 -0.661209 174 4 33
-2.21031 0.003939 -0.650246 172 255 36
-2.23121 0.191591 -0.648448 174 4 33
-2.22998 0.190563 -0.637203 172 255 36
-2.24722 0.343492 -0.648718 174 4 33
-2.24599 0.342464 -0.637243 172 255 36
-2.26002 0.464958 -0.679483 174 4 33
-2.2588 0.463975 -0.667824 172 255 36
-2.27098 0.568971 -0.762585 174 4 33
-2.2698 0.56811 -0.750768 172 255 36
-2.27692 0.625144 -0.902335 174 4 33
-2.27579 0.624489 -0.890433 172 255 36
-2.12854 0.00497142 -0.661201 174 4 33
-2.12731 0.003964 -0.650271 172 255 36
-2.10898 0.191626 -0.648436 174 4 33
-2.10775 0.1906 -0.637239 172 255 36
-2.09306 0.343535 -0.648704 174 4 33
-2.09183 0.342509 -0.637289 172 255 36
-2.08032 0.465008 -0.679466 174 4 33
-2.0791 0.464028 -0.667877 172 255 36
-2.06939 0.569028 -0.762566 174 4 33
-2.06821 0.56817 -0.750828 172 255 36
-2.06347 0.625205 -0.902314 174 4 33
-2.06234 0.624553 -0.890496 172 255 36
-2.04734 -0.0122618 -0.661163 174 4 33
-2.04611 -0.013268 -0.65029 172 255 36
-1.98941 0.16625 -0.648381 174 4 33
-1.98818 0.165226 -0.637268 172 255 36
-1.94226 0.311532 -0.648633 174 4 33
-1.94103 0.310509 -0.637325 172 255 36
-1.90454 0.427704 -0.679383 174 4 33
-1.90332 0.426726 -0.667918 172 255 36
-1.8722 0.527179 -0.762473 174 4 33
-1.87102 0.526324 -0.750875 172 255 36
-1.85468 0.580894 -0.902216 174 4 33
-1.85355 0.580245 -0.890545 172 255 36
-1.9715 -0.045995 -0.661095 174 4 33
-1.97027 -0.047 -0.650302 172 255 36
-1.87774 0.116576 -0.648281 174 4 33
-1.8765 0.115553 -0.637286 172 255 36
-1.80141 0.248882 -0.648507 174 4 33
-1.80018 0.247861 -0.637347 172 255 36
-1.74036 0.354674 -0.679238 174 4 33
-1.73914 0.353699 -0.667946 172 255 36
-1.68802 0.445252 -0.76231 174 4 33
-1.68683 0.4444 -0.750905 172 255 36
-1.65965 0.494148 -0.902043 174 4 33
-1.65852 0.493502 -0.890577 172 255 36
-1.90432 -0.094759 -0.661003 174 4 33
-1.90309 -0.095763 -0.650308 172 255 36
-1.77882 0.0447711 -0.648145 174 4 33
-1.77758 0.04375 -0.637294 172 255 36
-1.67666 0.158322 -0.648336 174 4 33
-1.67543 0.157303 -0.637358 172 255 36
-1.59493 0.249109 -0.679037 174 4 33
-1.59371 0.248136 -0.667958 172 255 36
-1.52488 0.326826 -0.762084 174 4 33
-1.52369 0.325977 -0.750918 172 255 36
-1.48692 0.368756 -0.901804 174 4 33
-1.48579 0.368113 -0.890591 172 255 36
-1.84875 -0.156421 -0.660887 174 4 33
-1.84752 -0.157424 -0.650305 172 255 36
-1.697 -0.0460281 -0.647976 174 4 33
-1.69576 -0.047048 -0.637291 172 255 36
-1.57347 0.0438078 -0.648123 174 4 33
-1.57223 0.04279 -0.637355 172 255 36
-1.47463 0.115622 -0.678789 174 4 33
-1.47341 0.114651 -0.667954 172 255 36
-1.38992 0.177078 -0.761805 174 4 33
-1.38873 0.17623 -0.750913 172 255 36
-1.34402 0.210198 -0.901509 174 4 33
-1.34289 0.209557 -0.890586 172 255 36
-1.80722 -0.228286 -0.660757 174 4 33
-1.80598 -0.229289 -0.650297 172 255 36
-1.63583 -0.151852 -0.647783 174 4 33
-1.63459 -0.152871 -0.637278 172 255 36
-1.49632 -0.0896572 -0.647879 174 4 33
-1.49508 -0.090674 -0.637338 172 255 36
-1.38472 -0.0399551 -0.678504 174 4 33
-1.38349 -0.040925 -0.667934 172 255 36
-1.28904 0.00254518 -0.761487 174 4 33
-1.28785 0.001699 -0.750892 172 255 36
-1.23722 0.0253996 -0.901172 174 4 33
-1.23608 0.02476 -0.890563 172 255 36
-1.78153 -0.307217 -0.660614 174 4 33
-1.78029 -0.308219 -0.650281 172 255 36
-1.598 -0.26808 -0.647573 174 4 33
-1.59676 -0.269099 -0.637255 172 255 36
-1.44861 -0.236243 -0.647615 174 4 33
-1.44737 -0.237259 -0.637309 172 255 36
-1.3291 -0.210828 -0.678197 174 4 33
-1.32787 -0.211797 -0.6679 172 255 36
-1.22666 -0.189144 -0.761142 174 4 33
-1.22546 -0.189989 -0.750854 172 255 36
-1.17115 -0.177565 -0.900807 174 4 33
-1.17001 -0.178204 -0.890523 172 255 36
-1.77281 -0.389766 -0.660467 174 4 33
-1.77157 -0.390768 -0.650259 172 255 36
-1.58515 -0.389633 -0.647356 174 4 33
-1.58391 -0.390652 -0.637222 172 255 36
-1.43241 -0.389545 -0.647342 174 4 33
-1.43117 -0.390561 -0.637268 172 255 36
-1.31021 -0.389529 -0.677878 174 4 33
-1.30898 -0.390498 -0.667852 172 255 36
-1.20547 -0.389615 -0.760785 174 4 33
-1.20427 -0.39046 -0.7508 172 255 36
-1.14872 -0.389829 -0.900428 174 4 33
-1.14758 -0.390468 -0.890466 172 255 36
-1.78143 -0.472321 -0.660322 174 4 33
-1.78019 -0.473324 -0.650232 172 255 36
-1.59786 -0.5112 -0.647143 174 4 33
-1.59661 -0.512219 -0.637183 172 255 36
-1.44844 -0.542865 -0.647073 174 4 33
-1.44719 -0.543882 -0.637218 172 255 36
-1.32889 -0.56825 -0.677564 174 4 33
-1.32766 -0.56922 -0.667794 172 255 36
-1.22642 -0.590111 -0.760433 174 4 33
-1.22522 -0.590957 -0.750735 172 255 36
-1.17091 -0.602119 -0.900055 174 4 33
-1.16976 -0.602758 -0.890397 172 255 36
-1.80703 -0.551282 -0.660185 174 4 33
-1.80579 -0.552285 -0.650201 172 255 36
-1.63556 -0.627471 -0.646942 174 4 33
-1.63431 -0.628491 -0.637138 172 255 36
-1.49598 -0.689505 -0.646817 174 4 33
-1.49473 -0.690523 -0.63716 172 255 36
-1.38431 -0.739187 -0.677267 174 4 33
-1.38307 -0.740158 -0.667727 172 255 36
-1.28859 -0.781872 -0.760099 174 4 33
-1.28739 -0.782719 -0.750659 172 255 36
-1.23674 -0.805159 -0.899702 174 4 33
-1.23559 -0.8058 -0.890317 172 255 36
-1.84848 -0.623196 -0.660062 174 4 33
-1.84724 -0.6242 -0.650168 172 255 36
-1.6966 -0.733367 -0.646759 174 4 33
-1.69535 -0.734388 -0.637087 172 255 36
-1.57296 -0.82306 -0.646589 174 4 33
-1.57171 -0.824079 -0.637098 172 255 36
-1.47406 -0.894868 -0.677001 174 4 33
-1.47282 -0.895841 -0.667655 172 255 36
-1.38927 -0.95652 -0.7598 174 4 33
-1.38806 -0.957369 -0.750578 172 255 36
-1.34333 -0.990081 -0.899386 174 4 33
-1.34218 -0.990724 -0.890231 172 255 36
-1.90398 -0.684921 -0.659958 174 4 33
-1.90274 -0.685926 -0.650133 172 255 36
-1.77832 -0.82426 -0.646606 174 4 33
-1.77707 -0.825282 -0.637036 172 255 36
-1.67603 -0.937693 -0.646397 174 4 33
-1.67478 -0.938714 -0.637034 172 255 36
-1.5942 -1.0285 -0.676776 174 4 33
-1.59296 -1.02947 -0.667579 172 255 36
-1.52405 -1.10643 -0.759548 174 4 33
-1.52284 -1.10728 -0.750494 172 255 36
-1.48605 -1.1488 -0.899118 174 4 33
-1.48489 -1.14945 -0.890141 172 255 36
-1.9711 -0.733761 -0.659877 174 4 33
-1.96986 -0.734767 -0.650098 172 255 36
-1.87715 -0.896179 -0.646489 174 4 33
-1.8759 -0.897203 -0.636986 172 255 36
-1.80067 -1.0284 -0.646248 174 4 33
-1.79942 -1.02942 -0.63697 172 255 36
-1.73949 -1.13422 -0.676603 174 4 33
-1.73825 -1.1352 -0.667505 172 255 36
-1.68705 -1.22504 -0.759354 174 4 33
-1.68584 -1.22589 -0.75041 172 255 36
-1.65863 -1.27439 -0.898913 174 4 33
-1.65747 -1.27504 -0.890053 172 255 36
-2.0469 -0.767584 -0.659826 174 4 33
-2.04566 -0.768591 -0.650066 172 255 36
-1.98877 -0.945982 -0.646412 174 4 33
-1.98752 -0.947008 -0.636938 172 255 36
-1.94145 -1.0912 -0.64615 174 4 33
-1.9402 -1.09223 -0.636909 172 255 36
-1.90359 -1.20745 -0.676489 174 4 33
-1.90235 -1.20843 -0.667434 172 255 36
-1.87114 -1.30717 -0.759226 174 4 33
-1.86993 -1.30803 -0.750331 172 255 36
-1.85356 -1.36137 -0.898778 174 4 33
-1.8524 -1.36202 -0.889969 172 255 36
-2.12808 -0.784909 -0.659803 174 4 33
-2.12684 -0.785918 -0.650037 172 255 36
-2.10831 -0.971495 -0.646378 174 4 33
-2.10706 -0.972523 -0.636895 172 255 36
-2.09222 -1.12338 -0.646108 174 4 33
-2.09096 -1.12441 -0.636855 172 255 36
-2.07934 -1.24495 -0.67644 174 4 33
-2.07809 -1.24593 -0.667371 172 255 36
-2.06829 -1.34925 -0.759171 174 4 33
-2.06708 -1.35011 -0.75026 172 255 36
-2.0623 -1.40592 -0.89872 174 4 33
-2.06114 -1.40657 -0.889895 172 255 36
-2.21109 -0.784983 -0.659811 174 4 33
-2.20985 -0.785993 -0.650012 172 255 36
-2.23054 -0.971602 -0.64639 174 4 33
-2.22929 -0.972632 -0.636859 172 255 36
-2.24638 -1.12352 -0.646124 174 4 33
-2.24512 -1.12455 -0.63681 172 255 36
-2.25904 -1.2451 -0.676458 174 4 33
-2.25779 -1.24609 -0.667318 172 255 36
-2.26987 -1.34943 -0.759191 174 4 33
-2.26866 -1.35029 -0.750201 172 255 36
-2.27575 -1.4061 -0.89874 174 4 33
-2.27459 -1.40676 -0.889831 172 255 36
-2.29229 -0.767798 -0.659849 174 4 33
-2.29105 -0.768809 -0.649993 172 255 36
-2.35012 -0.946297 -0.646447 174 4 33
-2.34887 -0.947329 -0.636831 172 255 36
-2.39718 -1.09161 -0.646194 174 4 33
-2.39593 -1.09264 -0.636774 172 255 36
-2.43483 -1.20791 -0.676541 174 4 33
-2.43359 -1.2089 -0.667277 172 255 36
-2.4671 -1.30769 -0.759284 174 4 33
-2.46589 -1.30856 -0.750154 172 255 36
-2.48457 -1.36192 -0.898839 174 4 33
-2.48341 -1.36258 -0.889782 172 255 36
-2.36816 -0.734109 -0.659916 174 4 33
-2.36692 -0.735121 -0.649981 172 255 36
-2.46183 -0.896689 -0.646546 174 4 33
-2.46058 -0.897722 -0.636813 172 255 36
-2.53807 -1.02905 -0.646319 174 4 33
-2.53682 -1.03008 -0.636751 172 255 36
-2.59906 -1.13498 -0.676685 174 4 33
-2.59782 -1.13597 -0.667249 172 255 36
-2.65134 -1.22588 -0.759447 174 4 33
-2.65013 -1.22675 -0.750124 172 255 36
-2.67964 -1.27529 -0.899012 174 4 33
-2.67848 -1.27595 -0.889751 172 255 36
-2.43536 -0.685386 -0.66001 174 4 33
-2.43412 -0.686399 -0.649976 172 255 36
-2.56079 -0.824942 -0.646682 174 4 33
-2.55954 -0.825977 -0.636804 172 255 36
-2.66288 -0.938555 -0.646491 174 4 33
-2.66163 -0.939592 -0.636741 172 255 36
-2.74454 -1.0295 -0.676887 174 4 33
-2.7433 -1.03049 -0.667238 172 255 36
-2.81454 -1.10755 -0.759672 174 4 33
-2.81333 -1.10842 -0.750111 172 255 36
-2.85245 -1.14999 -0.89925 174 4 33
-2.85129 -1.15066 -0.889736 172 255 36
-2.49097 -0.623757 -0.660124 174 4 33
-2.48973 -0.624771 -0.649977 172 255 36
-2.64267 -0.734193 -0.646851 174 4 33
-2.64142 -0.735229 -0.636807 172 255 36
-2.76615 -0.824102 -0.646705 174 4 33
-2.7649 -0.82514 -0.636745 172 255 36
-2.86492 -0.896082 -0.677135 174 4 33
-2.86368 -0.897077 -0.667242 172 255 36
-2.94959 -0.957882 -0.75995 174 4 33
-2.94838 -0.958756 -0.750115 172 255 36
-2.99543 -0.991523 -0.899545 174 4 33
-2.99428 -0.992192 -0.889741 172 255 36
-2.53255 -0.551915 -0.660255 174 4 33
-2.53131 -0.55293 -0.649986 172 255 36
-2.7039 -0.628404 -0.647044 174 4 33
-2.70265 -0.629441 -0.63682 172 255 36
-2.84337 -0.690682 -0.646948 174 4 33
-2.84212 -0.691721 -0.636761 172 255 36
-2.95494 -0.740558 -0.677418 174 4 33
-2.9537 -0.741554 -0.667261 172 255 36
-3.05057 -0.78341 -0.760269 174 4 33
-3.04936 -0.784285 -0.750137 172 255 36
-3.10236 -0.806787 -0.899882 174 4 33
-3.10121 -0.807458 -0.889764 172 255 36
-2.55829 -0.473 -0.660397 174 4 33
-2.55705 -0.474015 -0.650002 172 255 36
-2.7418 -0.5122 -0.647254 174 4 33
-2.74055 -0.513237 -0.636844 172 255 36
-2.89117 -0.544124 -0.647211 174 4 33
-2.88992 -0.545164 -0.636789 172 255 36
-3.01065 -0.569719 -0.677726 174 4 33
-3.00942 -0.570716 -0.667295 172 255 36
-3.11307 -0.591758 -0.760614 174 4 33
-3.11187 -0.592634 -0.750175 172 255 36
-3.16854 -0.603863 -0.900248 174 4 33
-3.16739 -0.604534 -0.889805 172 255 36
-2.16667 -0.387364 1.38025 174 4 33
-2.16463 -0.391379 1.39061 172 255 36
-2.21373 -0.378291 1.38019 174 4 33
-2.21169 -0.382307 1.39059 172 255 36
-2.21468 -0.387363 1.3802 174 4 33
-2.21264 -0.391379 1.39058 172 255 36
-2.23061 -0.374678 1.23323 174 4 33
-2.22863 -0.378478 1.24364 172 255 36
-2.23195 -0.387379 1.23324 174 4 33
-2.22997 -0.391179 1.24363 172 255 36
-2.43552 -0.331127 1.2374 174 4 33
-2.43353 -0.334936 1.24795 172 255 36
-2.44143 -0.38737 1.23747 174 4 33
-2.43944 -0.391179 1.24794 172 255 36
-2.44419 -0.329084 1.42941 174 4 33
-2.44213 -0.333176 1.43997 172 255 36
-2.45029 -0.387144 1.42947 174 4 33
-2.44823 -0.391236 1.43995 172 255 36
-2.48264 -0.320874 1.46865 174 4 33
-2.48056 -0.325025 1.47924 172 255 36
-2.48959 -0.387097 1.46873 174 4 33
-2.48751 -0.391248 1.47922 172 255 36
-2.52114 -0.312555 1.59954 174 4 33
-2.51901 -0.316899 1.61015 172 255 36
-2.52896 -0.386943 1.59961 174 4 33
-2.52683 -0.391287 1.61012 172 255 36
-2.21091 -0.369617 1.38018 174 4 33
-2.20887 -0.373633 1.39059 172 255 36
-2.22667 -0.362532 1.23321 174 4 33
-2.22469 -0.366332 1.24364 172 255 36
-2.41804 -0.277338 1.23734 174 4 33
-2.41606 -0.281147 1.24797 172 255 36
-2.42615 -0.273562 1.42936 174 4 33
-2.42409 -0.277654 1.43999 172 255 36
-2.46206 -0.257544 1.46859 174 4 33
-2.45998 -0.261694 1.47926 172 255 36
-2.49803 -0.241417 1.59947 174 4 33
-2.4959 -0.245761 1.61018 172 255 36
-2.20635 -0.361717 1.38018 174 4 33
-2.20431 -0.365733 1.3906 172 255 36
-2.22028 -0.351472 1.23321 174 4 33
-2.2183 -0.355272 1.24365 172 255 36
-2.38977 -0.228359 1.23731 174 4 33
-2.38779 -0.232168 1.248 172 255 36
-2.39696 -0.223003 1.42931 174 4 33
-2.3949 -0.227095 1.44001 172 255 36
-2.42877 -0.199875 1.46855 174 4 33
-2.4267 -0.204025 1.47929 172 255 36
-2.46064 -0.176639 1.59942 174 4 33
-2.45851 -0.180982 1.61021 172 255 36
-2.20024 -0.354937 1.38017 174 4 33
-2.1982 -0.358953 1.3906 172 255 36
-2.21174 -0.34198 1.2332 174 4 33
-2.20976 -0.34578 1.24365 172 255 36
-2.35193 -0.186327 1.23729 174 4 33
-2.34995 -0.190135 1.24802 172 255 36
-2.35791 -0.179615 1.42929 174 4 33
-2.35585 -0.183706 1.44004 172 255 36
-2.38421 -0.150385 1.46852 174 4 33
-2.38214 -0.154534 1.47932 172 255 36
-2.41059 -0.121047 1.59939 174 4 33
-2.40847 -0.125389 1.61024 172 255 36
-2.19287 -0.349575 1.38018 174 4 33
-2.19083 -0.353591 1.39061 172 255 36
-2.20141 -0.334474 1.2332 174 4 33
-2.19943 -0.338273 1.24366 172 255 36
-2.30618 -0.153078 1.23728 174 4 33
-2.3042 -0.156885 1.24804 172 255 36
-2.31068 -0.145294 1.42928 174 4 33
-2.30862 -0.149384 1.44006 172 255 36
-2.33035 -0.111237 1.4685 174 4 33
-2.32828 -0.115385 1.47934 172 255 36
-2.35009 -0.0770725 1.59938 174 4 33
-2.34797 -0.081414 1.61027 172 255 36
-2.18453 -0.345863 1.38018 174 4 33
-2.18249 -0.349879 1.39061 172 255 36
-2.18974 -0.329277 1.2332 174 4 33
-2.18776 -0.333076 1.24366 172 255 36
-2.25452 -0.130065 1.23729 174 4 33
-2.25254 -0.133871 1.24807 172 255 36
-2.25736 -0.121539 1.4293 174 4 33
-2.2553 -0.125628 1.44009 172 255 36
-2.26953 -0.0841416 1.46852 174 4 33
-2.26746 -0.088289 1.47937 172 255 36
-2.28176 -0.0466365 1.59939 174 4 33
-2.27964 -0.050977 1.6103 172 255 36
-2.17561 -0.343965 1.38018 174 4 33
-2.17357 -0.34798 1.39061 172 255 36
-2.17725 -0.326619 1.23321 174 4 33
-2.17527 -0.330418 1.24367 172 255 36
-2.19921 -0.118292 1.23732 174 4 33
-2.19723 -0.122098 1.24809 172 255 36
-2.20026 -0.109388 1.42932 174 4 33
-2.1982 -0.113477 1.44011 172 255 36
-2.2044 -0.0702816 1.46854 174 4 33
-2.20233 -0.074428 1.47939 172 255 36
-2.2086 -0.0310666 1.59941 174 4 33
-2.20648 -0.035406 1.61032 172 255 36
-2.16649 -0.34396 1.38019 174 4 33
-2.16445 -0.347975 1.39062 172 255 36
-2.16448 -0.326615 1.23322 174 4 33
-2.1625 -0.330414 1.24367 172 255 36
-2.14266 -0.118277 1.23735 174 4 33
-2.14068 -0.122082 1.2481 172 255 36
-2.14188 -0.10937 1.42936 174 4 33
-2.13982 -0.113458 1.44012 172 255 36
-2.13781 -0.0702626 1.46859 174 4 33
-2.13574 -0.074408 1.47941 172 255 36
-2.13381 -0.0310457 1.59947 174 4 33
-2.13169 -0.035384 1.61035 172 255 36
-2.15757 -0.345855 1.3802 174 4 33
-2.15553 -0.34987 1.39062 172 255 36
-2.15199 -0.329265 1.23323 174 4 33
-2.15001 -0.333064 1.24367 172 255 36
-2.08733 -0.130018 1.23741 174 4 33
-2.08535 -0.133822 1.24812 172 255 36
-2.08477 -0.121489 1.42942 174 4 33
-2.08271 -0.125576 1.44014 172 255 36
-2.07267 -0.0840865 1.46866 174 4 33
-2.0706 -0.088231 1.47943 172 255 36
-2.06064 -0.0465748 1.59954 174 4 33
-2.05852 -0.050912 1.61036 172 255 36
-2.14923 -0.349562 1.38021 174 4 33
