ply
format ascii 1.0
element vertex 1332
property float x
property float y
property float z
property uchar red
property uchar green
property uchar blue
end_header
0.835516 1.46764 0.447178 174 4 33
0.991235 1.55624 0.400287 172 255 36
1.15844 1.48934 0.407632 174 4 33
0.995733 1.55711 0.399847 172 255 36
0.895808 1.67969 0.531267 174 4 33
0.982005 1.64586 0.435405 172 255 36
0.873318 1.59048 0.523339 174 4 33
0.977506 1.64499 0.435845 172 255 36
0.655592 2.14377 1.07353 174 4 33
0.838807 2.18736 1.03348 172 255 36
0.870576 2.17348 0.9212 174 4 33
0.843103 2.15241 1.0363 172 255 36
1.00662 1.48282 0.350765 174 4 33
0.875449 1.52296 0.408639 172 255 36
1.01559 1.53238 0.515495 174 4 33
0.894775 1.47985 0.408641 172 255 36
1.1802 1.67769 0.453197 174 4 33
1.07857 1.56225 0.408665 172 255 36
1.0124 1.80704 0.255979 174 4 33
1.05924 1.60536 0.408664 172 255 36
1.03306 1.38 -0.331168 174 4 33
0.992008 1.51504 -0.371888 172 255 36
1.07038 1.51089 -0.309017 174 4 33
0.996899 1.51464 -0.374765 172 255 36
0.96726 1.65571 -0.305526 174 4 33
1.0014 1.51551 -0.374325 172 255 36
1.15029 1.35984 -0.440106 174 4 33
1.00498 1.5174 -0.371002 172 255 36
1.07552 1.48103 -0.381744 174 4 33
1.0037 1.52031 -0.363221 172 255 36
0.939617 1.37978 -0.536702 174 4 33
0.998992 1.52061 -0.360637 172 255 36
0.985801 1.58881 -0.277825 174 4 33
0.994784 1.51982 -0.361008 172 255 36
0.942794 1.40287 -0.3322 174 4 33
0.990837 1.51771 -0.364737 172 255 36
0.851265 2.33109 -0.815185 174 4 33
0.868154 2.16117 -1.00667 172 255 36
0.849293 2.07484 -1.00648 174 4 33
0.870665 2.16577 -1.00667 172 255 36
0.808117 2.23974 -0.822315 174 4 33
0.870425 2.16637 -0.981512 172 255 36
0.91766 2.12444 -0.847315 174 4 33
0.867879 2.16188 -0.982347 172 255 36
0.828992 2.22748 -1.14319 174 4 33
0.870239 2.17181 -1.0059 172 255 36
0.838572 2.19674 -1.01815 174 4 33
0.866814 2.17949 -1.0059 172 255 36
0.83844 2.17312 -1.04993 174 4 33
0.866669 2.17981 -0.978533 172 255 36
0.747124 2.20886 -1.11124 174 4 33
0.87 2.17242 -0.980748 172 255 36
0.906922 2.29589 -0.873088 174 4 33
0.862515 2.18382 -1.00513 172 255 36
0.923017 2.10872 -1.09052 174 4 33
0.857273 2.18501 -1.00513 172 255 36
0.726176 2.25948 -0.938169 174 4 33
0.857172 2.18523 -0.976916 172 255 36
0.768654 2.08995 -1.11652 174 4 33
0.86237 2.18414 -0.977766 172 255 36
0.818636 2.09974 -1.05728 174 4 33
0.852695 2.18471 -1.00492 172 255 36
0.882566 2.06515 -1.05537 174 4 33
0.848758 2.18299 -1.00492 172 255 36
0.8368 2.24486 -0.896408 174 4 33
0.848658 2.1832 -0.976693 172 255 36
0.674229 1.983 -1.0045 174 4 33
0.852594 2.18493 -0.976702 172 255 36
0.807579 1.94386 -1.05189 174 4 33
0.845012 2.17859 -1.01903 172 255 36
0.815817 2.12571 -1.15746 174 4 33
0.841356 2.17174 -1.01903 172 255 36
0.842555 2.03617 -1.04473 174 4 33
0.842535 2.17473 -0.982493 172 255 36
0.913668 2.12753 -0.916213 174 4 33
0.845327 2.17975 -0.981552 172 255 36
0.933538 2.02618 -1.26744 174 4 33
0.845535 2.16232 -1.01904 172 255 36
0.675399 2.30944 -1.00076 174 4 33
0.845758 2.16189 -0.985025 172 255 36
0.926149 2.30694 -1.16832 174 4 33
0.842708 2.16869 -0.98299 172 255 36
0.846905 2.28432 -1.12557 174 4 33
0.85025 2.15723 -1.00665 172 255 36
0.885676 2.10552 -1.11313 174 4 33
0.855756 2.1558 -1.00665 172 255 36
0.868995 2.13006 -0.983036 174 4 33
0.85548 2.15651 -0.982328 172 255 36
0.930407 2.16772 -1.03281 174 4 33
0.850015 2.15782 -0.981391 172 255 36
0.897409 2.28752 -1.0223 174 4 33
0.860597 2.15606 -1.00688 172 255 36
0.8866 2.15932 -0.90671 174 4 33
0.864792 2.15795 -1.00688 172 255 36
1.03261 1.98865 -0.852529 174 4 33
0.864517 2.15866 -0.982557 172 255 36
0.658996 2.15672 -1.0178 174 4 33
0.860321 2.15677 -0.982561 172 255 36
0.729749 2.17335 -0.886968 174 4 33
0.852234 2.16655 -0.942695 172 255 36
0.7829 2.1267 -0.929562 174 4 33
0.855283 2.15975 -0.94473 172 255 36
0.853658 2.20591 -0.943954 174 4 33
0.874699 2.15529 -0.900025 172 255 36
0.835838 2.25431 -0.94625 174 4 33
0.871432 2.16123 -0.896272 172 255 36
0.802964 2.19149 -0.833072 174 4 33
0.859594 2.156 -0.946843 172 255 36
0.755779 2.14549 -0.843202 174 4 33
0.865059 2.15469 -0.94778 172 255 36
0.843313 2.05218 -0.789819 174 4 33
0.884469 2.15058 -0.903868 172 255 36
0.843288 2.10804 -0.930837 174 4 33
0.879009 2.15154 -0.902139 172 255 36
0.858557 2.28012 -1.04836 174 4 33
0.869888 2.15507 -0.948443 172 255 36
0.877605 2.27203 -1.04818 174 4 33
0.874084 2.15696 -0.94844 172 255 36
0.919058 2.12672 -0.87599 174 4 33
0.893494 2.15285 -0.904525 172 255 36
0.948245 2.13339 -0.851808 174 4 33
0.889299 2.15096 -0.904532 172 255 36
0.895969 2.14091 -0.89776 174 4 33
0.877458 2.16008 -0.947844 172 255 36
0.857637 1.93629 -1.03812 174 4 33
0.880004 2.16457 -0.947009 172 255 36
0.90874 2.15527 -0.957926 174 4 33
0.899426 2.16015 -0.902389 172 255 36
0.750029 2.29213 -0.99697 174 4 33
0.896867 2.15596 -0.903929 172 255 36
0.797647 2.21966 -0.880285 174 4 33
0.87956 2.1702 -0.94484 172 255 36
0.818092 2.13462 -0.918918 174 4 33
0.876228 2.1776 -0.942625 172 255 36
0.832903 2.15204 -1.10062 174 4 33
0.895431 2.17224 -0.896134 172 255 36
0.792396 2.19561 -0.966887 174 4 33
0.898981 2.16578 -0.90022 172 255 36
1.00048 2.26895 -1.08897 174 4 33
0.871732 2.18144 -0.940446 172 255 36
0.826423 2.03181 -1.10925 174 4 33
0.866534 2.18252 -0.939596 172 255 36
0.994996 2.08994 -0.931503 174 4 33
0.885026 2.17653 -0.892388 172 255 36
0.830414 2.09503 -0.86321 174 4 33
0.890934 2.17608 -0.893955 172 255 36
0.895437 2.10512 -0.891659 174 4 33
0.861793 2.18204 -0.938986 172 255 36
0.910035 2.20097 -0.899833 174 4 33
0.857857 2.18031 -0.938978 172 255 36
0.878393 2.0397 -0.791292 174 4 33
0.876363 2.17432 -0.891762 172 255 36
0.910199 2.04455 -1.00355 174 4 33
0.880285 2.17604 -0.891777 172 255 36
0.829899 2.05303 -0.959096 174 4 33
0.85467 2.1771 -0.93964 172 255 36
0.774816 2.07338 -1.12712 174 4 33
0.851877 2.17208 -0.940579 172 255 36
1.03096 2.13966 -1.08973 174 4 33
0.871076 2.16675 -0.894157 172 255 36
0.919421 2.06721 -1.06705 174 4 33
0.873176 2.17111 -0.892424 172 255 36
1.18084 2.27915 -0.821421 174 4 33
0.911504 2.16631 -0.850329 172 255 36
0.963185 2.19038 -0.890254 174 4 33
0.905596 2.16675 -0.848762 172 255 36
0.928014 2.24047 -0.753946 174 4 33
0.928404 2.15283 -0.808027 172 255 36
0.905678 2.02941 -0.98613 174 4 33
0.933279 2.15246 -0.81026 172 255 36
0.903653 2.14548 -0.905118 174 4 33
0.900936 2.16608 -0.847802 172 255 36
0.790298 2.27215 -0.796998 174 4 33
0.897014 2.16436 -0.847786 172 255 36
0.866196 2.02525 -0.782635 174 4 33
0.919812 2.15043 -0.807043 172 255 36
0.820299 2.0883 -0.758785 174 4 33
0.923745 2.15217 -0.807067 172 255 36
0.947235 2.25108 -0.785388 174 4 33
0.893738 2.16135 -0.848827 172 255 36
0.694028 1.90335 -0.601757 174 4 33
0.891639 2.15699 -0.85056 172 255 36
0.935435 2.12325 -0.737347 174 4 33
0.913388 2.14319 -0.810553 172 255 36
0.914014 2.31984 -0.682274 174 4 33
0.916536 2.14742 -0.808084 172 255 36
0.941574 2.06932 -0.830792 174 4 33
0.891707 2.15209 -0.853885 172 255 36
0.865726 2.2249 -0.816654 174 4 33
0.894974 2.14615 -0.857639 172 255 36
0.802697 2.00339 -0.913461 174 4 33
0.915712 2.13318 -0.819227 172 255 36
0.793385 2.22766 -0.795661 174 4 33
0.913457 2.13828 -0.813878 172 255 36
0.951524 2.28234 -0.867233 174 4 33
0.898995 2.14302 -0.860962 172 255 36
0.777685 2.29464 -0.762437 174 4 33
0.904455 2.14206 -0.86269 172 255 36
0.793796 2.15666 -0.863163 174 4 33
0.924834 2.12952 -0.825012 172 255 36
1.04563 2.16583 -0.796863 174 4 33
0.919733 2.13005 -0.82255 172 255 36
0.812136 2.06622 -1.04747 174 4 33
0.909194 2.14263 -0.863735 172 255 36
0.806625 2.18848 -0.819286 174 4 33
0.913388 2.14453 -0.863729 172 255 36
0.755337 2.04038 -0.733897 174 4 33
0.933769 2.13199 -0.826048 172 255 36
0.78205 2.05712 -0.745207 174 4 33
0.929572 2.1301 -0.826057 172 255 36
0.936427 2.06747 -0.830889 174 4 33
0.916844 2.14746 -0.862792 172 255 36
0.940229 2.26328 -0.939051 174 4 33
0.919402 2.15165 -0.861251 172 255 36
1.03027 2.24897 -0.903038 174 4 33
0.940095 2.13872 -0.822916 172 255 36
0.80423 2.05689 -0.795364 174 4 33
0.937225 2.13493 -0.82511 172 255 36
0.923136 2.12655 -0.866251 174 4 33
0.919255 2.15664 -0.857841 172 255 36
0.789096 2.13955 -0.850713 174 4 33
0.915704 2.1631 -0.853756 172 255 36
0.80889 2.17101 -0.826106 174 4 33
0.937479 2.14926 -0.813686 172 255 36
1.03126 1.94881 -0.92235 174 4 33
0.939948 2.14372 -0.819507 172 255 36
1.01316 2.14431 -0.734825 174 4 33
0.957233 2.0851 -0.763637 172 255 36
0.830348 2.1974 -0.572645 174 4 33
0.96143 2.08699 -0.763629 172 255 36
1.00816 1.84263 -0.680582 174 4 33
0.996494 2.00906 -0.676136 172 255 36
1.07773 2.18621 -0.675162 174 4 33
0.992051 2.00807 -0.676812 172 255 36
0.878374 2.07264 -0.828646 174 4 33
0.965124 2.0893 -0.762117 172 255 36
0.947216 2.1708 -0.812963 174 4 33
0.967995 2.0931 -0.759923 172 255 36
0.899093 1.97314 -0.614685 174 4 33
1.00346 2.01398 -0.671456 172 255 36
1.05892 1.93799 -0.58705 174 4 33
1.00019 2.01138 -0.674624 172 255 36
0.820232 2.1213 -0.735991 174 4 33
0.96841 2.09721 -0.755427 172 255 36
0.9021 1.95088 -0.78829 174 4 33
0.965942 2.10275 -0.749607 172 255 36
1.06134 2.12417 -0.47708 174 4 33
1.00186 2.02261 -0.660158 172 255 36
1.20179 1.77774 -0.775722 174 4 33
1.00387 2.01809 -0.66696 172 255 36
0.944485 2.03878 -0.563557 174 4 33
0.962372 2.10556 -0.745396 172 255 36
0.939777 2.17472 -0.762587 174 4 33
0.957497 2.10593 -0.743163 172 255 36
0.914253 2.01763 -0.595778 174 4 33
0.993365 2.02622 -0.65396 172 255 36
0.90895 2.17955 -0.78792 174 4 33
0.998293 2.02541 -0.655947 172 255 36
0.801062 2.12883 -0.589843 174 4 33
0.953023 2.10556 -0.74225 172 255 36
0.904628 2.05463 -0.835622 174 4 33
0.949091 2.10383 -0.742227 172 255 36
0.945103 2.05436 -0.758731 174 4 33
0.984731 2.02495 -0.653642 172 255 36
1.06451 1.83774 -0.782733 174 4 33
0.988891 2.02586 -0.653048 172 255 36
0.903943 2.16694 -0.735084 174 4 33
0.945383 2.10138 -0.743875 172 255 36
0.930434 1.96315 -0.735071 174 4 33
0.942235 2.09715 -0.746344 172 255 36
0.987416 2.0836 -0.607288 174 4 33
0.977435 2.01961 -0.658842 172 255 36
0.861679 2.17755 -0.609914 174 4 33
0.981024 2.02251 -0.655291 172 255 36
1.02151 2.04134 -0.65898 174 4 33
0.941572 2.09305 -0.750749 172 255 36
0.967528 2.0213 -0.911103 174 4 33
0.943828 2.08795 -0.756096 172 255 36
1.02803 1.9092 -0.591648 174 4 33
0.978603 2.01136 -0.669499 172 255 36
0.974317 1.79058 -0.604908 174 4 33
0.976772 2.01551 -0.663247 172 255 36
1.03805 2.0247 -0.930642 174 4 33
0.94741 2.08527 -0.760171 172 255 36
0.951467 1.84659 -0.672972 174 4 33
0.952512 2.08474 -0.762633 172 255 36
0.961217 2.0899 -0.691342 174 4 33
0.987329 2.00772 -0.675808 172 255 36
1.04302 2.0114 -0.659201 174 4 33
0.982186 2.00868 -0.673574 172 255 36
1.02855 1.90473 -0.532658 174 4 33
0.991746 1.9551 -0.594573 172 255 36
1.11301 1.87453 -0.694649 174 4 33
0.988157 1.9522 -0.598124 172 255 36
0.995371 1.83156 -0.60922 174 4 33
0.974182 1.89559 -0.564731 172 255 36
0.923107 1.98122 -0.473449 174 4 33
0.977771 1.8985 -0.56118 172 255 36
0.930753 1.97866 -0.855677 174 4 33
0.987278 1.94867 -0.603026 172 255 36
0.907012 2.14699 -0.438336 174 4 33
0.98911 1.94452 -0.609278 172 255 36
0.853446 1.88212 -0.673319 174 4 33
0.975135 1.88792 -0.575886 172 255 36
0.996199 1.82771 -0.61399 174 4 33
0.973303 1.89207 -0.569633 172 255 36
0.987615 1.97654 -0.49973 174 4 33
0.992597 1.94197 -0.613522 172 255 36
0.908899 1.80355 -0.314924 174 4 33
0.99774 1.94101 -0.615757 172 255 36
1.17945 1.87211 -0.704982 174 4 33
0.983766 1.88441 -0.582365 172 255 36
0.887865 2.00041 -0.653574 174 4 33
0.978622 1.88536 -0.580129 172 255 36
0.90177 1.95396 -0.562841 174 4 33
1.00253 1.94103 -0.616536 172 255 36
1.05775 1.95853 -0.738354 174 4 33
1.00698 1.94203 -0.61586 172 255 36
1.06492 2.00575 -0.491639 174 4 33
0.993002 1.88542 -0.582467 172 255 36
0.948754 1.76057 -0.86944 174 4 33
0.988559 1.88443 -0.583144 172 255 36
1.17747 1.88897 -0.462471 174 4 33
1.01083 1.94382 -0.613938 172 255 36
1.12199 1.93989 -0.640822 174 4 33
1.0141 1.94642 -0.61077 172 255 36
1.12651 1.87957 -0.569495 174 4 33
1.00012 1.88981 -0.577378 172 255 36
1.10371 1.92464 -0.392705 174 4 33
0.996857 1.88722 -0.580546 172 255 36
1.02274 1.94608 -0.65893 174 4 33
1.01473 1.94997 -0.605785 172 255 36
0.979217 1.91304 -0.703067 174 4 33
1.01272 1.95449 -0.598983 172 255 36
1.05104 1.93866 -0.600041 174 4 33
0.998746 1.89788 -0.565591 172 255 36
0.95456 1.77949 -0.702424 174 4 33
1.00075 1.89337 -0.572394 172 255 36
0.910928 2.16108 -0.647505 174 4 33
1.00925 1.95715 -0.594588 172 255 36
1.14226 1.90592 -0.41818 174 4 33
1.00433 1.95796 -0.592601 172 255 36
0.908905 1.99228 -0.599298 174 4 33
0.99035 1.90135 -0.559209 172 255 36
1.06424 1.99875 -0.485494 174 4 33
0.995278 1.90054 -0.561196 172 255 36
0.897718 1.86665 -0.382615 174 4 33
0.999781 1.95791 -0.591905 172 255 36
1.00117 2.0418 -0.589069 174 4 33
0.995621 1.95701 -0.592499 172 255 36
0.914575 1.94862 -0.525826 174 4 33
0.981646 1.9004 -0.559108 172 255 36
1.06558 1.88807 -0.539027 174 4 33
0.985806 1.9013 -0.558513 172 255 36
0.746861 1.77722 -0.414172 174 4 33
0.99185 1.8563 -0.551892 172 255 36
0.977968 1.84551 -0.570617 174 4 33
0.989842 1.86081 -0.54509 172 255 36
0.875112 1.72233 -0.411643 174 4 33
0.985973 1.84358 -0.537705 172 255 36
0.977883 1.66333 -0.515456 174 4 33
0.988055 1.83847 -0.544053 172 255 36
0.862304 1.93375 -0.540385 174 4 33
0.986354 1.86367 -0.540869 172 255 36
0.906915 1.81392 -0.636717 174 4 33
0.981426 1.86448 -0.538882 172 255 36
0.951262 1.66497 -0.529724 174 4 33
0.977549 1.84741 -0.531744 172 255 36
1.03924 1.79156 -0.582661 174 4 33
0.982484 1.84643 -0.533485 172 255 36
0.975354 1.84794 -0.470466 174 4 33
0.976885 1.86446 -0.538266 172 255 36
1.03074 1.91049 -0.433902 174 4 33
0.972724 1.86355 -0.538861 172 255 36
1.02182 1.89219 -0.453349 174 4 33
0.968866 1.84644 -0.531796 172 255 36
1.03309 1.91733 -0.612604 174 4 33
0.973007 1.8474 -0.531127 172 255 36
0.996694 1.78341 -0.685395 174 4 33
0.968867 1.86156 -0.540923 172 255 36
0.834673 1.84177 -0.393266 174 4 33
0.965278 1.85866 -0.544474 172 255 36
0.891258 1.78963 -0.555792 174 4 33
0.961471 1.84124 -0.537293 172 255 36
0.96146 1.84835 -0.726953 174 4 33
0.965009 1.84445 -0.533858 172 255 36
1.01873 1.93771 -0.666631 174 4 33
0.96443 1.85492 -0.549243 172 255 36
0.984438 1.99995 -0.587071 174 4 33
0.966261 1.85077 -0.555496 172 255 36
0.778327 1.92065 -0.539292 174 4 33
0.962523 1.8328 -0.547899 172 255 36
0.769562 1.76172 -0.568806 174 4 33
0.960622 1.8375 -0.542063 172 255 36
0.877733 1.86283 -0.529861 174 4 33
0.969769 1.84803 -0.559568 172 255 36
0.852122 1.89779 -0.567249 174 4 33
0.974912 1.84707 -0.561804 172 255 36
0.906127 1.79368 -0.47584 174 4 33
0.971188 1.82891 -0.55394 172 255 36
0.94887 1.8472 -0.458607 174 4 33
0.966031 1.83006 -0.551972 172 255 36
0.871863 1.80473 -0.626451 174 4 33
0.979704 1.84706 -0.562497 172 255 36
1.11497 1.98011 -0.707556 174 4 33
0.984147 1.84805 -0.561821 172 255 36
0.957253 1.75228 -0.522827 174 4 33
0.980402 1.82995 -0.553882 172 255 36
0.883376 1.6704 -0.554024 174 4 33
0.975979 1.8289 -0.554634 172 255 36
0.767257 1.70747 -0.537924 174 4 33
0.987985 1.84993 -0.559906 172 255 36
0.913559 1.68523 -0.383731 174 4 33
0.991252 1.85253 -0.556738 172 255 36
0.894727 1.76052 -0.68205 174 4 33
0.987457 1.8347 -0.5489 172 255 36
1.08431 1.73201 -0.630142 174 4 33
0.984239 1.83183 -0.551966 172 255 36
0.985608 1.81454 -0.458339 174 4 33
0.964547 1.80856 -0.536568 172 255 36
0.924192 1.84545 -0.480591 174 4 33
0.969704 1.80741 -0.538537 172 255 36
0.914603 1.74407 -0.663163 174 4 33
0.97053 1.7824 -0.515318 172 255 36
1.00263 1.92099 -0.492718 174 4 33
0.965246 1.78367 -0.513635 172 255 36
0.939787 1.75284 -0.466289 174 4 33
0.974517 1.80735 -0.539055 172 255 36
1.00294 1.86187 -0.577622 174 4 33
0.978939 1.8084 -0.538303 172 255 36
0.967316 1.84738 -0.480193 174 4 33
0.979733 1.78346 -0.515012 172 255 36
1.08272 1.78929 -0.458342 174 4 33
0.975343 1.78234 -0.515837 172 255 36
1.05191 1.83937 -0.506534 174 4 33
0.982708 1.81043 -0.536408 172 255 36
1.04751 1.77685 -0.437028 174 4 33
0.985926 1.8133 -0.533342 172 255 36
0.953425 1.82323 -0.411775 174 4 33
0.986549 1.78857 -0.510177 172 255 36
0.883985 1.78446 -0.490901 174 4 33
0.983502 1.78549 -0.513116 172 255 36
0.935794 1.71746 -0.572113 174 4 33
0.986356 1.81745 -0.528793 172 255 36
0.97011 1.76853 -0.367153 174 4 33
0.984274 1.82255 -0.522445 172 255 36
0.999794 1.87553 -0.453184 174 4 33
0.984518 1.79824 -0.499791 172 255 36
1.10662 1.85924 -0.465401 174 4 33
0.98698 1.79272 -0.505629 172 255 36
0.843577 1.94561 -0.475149 174 4 33
0.980641 1.82573 -0.518593 172 255 36
1.04355 1.72921 -0.621995 174 4 33
0.975705 1.82671 -0.516852 172 255 36
1.07822 1.77137 -0.439475 174 4 33
0.975833 1.80251 -0.494463 172 255 36
1.01998 1.86265 -0.507125 174 4 33
0.980885 1.80142 -0.49594 172 255 36
0.894242 1.74872 -0.562314 174 4 33
0.971145 1.82674 -0.516399 172 255 36
1.02422 1.80321 -0.383323 174 4 33
0.967003 1.82578 -0.517067 172 255 36
0.905841 1.91108 -0.477285 174 4 33
0.96716 1.80152 -0.494748 172 255 36
0.90596 1.76387 -0.57429 174 4 33
0.971273 1.80253 -0.49401 172 255 36
0.977678 1.79241 -0.425946 174 4 33
0.963219 1.82362 -0.519101 172 255 36
1.0549 1.78597 -0.649087 174 4 33
0.959681 1.82041 -0.522537 172 255 36
0.906957 1.6993 -0.474173 174 4 33
0.960033 1.79591 -0.500074 172 255 36
0.927831 1.6996 -0.791983 174 4 33
0.963376 1.79936 -0.496782 172 255 36
0.953816 1.75138 -0.46434 174 4 33
0.958998 1.8163 -0.527019 172 255 36
1.02716 1.7417 -0.490048 174 4 33
0.960899 1.81161 -0.532855 172 255 36
0.839144 1.76601 -0.579393 174 4 33
0.961598 1.78672 -0.509923 172 255 36
1.0385 1.84266 -0.435458 174 4 33
0.95935 1.7918 -0.504556 172 255 36
0.80626 1.78546 -0.539213 174 4 33
0.971114 1.76802 -0.468272 172 255 36
0.926676 1.73062 -0.417821 174 4 33
0.967002 1.76701 -0.46901 172 255 36
1.01944 1.64804 -0.282186 174 4 33
0.966495 1.72233 -0.439705 172 255 36
0.782287 1.7691 -0.366931 174 4 33
0.970703 1.72313 -0.439334 172 255 36
1.18793 1.6342 -0.507353 174 4 33
0.963099 1.76517 -0.471043 172 255 36
0.766179 1.6015 -0.693772 174 4 33
0.959756 1.76172 -0.474334 172 255 36
0.921678 1.73378 -0.532572 174 4 33
0.958645 1.71839 -0.445467 172 255 36
1.03504 1.9071 -0.55886 174 4 33
0.962593 1.72049 -0.441736 172 255 36
0.872686 1.706 -0.386207 174 4 33
0.958788 1.75839 -0.479219 172 255 36
0.913931 1.61474 -0.403231 174 4 33
0.961037 1.75331 -0.484585 172 255 36
0.895203 1.6737 -0.30719 174 4 33
0.958849 1.71239 -0.457502 172 255 36
0.956604 1.69371 -0.359407 174 4 33
0.957677 1.71507 -0.450351 172 255 36
0.91708 1.69874 -0.443712 174 4 33
0.964435 1.75096 -0.488854 172 255 36
0.916481 1.79555 -0.342805 174 4 33
0.969719 1.74969 -0.490537 172 255 36
1.06711 1.77506 -0.332556 174 4 33
0.967139 1.70964 -0.464648 172 255 36
0.963226 1.67632 -0.540618 174 4 33
0.962248 1.71003 -0.46177 172 255 36
0.703 1.77343 -0.523256 174 4 33
0.974485 1.74977 -0.491361 172 255 36
0.93466 1.59423 -0.49399 174 4 33
0.978875 1.75088 -0.490536 172 255 36
1.12321 1.68422 -0.494611 174 4 33
0.976404 1.71059 -0.465031 172 255 36
0.930892 1.72685 -0.562801 174 4 33
0.971905 1.70972 -0.465471 172 255 36
0.99651 1.77294 -0.403395 174 4 33
0.982755 1.75262 -0.488655 172 255 36
0.957273 1.80139 -0.355542 174 4 33
0.985803 1.7557 -0.485715 172 255 36
0.83459 1.67916 -0.458005 174 4 33
0.98387 1.71421 -0.459827 172 255 36
0.833731 1.85721 -0.470655 174 4 33
0.980284 1.71233 -0.46315 172 255 36
0.946249 1.82316 -0.403562 174 4 33
0.986523 1.75906 -0.480745 172 255 36
1.11654 1.64608 -0.536423 174 4 33
0.984062 1.76458 -0.474907 172 255 36
0.898574 1.68855 -0.282103 174 4 33
0.983301 1.72047 -0.447077 172 255 36
0.94154 1.72464 -0.671263 174 4 33
0.984591 1.71756 -0.454857 172 255 36
0.922857 1.76976 -0.545202 174 4 33
0.980685 1.76704 -0.470487 172 255 36
0.883427 1.53296 -0.466524 174 4 33
0.975633 1.76813 -0.46901 172 255 36
0.912391 1.49247 -0.487812 174 4 33
0.975222 1.72324 -0.440072 172 255 36
0.986389 1.764 -0.318484 174 4 33
0.979925 1.72293 -0.442656 172 255 36
0.949297 1.54331 -0.582591 174 4 33
0.986047 1.64749 -0.432548 172 255 36
1.11176 1.55392 -0.575741 174 4 33
0.989633 1.64938 -0.429226 172 255 36
0.929965 1.5592 -0.246397 174 4 33
1.00336 1.56061 -0.393721 172 255 36
1.0895 1.71025 -0.221279 174 4 33
0.999775 1.55872 -0.397043 172 255 36
1.16337 1.72212 -0.339608 174 4 33
0.990782 1.65178 -0.423675 172 255 36
1.01715 1.52193 -0.483932 174 4 33
0.989492 1.65469 -0.415895 172 255 36
1.01081 1.55772 -0.459361 174 4 33
1.00322 1.56592 -0.380389 172 255 36
0.946612 1.49935 -0.229762 174 4 33
1.00451 1.563 -0.38817 172 255 36
0.912785 1.79458 -0.361938 174 4 33
0.986496 1.6563 -0.410712 172 255 36
0.811324 1.6536 -0.328102 174 4 33
0.981793 1.6566 -0.408128 172 255 36
1.13144 1.49051 -0.453199 174 4 33
0.995521 1.56783 -0.372622 172 255 36
0.874406 1.66278 -0.350354 174 4 33
1.00022 1.56753 -0.375207 172 255 36
0.97247 1.51636 -0.458252 174 4 33
0.977338 1.65636 -0.407021 172 255 36
1.03018 1.79272 -0.458056 174 4 33
0.97313 1.65556 -0.40739 172 255 36
0.788875 1.46595 -0.529931 174 4 33
0.986858 1.56679 -0.371885 172 255 36
0.848226 1.59162 -0.261903 174 4 33
0.991066 1.56759 -0.371516 172 255 36
0.941727 1.58365 -0.508133 174 4 33
0.969052 1.65411 -0.409441 172 255 36
0.962698 1.62891 -0.134038 174 4 33
0.965105 1.652 -0.41317 172 255 36
1.06609 1.50648 -0.209675 174 4 33
0.978833 1.56324 -0.377665 172 255 36
1.01972 1.47885 -0.42411 174 4 33
0.982781 1.56534 -0.373935 172 255 36
0.794725 1.78003 -0.412228 174 4 33
0.963717 1.64962 -0.41861 172 255 36
0.960371 1.66236 -0.397814 174 4 33
0.964888 1.64694 -0.425761 172 255 36
0.810316 1.55197 -0.432658 174 4 33
0.978616 1.55816 -0.390255 172 255 36
0.912005 1.51095 -0.306307 174 4 33
0.977445 1.56084 -0.383105 172 255 36
0.941145 1.71377 -0.30954 174 4 33
0.96792 1.6454 -0.430774 172 255 36
0.988144 1.63851 -0.454305 174 4 33
0.972811 1.645 -0.433653 172 255 36
0.964829 1.56093 -0.314805 174 4 33
0.98654 1.55623 -0.398147 172 255 36
1.07056 1.35121 -0.414568 174 4 33
0.981648 1.55663 -0.395269 172 255 36
0.976527 1.58332 -0.454717 174 4 33
0.977506 1.64524 -0.43487 172 255 36
0.815011 1.64232 -0.56858 174 4 33
0.982005 1.64612 -0.434429 172 255 36
0.865125 1.60886 -0.249044 174 4 33
0.995733 1.55735 -0.398925 172 255 36
0.838369 1.60037 -0.429223 174 4 33
0.991235 1.55647 -0.399365 172 255 36
0.651149 2.14288 -1.10662 174 4 33
0.838807 2.18797 -1.03218 172 255 36
0.860479 2.33357 -0.730854 174 4 33
0.843103 2.15303 -1.03502 172 255 36
1.02229 1.58256 -0.358838 174 4 33
1.05924 1.6056 -0.407712 172 255 36
1.03961 1.56767 -0.265958 174 4 33
1.07857 1.5625 -0.407739 172 255 36
0.828329 1.39112 -0.401142 174 4 33
0.894775 1.48009 -0.407763 172 255 36
0.904447 1.56701 -0.464858 174 4 33
0.875449 1.5232 -0.407737 172 255 36
1.20533 1.16686 -0.475298 174 4 33
1.15489 1.17482 -0.373813 172 255 36
1.01629 1.47273 -0.520431 174 4 33
1.13185 1.38291 -0.382889 172 255 36
1.11974 1.56142 -0.386106 174 4 33
1.1401 1.56121 -0.382889 172 255 36
1.02196 1.84624 -0.313199 174 4 33
1.18162 1.76631 -0.373813 172 255 36
1.49475 1.67433 -0.354049 174 4 33
1.39288 1.75653 -0.373949 172 255 36
1.3388 1.08003 -0.419979 174 4 33
1.36551 1.16507 -0.373949 172 255 36
1.17568 1.1947 0.256589 174 4 33
1.1553 1.1748 0.374093 172 255 36
1.4301 1.17387 0.385474 174 4 33
1.36592 1.16506 0.373955 172 255 36
1.29062 1.71567 0.563208 174 4 33
1.39329 1.75652 0.373955 172 255 36
1.11205 1.82927 0.505464 174 4 33
1.18202 1.76629 0.374093 172 255 36
1.01773 1.60258 0.448589 174 4 33
1.14052 1.56119 0.383212 172 255 36
1.22597 1.2239 0.412643 174 4 33
1.13227 1.38289 0.383212 172 255 36
1.16508 2.03721 -0.340063 174 4 33
1.18345 1.78182 -0.355115 172 255 36
1.22477 1.56762 0.235737 174 4 33
1.18383 1.78181 0.355396 172 255 36
1.46362 1.74236 0.378373 174 4 33
1.394 1.77208 0.355258 172 255 36
1.38392 1.76541 -0.276527 174 4 33
1.39361 1.7721 -0.355252 172 255 36
0.91883 1.31689 0.254842 174 4 33
1.15503 1.15922 0.355396 172 255 36
1.10978 1.12466 -0.458404 174 4 33
1.15464 1.15924 -0.355115 172 255 36
1.49237 0.979013 -0.359649 174 4 33
1.3648 1.14951 -0.355252 172 255 36
1.23253 1.11158 0.455524 174 4 33
1.36519 1.14949 0.355258 172 255 36
1.18415 1.787 0.200208 174 4 33
1.16636 1.76702 0.355406 172 255 36
1.11104 1.68748 -0.333616 174 4 33
1.16597 1.76703 -0.355104 172 255 36
1.12591 1.41885 -0.410381 174 4 33
1.12165 1.59231 -0.355081 172 255 36
1.20653 1.61193 0.482452 174 4 33
1.12204 1.59229 0.35543 172 255 36
1.18893 1.22033 -0.37744 174 4 33
1.13928 1.17554 -0.355104 172 255 36
1.17609 1.14324 0.346154 174 4 33
1.13967 1.17552 0.355405 172 255 36
1.07641 1.37551 0.42094 174 4 33
1.11066 1.36924 0.35543 172 255 36
1.25216 1.32999 -0.419929 174 4 33
1.11028 1.36926 -0.355079 172 255 36
0.823906 1.51029 0.0938026 174 4 33
0.930782 1.39316 0.126475 172 255 36
0.809514 1.50021 0.142535 174 4 33
0.938945 1.56957 0.126475 172 255 36
0.865161 1.47446 -0.232101 174 4 33
0.938808 1.56957 -0.125889 172 255 36
0.828074 1.26387 -0.0162023 174 4 33
0.930645 1.39317 -0.125889 172 255 36
0.829641 1.62642 0.188789 174 4 33
0.94882 1.56911 0.160442 172 255 36
0.904581 1.36187 0.0147805 174 4 33
0.940657 1.39271 0.160442 172 255 36
0.977803 1.2068 0.152016 174 4 33
0.946233 1.37685 0.139228 172 255 36
0.950436 1.36383 -0.122903 174 4 33
0.946082 1.37686 -0.138662 172 255 36
0.928049 1.35901 -0.173975 174 4 33
0.940484 1.39272 -0.159868 172 255 36
1.10668 1.45509 -0.1437 174 4 33
0.948647 1.56912 -0.159868 172 255 36
0.999038 1.65118 0.0675617 174 4 33
0.955685 1.58439 -0.138662 172 255 36
1.01516 1.73592 0.242945 174 4 33
0.955836 1.58438 0.139228 172 255 36
0.959852 1.51232 0.340401 174 4 33
1.09412 1.57798 0.315234 172 255 36
1.08694 1.61553 -0.278769 174 4 33
1.09377 1.578 -0.314849 172 255 36
1.35654 1.64077 0.147181 174 4 33
1.495 1.6879 0.278586 172 255 36
1.45213 1.0826 0.283205 174 4 33
1.47353 1.22398 0.278586 172 255 36
1.2491 1.17497 -0.124663 174 4 33
1.47323 1.224 -0.278715 172 255 36
1.25086 1.73216 -0.12604 174 4 33
1.4947 1.68792 -0.278715 172 255 36
1.56338 1.06864 -0.24291 174 4 33
1.46952 1.14466 -0.35532 172 255 36
1.46997 1.04902 0.216404 174 4 33
1.46991 1.14465 0.35519 172 255 36
1.43521 0.98298 0.50895 174 4 33
1.47064 1.16021 0.373888 172 255 36
1.52956 1.96366 0.322819 174 4 33
1.49801 1.75167 0.373888 172 255 36
1.47119 1.77754 0.332285 174 4 33
1.48315 1.76795 0.3552 172 255 36
1.41013 1.78675 -0.474713 174 4 33
1.48276 1.76797 -0.355311 172 255 36
1.51484 1.77853 -0.498134 174 4 33
1.4976 1.75169 -0.374018 172 255 36
1.31287 1.22909 -0.347723 174 4 33
1.47023 1.16023 -0.374018 172 255 36
1.49813 1.22626 0.417191 174 4 33
1.47042 1.15565 0.360666 172 255 36
1.40938 1.55629 0.314903 174 4 33
1.49799 1.75167 0.35519 172 255 36
1.52707 1.75936 -0.262634 174 4 33
1.49761 1.75169 -0.35532 172 255 36
1.64278 1.38127 -0.444034 174 4 33
1.47003 1.15567 -0.360797 172 255 36
0.769394 0.434577 0.465106 174 4 33
0.771204 0.314268 0.494295 172 255 36
0.50925 -0.578814 0.419179 174 4 33
0.587454 -0.523773 0.484539 172 255 36
0.803263 0.388648 0.542031 174 4 33
0.927425 0.350729 0.573909 172 255 36
0.565337 -0.629095 0.0262673 174 4 33
0.589001 -0.57725 -0.000171 172 255 36
0.717674 0.136434 -0.0392872 174 4 33
0.689832 0.250621 7.4e-05 172 255 36
0.900611 0.455452 -0.553829 174 4 33
0.927425 0.351069 -0.573701 172 255 36
0.657636 -0.744426 -0.368728 174 4 33
0.587454 -0.523485 -0.484849 172 255 36
0.676553 0.260814 -0.380353 174 4 33
0.771204 0.31456 -0.494109 172 255 36
1.34341 0.897149 0.328277 174 4 33
1.3009 0.866796 0.286054 172 255 36
1.12863 1.00331 0.0485738 174 4 33
1.1167 0.835954 0.272888 172 255 36
1.13404 0.502792 0.443765 174 4 33
0.962914 0.787724 0.361432 172 255 36
1.40364 0.780179 0.363367 174 4 33
1.2831 0.899949 0.337585 172 255 36
1.1593 0.903527 0.521597 174 4 33
1.16093 0.856787 0.484616 172 255 36
1.24152 0.890815 0.414263 174 4 33
1.32666 0.904555 0.464951 172 255 36
0.857984 0.643957 0.389726 174 4 33
1.05379 0.791778 0.48515 172 255 36
1.32254 0.713172 0.738112 174 4 33
1.43202 0.681735 0.606843 172 255 36
1.48299 0.888602 0.16467 174 4 33
1.50123 0.903067 0.264285 172 255 36
1.4725 0.936442 0.194685 174 4 33
1.49614 0.919518 0.336152 172 255 36
1.54697 0.885397 0.381372 174 4 33
1.51472 0.913289 0.46429 172 255 36
1.5693 0.702903 0.583322 174 4 33
1.5753 0.785123 0.556017 172 255 36
1.75228 0.770968 0.373985 174 4 33
1.70941 0.911465 0.277775 172 255 36
1.83333 0.836786 0.321783 174 4 33
1.69592 0.91709 0.322775 172 255 36
1.65638 1.0306 0.467458 174 4 33
1.71417 0.910975 0.438418 172 255 36
1.85355 0.777082 0.518584 174 4 33
1.74258 0.816313 0.516335 172 255 36
1.97847 1.01487 0.193792 174 4 33
1.92677 0.892229 0.273678 172 255 36
1.83373 0.85123 0.312465 174 4 33
1.92523 0.897747 0.305964 172 255 36
1.85104 0.990681 0.553602 174 4 33
1.9312 0.891743 0.421939 172 255 36
1.91759 0.871452 0.32542 174 4 33
1.94402 0.814005 0.470783 172 255 36
2.15257 0.827139 0.235661 174 4 33
2.1563 0.8396 0.281513 172 255 36
2.19185 0.859073 0.382583 174 4 33
2.12446 0.839794 0.373941 172 255 36
2.15912 0.646489 0.408109 174 4 33
2.15696 0.800538 0.400021 172 255 36
2.28032 0.860204 0.493366 174 4 33
2.20074 0.79482 0.294766 172 255 36
1.11311 0.536747 0.670024 174 4 33
1.11891 0.580576 0.598521 172 255 36
0.747215 0.357461 0.4496 174 4 33
0.847158 0.501339 0.48031 172 255 36
0.827881 0.549207 0.304482 174 4 33
0.846053 0.474062 0.373832 172 255 36
0.844813 0.650159 -0.03994 174 4 33
0.800281 0.459469 0.000136 172 255 36
0.835499 0.763035 -0.133177 174 4 33
1.04141 0.798997 0.000237 172 255 36
1.22434 0.90301 0.0552887 174 4 33
1.31383 0.862127 0.000255 172 255 36
1.42665 0.807925 0.0164848 174 4 33
1.52821 0.920171 0.000273 172 255 36
1.73358 1.13621 0.015192 174 4 33
1.7271 0.93974 0.000278 172 255 36
1.99413 0.986292 0.00775719 174 4 33
1.99399 0.914311 0.000271 172 255 36
2.09802 0.845016 -0.230361 174 4 33
2.20163 0.862016 0.000255 172 255 36
2.24039 0.894137 0.0743135 174 4 33
2.24784 0.81724 0.000242 172 255 36
1.38403 0.879508 -0.327142 174 4 33
1.2831 0.900149 -0.337051 172 255 36
0.875725 0.704761 -0.406275 174 4 33
0.962914 0.787938 -0.360966 172 255 36
1.27981 0.844623 -0.39534 174 4 33
1.1167 0.836116 -0.272392 172 255 36
1.39808 0.884349 -0.137478 174 4 33
1.3009 0.866966 -0.28554 172 255 36
1.40017 0.880172 -0.300769 174 4 33
1.32666 0.904831 -0.464415 172 255 36
1.06226 0.798661 -0.629395 174 4 33
1.16093 0.857074 -0.484108 172 255 36
1.16279 0.669792 -0.514432 174 4 33
1.05379 0.792066 -0.48468 172 255 36
1.38512 0.710357 -0.622119 174 4 33
1.43202 0.682095 -0.606439 172 255 36
1.28334 0.839879 -0.413423 174 4 33
1.49614 0.919717 -0.335607 172 255 36
1.5092 0.971859 -0.335138 174 4 33
1.50123 0.903223 -0.263749 172 255 36
1.5133 0.739467 -0.485388 174 4 33
1.51472 0.913564 -0.463748 172 255 36
1.51661 0.839977 -0.342978 174 4 33
1.5753 0.785453 -0.555551 172 255 36
1.74916 0.739045 -0.709268 174 4 33
1.69592 0.917282 -0.322231 172 255 36
1.80646 0.825195 -0.239033 174 4 33
1.70941 0.911629 -0.277235 172 255 36
1.57927 1.01249 -0.569058 174 4 33
1.71417 0.911235 -0.437878 172 255 36
1.64069 0.782807 -0.584762 174 4 33
1.74258 0.816619 -0.515851 172 255 36
1.89529 0.720004 -0.26507 174 4 33
1.92523 0.897929 -0.305432 172 255 36
1.89206 0.873101 -0.16914 174 4 33
1.92677 0.892391 -0.27315 172 255 36
1.9161 0.921243 -0.392826 174 4 33
1.9312 0.891993 -0.421411 172 255 36
1.67406 0.917506 -0.590102 174 4 33
1.94402 0.814283 -0.470301 172 255 36
2.10916 0.763073 -0.407603 174 4 33
2.1563 0.839766 -0.281015 172 255 36
2.12267 0.703523 -0.437811 174 4 33
2.12446 0.840016 -0.373443 172 255 36
2.08441 0.866997 -0.240862 174 4 33
2.15696 0.800774 -0.399547 172 255 36
1.9673 0.714588 -0.440551 174 4 33
2.20074 0.794994 -0.294295 172 255 36
1.34272 0.53031 -0.83029 174 4 33
1.11891 0.58093 -0.598177 172 255 36
0.787374 0.570175 -0.456167 174 4 33
0.847158 0.501623 -0.480012 172 255 36
0.776659 0.452302 -0.244649 174 4 33
0.846053 0.474284 -0.373551 172 255 36
0.613408 2.29345 1.70672 174 4 33
0.73425 2.21682 1.73205 172 255 36
0.851387 2.01733 1.67279 174 4 33
0.728995 2.16712 1.73733 172 255 36
0.71359 1.97729 1.52565 174 4 33
0.751728 2.11662 1.28399 172 255 36
0.975127 2.13396 1.2649 174 4 33
0.756964 2.1663 1.27827 172 255 36
0.751374 1.97518 1.66561 174 4 33
0.683138 2.14656 1.73732 172 255 36
0.879959 1.9599 1.34398 174 4 33
0.705825 2.09604 1.28399 172 255 36
0.753509 2.21524 1.92491 174 4 33
0.642537 2.1757 1.73204 172 255 36
0.44496 2.19691 1.15747 174 4 33
0.665251 2.12518 1.27826 172 255 36
0.532727 2.34238 1.75091 174 4 33
0.647792 2.2254 1.72676 172 255 36
0.535588 2.32005 1.08137 174 4 33
0.670569 2.1748 1.27255 172 255 36
0.608156 2.22039 1.76899 174 4 33
0.693649 2.24596 1.72677 172 255 36
0.546635 2.21586 1.31033 174 4 33
0.716379 2.19534 1.27256 172 255 36
0.831249 1.98385 1.53816 174 4 33
0.683516 2.16578 1.76233 172 255 36
0.63969 2.0957 1.88823 174 4 33
0.714387 2.17963 1.76234 172 255 36
0.761036 2.22443 1.81546 174 4 33
0.717925 2.21308 1.75879 172 255 36
0.832914 2.21442 1.80644 174 4 33
0.690592 2.2327 1.75523 172 255 36
0.790198 2.12682 1.55426 174 4 33
0.65972 2.21886 1.75523 172 255 36
0.733676 2.07993 1.66819 174 4 33
0.656183 2.1854 1.75878 172 255 36
0.704296 2.23476 1.71654 174 4 33
0.695322 2.26471 1.72983 172 255 36
0.869081 2.2671 1.65995 174 4 33
0.750785 2.2249 1.73704 172 255 36
0.914768 2.10959 1.74759 174 4 33
0.743606 2.15701 1.74425 172 255 36
0.591849 2.14217 1.66626 174 4 33
0.680965 2.12893 1.74424 172 255 36
0.650544 2.11922 1.67957 174 4 33
0.625502 2.16873 1.73703 172 255 36
0.753923 2.23606 1.82897 174 4 33
0.632681 2.23662 1.72982 172 255 36
0.742399 2.13851 1.77388 174 4 33
0.682785 2.14614 1.74241 172 255 36
0.570638 2.44102 1.63232 174 4 33
0.641387 2.17586 1.73703 172 255 36
0.629551 2.20541 1.72008 174 4 33
0.646746 2.22653 1.73165 172 255 36
0.58947 2.15502 1.55191 174 4 33
0.693502 2.24749 1.73165 172 255 36
0.631614 2.27119 1.70708 174 4 33
0.7349 2.21778 1.73704 172 255 36
0.589384 2.19728 1.80946 174 4 33
0.729542 2.16711 1.74242 172 255 36
0.603402 2.36035 1.68173 174 4 33
0.692775 2.24911 1.74616 172 255 36
0.706659 2.1738 1.85434 174 4 33
0.734174 2.2194 1.75154 172 255 36
0.750389 2.1559 1.79834 174 4 33
0.728815 2.16872 1.75692 172 255 36
0.644408 1.87253 1.8905 174 4 33
0.682059 2.14776 1.75691 172 255 36
0.520103 2.18136 1.52808 174 4 33
0.640661 2.17747 1.75153 172 255 36
0.556465 2.17125 1.81075 174 4 33
0.646019 2.22815 1.74615 172 255 36
0.669495 2.31649 1.25572 174 4 33
0.639504 2.19516 1.24308 172 255 36
0.534389 2.25731 1.20991 174 4 33
0.721849 2.23208 1.2431 172 255 36
0.641531 1.95893 1.07405 174 4 33
0.719281 2.18888 1.21556 172 255 36
0.680099 2.29413 1.17688 174 4 33
0.794729 2.17985 1.25337 172 255 36
0.862745 2.29347 1.32901 174 4 33
0.759866 2.15984 1.22127 172 255 36
0.688255 2.01812 1.21023 174 4 33
0.668153 2.11872 1.22126 172 255 36
0.633339 2.03098 1.22821 174 4 33
0.630014 2.106 1.25335 172 255 36
0.42172 2.21439 1.21133 174 4 33
0.673472 2.16834 1.21555 172 255 36
0.608994 2.12718 1.41112 174 4 33
0.708727 2.08958 1.22699 172 255 36
0.740915 2.2161 1.1487 174 4 33
0.702891 2.05374 1.26362 172 255 36
0.720391 2.10409 1.27825 174 4 33
0.75463 2.11016 1.22699 172 255 36
0.877171 2.07655 1.2155 174 4 33
0.785263 2.09067 1.26363 172 255 36
0.879462 2.21878 -1.24048 174 4 33
0.756964 2.16705 -1.27699 172 255 36
0.679768 2.18868 -1.23537 174 4 33
0.751728 2.11738 -1.28274 172 255 36
0.706709 2.00371 -1.78343 174 4 33
0.728995 2.16815 -1.73604 172 255 36
0.594245 2.15252 -1.71786 174 4 33
0.73425 2.21785 -1.73074 172 255 36
0.775358 2.08601 -1.13042 174 4 33
0.705825 2.0968 -1.28275 172 255 36
0.680253 2.23141 -1.75538 174 4 33
0.683138 2.14759 -1.73605 172 255 36
0.508131 2.1315 -1.15739 174 4 33
0.665251 2.12594 -1.277 172 255 36
0.565501 2.08111 -1.56608 174 4 33
0.642537 2.17673 -1.73075 172 255 36
0.551768 2.30404 -1.40067 174 4 33
0.670569 2.17555 -1.27126 172 255 36
0.631595 2.27538 -1.59674 174 4 33
0.647792 2.22643 -1.72544 172 255 36
0.720079 2.19129 -1.3465 174 4 33
0.716379 2.19609 -1.27126 172 255 36
0.694056 2.32533 -1.77081 174 4 33
0.693649 2.24698 -1.72544 172 255 36
0.806811 2.35282 -1.79949 174 4 33
0.656183 2.18644 -1.75748 172 255 36
0.596278 2.18883 -1.83557 174 4 33
0.65972 2.2199 -1.75391 172 255 36
0.793393 2.26488 -1.82497 174 4 33
0.690592 2.23374 -1.75391 172 255 36
0.504451 2.20661 -1.82878 174 4 33
0.717925 2.21413 -1.75748 172 255 36
0.654925 2.2007 -1.76455 174 4 33
0.714387 2.18067 -1.76105 172 255 36
0.578044 2.32806 -1.70199 174 4 33
0.683516 2.16683 -1.76105 172 255 36
0.743406 2.04894 -1.85494 174 4 33
0.750785 2.22593 -1.73572 172 255 36
0.683525 2.18413 -1.86933 174 4 33
0.695322 2.26573 -1.72848 172 255 36
0.697903 2.04615 -1.68505 174 4 33
0.743606 2.15805 -1.74297 172 255 36
0.513757 1.84433 -1.6948 174 4 33
0.680965 2.12996 -1.74298 172 255 36
0.532977 2.15846 -1.81703 174 4 33
0.625502 2.16976 -1.73574 172 255 36
0.468812 2.28356 -1.73632 174 4 33
0.632681 2.23765 -1.72849 172 255 36
0.671265 2.12171 -1.79581 174 4 33
0.641387 2.17688 -1.73574 172 255 36
0.552021 2.15341 -1.72359 174 4 33
0.682785 2.14718 -1.74114 172 255 36
0.717273 2.29257 -1.86272 174 4 33
0.646746 2.22756 -1.73033 172 255 36
0.708166 2.1062 -1.79229 174 4 33
0.693502 2.24852 -1.73032 172 255 36
0.910935 2.17514 -1.74757 174 4 33
0.7349 2.21881 -1.73573 172 255 36
0.700612 2.04159 -1.77637 174 4 33
0.729542 2.16814 -1.74114 172 255 36
0.744922 2.1323 -1.72034 174 4 33
0.734174 2.22044 -1.75022 172 255 36
0.622239 2.19533 -1.61711 174 4 33
0.692775 2.25014 -1.74482 172 255 36
0.750273 2.21807 -1.71985 174 4 33
0.728815 2.16976 -1.75563 172 255 36
0.779716 2.19565 -1.90932 174 4 33
0.682059 2.1488 -1.75564 172 255 36
0.595672 2.28508 -1.52532 174 4 33
0.640661 2.17851 -1.75024 172 255 36
0.693252 2.33552 -1.92285 174 4 33
0.646019 2.22918 -1.74483 172 255 36
0.705716 2.16003 -1.1438 174 4 33
0.721849 2.23282 -1.24177 172 255 36
0.642624 2.24232 -1.18077 174 4 33
0.639504 2.1959 -1.24178 172 255 36
0.87701 2.35392 -1.28308 174 4 33
0.759866 2.16056 -1.22 172 255 36
0.724567 2.18915 -1.21425 174 4 33
0.794729 2.18059 -1.25208 172 255 36
0.621761 2.11385 -1.17739 174 4 33
0.719281 2.1896 -1.21426 172 255 36
0.697192 2.23554 -1.10898 174 4 33
0.673472 2.16906 -1.21427 172 255 36
0.685168 2.27256 -1.19651 174 4 33
0.630014 2.10674 -1.2521 172 255 36
0.746081 2.18002 -1.35874 174 4 33
0.668153 2.11944 -1.22001 172 255 36
0.680864 2.09362 -1.19544 174 4 33
0.702891 2.05449 -1.26241 172 255 36
0.612243 2.14997 -1.41652 174 4 33
0.708727 2.09031 -1.22575 172 255 36
0.652165 2.04293 -1.15236 174 4 33
0.785263 2.09142 -1.26239 172 255 36
0.690908 2.16444 -1.34315 174 4 33
0.75463 2.11089 -1.22574 172 255 36
0.868684 2.1824 1.06409 174 4 33
0.830679 2.12961 1.13322 172 255 36
0.668765 2.20684 1.1178 174 4 33
0.813046 2.16894 1.1272 172 255 36
0.780925 2.28763 1.45231 174 4 33
0.80988 2.17599 1.1809 172 255 36
0.708043 2.06231 1.07629 174 4 33
0.827536 2.13661 1.18684 172 255 36
0.543295 1.88521 1.1124 174 4 33
0.714967 2.07575 1.12094 172 255 36
0.713074 2.16575 1.16097 174 4 33
0.760823 2.09631 1.12094 172 255 36
0.448714 2.17031 1.31946 174 4 33
0.614924 2.14212 1.21554 172 255 36
0.534757 2.01542 0.997239 174 4 33
0.621162 2.12824 1.10914 172 255 36
0.535395 2.00718 0.981375 174 4 33
0.638802 2.08889 1.11503 172 255 36
0.817233 2.14395 1.14853 174 4 33
0.656443 2.04955 1.12092 172 255 36
0.651886 2.00978 1.34161 174 4 33
0.650226 2.06338 1.22698 172 255 36
0.601129 1.93016 1.24649 174 4 33
0.632557 2.10279 1.22125 172 255 36
0.670032 2.26477 1.04632 174 4 33
0.725542 2.17501 1.10916 172 255 36
0.657716 2.17502 1.07433 174 4 33
0.679686 2.15445 1.10915 172 255 36
0.715337 2.38172 1.26552 174 4 33
0.795413 2.20827 1.12117 172 255 36
0.738171 2.30219 1.06792 174 4 33
0.79226 2.21529 1.17497 172 255 36
0.646659 2.13714 1.12461 174 4 33
0.714761 2.04078 1.07469 172 255 36
0.741863 1.9234 1.12012 174 4 33
0.815645 2.08601 1.07471 172 255 36
0.874325 2.00742 1.37782 174 4 33
0.81287 2.09218 1.12659 172 255 36
0.54006 1.83876 1.13744 174 4 33
0.711986 2.04695 1.12658 172 255 36
0.402443 1.9798 0.94688 174 4 33
0.649879 2.08723 1.06474 172 255 36
0.738062 2.18205 1.09638 174 4 33
0.647068 2.09348 1.1173 172 255 36
0.723936 2.1828 1.05403 174 4 33
0.658366 2.16657 1.0548 172 255 36
0.56091 2.23512 1.22309 174 4 33
0.655519 2.1729 1.10803 172 255 36
0.765103 2.26259 1.00485 174 4 33
0.75925 2.2118 1.05481 172 255 36
0.754318 2.07437 0.950595 174 4 33
0.756403 2.21814 1.10805 172 255 36
0.767142 2.27578 0.97181 174 4 33
0.800437 2.19964 1.05885 172 255 36
0.835634 2.12324 1.01079 174 4 33
0.807205 2.20309 1.11269 172 255 36
0.681142 2.06944 1.10202 174 4 33
0.809501 2.19799 1.06976 172 255 36
0.750609 2.16594 1.11971 174 4 33
0.824133 2.16535 1.06476 172 255 36
0.872617 2.16656 1.10566 174 4 33
0.834058 2.14321 1.06826 172 255 36
0.920555 2.12174 0.969086 174 4 33
0.833963 2.12486 1.07068 172 255 36
0.709359 2.12533 1.13078 174 4 33
0.763598 2.09014 1.06906 172 255 36
0.726434 1.9396 0.823526 174 4 33
0.768922 2.13969 1.06249 172 255 36
0.786518 2.15874 1.09268 174 4 33
0.717742 2.06958 1.06905 172 255 36
0.660359 2.02625 1.07875 174 4 33
0.677209 2.09857 1.06248 172 255 36
0.73443 2.15801 0.929014 174 4 33
0.682533 2.14812 1.05591 172 255 36
0.706462 2.12636 0.929887 174 4 33
0.728389 2.16867 1.05592 172 255 36
0.783231 1.99442 1.09403 174 4 33
0.81436 2.18715 1.06132 172 255 36
0.567668 2.15205 1.23616 174 4 33
0.835438 2.14012 1.12196 172 255 36
0.892702 2.12001 1.03558 174 4 33
0.821321 2.17161 1.11732 172 255 36
0.705363 2.21241 1.09564 174 4 33
0.766111 2.14594 1.11505 172 255 36
0.636725 2.22378 1.0763 174 4 33
0.674398 2.10482 1.11504 172 255 36
0.745466 2.19305 1.08947 174 4 33
0.837698 2.13509 1.0797 172 255 36
0.752011 2.25752 1.21252 174 4 33
0.843427 2.20137 1.1534 172 255 36
0.923242 2.23901 1.09604 174 4 33
0.841985 2.20352 1.07872 172 255 36
0.74509 2.04645 0.910366 174 4 33
0.822737 2.19926 1.05979 172 255 36
0.688803 2.13069 0.949485 174 4 33
0.841649 2.13757 1.07207 172 255 36
0.782894 1.96388 0.998287 174 4 33
0.845786 2.1452 1.05828 172 255 36
0.973946 2.16175 -1.26479 174 4 33
0.827536 2.13731 -1.18557 172 255 36
0.67877 2.0703 -1.1722 174 4 33
0.80988 2.17669 -1.17961 172 255 36
0.853357 2.20996 -1.17072 174 4 33
0.813046 2.16961 -1.12591 172 255 36
0.973426 2.04932 -1.28273 174 4 33
0.830679 2.13028 -1.13196 172 255 36
0.606704 1.97611 -1.14316 174 4 33
0.760823 2.09698 -1.1197 172 255 36
0.926932 1.93814 -1.13861 174 4 33
0.714967 2.07642 -1.11971 172 255 36
0.696353 2.26243 -1.19607 174 4 33
0.632557 2.10351 -1.22001 172 255 36
0.812964 2.09654 -1.21514 174 4 33
0.650226 2.06411 -1.22575 172 255 36
0.59095 1.84052 -0.924461 174 4 33
0.656443 2.05021 -1.11971 172 255 36
0.619814 2.05143 -1.26497 174 4 33
0.638802 2.08955 -1.1138 172 255 36
0.656621 2.00787 -1.11499 174 4 33
0.621162 2.1289 -1.10788 172 255 36
0.655207 2.38185 -1.18599 174 4 33
0.614924 2.14284 -1.21427 172 255 36
0.881126 2.22841 -1.07135 174 4 33
0.679686 2.15511 -1.10787 172 255 36
0.842675 2.2264 -1.16341 174 4 33
0.725542 2.17567 -1.10787 172 255 36
0.760342 2.23739 -1.29909 174 4 33
0.79226 2.21599 -1.17365 172 255 36
0.52056 2.11142 -1.01168 174 4 33
0.795413 2.20894 -1.11986 172 255 36
0.594217 1.88929 -1.14822 174 4 33
0.711986 2.04762 -1.12536 172 255 36
0.915162 1.93845 -1.10962 174 4 33
0.81287 2.09285 -1.12535 172 255 36
0.933997 2.0929 -1.05704 174 4 33
0.815645 2.08665 -1.07347 172 255 36
0.629793 2.00899 -1.04684 174 4 33
0.714761 2.04142 -1.07348 172 255 36
0.771127 2.34617 -1.05618 174 4 33
0.647068 2.09414 -1.11606 172 255 36
0.641899 1.9311 -1.0756 174 4 33
0.649879 2.08786 -1.0635 172 255 36
0.656537 2.13203 -1.01094 174 4 33
0.655519 2.17356 -1.10675 172 255 36
0.612519 2.00758 -1.10795 174 4 33
0.658366 2.1672 -1.05351 172 255 36
0.842457 2.31606 -1.13089 174 4 33
0.756403 2.21879 -1.10673 172 255 36
0.557145 2.27435 -0.942612 174 4 33
0.75925 2.21242 -1.0535 172 255 36
0.589279 1.99101 -1.08827 174 4 33
0.809501 2.19862 -1.06845 172 255 36
0.69869 2.25328 -1.26077 174 4 33
0.807205 2.20375 -1.11138 172 255 36
0.794041 2.19867 -1.14655 174 4 33
0.800437 2.20026 -1.05754 172 255 36
0.813529 2.1742 -1.03351 174 4 33
0.768922 2.14032 -1.06123 172 255 36
0.823852 2.15779 -1.07892 174 4 33
0.763598 2.09077 -1.06782 172 255 36
0.766457 2.15607 -1.02491 174 4 33
0.833963 2.12549 -1.06942 172 255 36
0.878691 2.17934 -1.26294 174 4 33
0.834058 2.14385 -1.067 172 255 36
0.935298 2.25975 -1.02784 174 4 33
0.824133 2.16598 -1.06348 172 255 36
0.733402 2.10524 -1.27209 174 4 33
0.717742 2.07021 -1.06783 172 255 36
0.773505 2.0408 -1.04194 174 4 33
0.677209 2.0992 -1.06124 172 255 36
0.725214 2.05773 -0.87223 174 4 33
0.682533 2.14874 -1.05464 172 255 36
0.675724 2.31778 -0.911588 174 4 33
0.728389 2.1693 -1.05464 172 255 36
0.664116 2.25045 -1.17971 174 4 33
0.81436 2.18778 -1.06002 172 255 36
0.651606 1.95595 -0.946765 174 4 33
0.766111 2.1466 -1.11378 172 255 36
0.723876 2.31478 -1.10671 174 4 33
0.821321 2.17227 -1.11603 172 255 36
0.910329 2.19487 -0.991994 174 4 33
0.835438 2.14078 -1.12069 172 255 36
0.523431 1.98058 -1.09409 174 4 33
0.674398 2.10548 -1.11379 172 255 36
0.801533 2.01923 -1.08744 174 4 33
0.837698 2.13573 -1.07844 172 255 36
0.781547 2.2771 -1.22346 174 4 33
0.822737 2.19989 -1.05849 172 255 36
0.793194 2.32313 -1.07534 174 4 33
0.841985 2.20416 -1.07742 172 255 36
0.792188 2.12432 -1.25247 174 4 33
0.843427 2.20205 -1.15209 172 255 36
0.873839 2.27552 -1.17667 174 4 33
0.841649 2.13821 -1.07081 172 255 36
0.84664 1.95513 -1.11202 174 4 33
0.845786 2.14582 -1.05701 172 255 36
0.841342 2.2436 1.15829 174 4 33
0.895434 2.19694 1.14783 172 255 36
0.870133 2.25093 1.15964 174 4 33
0.884016 2.1898 1.10031 172 255 36
0.744655 2.16658 0.971726 174 4 33
0.880349 2.19837 1.09164 172 255 36
0.933659 2.18969 1.20058 174 4 33
0.891558 2.20559 1.14783 172 255 36
0.787197 2.08687 0.988865 174 4 33
0.848177 2.146 1.09268 172 255 36
0.781162 2.24304 1.11837 174 4 33
0.863222 2.15868 1.09612 172 255 36
0.608107 2.0973 0.953931 174 4 33
0.85877 2.16666 1.15649 172 255 36
0.840322 2.12375 1.09006 174 4 33
0.867469 2.18679 1.17375 172 255 36
0.799535 2.06776 1.12297 174 4 33
0.864502 2.19365 1.17375 172 255 36
0.837039 2.20063 1.207 174 4 33
0.860481 2.15454 1.03402 172 255 36
0.648075 2.16746 0.905307 174 4 33
0.864677 2.15643 1.03402 172 255 36
0.943528 2.1175 1.04358 174 4 33
0.869595 2.16069 1.06315 172 255 36
0.842051 2.10094 1.13431 174 4 33
0.854551 2.14801 1.05971 172 255 36
0.716142 2.27458 0.977756 174 4 33
0.872311 2.17489 1.03275 172 255 36
0.853327 2.35038 1.03289 174 4 33
0.868886 2.18257 1.03275 172 255 36
0.790312 2.16284 0.907606 174 4 33
0.872716 2.19086 1.05328 172 255 36
0.965937 2.00023 0.869223 174 4 33
0.876384 2.18229 1.06196 172 255 36
0.650795 1.99312 0.964303 174 4 33
0.848408 2.18847 1.03019 172 255 36
0.863895 2.17233 1.00026 174 4 33
0.850426 2.19915 1.04993 172 255 36
0.915275 2.10656 1.25779 174 4 33
0.883691 2.20916 1.14546 172 255 36
0.781421 2.19075 1.1601 174 4 33
0.872482 2.20194 1.08927 172 255 36
0.773977 2.16701 1.07656 174 4 33
0.865428 2.20552 1.08848 172 255 36
0.864467 1.99775 1.04713 174 4 33
0.866821 2.20266 1.14546 172 255 36
0.896302 2.12954 1.05564 174 4 33
0.858797 2.18901 1.03039 172 255 36
0.90691 2.26229 0.982171 174 4 33
0.860815 2.19969 1.05012 172 255 36
0.923231 2.06876 1.1471 174 4 33
0.867869 2.19611 1.05091 172 255 36
0.797472 2.11463 0.893291 174 4 33
0.864039 2.18783 1.03039 172 255 36
0.658218 2.11305 1.18398 174 4 33
0.851716 2.15172 1.03259 172 255 36
0.950331 2.11495 1.20915 174 4 33
0.881412 2.18153 1.10247 172 255 36
0.922573 2.08497 1.36884 174 4 33
0.892829 2.18867 1.14998 172 255 36
0.833987 2.1531 0.909362 174 4 33
0.876532 2.18053 1.14997 172 255 36
0.631308 2.23598 1.22376 174 4 33
0.879747 2.1738 1.10239 172 255 36
0.840221 2.31795 1.12479 174 4 33
0.873041 2.16775 1.0349 172 255 36
