ply
format ascii 1.0
element vertex 1332
property float x
property float y
property float z
property uchar red
property uchar green
property uchar blue
end_header
-30.9138 -71.1772 28.4158 174 4 33
-26.1961 43.1598 -33.5899 172 255 36
-32.2689 -70.4721 29.1145 174 4 33
-25.6961 43.1518 -33.8438 172 255 36
-30.1698 -71.8097 29.1355 174 4 33
-25.1961 43.1398 -34.2247 172 255 36
-30.8831 -71.3435 32.1336 174 4 33
-24.6961 43.1278 -34.6056 172 255 36
-29.8679 -71.1148 30.641 174 4 33
-24.1961 43.1158 -34.9865 172 255 36
-30.9614 -71.2051 31.7997 174 4 33
-23.6961 43.1038 -35.3674 172 255 36
-31.5444 -71.6249 32.6542 174 4 33
-23.1961 43.0918 -35.7483 172 255 36
-29.6902 -70.4086 30.923 174 4 33
-22.6961 43.0718 -36.3832 172 255 36
-31.2881 -71.0727 33.3772 174 4 33
-22.1961 43.0558 -36.8911 172 255 36
-30.9549 -72.6991 34.456 174 4 33
-21.6961 43.0398 -37.3989 172 255 36
-31.9405 -70.6769 34.1199 174 4 33
-21.1961 43.0238 -37.9068 172 255 36
-31.5719 -71.6404 34.5293 174 4 33
-20.6961 43.0078 -38.4147 172 255 36
-31.4495 -69.5287 36.0055 174 4 33
-20.1961 42.9918 -38.9226 172 255 36
-30.8586 -71.2749 35.7961 174 4 33
-19.6961 42.9798 -39.3035 172 255 36
-33.2571 -72.3883 36.6496 174 4 33
-19.1961 42.9598 -39.9383 172 255 36
-34.5394 -73.0283 36.5039 174 4 33
-18.6961 42.9318 -40.8271 172 255 36
-33.2253 -71.7468 40.4472 174 4 33
-18.1961 42.9038 -41.7159 172 255 36
-33.7407 -74.193 40.462 174 4 33
-17.6961 42.8728 -42.7316 172 255 36
-34.1293 -71.3652 42.3601 174 4 33
-17.1961 42.8448 -43.6204 172 255 36
-35.2432 -74.8133 43.6693 174 4 33
-16.6961 42.8168 -44.5092 172 255 36
-34.0444 -72.6997 43.7722 174 4 33
-16.1961 42.7968 -45.1441 172 255 36
-36.6915 -72.3622 44.914 174 4 33
-15.6961 42.7568 -46.4137 172 255 36
-51.3822 -58.3891 -2.98942 174 4 33
-66.9461 43.8278 -35.3685 172 255 36
-48.7631 -59.2012 -5.4742 174 4 33
-66.4461 43.8978 -33.0831 172 255 36
-48.7756 -59.4904 -4.99994 174 4 33
-65.9461 43.9448 -31.5595 172 255 36
-46.7094 -59.9605 -5.05247 174 4 33
-65.4461 43.9648 -30.9246 172 255 36
-46.5086 -60.9426 -5.40133 174 4 33
-64.9461 44.0038 -29.655 172 255 36
-42.9291 -60.5139 -3.95857 174 4 33
-64.4461 44.0738 -27.3695 172 255 36
-44.8024 -61.1615 -6.63185 174 4 33
-63.9461 44.0938 -26.7347 172 255 36
-41.5172 -60.6035 -4.72408 174 4 33
-63.4461 44.1138 -26.0999 172 255 36
-43.5413 -59.7259 -5.36367 174 4 33
-62.9461 44.1248 -25.719 172 255 36
-40.9475 -59.6138 -5.34352 174 4 33
-62.4461 44.1368 -25.3381 172 255 36
-39.0126 -61.3686 -5.0604 174 4 33
-61.9461 44.1488 -24.9572 172 255 36
-38.4358 -61.0548 -6.58131 174 4 33
-61.4461 44.1608 -24.5763 172 255 36
-38.132 -62.3118 -4.86461 174 4 33
-60.9461 44.1718 -24.1954 172 255 36
-40.2383 -62.7949 -4.92611 174 4 33
-60.4461 44.1798 -23.9414 172 255 36
-38.3946 -62.4972 -6.13084 174 4 33
-59.9461 44.1878 -23.6875 172 255 36
-38.6124 -62.8605 -2.86178 174 4 33
-59.4461 44.1958 -23.4335 172 255 36
-35.2281 -63.4869 -3.47359 174 4 33
-58.9461 44.1998 -23.3066 172 255 36
-36.6737 -64.7283 -2.85527 174 4 33
-58.4461 44.2078 -23.0527 172 255 36
-35.8647 -63.5613 -2.13971 174 4 33
-57.9461 44.2118 -22.9257 172 255 36
-35.1365 -64.4033 -4.03084 174 4 33
-57.4461 44.2148 -22.7987 172 255 36
-36.7467 -63.6882 -0.698997 174 4 33
-56.9461 44.2188 -22.6717 172 255 36
-36.1407 -63.3047 -2.30393 174 4 33
-56.4461 44.2188 -22.6717 172 255 36
-36.4882 -66.332 -0.309027 174 4 33
-55.9461 44.2228 -22.5448 172 255 36
-35.5766 -65.245 -1.92839 174 4 33
-55.4461 44.2268 -22.4178 172 255 36
-36.0643 -63.6569 -0.455239 174 4 33
-54.9461 44.2228 -22.5448 172 255 36
-34.8083 -63.8373 -2.523 174 4 33
-54.4461 44.2268 -22.4178 172 255 36
-35.3277 -64.1567 -1.85045 174 4 33
-53.9461 44.2228 -22.5448 172 255 36
-34.4465 -65.3537 -0.819877 174 4 33
-53.4461 44.2228 -22.5448 172 255 36
-35.1322 -65.1752 -0.926926 174 4 33
-52.9461 44.2188 -22.6717 172 255 36
-36.9015 -66.2852 0.315142 174 4 33
-52.4461 44.2188 -22.6717 172 255 36
-33.5839 -64.8231 2.40806 174 4 33
-51.9461 44.2148 -22.7987 172 255 36
-36.6177 -66.8319 1.17341 174 4 33
-51.4461 44.2078 -23.0527 172 255 36
-35.0474 -65.7114 2.3672 174 4 33
-50.9461 44.2038 -23.1796 172 255 36
-32.0043 -66.044 5.23383 174 4 33
-50.4461 44.1958 -23.4335 172 255 36
-35.0408 -63.88 3.48043 174 4 33
-49.9461 44.1918 -23.5605 172 255 36
-32.7241 -63.2466 3.40524 174 4 33
-49.4461 44.1878 -23.6875 172 255 36
-33.2042 -64.7869 4.40781 174 4 33
-48.9461 44.1798 -23.9414 172 255 36
-34.6746 -64.934 4.85962 174 4 33
-48.4461 44.1718 -24.1954 172 255 36
-31.3199 -66.6025 5.70928 174 4 33
-47.9461 44.1678 -24.3223 172 255 36
-33.9645 -66.3993 7.09193 174 4 33
-47.4461 44.1638 -24.4493 172 255 36
-31.8863 -68.5848 6.8609 174 4 33
-46.9461 44.1638 -24.4493 172 255 36
-31.1383 -69.0264 5.04374 174 4 33
-46.4461 44.1608 -24.5763 172 255 36
-32.785 -68.1011 6.14726 174 4 33
-45.9461 44.1608 -24.5763 172 255 36
-33.1864 -68.0375 8.96395 174 4 33
-45.4461 44.1608 -24.5763 172 255 36
-31.85 -67.0176 8.39091 174 4 33
-44.9461 44.1608 -24.5763 172 255 36
-33.6594 -67.0132 8.35537 174 4 33
-44.4461 44.1608 -24.5763 172 255 36
-32.9743 -69.0506 10.6604 174 4 33
-43.9461 44.1608 -24.5763 172 255 36
-31.317 -67.1828 9.24298 174 4 33
-43.4461 44.1608 -24.5763 172 255 36
-30.9634 -69.8798 11.3562 174 4 33
-42.9461 44.1568 -24.7032 172 255 36
-31.0733 -66.163 10.9392 174 4 33
-42.4461 44.1488 -24.9572 172 255 36
-30.2652 -68.5388 10.7228 174 4 33
-41.9461 44.1408 -25.2111 172 255 36
-29.9326 -68.3995 11.3082 174 4 33
-41.4461 44.1248 -25.719 172 255 36
-31.1398 -66.6016 13.4013 174 4 33
-40.9461 44.1138 -26.0999 172 255 36
-32.4049 -69.2489 13.8916 174 4 33
-40.4461 44.1058 -26.3538 172 255 36
-31.3351 -68.289 14.4844 174 4 33
-39.9461 44.1058 -26.3538 172 255 36
-30.693 -68.5812 11.7366 174 4 33
-39.4461 44.1018 -26.4808 172 255 36
-30.9707 -69.4128 14.3295 174 4 33
-38.9461 44.1058 -26.3538 172 255 36
-30.7381 -70.0583 13.8332 174 4 33
-38.4461 44.1058 -26.3538 172 255 36
-30.898 -67.8074 16.6236 174 4 33
-37.9461 44.1018 -26.4808 172 255 36
-29.593 -69.2708 15.3774 174 4 33
-37.4461 44.1018 -26.4808 172 255 36
-28.9093 -68.1339 16.8737 174 4 33
-36.9461 44.0978 -26.6078 172 255 36
-29.316 -69.8135 16.9963 174 4 33
-36.4461 44.0938 -26.7347 172 255 36
-28.704 -70.1336 17.5578 174 4 33
-35.9461 44.0898 -26.8617 172 255 36
-28.4363 -70.0131 19.4087 174 4 33
-35.4461 44.0818 -27.1156 172 255 36
-29.9375 -69.5521 19.3686 174 4 33
-34.9461 44.0778 -27.2426 172 255 36
-29.1788 -70.1591 16.9218 174 4 33
-34.4461 44.0698 -27.4965 172 255 36
-30.5779 -70.6133 17.8145 174 4 33
-33.9461 44.0628 -27.7505 172 255 36
-30.7215 -71.3955 19.4219 174 4 33
-33.4461 44.0508 -28.1314 172 255 36
-30.2549 -71.6089 20.5743 174 4 33
-32.9461 44.0428 -28.3853 172 255 36
-32.5914 -68.8555 21.4337 174 4 33
-32.4461 44.0348 -28.6392 172 255 36
-31.6059 -69.7707 22.6585 174 4 33
-31.9461 44.0268 -28.8932 172 255 36
-27.926 -70.6981 21.3335 174 4 33
-31.4461 44.0158 -29.2741 172 255 36
-29.327 -70.5006 22.3204 174 4 33
-30.9461 44.0078 -29.528 172 255 36
-30.0929 -71.341 22.7603 174 4 33
-30.4461 43.9918 -30.0359 172 255 36
-30.2303 -71.3304 22.8701 174 4 33
-29.9461 43.9728 -30.6707 172 255 36
-30.1887 -70.3419 24.611 174 4 33
-29.4461 43.9528 -31.3055 172 255 36
-32.7881 -70.1457 25.013 174 4 33
-28.9461 43.9328 -31.9404 172 255 36
-31.6951 -70.0762 26.1357 174 4 33
-28.4461 43.9178 -32.4483 172 255 36
-31.7428 -70.6777 26.684 174 4 33
-27.9461 43.9058 -32.8292 172 255 36
-32.2972 -70.5804 27.4526 174 4 33
-27.4461 43.8938 -33.2101 172 255 36
-31.3962 -72.6528 28.3817 174 4 33
-26.9461 43.8818 -33.591 172 255 36
-31.3072 -70.3981 28.3529 174 4 33
-26.4461 43.8748 -33.8449 172 255 36
-30.2562 -72.1721 29.4841 174 4 33
-25.9461 43.8668 -34.0988 172 255 36
-30.7492 -71.9866 30.5782 174 4 33
-25.4461 43.8548 -34.4797 172 255 36
-30.0101 -70.7091 27.2453 174 4 33
-24.9461 43.8508 -34.6067 172 255 36
-30.7786 -71.7449 30.6334 174 4 33
-24.4461 43.8348 -35.1146 172 255 36
-31.9205 -71.0358 33.2491 174 4 33
-23.9461 43.8238 -35.4955 172 255 36
-30.6997 -71.8591 32.9525 174 4 33
-23.4461 43.8118 -35.8764 172 255 36
-33.1911 -73.7231 32.1308 174 4 33
-22.9461 43.7958 -36.3842 172 255 36
-32.122 -71.0314 35.1722 174 4 33
-22.4461 43.7808 -36.8921 172 255 36
-30.3724 -70.9836 34.5371 174 4 33
-21.9461 43.7648 -37.4 172 255 36
-31.6241 -71.9665 34.6792 174 4 33
-21.4461 43.7488 -37.9079 172 255 36
-32.5068 -72.182 36.7714 174 4 33
-20.9461 43.7338 -38.4157 172 255 36
-32.2965 -71.3346 36.4052 174 4 33
-20.4461 43.7218 -38.7966 172 255 36
-34.3993 -73.4049 35.9253 174 4 33
-19.9461 43.7018 -39.4315 172 255 36
-32.5265 -72.467 36.9342 174 4 33
-19.4461 43.6868 -39.9393 172 255 36
-34.3021 -72.8062 37.3435 174 4 33
-18.9461 43.6668 -40.5742 172 255 36
-34.507 -69.9584 40.7788 174 4 33
-18.4461 43.6438 -41.336 172 255 36
-34.3913 -71.5344 39.4159 174 4 33
-17.9461 43.6118 -42.3517 172 255 36
-35.8078 -72.0654 40.4899 174 4 33
-17.4461 43.5888 -43.1135 172 255 36
-34.4772 -73.6015 43.0146 174 4 33
-16.9461 43.5648 -43.8753 172 255 36
-35.075 -71.5906 43.551 174 4 33
-16.4461 43.5418 -44.6371 172 255 36
-36.0034 -73.5374 42.9809 174 4 33
-15.9461 43.5098 -45.6529 172 255 36
-37.5182 -72.2712 45.938 174 4 33
-15.4461 43.4868 -46.4147 172 255 36
-48.7833 -59.0002 -3.449 174 4 33
-66.1961 44.5978 -33.846 172 255 36
-47.6736 -58.9555 -4.37527 174 4 33
-65.6961 44.6088 -33.4651 172 255 36
-48.9707 -59.5909 -4.83188 174 4 33
-65.1961 44.6478 -32.1954 172 255 36
-44.9381 -61.3051 -5.20724 174 4 33
-64.6961 44.7018 -30.4179 172 255 36
-47.0032 -61.3275 -4.81343 174 4 33
-64.1961 44.7628 -28.3865 172 255 36
-42.9959 -63.2462 -6.9827 174 4 33
-63.6961 44.7898 -27.4977 172 255 36
-43.0425 -61.884 -6.86498 174 4 33
-63.1961 44.8128 -26.7359 172 255 36
-40.6219 -62.4116 -3.84117 174 4 33
-62.6961 44.8248 -26.355 172 255 36
-41.016 -62.9084 -5.92522 174 4 33
-62.1961 44.8398 -25.8471 172 255 36
-40.4644 -64.1547 -4.70294 174 4 33
-61.6961 44.8548 -25.3393 172 255 36
-41.522 -63.4453 -5.37155 174 4 33
-61.1961 44.8628 -25.0854 172 255 36
-40.8137 -63.6759 -3.11823 174 4 33
-60.6961 44.8748 -24.7045 172 255 36
-39.8542 -63.0915 -3.70052 174 4 33
-60.1961 44.8818 -24.4505 172 255 36
-37.7692 -63.2877 -4.53178 174 4 33
-59.6961 44.8898 -24.1966 172 255 36
-39.4114 -62.7976 -4.89849 174 4 33
-59.1961 44.8978 -23.9427 172 255 36
-38.2544 -63.0278 -4.34815 174 4 33
-58.6961 44.9048 -23.6887 172 255 36
-39.2844 -63.0485 -3.96245 174 4 33
-58.1961 44.9128 -23.4348 172 255 36
-37.8211 -62.5318 -2.82908 174 4 33
-57.6961 44.9168 -23.3078 172 255 36
-35.9898 -63.6975 -3.21147 174 4 33
-57.1961 44.9208 -23.1809 172 255 36
-35.585 -65.3388 -2.17169 174 4 33
-56.6961 44.9248 -23.0539 172 255 36
-36.4049 -66.6953 -0.836445 174 4 33
-56.1961 44.9278 -22.9269 172 255 36
-37.106 -65.4533 -0.161635 174 4 33
-55.6961 44.9318 -22.8 172 255 36
-35.964 -65.3885 -0.880069 174 4 33
-55.1961 44.9318 -22.8 172 255 36
-33.749 -65.3722 -1.63471 174 4 33
-54.6961 44.9318 -22.8 172 255 36
-35.2191 -65.5201 0.805766 174 4 33
-54.1961 44.9318 -22.8 172 255 36
-35.9919 -67.8587 0.180022 174 4 33
-53.6961 44.9318 -22.8 172 255 36
-34.3201 -64.5971 -1.29426 174 4 33
-53.1961 44.9318 -22.8 172 255 36
-34.2251 -66.4005 0.553006 174 4 33
-52.6961 44.9278 -22.9269 172 255 36
-34.5476 -64.9962 3.23598 174 4 33
-52.1961 44.9278 -22.9269 172 255 36
-34.2486 -66.7259 3.54326 174 4 33
-51.6961 44.9248 -23.0539 172 255 36
-35.2406 -66.6733 1.88327 174 4 33
-51.1961 44.9168 -23.3078 172 255 36
-33.4907 -66.9252 2.96428 174 4 33
-50.6961 44.9128 -23.4348 172 255 36
-34.9086 -68.238 4.3166 174 4 33
-50.1961 44.9088 -23.5618 172 255 36
-32.6493 -67.0206 4.13605 174 4 33
-49.6961 44.9018 -23.8157 172 255 36
-33.9369 -68.1797 2.97118 174 4 33
-49.1961 44.8978 -23.9427 172 255 36
-34.2091 -67.2142 6.26331 174 4 33
-48.6961 44.8938 -24.0696 172 255 36
-34.0656 -66.9077 6.70774 174 4 33
-48.1961 44.8858 -24.3236 172 255 36
-34.4346 -65.9431 5.25762 174 4 33
-47.6961 44.8818 -24.4505 172 255 36
-34.1276 -68.2361 3.83444 174 4 33
-47.1961 44.8818 -24.4505 172 255 36
-34.9088 -68.808 7.63799 174 4 33
-46.6961 44.8778 -24.5775 172 255 36
-32.9783 -67.2386 7.99243 174 4 33
-46.1961 44.8778 -24.5775 172 255 36
-33.0797 -66.8705 8.68657 174 4 33
-45.6961 44.8818 -24.4505 172 255 36
-34.5357 -68.099 9.65029 174 4 33
-45.1961 44.8818 -24.4505 172 255 36
-33.0082 -66.4457 8.92694 174 4 33
-44.6961 44.8818 -24.4505 172 255 36
-32.2616 -66.745 8.25798 174 4 33
-44.1961 44.8818 -24.4505 172 255 36
-30.4319 -68.5752 8.77507 174 4 33
-43.6961 44.8818 -24.4505 172 255 36
-31.3506 -66.9693 6.77218 174 4 33
-43.1961 44.8818 -24.4505 172 255 36
-30.8765 -68.9598 9.9156 174 4 33
-42.6961 44.8748 -24.7045 172 255 36
-32.4843 -68.3134 9.3907 174 4 33
-42.1961 44.8668 -24.9584 172 255 36
-33.1918 -68.3654 9.06607 174 4 33
-41.6961 44.8548 -25.3393 172 255 36
-32.7723 -70.4901 11.8483 174 4 33
-41.1961 44.8438 -25.7202 172 255 36
-31.054 -70.1612 13.1309 174 4 33
-40.6961 44.8318 -26.1011 172 255 36
-31.5906 -69.4539 13.2883 174 4 33
-40.1961 44.8318 -26.1011 172 255 36
-30.3735 -70.1906 14.6367 174 4 33
-39.6961 44.8278 -26.228 172 255 36
-32.2807 -70.0944 12.9731 174 4 33
-39.1961 44.8278 -26.228 172 255 36
-31.0619 -68.9707 16.033 174 4 33
-38.6961 44.8318 -26.1011 172 255 36
-30.0755 -70.2559 15.8288 174 4 33
-38.1961 44.8318 -26.1011 172 255 36
-29.0854 -71.4935 15.5342 174 4 33
-37.6961 44.8278 -26.228 172 255 36
-29.9356 -68.6967 14.7947 174 4 33
-37.1961 44.8248 -26.355 172 255 36
-29.5743 -69.4452 17.7732 174 4 33
-36.6961 44.8248 -26.355 172 255 36
-29.5136 -68.7527 15.4394 174 4 33
-36.1961 44.8208 -26.482 172 255 36
-27.9892 -69.7804 17.9808 174 4 33
-35.6961 44.8168 -26.6089 172 255 36
-30.3097 -70.1765 16.0432 174 4 33
-35.1961 44.8088 -26.8629 172 255 36
-31.0249 -70.5634 18.1249 174 4 33
-34.6961 44.8018 -27.1168 172 255 36
-29.129 -70.3887 18.8602 174 4 33
-34.1961 44.7898 -27.4977 172 255 36
-30.4819 -72.0843 19.6844 174 4 33
-33.6961 44.7778 -27.8786 172 255 36
-30.1351 -71.9818 20.0814 174 4 33
-33.1961 44.7668 -28.2595 172 255 36
-28.6375 -70.7486 19.9449 174 4 33
-32.6961 44.7548 -28.6404 172 255 36
-31.3881 -71.2938 22.9627 174 4 33
-32.1961 44.7438 -29.0213 172 255 36
-29.9845 -71.8469 21.3205 174 4 33
-31.6961 44.7318 -29.4022 172 255 36
-30.4761 -71.6723 22.2235 174 4 33
-31.1961 44.7248 -29.6561 172 255 36
-29.4039 -71.416 24.0082 174 4 33
-30.6961 44.7128 -30.037 172 255 36
-30.4067 -72.4468 23.7346 174 4 33
-30.1961 44.6978 -30.5449 172 255 36
-30.8037 -71.0928 24.4736 174 4 33
-29.6961 44.6858 -30.9258 172 255 36
-30.7601 -70.9411 24.7686 174 4 33
-29.1961 44.6668 -31.5606 172 255 36
-32.0487 -71.6388 26.5231 174 4 33
-28.6961 44.6438 -32.3224 172 255 36
-31.1775 -72.7779 27.8479 174 4 33
-28.1961 44.6278 -32.8303 172 255 36
-31.8651 -71.0766 27.4568 174 4 33
-27.6961 44.6128 -33.3381 172 255 36
-31.2839 -70.8052 28.7686 174 4 33
-27.1961 44.5978 -33.846 172 255 36
-32.5031 -70.421 27.7478 174 4 33
-26.6961 44.5858 -34.2269 172 255 36
-33.2315 -75.049 30.8255 174 4 33
-26.1961 44.5818 -34.3539 172 255 36
-33.1289 -73.705 30.5442 174 4 33
-25.6961 44.5748 -34.6078 172 255 36
-31.7124 -72.3289 29.8909 174 4 33
-25.1961 44.5628 -34.9887 172 255 36
-33.4731 -71.413 31.0864 174 4 33
-24.6961 44.5548 -35.2426 172 255 36
-32.3772 -71.1634 31.3191 174 4 33
-24.1961 44.5438 -35.6235 172 255 36
-32.3276 -71.8183 32.1403 174 4 33
-23.6961 44.5358 -35.8774 172 255 36
-32.2136 -73.0981 31.7541 174 4 33
-23.1961 44.5208 -36.3853 172 255 36
-33.1651 -72.8269 31.6894 174 4 33
-22.6961 44.5048 -36.8932 172 255 36
-33.0818 -73.2988 32.0513 174 4 33
-22.1961 44.4898 -37.401 172 255 36
-33.631 -72.8554 36.0581 174 4 33
-21.6961 44.4748 -37.9089 172 255 36
-32.4772 -73.1172 35.554 174 4 33
-21.1961 44.4628 -38.2898 172 255 36
-33.8529 -74.2068 35.8193 174 4 33
-20.6961 44.4478 -38.7976 172 255 36
-32.3036 -72.5859 36.9247 174 4 33
-20.1961 44.4318 -39.3055 172 255 36
-33.1841 -74.6647 38.7724 174 4 33
-19.6961 44.4208 -39.6864 172 255 36
-31.2436 -72.8153 37.0396 174 4 33
-19.1961 44.3978 -40.4482 172 255 36
-33.3639 -73.2501 38.5784 174 4 33
-18.6961 44.3778 -41.083 172 255 36
-36.431 -70.5392 38.1697 174 4 33
-18.1961 44.3548 -41.8448 172 255 36
-34.5722 -74.0692 40.6553 174 4 33
-17.6961 44.3398 -42.3527 172 255 36
-34.5071 -73.7574 42.1498 174 4 33
-17.1961 44.3168 -43.1145 172 255 36
-34.9708 -72.8593 43.4518 174 4 33
-16.6961 44.2898 -44.0032 172 255 36
-36.353 -72.8889 43.3216 174 4 33
-16.1961 44.2628 -44.892 172 255 36
-35.678 -72.9107 44.7641 174 4 33
-15.6961 44.2438 -45.5268 172 255 36
-35.6277 -71.9082 42.3798 174 4 33
-15.1961 44.2248 -46.1617 172 255 36
-50.7103 -61.276 -3.24466 174 4 33
-65.4461 45.3128 -34.101 172 255 36
-50.0784 -60.596 -3.45279 174 4 33
-64.9461 45.3468 -32.9583 172 255 36
-48.2163 -61.7799 -5.71601 174 4 33
-64.4461 45.3918 -31.4348 172 255 36
-45.1943 -62.7991 -5.48723 174 4 33
-63.9461 45.4528 -29.4033 172 255 36
-42.3635 -62.594 -5.99623 174 4 33
-63.4461 45.4828 -28.3876 172 255 36
-44.4644 -63.1821 -4.96843 174 4 33
-62.9461 45.5168 -27.245 172 255 36
-43.282 -64.487 -5.14325 174 4 33
-62.4461 45.5278 -26.8641 172 255 36
-41.1185 -62.1677 -5.39778 174 4 33
-61.9461 45.5398 -26.4832 172 255 36
-41.9328 -61.5473 -4.11235 174 4 33
-61.4461 45.5588 -25.8484 172 255 36
-43.3072 -64.2788 -4.29952 174 4 33
-60.9461 45.5658 -25.5944 172 255 36
-42.1077 -64.8199 -5.25347 174 4 33
-60.4461 45.5778 -25.2136 172 255 36
-38.6243 -60.7661 -4.03903 174 4 33
-59.9461 45.5848 -24.9596 172 255 36
-39.2796 -64.9234 -4.08387 174 4 33
-59.4461 45.5928 -24.7057 172 255 36
-40.7658 -65.3556 -3.19398 174 4 33
-58.9461 45.6038 -24.3248 172 255 36
-37.4469 -65.9255 -3.48109 174 4 33
-58.4461 45.6078 -24.1978 172 255 36
-37.6901 -63.9898 -3.61872 174 4 33
-57.9461 45.6148 -23.9439 172 255 36
-38.076 -64.2589 -4.17962 174 4 33
-57.4461 45.6228 -23.69 172 255 36
-38.0793 -64.599 -3.19586 174 4 33
-56.9461 45.6268 -23.563 172 255 36
-36.1502 -63.0526 -2.31189 174 4 33
-56.4461 45.6298 -23.436 172 255 36
-37.5331 -63.7409 -0.580078 174 4 33
-55.9461 45.6338 -23.3091 172 255 36
-36.3577 -65.6087 -1.93795 174 4 33
-55.4461 45.6378 -23.1821 172 255 36
-35.2093 -65.3284 -0.418026 174 4 33
-54.9461 45.6378 -23.1821 172 255 36
-36.4225 -67.0463 0.520705 174 4 33
-54.4461 45.6378 -23.1821 172 255 36
-34.1396 -66.9837 -0.609721 174 4 33
-53.9461 45.6418 -23.0551 172 255 36
-35.3591 -66.0517 1.29571 174 4 33
-53.4461 45.6418 -23.0551 172 255 36
-34.5485 -66.9658 1.89369 174 4 33
-52.9461 45.6378 -23.1821 172 255 36
-35.5372 -66.365 1.60353 174 4 33
-52.4461 45.6378 -23.1821 172 255 36
-34.711 -66.9403 2.04957 174 4 33
-51.9461 45.6338 -23.3091 172 255 36
-33.1219 -68.9118 3.50177 174 4 33
-51.4461 45.6298 -23.436 172 255 36
-35.2573 -66.7256 4.58627 174 4 33
-50.9461 45.6268 -23.563 172 255 36
-33.7402 -66.7648 3.14952 174 4 33
-50.4461 45.6268 -23.563 172 255 36
-35.76 -67.1991 2.71832 174 4 33
-49.9461 45.6188 -23.8169 172 255 36
-32.6185 -69.1355 5.18417 174 4 33
-49.4461 45.6148 -23.9439 172 255 36
-32.8925 -66.6454 5.91948 174 4 33
-48.9461 45.6118 -24.0709 172 255 36
-32.9796 -66.613 4.70825 174 4 33
-48.4461 45.6038 -24.3248 172 255 36
-33.3756 -69.0913 6.89711 174 4 33
-47.9461 45.6038 -24.3248 172 255 36
-32.9683 -69.7362 6.16675 174 4 33
-47.4461 45.5998 -24.4518 172 255 36
-33.8641 -68.1767 7.34541 174 4 33
-46.9461 45.5998 -24.4518 172 255 36
-32.2798 -70.9709 8.13532 174 4 33
-46.4461 45.5998 -24.4518 172 255 36
-32.0399 -69.943 6.31846 174 4 33
-45.9461 45.5998 -24.4518 172 255 36
-33.9806 -67.5769 6.90602 174 4 33
-45.4461 45.6038 -24.3248 172 255 36
-32.0861 -69.0629 8.93491 174 4 33
-44.9461 45.6038 -24.3248 172 255 36
-31.8717 -68.7859 8.30728 174 4 33
-44.4461 45.6038 -24.3248 172 255 36
-31.0942 -69.9553 8.43803 174 4 33
-43.9461 45.6078 -24.1978 172 255 36
-32.6725 -68.4289 9.64739 174 4 33
-43.4461 45.6038 -24.3248 172 255 36
-32.5679 -68.1179 11.7519 174 4 33
-42.9461 45.5998 -24.4518 172 255 36
-33.7562 -69.1702 8.31494 174 4 33
-42.4461 45.5958 -24.5787 172 255 36
-32.1997 -72.1361 10.3121 174 4 33
-41.9461 45.5848 -24.9596 172 255 36
-32.7493 -68.161 11.2707 174 4 33
-41.4461 45.5738 -25.3405 172 255 36
-31.0299 -70.2594 11.3952 174 4 33
-40.9461 45.5618 -25.7214 172 255 36
-29.9661 -70.2178 11.8229 174 4 33
-40.4461 45.5548 -25.9753 172 255 36
-31.3516 -71.5665 14.7554 174 4 33
-39.9461 45.5508 -26.1023 172 255 36
-32.2713 -70.4267 12.1496 174 4 33
-39.4461 45.5508 -26.1023 172 255 36
-30.1319 -70.1163 13.3557 174 4 33
-38.9461 45.5508 -26.1023 172 255 36
-31.619 -70.4523 15.7998 174 4 33
-38.4461 45.5548 -25.9753 172 255 36
-29.3238 -70.7704 14.0126 174 4 33
-37.9461 45.5548 -25.9753 172 255 36
-29.3605 -70.6271 14.73 174 4 33
-37.4461 45.5508 -26.1023 172 255 36
-30.5727 -70.0829 17.6397 174 4 33
-36.9461 45.5468 -26.2292 172 255 36
-31.2019 -71.9211 14.193 174 4 33
-36.4461 45.5468 -26.2292 172 255 36
-29.1532 -71.002 16.6134 174 4 33
-35.9461 45.5438 -26.3562 172 255 36
-30.4798 -70.5323 16.5456 174 4 33
-35.4461 45.5358 -26.6101 172 255 36
-29.4453 -71.2167 16.7258 174 4 33
-34.9461 45.5278 -26.8641 172 255 36
-28.8014 -71.1454 18.1006 174 4 33
-34.4461 45.5208 -27.118 172 255 36
-29.7106 -71.309 19.1098 174 4 33
-33.9461 45.5098 -27.4989 172 255 36
-29.3945 -73.0789 19.349 174 4 33
-33.4461 45.4938 -28.0067 172 255 36
-29.5243 -72.094 19.0047 174 4 33
-32.9461 45.4828 -28.3876 172 255 36
-31.4351 -71.124 17.2549 174 4 33
-32.4461 45.4678 -28.8955 172 255 36
-32.4295 -71.5245 22.4594 174 4 33
-31.9461 45.4568 -29.2764 172 255 36
-28.1082 -70.5565 22.0902 174 4 33
-31.4461 45.4418 -29.7842 172 255 36
-29.4975 -72.1973 22.8645 174 4 33
-30.9461 45.4298 -30.1651 172 255 36
-30.9033 -72.1296 21.8017 174 4 33
-30.4461 45.4188 -30.546 172 255 36
-31.5021 -72.3217 24.4486 174 4 33
-29.9461 45.4108 -30.7999 172 255 36
-32.0959 -71.6988 22.2798 174 4 33
-29.4461 45.3958 -31.3078 172 255 36
-31.459 -71.9108 24.8485 174 4 33
-28.9461 45.3768 -31.9426 172 255 36
-31.0412 -72.6363 25.6128 174 4 33
-28.4461 45.3578 -32.5775 172 255 36
-32.3545 -73.9189 27.8611 174 4 33
-27.9461 45.3398 -33.2123 172 255 36
-32.277 -70.9951 25.7438 174 4 33
-27.4461 45.3208 -33.8471 172 255 36
-32.5022 -72.9952 29.0887 174 4 33
-26.9461 45.3058 -34.3549 172 255 36
-33.3594 -73.1266 28.4053 174 4 33
-26.4461 45.2978 -34.6089 172 255 36
-33.14 -70.8097 29.022 174 4 33
-25.9461 45.2898 -34.8628 172 255 36
-31.9924 -72.5321 28.7302 174 4 33
-25.4461 45.2788 -35.2437 172 255 36
-31.7944 -73.8081 31.4521 174 4 33
-24.9461 45.2748 -35.3706 172 255 36
-31.1469 -73.33 29.5586 174 4 33
-24.4461 45.2638 -35.7515 172 255 36
-32.0586 -72.013 32.1995 174 4 33
-23.9461 45.2528 -36.1324 172 255 36
-32.5404 -74.1776 32.6874 174 4 33
-23.4461 45.2378 -36.6403 172 255 36
-31.5127 -72.94 32.8809 174 4 33
-22.9461 45.2258 -37.0212 172 255 36
-31.8417 -73.1159 33.67 174 4 33
-22.4461 45.2108 -37.529 172 255 36
-33.071 -71.9445 34.759 174 4 33
-21.9461 45.1958 -38.0369 172 255 36
-32.9221 -73.7936 33.1702 174 4 33
-21.4461 45.1878 -38.2908 172 255 36
-32.3672 -72.6749 36.0587 174 4 33
-20.9461 45.1768 -38.6717 172 255 36
-33.7065 -73.5609 36.9822 174 4 33
-20.4461 45.1658 -39.0526 172 255 36
-36.0188 -72.2112 37.1007 174 4 33
-19.9461 45.1468 -39.6874 172 255 36
-33.1715 -72.5002 36.7135 174 4 33
-19.4461 45.1318 -40.1953 172 255 36
-36.3548 -72.959 38.0888 174 4 33
-18.9461 45.1168 -40.7031 172 255 36
-34.4483 -72.6982 40.1646 174 4 33
-18.4461 45.1018 -41.211 172 255 36
-34.0114 -74.0478 40.8478 174 4 33
-17.9461 45.0828 -41.8458 172 255 36
-34.1534 -74.0651 41.8372 174 4 33
-17.4461 45.0678 -42.3537 172 255 36
-34.285 -73.3617 39.7141 174 4 33
-16.9461 45.0488 -42.9885 172 255 36
-34.7199 -74.612 42.4966 174 4 33
-16.4461 45.0298 -43.6233 172 255 36
-37.2391 -73.8362 40.5073 174 4 33
-15.9461 45.0028 -44.512 172 255 36
-35.9654 -72.785 45.0052 174 4 33
-15.4461 44.9918 -44.8929 172 255 36
-35.2081 -74.7504 44.639 174 4 33
-14.9461 44.9768 -45.4008 172 255 36
-51.4219 -61.1873 -1.95557 174 4 33
-65.1961 46.0068 -35.1178 172 255 36
-52.4506 -61.7112 -5.33814 174 4 33
-64.6961 46.0248 -34.483 172 255 36
-48.6029 -60.9526 -3.68726 174 4 33
-64.1961 46.0768 -32.7055 172 255 36
-45.4413 -62.5346 -3.57942 174 4 33
-63.6961 46.1508 -30.1663 172 255 36
-43.4013 -63.4574 -4.05645 174 4 33
-63.1961 46.1768 -29.2775 172 255 36
-42.2268 -63.7307 -5.6281 174 4 33
-62.6961 46.2178 -27.881 172 255 36
-42.2153 -63.2938 -5.3418 174 4 33
-62.1961 46.2328 -27.3731 172 255 36
-42.6758 -64.4565 -4.33529 174 4 33
-61.6961 46.2478 -26.8653 172 255 36
-43.5216 -62.0791 -3.68562 174 4 33
-61.1961 46.2588 -26.4844 172 255 36
-42.388 -64.0916 -3.97188 174 4 33
-60.6961 46.2658 -26.2304 172 255 36
-40.4457 -64.9 -4.92819 174 4 33
-60.1961 46.2768 -25.8496 172 255 36
-41.6933 -67.9747 -3.36285 174 4 33
-59.6961 46.2878 -25.4687 172 255 36
-38.9659 -65.5814 -3.43158 174 4 33
-59.1961 46.2958 -25.2148 172 255 36
-37.6393 -63.4937 -3.60558 174 4 33
-58.6961 46.3068 -24.8339 172 255 36
-39.3979 -66.7817 -2.83422 174 4 33
-58.1961 46.3138 -24.5799 172 255 36
-39.3097 -64.8826 -2.32071 174 4 33
-57.6961 46.3178 -24.453 172 255 36
-38.2126 -65.7919 -2.02868 174 4 33
-57.1961 46.3248 -24.1991 172 255 36
-37.4246 -65.8447 -2.1339 174 4 33
-56.6961 46.3288 -24.0721 172 255 36
-38.1883 -64.84 -0.577012 174 4 33
-56.1961 46.3368 -23.8182 172 255 36
-38.9866 -64.9054 -1.91169 174 4 33
-55.6961 46.3398 -23.6912 172 255 36
-38.1527 -66.6323 -0.901978 174 4 33
-55.1961 46.3398 -23.6912 172 255 36
-34.8293 -67.5836 -1.61357 174 4 33
-54.6961 46.3438 -23.5642 172 255 36
-36.1776 -67.9439 -0.102961 174 4 33
-54.1961 46.3478 -23.4373 172 255 36
-37.0242 -66.3144 -0.522718 174 4 33
-53.6961 46.3478 -23.4373 172 255 36
-36.3405 -67.4838 1.9557 174 4 33
-53.1961 46.3478 -23.4373 172 255 36
-34.9738 -67.7066 0.633867 174 4 33
-52.6961 46.3478 -23.4373 172 255 36
-35.5809 -67.356 1.38287 174 4 33
-52.1961 46.3478 -23.4373 172 255 36
-38.2383 -67.3291 -0.250435 174 4 33
-51.6961 46.3438 -23.5642 172 255 36
-35.8964 -67.5476 2.00446 174 4 33
-51.1961 46.3398 -23.6912 172 255 36
-34.1313 -67.3267 2.47827 174 4 33
-50.6961 46.3398 -23.6912 172 255 36
-35.3368 -69.0415 1.78148 174 4 33
-50.1961 46.3328 -23.9451 172 255 36
-34.9493 -68.1993 4.63902 174 4 33
-49.6961 46.3288 -24.0721 172 255 36
-35.2456 -67.5624 5.30185 174 4 33
-49.1961 46.3248 -24.1991 172 255 36
-34.2469 -68.9066 5.26745 174 4 33
-48.6961 46.3218 -24.326 172 255 36
-35.353 -68.5083 5.1666 174 4 33
-48.1961 46.3178 -24.453 172 255 36
-35.6706 -66.6726 4.79791 174 4 33
-47.6961 46.3178 -24.453 172 255 36
-35.0314 -67.5904 6.55868 174 4 33
-47.1961 46.3178 -24.453 172 255 36
-33.2246 -69.2 4.66032 174 4 33
-46.6961 46.3178 -24.453 172 255 36
-32.3402 -69.3784 7.9372 174 4 33
-46.1961 46.3218 -24.326 172 255 36
-33.2389 -68.6518 6.8138 174 4 33
-45.6961 46.3218 -24.326 172 255 36
-31.7132 -70.5879 8.59903 174 4 33
-45.1961 46.3218 -24.326 172 255 36
-31.7778 -69.4987 8.35593 174 4 33
-44.6961 46.3248 -24.1991 172 255 36
-33.303 -71.1431 6.0498 174 4 33
-44.1961 46.3288 -24.0721 172 255 36
-31.6904 -69.2126 8.31466 174 4 33
-43.6961 46.3248 -24.1991 172 255 36
-32.1332 -69.4217 8.10194 174 4 33
-43.1961 46.3248 -24.1991 172 255 36
-31.6373 -70.5426 9.48399 174 4 33
-42.6961 46.3218 -24.326 172 255 36
-32.2264 -69.7429 10.1119 174 4 33
-42.1961 46.3138 -24.5799 172 255 36
-31.5768 -71.3992 9.8782 174 4 33
-41.6961 46.3028 -24.9608 172 255 36
-31.5466 -70.5101 12.088 174 4 33
-41.1961 46.2918 -25.3417 172 255 36
-32.6343 -69.8782 12.1104 174 4 33
-40.6961 46.2808 -25.7226 172 255 36
-30.1305 -71.566 11.6195 174 4 33
-40.1961 46.2738 -25.9765 172 255 36
-32.045 -71.3592 14.5223 174 4 33
-39.6961 46.2698 -26.1035 172 255 36
-31.5487 -70 14.3885 174 4 33
-39.1961 46.2738 -25.9765 172 255 36
-30.6846 -71.4962 15.5797 174 4 33
-38.6961 46.2738 -25.9765 172 255 36
-30.7921 -72.1132 15.0201 174 4 33
-38.1961 46.2738 -25.9765 172 255 36
-30.826 -71.7492 15.3971 174 4 33
-37.6961 46.2738 -25.9765 172 255 36
-28.459 -71.081 14.8238 174 4 33
-37.1961 46.2698 -26.1035 172 255 36
-29.9672 -70.1343 14.4848 174 4 33
-36.6961 46.2698 -26.1035 172 255 36
-31.108 -71.9651 16.3721 174 4 33
-36.1961 46.2658 -26.2304 172 255 36
-30.2592 -71.6412 17.6957 174 4 33
-35.6961 46.2588 -26.4844 172 255 36
-30.694 -71.4073 16.6362 174 4 33
-35.1961 46.2508 -26.7383 172 255 36
-31.0844 -70.7342 15.5536 174 4 33
-34.6961 46.2438 -26.9922 172 255 36
-30.0605 -73.9484 17.2398 174 4 33
-34.1961 46.2328 -27.3731 172 255 36
-30.9193 -72.2656 19.5933 174 4 33
-33.6961 46.2218 -27.754 172 255 36
-31.9101 -71.4122 20.4323 174 4 33
-33.1961 46.2068 -28.2618 172 255 36
-29.3235 -72.741 20.4374 174 4 33
-32.6961 46.1958 -28.6427 172 255 36
-30.2692 -70.6665 21.6079 174 4 33
-32.1961 46.1768 -29.2775 172 255 36
-32.6064 -71.2227 21.7603 174 4 33
-31.6961 46.1618 -29.7854 172 255 36
-31.2938 -70.3513 23.1361 174 4 33
-31.1961 46.1468 -30.2932 172 255 36
-30.7463 -73.844 23.602 174 4 33
-30.6961 46.1358 -30.6741 172 255 36
-30.3573 -70.8059 21.6775 174 4 33
-30.1961 46.1248 -31.055 172 255 36
-30.139 -73.1465 24.6656 174 4 33
-29.6961 46.1138 -31.4359 172 255 36
-29.3169 -74.0521 24.5956 174 4 33
-29.1961 46.1028 -31.8168 172 255 36
-32.7608 -73.3234 24.405 174 4 33
-28.6961 46.0838 -32.4516 172 255 36
-32.2951 -72.8005 25.9083 174 4 33
-28.1961 46.0698 -32.9595 172 255 36
-33.9086 -73.2979 26.9132 174 4 33
-27.6961 46.0508 -33.5942 172 255 36
-32.6886 -73.8881 27.675 174 4 33
-27.1961 46.0288 -34.356 172 255 36
-32.8961 -73.1829 29.2694 174 4 33
-26.6961 46.0178 -34.7369 172 255 36
-33.8046 -74.5328 27.8296 174 4 33
-26.1961 46.0068 -35.1178 172 255 36
-33.1182 -73.1525 29.7899 174 4 33
-25.6961 45.9988 -35.3717 172 255 36
-33.1988 -74.14 29.1395 174 4 33
-25.1961 45.9878 -35.7526 172 255 36
-33.6611 -73.7109 30.3765 174 4 33
-24.6961 45.9768 -36.1335 172 255 36
-32.8588 -73.628 31.5779 174 4 33
-24.1961 45.9698 -36.3874 172 255 36
-34.6822 -73.7101 31.4148 174 4 33
-23.6961 45.9548 -36.8953 172 255 36
-32.5611 -74.0713 32.9105 174 4 33
-23.1961 45.9438 -37.2761 172 255 36
-31.8965 -73.6902 32.9798 174 4 33
-22.6961 45.9318 -37.657 172 255 36
-33.9324 -75.1388 34.2039 174 4 33
-22.1961 45.9208 -38.0379 172 255 36
-33.9967 -74.0814 35.9621 174 4 33
-21.6961 45.9098 -38.4188 172 255 36
-32.7278 -72.8109 33.5674 174 4 33
-21.1961 45.8988 -38.7997 172 255 36
-35.0733 -73.4886 35.87 174 4 33
-20.6961 45.8878 -39.1806 172 255 36
-33.5 -75.3911 36.612 174 4 33
-20.1961 45.8768 -39.5615 172 255 36
-31.4499 -75.8178 36.7678 174 4 33
-19.6961 45.8618 -40.0693 172 255 36
-34.2408 -72.6595 36.8088 174 4 33
-19.1961 45.8508 -40.4502 172 255 36
-35.2276 -72.0325 38.6104 174 4 33
-18.6961 45.8358 -40.9581 172 255 36
-34.844 -73.9279 40.2035 174 4 33
-18.1961 45.8288 -41.212 172 255 36
-34.4005 -74.0091 40.4132 174 4 33
-17.6961 45.8178 -41.5929 172 255 36
-34.1323 -74.7336 38.602 174 4 33
-17.1961 45.8058 -41.9737 172 255 36
-32.3091 -73.2636 39.9284 174 4 33
-16.6961 45.7988 -42.2277 172 255 36
-36.6921 -73.3662 42.5504 174 4 33
-16.1961 45.7798 -42.8625 172 255 36
-34.7831 -75.7289 42.5335 174 4 33
-15.6961 45.7618 -43.4973 172 255 36
-34.8895 -75.4238 41.9158 174 4 33
-15.1961 45.7508 -43.8782 172 255 36
-33.2352 -75.784 44.1158 174 4 33
-14.6961 45.7428 -44.1321 172 255 36
-34.6594 -76.7116 44.4689 174 4 33
-14.1961 45.7358 -44.386 172 255 36
-52.5942 -61.3402 -1.67892 174 4 33
-64.9461 46.7188 -35.4997 172 255 36
-49.4079 -62.5786 -2.67201 174 4 33
-64.4461 46.7338 -34.9919 172 255 36
-50.88 -60.2371 -1.37058 174 4 33
-63.9461 46.7738 -33.5953 172 255 36
-48.4722 -61.8057 -4.23179 174 4 33
-63.4461 46.8208 -31.9449 172 255 36
-46.2264 -62.9406 -5.09453 174 4 33
-62.9461 46.8758 -30.0405 172 255 36
-46.4997 -62.4956 -3.95324 174 4 33
-62.4461 46.8868 -29.6596 172 255 36
-42.9032 -63.8843 -6.69821 174 4 33
-61.9461 46.9268 -28.263 172 255 36
-42.8654 -63.6573 -4.66446 174 4 33
-61.4461 46.9488 -27.5013 172 255 36
-43.9612 -65.2244 -3.55562 174 4 33
-60.9461 46.9588 -27.1204 172 255 36
-40.4762 -65.3217 -4.80822 174 4 33
-60.4461 46.9668 -26.8665 172 255 36
-41.8886 -65.2216 -5.1558 174 4 33
-59.9461 46.9808 -26.3586 172 255 36
-41.5084 -65.4675 -2.7105 174 4 33
-59.4461 46.9918 -25.9777 172 255 36
-41.4238 -64.5424 -2.29161 174 4 33
-58.9461 46.9988 -25.7238 172 255 36
-41.4782 -64.3573 -3.22117 174 4 33
-58.4461 47.0098 -25.3429 172 255 36
-39.6831 -66.828 -3.55453 174 4 33
-57.9461 47.0178 -25.089 172 255 36
-39.9373 -66.1422 -1.24268 174 4 33
-57.4461 47.0248 -24.8351 172 255 36
-39.2931 -66.677 -0.426099 174 4 33
-56.9461 47.0288 -24.7081 172 255 36
-37.5632 -66.411 -3.01592 174 4 33
-56.4461 47.0358 -24.4542 172 255 36
-39.0028 -67.7276 -0.406508 174 4 33
-55.9461 47.0428 -24.2003 172 255 36
-37.7356 -66.9802 -1.5656 174 4 33
-55.4461 47.0428 -24.2003 172 255 36
-37.3914 -65.8025 0.83869 174 4 33
-54.9461 47.0468 -24.0733 172 255 36
-35.2172 -68.7674 -0.987 174 4 33
-54.4461 47.0498 -23.9464 172 255 36
-36.2302 -66.3808 1.23845 174 4 33
-53.9461 47.0538 -23.8194 172 255 36
-35.0295 -69.3829 -1.06072 174 4 33
-53.4461 47.0538 -23.8194 172 255 36
-35.4073 -66.9447 0.477662 174 4 33
-52.9461 47.0578 -23.6924 172 255 36
-35.735 -68.7858 1.04118 174 4 33
-52.4461 47.0538 -23.8194 172 255 36
-36.3483 -68.4439 3.17581 174 4 33
-51.9461 47.0538 -23.8194 172 255 36
-36.1997 -69.0657 1.75511 174 4 33
-51.4461 47.0538 -23.8194 172 255 36
-35.0068 -66.7545 1.7193 174 4 33
-50.9461 47.0498 -23.9464 172 255 36
-32.6064 -67.8804 2.18431 174 4 33
-50.4461 47.0498 -23.9464 172 255 36
-34.3764 -69.0117 3.25568 174 4 33
-49.9461 47.0468 -24.0733 172 255 36
-34.5557 -69.1441 3.65013 174 4 33
-49.4461 47.0428 -24.2003 172 255 36
-34.6879 -68.9453 4.56704 174 4 33
-48.9461 47.0388 -24.3273 172 255 36
-34.9067 -69.9301 5.8671 174 4 33
-48.4461 47.0358 -24.4542 172 255 36
-35.1386 -69.3796 4.60903 174 4 33
-47.9461 47.0358 -24.4542 172 255 36
-35.0266 -69.4109 6.29007 174 4 33
-47.4461 47.0318 -24.5812 172 255 36
-33.8952 -68.039 5.12302 174 4 33
-46.9461 47.0358 -24.4542 172 255 36
-33.2613 -69.7078 6.36886 174 4 33
-46.4461 47.0388 -24.3273 172 255 36
-34.8145 -69.9644 5.38308 174 4 33
-45.9461 47.0388 -24.3273 172 255 36
-32.7843 -68.8549 7.3478 174 4 33
-45.4461 47.0428 -24.2003 172 255 36
-33.2705 -69.4501 7.47375 174 4 33
-44.9461 47.0468 -24.0733 172 255 36
-30.8607 -70.7386 7.76909 174 4 33
-44.4461 47.0468 -24.0733 172 255 36
-30.5059 -70.9892 9.07805 174 4 33
-43.9461 47.0468 -24.0733 172 255 36
-32.3603 -69.2629 8.60301 174 4 33
-43.4461 47.0468 -24.0733 172 255 36
-33.1318 -70.9902 8.64375 174 4 33
-42.9461 47.0428 -24.2003 172 255 36
-30.4641 -70.8301 10.6465 174 4 33
-42.4461 47.0388 -24.3273 172 255 36
-32.8306 -69.3561 10.6193 174 4 33
-41.9461 47.0288 -24.7081 172 255 36
-32.1416 -72.9772 9.10433 174 4 33
-41.4461 47.0208 -24.962 172 255 36
-31.8795 -68.9537 11.9916 174 4 33
-40.9461 47.0068 -25.4699 172 255 36
-33.0141 -72.1794 12.8518 174 4 33
-40.4461 46.9958 -25.8508 172 255 36
-31.7911 -71.8843 13.3297 174 4 33
-39.9461 46.9918 -25.9777 172 255 36
-30.7053 -70.6735 13.5992 174 4 33
-39.4461 46.9918 -25.9777 172 255 36
-29.8362 -71.2762 13.5605 174 4 33
-38.9461 46.9918 -25.9777 172 255 36
-31.0864 -73.3131 13.8718 174 4 33
-38.4461 46.9918 -25.9777 172 255 36
-29.519 -72.4098 15.9366 174 4 33
-37.9461 46.9918 -25.9777 172 255 36
-32.09 -71.4584 14.1411 174 4 33
-37.4461 46.9888 -26.1047 172 255 36
-30.6976 -74.7178 16.8073 174 4 33
-36.9461 46.9848 -26.2316 172 255 36
-32.1847 -72.2895 15.9762 174 4 33
-36.4461 46.9848 -26.2316 172 255 36
-31.3606 -73.0798 16.4421 174 4 33
-35.9461 46.9778 -26.4856 172 255 36
-30.3931 -71.8136 16.1793 174 4 33
-35.4461 46.9698 -26.7395 172 255 36
-30.5272 -73.2551 17.1807 174 4 33
-34.9461 46.9668 -26.8665 172 255 36
-29.7207 -72.2617 17.6509 174 4 33
-34.4461 46.9558 -27.2473 172 255 36
-29.9278 -72.6673 18.3124 174 4 33
-33.9461 46.9448 -27.6282 172 255 36
-30.6359 -73.2787 18.4964 174 4 33
-33.4461 46.9338 -28.0091 172 255 36
-31.5911 -72.6158 20.1611 174 4 33
-32.9461 46.9158 -28.6439 172 255 36
-30.7275 -72.3202 20.0609 174 4 33
-32.4461 46.9048 -29.0248 172 255 36
-29.6698 -72.0277 22.1997 174 4 33
-31.9461 46.8898 -29.5326 172 255 36
-30.8574 -72.756 20.3741 174 4 33
-31.4461 46.8688 -30.2944 172 255 36
-30.9976 -75.0699 26.0327 174 4 33
-30.9461 46.8578 -30.6753 172 255 36
-32.9879 -72.5871 23.4273 174 4 33
-30.4461 46.8428 -31.1831 172 255 36
-30.7773 -74.3419 21.4373 174 4 33
-29.9461 46.8358 -31.437 172 255 36
-32.0556 -73.9707 25.893 174 4 33
-29.4461 46.8248 -31.8179 172 255 36
-32.1119 -73.8395 25.5667 174 4 33
-28.9461 46.8098 -32.3257 172 255 36
-32.2693 -71.5538 26.0051 174 4 33
-28.4461 46.7958 -32.8336 172 255 36
-32.4202 -74.5465 26.3277 174 4 33
-27.9461 46.7778 -33.4684 172 255 36
-31.6813 -73.8642 27.6273 174 4 33
-27.4461 46.7628 -33.9762 172 255 36
-34.3097 -74.4623 28.886 174 4 33
-26.9461 46.7488 -34.4841 172 255 36
-32.937 -72.5988 29.344 174 4 33
-26.4461 46.7338 -34.9919 172 255 36
-31.5182 -72.4327 28.7451 174 4 33
-25.9461 46.7228 -35.3728 172 255 36
-31.2476 -74.6695 31.8227 174 4 33
-25.4461 46.7118 -35.7537 172 255 36
-31.8085 -72.7841 29.9704 174 4 33
-24.9461 46.6978 -36.2615 172 255 36
-33.3967 -74.4677 30.2726 174 4 33
-24.4461 46.6868 -36.6424 172 255 36
-35.517 -73.0822 31.0686 174 4 33
-23.9461 46.6758 -37.0233 172 255 36
-34.2184 -75.0868 34.0303 174 4 33
-23.4461 46.6648 -37.4042 172 255 36
-34.6607 -74.0374 32.6752 174 4 33
-22.9461 46.6538 -37.785 172 255 36
-33.8539 -75.0593 33.186 174 4 33
-22.4461 46.6428 -38.1659 172 255 36
-35.4546 -74.9609 33.4527 174 4 33
-21.9461 46.6358 -38.4198 172 255 36
-34.06 -74.2494 33.8325 174 4 33
-21.4461 46.6248 -38.8007 172 255 36
-33.382 -76.465 34.4276 174 4 33
-20.9461 46.6138 -39.1816 172 255 36
-33.8699 -76.4061 35.7799 174 4 33
-20.4461 46.6028 -39.5625 172 255 36
-34.4664 -74.574 35.3391 174 4 33
-19.9461 46.5918 -39.9433 172 255 36
-33.0145 -75.5505 38.5385 174 4 33
-19.4461 46.5808 -40.3243 172 255 36
-33.8836 -76.337 37.0386 174 4 33
-18.9461 46.5738 -40.5782 172 255 36
-35.0888 -75.0829 36.565 174 4 33
-18.4461 46.5668 -40.8321 172 255 36
-33.715 -75.6573 39.5042 174 4 33
-17.9461 46.5588 -41.086 172 255 36
-32.2867 -74.6272 38.791 174 4 33
-17.4461 46.5478 -41.4669 172 255 36
-33.5797 -73.3108 41.4253 174 4 33
-16.9461 46.5448 -41.5938 172 255 36
-34.0644 -75.886 41.1902 174 4 33
-16.4461 46.5408 -41.7208 172 255 36
-34.1379 -75.8232 41.3303 174 4 33
-15.9461 46.5268 -42.2286 172 255 36
-35.2213 -75.4171 42.3423 174 4 33
-15.4461 46.5228 -42.3556 172 255 36
-34.382 -74.8614 41.0185 174 4 33
-14.9461 46.5078 -42.8634 172 255 36
-34.9979 -75.8558 44.4105 174 4 33
-14.4461 46.5008 -43.1174 172 255 36
-34.283 -76.1968 42.2342 174 4 33
-13.9461 46.4978 -43.2443 172 255 36
-34.9745 -76.8488 44.7835 174 4 33
-13.4461 46.4758 -44.0061 172 255 36
-35.3507 -75.5151 46.8555 174 4 33
-12.9461 46.4718 -44.133 172 255 36
-53.4187 -63.7338 -2.03389 174 4 33
-64.1961 47.4288 -36.0087 172 255 36
-49.355 -64.499 -4.10638 174 4 33
-63.6961 47.4178 -36.3895 172 255 36
-49.4613 -63.3064 -3.54365 174 4 33
-63.1961 47.5038 -33.3425 172 255 36
-45.6262 -63.5874 -4.27788 174 4 33
-62.6961 47.5678 -31.0573 172 255 36
-45.0899 -62.3551 -2.37582 174 4 33
-62.1961 47.5928 -30.1686 172 255 36
-44.5453 -64.7734 -2.66069 174 4 33
-61.6961 47.6108 -29.5338 172 255 36
-42.4678 -64.6923 -3.11983 174 4 33
-61.1961 47.6468 -28.2642 172 255 36
-41.918 -64.998 -2.96976 174 4 33
-60.6961 47.6608 -27.7564 172 255 36
-44.1647 -65.2658 -5.77279 174 4 33
-60.1961 47.6678 -27.5025 172 255 36
-41.1914 -63.4897 -5.27117 174 4 33
-59.6961 47.6818 -26.9946 172 255 36
-42.7866 -66.5529 -4.51349 174 4 33
-59.1961 47.6928 -26.6137 172 255 36
-41.1695 -66.2095 -1.26459 174 4 33
-58.6961 47.7038 -26.2329 172 255 36
-40.951 -68.0377 -2.01505 174 4 33
-58.1961 47.7108 -25.9789 172 255 36
-39.5809 -66.3952 -2.05458 174 4 33
-57.6961 47.7218 -25.5981 172 255 36
-39.452 -64.9644 -1.71869 174 4 33
-57.1961 47.7288 -25.3441 172 255 36
-38.8072 -67.5957 -2.08026 174 4 33
-56.6961 47.7318 -25.2172 172 255 36
-39.8969 -66.6519 -0.384578 174 4 33
-56.1961 47.7388 -24.9633 172 255 36
-40.2068 -67.5023 -0.670283 174 4 33
-55.6961 47.7468 -24.7094 172 255 36
-35.8384 -67.1299 -0.833919 174 4 33
-55.1961 47.7498 -24.5824 172 255 36
-38.1044 -67.0758 -2.47349 174 4 33
-54.6961 47.7538 -24.4554 172 255 36
-36.2779 -67.5414 -2.10956 174 4 33
-54.1961 47.7538 -24.4554 172 255 36
-37.8695 -66.7953 -1.74803 174 4 33
-53.6961 47.7568 -24.3285 172 255 36
-37.1602 -68.7129 0.992757 174 4 33
-53.1961 47.7608 -24.2015 172 255 36
-36.2404 -67.5155 -0.0512231 174 4 33
-52.6961 47.7608 -24.2015 172 255 36
-35.924 -68.8527 -0.115189 174 4 33
-52.1961 47.7638 -24.0746 172 255 36
-36.0381 -68.804 2.6947 174 4 33
-51.6961 47.7638 -24.0746 172 255 36
-34.3677 -69.1258 0.932898 174 4 33
-51.1961 47.7608 -24.2015 172 255 36
-37.874 -67.1991 4.1924 174 4 33
-50.6961 47.7608 -24.2015 172 255 36
-33.0017 -68.707 3.79052 174 4 33
-50.1961 47.7568 -24.3285 172 255 36
-34.9904 -69.0021 3.18322 174 4 33
-49.6961 47.7568 -24.3285 172 255 36
-34.8773 -68.9126 3.55491 174 4 33
-49.1961 47.7538 -24.4554 172 255 36
-35.2764 -67.9423 5.28255 174 4 33
-48.6961 47.7538 -24.4554 172 255 36
-32.9094 -67.9188 5.2756 174 4 33
-48.1961 47.7538 -24.4554 172 255 36
-35.0323 -70.0666 7.22549 174 4 33
-47.6961 47.7498 -24.5824 172 255 36
-33.162 -69.5082 6.95684 174 4 33
-47.1961 47.7538 -24.4554 172 255 36
-36.4376 -69.4932 7.97987 174 4 33
-46.6961 47.7538 -24.4554 172 255 36
-33.9119 -72.1372 7.75538 174 4 33
-46.1961 47.7538 -24.4554 172 255 36
-32.4594 -70.2827 6.82128 174 4 33
-45.6961 47.7568 -24.3285 172 255 36
-34.2752 -71.6708 6.78081 174 4 33
-45.1961 47.7608 -24.2015 172 255 36
-32.4768 -70.6124 8.91337 174 4 33
-44.6961 47.7638 -24.0746 172 255 36
-32.537 -71.1539 8.32626 174 4 33
-44.1961 47.7638 -24.0746 172 255 36
-33.2434 -70.6668 9.58389 174 4 33
-43.6961 47.7638 -24.0746 172 255 36
-31.8047 -71.6322 10.5351 174 4 33
-43.1961 47.7638 -24.0746 172 255 36
-32.6529 -70.5356 9.92805 174 4 33
-42.6961 47.7608 -24.2015 172 255 36
-30.8974 -70.8597 10.4399 174 4 33
-42.1961 47.7538 -24.4554 172 255 36
-33.2854 -71.1307 10.3497 174 4 33
-41.6961 47.7468 -24.7094 172 255 36
-30.7441 -71.3642 9.21075 174 4 33
-41.1961 47.7388 -24.9633 172 255 36
-33.1414 -72.2437 11.3187 174 4 33
-40.6961 47.7248 -25.4711 172 255 36
-32.6388 -72.6771 11.9857 174 4 33
-40.1961 47.7138 -25.852 172 255 36
-32.6495 -71.1631 10.3102 174 4 33
-39.6961 47.7108 -25.9789 172 255 36
-30.4876 -71.6276 13.5125 174 4 33
-39.1961 47.7068 -26.1059 172 255 36
-32.0118 -71.1445 11.6004 174 4 33
-38.6961 47.7068 -26.1059 172 255 36
-31.6947 -70.9489 14.1152 174 4 33
-38.1961 47.7068 -26.1059 172 255 36
-32.342 -72.6943 13.209 174 4 33
-37.6961 47.7068 -26.1059 172 255 36
-31.5507 -73.6745 15.0419 174 4 33
-37.1961 47.7038 -26.2329 172 255 36
-31.2575 -72.5152 15.0304 174 4 33
-36.6961 47.6998 -26.3598 172 255 36
-32.3948 -73.2047 15.4679 174 4 33
-36.1961 47.6968 -26.4868 172 255 36
-31.5689 -73.6298 16.8092 174 4 33
-35.6961 47.6888 -26.7407 172 255 36
-31.217 -73.2052 16.0182 174 4 33
-35.1961 47.6858 -26.8677 172 255 36
-30.3908 -73.0703 16.4092 174 4 33
-34.6961 47.6748 -27.2485 172 255 36
-29.8371 -71.8114 18.8723 174 4 33
-34.1961 47.6678 -27.5025 172 255 36
-31.0874 -75.9049 17.8712 174 4 33
-33.6961 47.6538 -28.0103 172 255 36
-30.9392 -73.1263 19.7621 174 4 33
-33.1961 47.6398 -28.5181 172 255 36
-31.3314 -73.9723 21.9051 174 4 33
-32.6961 47.6288 -28.899 172 255 36
-31.9122 -71.378 20.5862 174 4 33
-32.1961 47.6108 -29.5338 172 255 36
-31.8133 -74.164 21.547 174 4 33
-31.6961 47.5968 -30.0416 172 255 36
-31.1814 -74.9085 22.8674 174 4 33
-31.1961 47.5788 -30.6764 172 255 36
-31.506 -73.2272 24.4872 174 4 33
-30.6961 47.5678 -31.0573 172 255 36
-31.328 -73.3457 22.6904 174 4 33
-30.1961 47.5568 -31.4382 172 255 36
-32.9649 -73.7986 23.5185 174 4 33
-29.6961 47.5468 -31.819 172 255 36
-32.0589 -72.9801 23.7736 174 4 33
-29.1961 47.5358 -32.1999 172 255 36
-31.3973 -73.5123 25.0884 174 4 33
-28.6961 47.5248 -32.5808 172 255 36
-32.1861 -74.0511 26.7854 174 4 33
-28.1961 47.5108 -33.0886 172 255 36
-32.7391 -75.2553 26.9585 174 4 33
-27.6961 47.4928 -33.7234 172 255 36
-32.0633 -74.1797 26.9797 174 4 33
-27.1961 47.4788 -34.2312 172 255 36
-30.9875 -75.684 29.4354 174 4 33
-26.6961 47.4648 -34.7391 172 255 36
-33.3264 -75.0608 28.587 174 4 33
-26.1961 47.4538 -35.1199 172 255 36
-32.3631 -75.4524 28.2835 174 4 33
-25.6961 47.4428 -35.5008 172 255 36
-32.8556 -74.3482 30.6289 174 4 33
-25.1961 47.4288 -36.0087 172 255 36
-31.993 -77.6531 31.0806 174 4 33
-24.6961 47.4108 -36.6435 172 255 36
-32.0488 -74.8296 32.2356 174 4 33
-24.1961 47.4008 -37.0243 172 255 36
-33.8895 -76.2116 31.6529 174 4 33
-23.6961 47.3898 -37.4052 172 255 36
-33.6359 -73.1936 32.966 174 4 33
-23.1961 47.3788 -37.7861 172 255 36
-32.2554 -74.5824 31.8317 174 4 33
-22.6961 47.3678 -38.1669 172 255 36
-33.8033 -76.3251 34.1507 174 4 33
-22.1961 47.3608 -38.4209 172 255 36
-33.9607 -74.8228 35.0828 174 4 33
-21.6961 47.3538 -38.6748 172 255 36
-34.927 -75.0549 35.7574 174 4 33
-21.1961 47.3428 -39.0556 172 255 36
-32.2169 -75.6212 35.0978 174 4 33
-20.6961 47.3328 -39.4365 172 255 36
-34.4375 -75.6672 35.7953 174 4 33
-20.1961 47.3288 -39.5635 172 255 36
-34.8771 -77.3592 35.4094 174 4 33
-19.6961 47.3148 -40.0713 172 255 36
-33.8453 -75.8362 38.3422 174 4 33
-19.1961 47.3078 -40.3253 172 255 36
-35.0676 -77.1833 38.1709 174 4 33
-18.6961 47.3008 -40.5792 172 255 36
-33.5781 -76.9387 38.8278 174 4 33
-18.1961 47.2968 -40.7061 172 255 36
-33.8539 -76.0383 38.3785 174 4 33
-17.6961 47.2928 -40.8331 172 255 36
-33.0516 -76.8423 39.2316 174 4 33
-17.1961 47.2898 -40.96 172 255 36
-32.5995 -76.7609 40.1173 174 4 33
-16.6961 47.2828 -41.214 172 255 36
-34.5174 -76.6602 40.8265 174 4 33
-16.1961 47.2788 -41.3409 172 255 36
-33.899 -75.7485 40.8593 174 4 33
-15.6961 47.2758 -41.4679 172 255 36
-33.5893 -76.6724 40.1926 174 4 33
-15.1961 47.2688 -41.7218 172 255 36
-35.1339 -76.4291 42.8888 174 4 33
-14.6961 47.2608 -41.9757 172 255 36
-32.3671 -78.1107 43.7636 174 4 33
-14.1961 47.2538 -42.2296 172 255 36
-31.8957 -75.0577 42.6364 174 4 33
-13.6961 47.2508 -42.3566 172 255 36
-33.1605 -75.8853 43.9356 174 4 33
-13.1961 47.2398 -42.7375 172 255 36
-32.0951 -78.1584 43.5551 174 4 33
-12.6961 47.2328 -42.9914 172 255 36
-33.2134 -78.5857 45.4054 174 4 33
-12.1961 47.2188 -43.4992 172 255 36
-33.0538 -76.0622 47.3931 174 4 33
-11.6961 47.2008 -44.134 172 255 36
-32.1739 -78.1848 47.8008 174 4 33
-11.1961 47.1858 -44.6418 172 255 36
-51.3193 -63.3661 -3.3609 174 4 33
-63.9461 48.1358 -36.6445 172 255 36
-50.946 -63.0856 -0.716606 174 4 33
-63.4461 48.1248 -37.0254 172 255 36
-48.1812 -63.7424 -1.49966 174 4 33
-62.4461 48.2688 -31.8201 172 255 36
-47.0911 -65.0036 -3.22248 174 4 33
-61.9461 48.2928 -30.9315 172 255 36
-45.677 -64.3596 -2.01587 174 4 33
-61.4461 48.3108 -30.2967 172 255 36
-46.4697 -65.282 -3.35914 174 4 33
-60.9461 48.3388 -29.281 172 255 36
-43.621 -68.513 -3.11661 174 4 33
-60.4461 48.3628 -28.3923 172 255 36
-41.848 -66.6539 -2.7731 174 4 33
-59.9461 48.3738 -28.0114 172 255 36
-42.1355 -65.2457 -2.17971 174 4 33
-59.4461 48.3808 -27.7575 172 255 36
-41.7752 -66.0813 -2.90659 174 4 33
-58.9461 48.3908 -27.3767 172 255 36
-42.4554 -65.4626 -3.02324 174 4 33
-58.4461 48.4048 -26.8688 172 255 36
-39.9077 -66.6602 -3.10234 174 4 33
-57.9461 48.4158 -26.488 172 255 36
-40.306 -67.4126 -2.86434 174 4 33
-57.4461 48.4228 -26.234 172 255 36
-41.4466 -64.4086 -2.70158 174 4 33
-56.9461 48.4298 -25.9801 172 255 36
-40.4353 -68.7196 -1.39454 174 4 33
-56.4461 48.4368 -25.7262 172 255 36
-38.3502 -67.5198 -0.642794 174 4 33
-55.9461 48.4398 -25.5993 172 255 36
-39.1832 -65.909 1.58503 174 4 33
-55.4461 48.4468 -25.3454 172 255 36
-37.4906 -68.1245 -0.0161369 174 4 33
-54.9461 48.4508 -25.2184 172 255 36
-36.9939 -68.4181 -1.54336 174 4 33
-54.4461 48.4578 -24.9645 172 255 36
-38.4823 -67.3479 -0.0149493 174 4 33
-53.9461 48.4608 -24.8375 172 255 36
