ply
format ascii 1.0
element vertex 1400
property float x
property float y
property float z
property uchar red
property uchar green
property uchar blue
end_header
-57.9461 -7.7502 -31.4543 172 255 36
-38.7293 -5.4528 9.5132 174 4 33
-57.4461 -7.7034 -30.818 172 255 36
-38.2293 -5.44341 9.6405 174 4 33
-56.9461 -7.5347 -28.5274 172 255 36
-37.7293 -5.44341 9.6405 174 4 33
-56.4461 -7.4597 -27.5093 172 255 36
-37.2293 -5.4339 9.7677 174 4 33
-55.9461 -7.4128 -26.873 172 255 36
-36.7293 -5.4339 9.7677 174 4 33
-55.4461 -7.3847 -26.4913 172 255 36
-36.2293 -5.44341 9.6405 174 4 33
-54.9461 -7.35659 -26.1095 172 255 36
-35.7293 -5.44341 9.6405 174 4 33
-54.4461 -7.33789 -25.855 172 255 36
-35.2293 -5.4339 9.7677 174 4 33
-53.9461 -7.27231 -24.9642 172 255 36
-34.7293 -5.4339 9.7677 174 4 33
-53.4461 -7.1973 -23.9461 172 255 36
-34.2293 -5.4339 9.7677 174 4 33
-52.9461 -7.0848 -22.4191 172 255 36
-33.7293 -5.4339 9.7677 174 4 33
-52.4461 -7.03801 -21.7828 172 255 36
-33.2293 -5.4245 9.895 174 4 33
-51.9461 -7.0005 -21.2738 172 255 36
-32.7293 -5.4339 9.7677 174 4 33
-51.4461 -6.9442 -20.5102 172 255 36
-32.2293 -5.4339 9.7677 174 4 33
-50.9461 -6.8786 -19.6194 172 255 36
-31.7293 -5.44341 9.6405 174 4 33
-50.4461 -6.8505 -19.2377 172 255 36
-31.2293 -5.44341 9.6405 174 4 33
-49.9461 -6.813 -18.7286 172 255 36
-30.7293 -5.4623 9.3859 174 4 33
-49.4461 -6.77549 -18.2196 172 255 36
-30.2293 -5.4717 9.2587 174 4 33
-48.9461 -6.7474 -17.8378 172 255 36
-29.7293 -5.4812 9.1314 174 4 33
-48.4461 -6.7193 -17.4561 172 255 36
-29.2293 -5.4907 9.0042 174 4 33
-47.9461 -6.6818 -16.947 172 255 36
-28.7293 -5.5001 8.8769 174 4 33
-47.4461 -6.6631 -16.6925 172 255 36
-28.2293 -5.5096 8.7496 174 4 33
-46.9461 -6.6349 -16.3108 172 255 36
-27.7293 -5.519 8.6224 174 4 33
-46.4461 -6.6068 -15.929 172 255 36
-27.2293 -5.5096 8.7496 174 4 33
-45.9461 -6.5881 -15.6745 172 255 36
-26.7293 -5.519 8.6224 174 4 33
-45.4461 -6.55999 -15.2927 172 255 36
-26.2293 -5.519 8.6224 174 4 33
-44.9461 -6.54119 -15.0382 172 255 36
-25.7293 -5.519 8.6224 174 4 33
-44.4461 -6.5318 -14.9109 172 255 36
-25.2293 -5.519 8.6224 174 4 33
-43.9461 -6.52249 -14.7837 172 255 36
-24.7293 -5.5285 8.4951 174 4 33
-43.4461 -6.5131 -14.6564 172 255 36
-24.2293 -5.5379 8.3679 174 4 33
-42.9461 -6.5037 -14.5292 172 255 36
-23.7293 -5.5474 8.2406 174 4 33
-42.4461 -6.4944 -14.4019 172 255 36
-23.2293 -5.5568 8.1133 174 4 33
-41.9461 -6.485 -14.2746 172 255 36
-22.7293 -5.58521 7.7315 174 4 33
-41.4461 -6.47561 -14.1474 172 255 36
-22.2293 -5.5946 7.6043 174 4 33
-40.9461 -6.4475 -13.7656 172 255 36
-21.7293 -5.6041 7.477 174 4 33
-40.4461 -6.4288 -13.5111 172 255 36
-21.2293 -5.6135 7.3498 174 4 33
-39.9461 -6.3819 -12.8748 172 255 36
-20.7293 -5.623 7.2225 174 4 33
-39.4461 -6.36319 -12.6203 172 255 36
-20.2293 -5.623 7.2225 174 4 33
-38.9461 -6.3444 -12.3658 172 255 36
-19.7293 -5.623 7.2225 174 4 33
-38.4461 -6.3226 -12.0065 172 255 36
-19.2293 -5.6324 7.0952 174 4 33
-37.9461 -6.3153 -11.8867 172 255 36
-18.7293 -5.6324 7.0952 174 4 33
-37.4461 -6.3008 -11.6472 172 255 36
-18.2293 -5.6419 6.968 174 4 33
-36.9461 -6.2935 -11.5274 172 255 36
-17.7293 -5.6513 6.8407 174 4 33
-36.4461 -6.2862 -11.4076 172 255 36
-17.2293 -5.6513 6.8407 174 4 33
-35.9461 -6.2717 -11.1681 172 255 36
-16.7293 -5.6419 6.968 174 4 33
-35.4461 -6.2572 -10.9285 172 255 36
-16.2293 -5.6324 7.0952 174 4 33
-34.9461 -6.2426 -10.6889 172 255 36
-15.7293 -5.6135 7.3498 174 4 33
-34.4461 -6.2281 -10.4494 172 255 36
-15.2293 -5.5946 7.6043 174 4 33
-33.9461 -6.2208 -10.3296 172 255 36
-14.7293 -5.58521 7.7315 174 4 33
-33.4461 -6.2063 -10.0901 172 255 36
-14.2293 -5.5757 7.8588 174 4 33
-32.9461 -6.1917 -9.8505 172 255 36
-13.7293 -5.5568 8.1133 174 4 33
-32.4461 -6.1844 -9.7308 172 255 36
-13.2293 -5.5568 8.1133 174 4 33
-31.9461 -6.1772 -9.611 172 255 36
-12.7293 -5.5474 8.2406 174 4 33
-31.4461 -6.1554 -9.2517 172 255 36
-12.2293 -5.5379 8.3679 174 4 33
-30.9461 -6.1335 -8.8923 172 255 36
-11.7293 -5.5285 8.4951 174 4 33
-30.4461 -6.119 -8.6528 172 255 36
-11.2293 -5.5096 8.7496 174 4 33
-29.9461 -6.0536 -7.5748 172 255 36
-10.7293 -5.5001 8.8769 174 4 33
-29.4461 -6.0027 -6.7364 172 255 36
-10.2293 -5.5001 8.8769 174 4 33
-28.9461 -5.9518 -5.898 172 255 36
-9.7293 -5.4907 9.0042 174 4 33
-28.4461 -5.9227 -5.4189 172 255 36
-9.2293 -5.5001 8.8769 174 4 33
-27.9461 -5.8791 -4.7002 172 255 36
-8.7293 -5.5001 8.8769 174 4 33
-27.4461 -5.85 -4.2211 172 255 36
-8.2293 -5.5096 8.7496 174 4 33
-26.9461 -5.8282 -3.8618 172 255 36
-7.7293 -5.519 8.6224 174 4 33
-26.4461 -5.7991 -3.3827 172 255 36
-7.2293 -5.5285 8.4951 174 4 33
-25.9461 -5.7918 -3.2629 172 255 36
-6.7293 -5.5285 8.4951 174 4 33
-25.4461 -5.7918 -3.2629 172 255 36
-6.2293 -5.5379 8.3679 174 4 33
-24.9461 -5.7627 -2.7838 172 255 36
-5.7293 -5.5379 8.3679 174 4 33
-24.4461 -5.7336 -2.3047 172 255 36
-5.2293 -5.5285 8.4951 174 4 33
-23.9461 -5.7191 -2.0652 172 255 36
-4.7293 -5.5096 8.7496 174 4 33
-23.4461 -5.7046 -1.8256 172 255 36
-4.2293 -5.4907 9.0042 174 4 33
-22.9461 -5.6973 -1.7058 172 255 36
-3.7293 -5.4528 9.5132 174 4 33
-22.4461 -5.6755 -1.3465 172 255 36
-3.2293 -5.3961 10.2768 174 4 33
-21.9461 -5.6464 -0.8674 172 255 36
-2.7293 -5.3394 11.0404 174 4 33
-21.4461 -5.6173 -0.388297 172 255 36
-2.2293 -5.2827 11.8039 174 4 33
-20.9461 -5.5664 0.450101 172 255 36
-1.7293 -5.22601 12.5675 174 4 33
-20.4461 -5.5664 0.450101 172 255 36
-1.2293 -5.1893 13.1664 174 4 33
-19.9461 -5.0647 8.7146 172 255 36
-0.7293 -5.1452 13.885 174 4 33
-19.4461 -5.0283 9.3134 172 255 36
-0.2293 -5.1231 14.2444 174 4 33
-18.9461 -4.9411 10.7507 172 255 36
0.2707 -5.0643 15.2026 174 4 33
-18.4461 -4.8538 12.188 172 255 36
0.7707 -5.0276 15.8015 174 4 33
-17.9461 -4.8247 12.6671 172 255 36
1.2707 -4.9908 16.4004 174 4 33
-17.4461 -4.80291 13.0264 172 255 36
1.7707 -4.9688 16.7597 174 4 33
-16.9461 -4.723 14.344 172 255 36
2.2707 -4.9541 16.9992 174 4 33
-16.4461 -4.6721 15.1824 172 255 36
2.7707 -4.932 17.3586 174 4 33
-15.9461 -4.6575 15.4219 172 255 36
3.2707 -4.9026 17.8377 174 4 33
-15.4461 -4.6502 15.5417 172 255 36
3.7707 -4.8806 18.197 174 4 33
-14.9461 -4.6502 15.5417 172 255 36
4.2707 -4.8732 18.3168 174 4 33
-14.4461 -4.6066 16.2604 172 255 36
4.7707 -4.85851 18.5564 174 4 33
-13.9461 -4.5266 17.5779 172 255 36
5.2707 -4.8438 18.7959 174 4 33
-13.4461 -4.49749 18.057 172 255 36
5.7707 -4.8218 19.1552 174 4 33
-12.9461 -4.4757 18.4163 172 255 36
6.2707 -4.8071 19.3948 174 4 33
-12.4461 -4.45391 18.7756 172 255 36
6.7707 -4.79241 19.6344 174 4 33
-11.9461 -4.4394 19.0152 172 255 36
7.2707 -4.7777 19.8739 174 4 33
-11.4461 -4.4248 19.2547 172 255 36
7.7707 -4.7703 19.9937 174 4 33
-10.9461 -4.39579 19.7338 172 255 36
8.2707 -4.7556 20.2332 174 4 33
-10.4461 -4.3739 20.0931 172 255 36
8.7707 -4.7556 20.2332 174 4 33
-9.9461 -4.3449 20.5722 172 255 36
9.2707 -4.7483 20.353 174 4 33
-9.4461 -4.32299 20.9316 172 255 36
9.7707 -4.74091 20.4728 174 4 33
-8.9461 -4.3012 21.2909 172 255 36
10.2707 -4.74091 20.4728 174 4 33
-8.4461 -4.2867 21.5304 172 255 36
10.7707 -4.7262 20.7123 174 4 33
-7.9461 -4.2649 21.8898 172 255 36
11.2707 -4.7262 20.7123 174 4 33
-7.4461 -4.2503 22.1293 172 255 36
11.7707 -4.7189 20.8321 174 4 33
-6.9461 -4.23581 22.3689 172 255 36
12.2707 -4.7262 20.7123 174 4 33
-6.4461 -4.214 22.7282 172 255 36
12.7707 -4.7262 20.7123 174 4 33
-5.9461 -4.1994 22.9678 172 255 36
13.2707 -4.7262 20.7123 174 4 33
-5.4461 -4.1776 23.3271 172 255 36
13.7707 -4.7262 20.7123 174 4 33
-4.9461 -4.1631 23.5666 172 255 36
14.2707 -4.7262 20.7123 174 4 33
-4.4461 -4.1485 23.8062 172 255 36
14.7707 -4.7189 20.8321 174 4 33
-3.9461 -4.134 24.0457 172 255 36
15.2707 -4.7189 20.8321 174 4 33
-3.4461 -4.11949 24.2853 172 255 36
15.7707 -4.7189 20.8321 174 4 33
-2.9461 -4.1049 24.5248 172 255 36
16.2707 -4.7189 20.8321 174 4 33
-2.4461 -4.0904 24.7644 172 255 36
16.7707 -4.7189 20.8321 174 4 33
-1.9461 -4.0758 25.0039 172 255 36
17.2707 -4.7115 20.9519 174 4 33
-1.4461 -4.06131 25.2435 172 255 36
17.7707 -4.7115 20.9519 174 4 33
-0.9461 -4.05401 25.3632 172 255 36
18.2707 -4.7189 20.8321 174 4 33
-0.4461 -4.0467 25.483 172 255 36
18.7707 -4.7189 20.8321 174 4 33
0.0539 -4.0467 25.483 172 255 36
19.2707 -4.7189 20.8321 174 4 33
0.5539 -4.0395 25.6028 172 255 36
19.7707 -4.7262 20.7123 174 4 33
1.0539 -4.0322 25.7226 172 255 36
20.2707 -4.7336 20.5926 174 4 33
1.5539 -4.0322 25.7226 172 255 36
20.7707 -4.74091 20.4728 174 4 33
2.0539 -4.0249 25.8423 172 255 36
21.2707 -4.74091 20.4728 174 4 33
2.5539 -4.0177 25.9621 172 255 36
21.7707 -4.74091 20.4728 174 4 33
3.0539 -4.0104 26.0819 172 255 36
22.2707 -4.7483 20.353 174 4 33
3.5539 -4.0104 26.0819 172 255 36
22.7707 -4.7556 20.2332 174 4 33
4.0539 -4.0031 26.2017 172 255 36
23.2707 -4.7556 20.2332 174 4 33
4.5539 -3.9958 26.3214 172 255 36
23.7707 -4.763 20.1135 174 4 33
5.0539 -3.9886 26.4412 172 255 36
24.2707 -4.763 20.1135 174 4 33
5.5539 -3.9886 26.4412 172 255 36
24.7707 -4.7703 19.9937 174 4 33
6.0539 -3.97399 26.6808 172 255 36
25.2707 -4.7777 19.8739 174 4 33
6.5539 -3.9668 26.8005 172 255 36
25.7707 -4.78501 19.7541 174 4 33
7.0539 -3.9595 26.9203 172 255 36
26.2707 -4.79241 19.6344 174 4 33
7.5539 -3.95221 27.0401 172 255 36
26.7707 -4.79241 19.6344 174 4 33
8.0539 -3.94491 27.1599 172 255 36
27.2707 -4.79971 19.5146 174 4 33
8.5539 -3.9377 27.2796 172 255 36
27.7707 -4.8071 19.3948 174 4 33
9.0539 -3.9243 27.5124 172 255 36
28.2707 -4.8144 19.275 174 4 33
9.5539 -3.9121 27.7385 172 255 36
28.7707 -4.8218 19.1552 174 4 33
10.0539 -3.906 27.8515 172 255 36
29.2707 -4.8291 19.0355 174 4 33
10.5539 -3.8999 27.9645 172 255 36
29.7707 -4.8438 18.7959 174 4 33
11.0539 -3.8999 27.9645 172 255 36
30.2707 -4.8512 18.6761 174 4 33
11.5539 -3.8999 27.9645 172 255 36
30.7707 -4.8659 18.4366 174 4 33
12.0539 -3.906 27.8515 172 255 36
31.2707 -4.8732 18.3168 174 4 33
12.5539 -3.906 27.8515 172 255 36
31.7707 -4.8806 18.197 174 4 33
13.0539 -3.8999 27.9645 172 255 36
32.2707 -4.8879 18.0773 174 4 33
13.5539 -3.8938 28.0775 172 255 36
32.7707 -4.8953 17.9575 174 4 33
14.0539 -3.8938 28.0775 172 255 36
33.2707 -4.9026 17.8377 174 4 33
14.5539 -3.8816 28.3035 172 255 36
33.7707 -4.9026 17.8377 174 4 33
15.0539 -3.8754 28.4166 172 255 36
34.2707 -4.9026 17.8377 174 4 33
15.5539 -3.8632 28.6426 172 255 36
34.7707 -4.91001 17.7179 174 4 33
16.0539 -3.851 28.8686 172 255 36
35.2707 -4.91731 17.5981 174 4 33
16.5539 -3.8327 29.2077 172 255 36
35.7707 -4.9247 17.4784 174 4 33
17.0539 -3.8144 29.5467 172 255 36
36.2707 -4.932 17.3586 174 4 33
17.5539 -3.8022 29.7728 172 255 36
36.7707 -4.9541 16.9992 174 4 33
18.0539 -3.79 29.9988 172 255 36
37.2707 -4.97611 16.6399 174 4 33
18.5539 -3.7778 30.2249 172 255 36
37.7707 -4.9908 16.4004 174 4 33
19.0539 -3.7716 30.3379 172 255 36
38.2707 -4.9982 16.2806 174 4 33
19.5539 -3.7655 30.4509 172 255 36
38.7707 -5.0055 16.1608 174 4 33
20.0539 -3.7594 30.5639 172 255 36
39.2707 -5.0276 15.8015 174 4 33
20.5539 -3.7594 30.5639 172 255 36
39.7707 -5.0423 15.5619 174 4 33
21.0539 -3.7533 30.6769 172 255 36
40.2707 -5.0717 15.0828 174 4 33
21.5539 -3.7533 30.6769 172 255 36
40.7707 -5.1084 14.4839 174 4 33
22.0539 -3.7533 30.6769 172 255 36
41.2707 -5.1599 13.6455 174 4 33
22.5539 -3.7533 30.6769 172 255 36
41.7707 -5.21131 12.8071 174 4 33
23.0539 -3.7533 30.6769 172 255 36
42.2707 -5.23551 12.4402 174 4 33
23.5539 -3.7594 30.5639 172 255 36
42.7707 -5.2449 12.313 174 4 33
24.0539 -3.7594 30.5639 172 255 36
43.2707 -5.2449 12.313 174 4 33
24.5539 -3.7594 30.5639 172 255 36
43.7707 -5.23551 12.4402 174 4 33
25.0539 -3.7655 30.4509 172 255 36
44.2707 -5.23551 12.4402 174 4 33
25.5539 -3.7655 30.4509 172 255 36
44.7707 -5.22601 12.5675 174 4 33
26.0539 -3.7594 30.5639 172 255 36
45.2707 -5.22601 12.5675 174 4 33
26.5539 -3.7594 30.5639 172 255 36
45.7707 -5.22601 12.5675 174 4 33
27.0539 -3.7533 30.6769 172 255 36
46.2707 -5.23551 12.4402 174 4 33
27.5539 -3.7533 30.6769 172 255 36
46.7707 -5.23551 12.4402 174 4 33
28.0539 -3.7533 30.6769 172 255 36
47.2707 -5.2544 12.1857 174 4 33
28.5539 -3.7594 30.5639 172 255 36
47.7707 -5.2638 12.0585 174 4 33
29.0539 -3.7594 30.5639 172 255 36
48.2707 -5.2827 11.8039 174 4 33
29.5539 -3.7655 30.4509 172 255 36
48.7707 -5.3016 11.5494 174 4 33
30.0539 -3.7594 30.5639 172 255 36
49.2707 -5.3394 11.0404 174 4 33
30.5539 -3.7655 30.4509 172 255 36
49.7707 -5.3583 10.7858 174 4 33
31.0539 -3.7655 30.4509 172 255 36
50.2707 -5.3867 10.404 174 4 33
31.5539 -3.7716 30.3379 172 255 36
50.7707 -5.415 10.0223 174 4 33
32.0539 -3.7716 30.3379 172 255 36
51.2707 -5.4528 9.5132 174 4 33
32.5539 -3.7778 30.2249 172 255 36
51.7707 -5.4812 9.1314 174 4 33
33.0539 -3.7839 30.1118 172 255 36
52.2707 -5.519 8.6224 174 4 33
33.5539 -3.7839 30.1118 172 255 36
52.7707 -5.5379 8.3679 174 4 33
34.0539 -3.79 29.9988 172 255 36
53.2707 -5.5568 8.1133 174 4 33
34.5539 -3.7961 29.8858 172 255 36
53.7707 -5.5757 7.8588 174 4 33
35.0539 -3.8083 29.6598 172 255 36
54.2707 -5.5946 7.6043 174 4 33
35.5539 -3.8144 29.5467 172 255 36
54.7707 -5.6041 7.477 174 4 33
36.0539 -3.8266 29.3207 172 255 36
55.2707 -5.623 7.2225 174 4 33
36.5539 -3.8327 29.2077 172 255 36
55.7707 -5.6419 6.968 174 4 33
37.0539 -3.8449 28.9817 172 255 36
56.2707 -5.6608 6.7135 174 4 33
37.5539 -3.8571 28.7556 172 255 36
56.7707 -5.6986 6.2044 174 4 33
38.0539 -3.8693 28.5296 172 255 36
57.2707 -5.72701 5.8226 174 4 33
38.5539 -3.8754 28.4166 172 255 36
57.7707 -5.7553 5.4408 174 4 33
39.0539 -3.8877 28.1905 172 255 36
58.2707 -5.80261 4.8045 174 4 33
39.5539 -3.8938 28.0775 172 255 36
58.7707 -5.8404 4.2955 174 4 33
40.0539 -3.906 27.8515 172 255 36
59.2707 -5.8782 3.7864 174 4 33
40.5539 -3.9121 27.7385 172 255 36
59.7707 -5.92539 3.1501 174 4 33
41.0539 -3.9243 27.5124 172 255 36
60.2707 -5.9821 2.3866 174 4 33
41.5539 -3.9377 27.2796 172 255 36
60.7707 -6.0294 1.7502 174 4 33
42.0539 -3.95221 27.0401 172 255 36
61.2707 -6.0767 1.1139 174 4 33
42.5539 -3.97399 26.6808 172 255 36
61.7707 -6.1523 0.095799 174 4 33
43.0539 -3.9886 26.4412 172 255 36
62.2707 -6.1901 -0.4132 174 4 33
43.5539 -4.0104 26.0819 172 255 36
62.7707 -6.2468 -1.1768 174 4 33
44.0539 -4.0249 25.8423 172 255 36
63.2707 -6.3224 -2.1949 174 4 33
44.5539 -4.0395 25.6028 172 255 36
63.7707 -6.398 -3.213 174 4 33
45.0539 -4.05401 25.3632 172 255 36
64.2707 -6.502 -4.6129 174 4 33
45.5539 -4.0758 25.0039 172 255 36
64.7707 -6.5587 -5.3765 174 4 33
46.0539 -4.0904 24.7644 172 255 36
65.2707 -6.6249 -6.2673 174 4 33
46.5539 -4.1049 24.5248 172 255 36
65.7707 -6.691 -7.1581 174 4 33
47.0539 -4.11949 24.2853 172 255 36
66.2707 -6.7572 -8.049 174 4 33
47.5539 -4.134 24.0457 172 255 36
66.7707 -6.8517 -9.3216 174 4 33
48.0539 -4.1558 23.6864 172 255 36
67.2707 -6.9179 -10.2124 174 4 33
48.5539 -4.1776 23.3271 172 255 36
67.7707 -7.0218 -11.6123 174 4 33
49.0539 -4.1994 22.9678 172 255 36
68.2707 -7.088 -12.5031 174 4 33
49.5539 -4.2212 22.6084 172 255 36
68.7707 -7.2203 -14.2848 174 4 33
50.0539 -4.2503 22.1293 172 255 36
-65.4793 -6.6591 -16.4466 174 4 33
50.5539 -4.2794 21.6502 172 255 36
-64.9793 -6.556 -15.0468 174 4 33
51.0539 -4.3158 21.0513 172 255 36
-64.4793 -6.4342 -13.3924 174 4 33
51.5539 -4.3521 20.4525 172 255 36
-63.9793 -6.3404 -12.1199 174 4 33
52.0539 -4.3739 20.0931 172 255 36
-63.4793 -6.2748 -11.2291 174 4 33
52.5539 -4.4176 19.3745 172 255 36
-62.9793 -6.2092 -10.3383 174 4 33
53.0539 -4.45391 18.7756 172 255 36
-62.4793 -6.15299 -9.5747 174 4 33
53.5539 -4.483 18.2965 172 255 36
-61.9793 -6.078 -8.5567 174 4 33
54.0539 -4.5266 17.5779 172 255 36
-61.4793 -6.0405 -8.0477 174 4 33
54.5539 -4.5557 17.0988 172 255 36
-60.9793 -5.9843 -7.2841 174 4 33
55.0539 -4.5921 16.4999 172 255 36
-60.4793 -5.9374 -6.6479 174 4 33
55.5539 -4.6357 15.7812 172 255 36
-59.9793 -5.8906 -6.0116 174 4 33
56.0539 -4.6648 15.3022 172 255 36
-59.4793 -5.85311 -5.5025 174 4 33
56.5539 -4.7084 14.5835 172 255 36
-58.9793 -5.8062 -4.8663 174 4 33
57.0539 -4.74479 13.9846 172 255 36
-58.4793 -5.7687 -4.3572 174 4 33
57.5539 -4.7811 13.3858 172 255 36
-57.9793 -5.7125 -3.5937 174 4 33
58.0539 -4.8247 12.6671 172 255 36
-57.4793 -5.66561 -2.9574 174 4 33
58.5539 -4.8684 11.9485 172 255 36
-56.9793 -5.6094 -2.1939 174 4 33
59.0539 -4.8975 11.4694 172 255 36
-56.4793 -5.57189 -1.6848 174 4 33
59.5539 -4.9411 10.7507 172 255 36
-55.9793 -5.525 -1.0486 174 4 33
60.0539 -4.9847 10.0321 172 255 36
-55.4793 -5.4969 -0.666801 174 4 33
60.5539 -5.0211 9.4332 172 255 36
-54.9793 -5.4407 0.096802 174 4 33
61.0539 -5.08651 8.3552 172 255 36
-54.4793 -5.41261 0.478501 174 4 33
61.5539 -5.1665 7.0377 172 255 36
-53.9793 -5.3563 1.2421 174 4 33
62.0539 -5.2392 5.84 172 255 36
-53.4793 -5.31889 1.7511 174 4 33
62.5539 -5.2756 5.2411 172 255 36
-52.9793 -5.2814 2.2601 174 4 33
63.0539 -5.4064 3.0851 172 255 36
-52.4793 -5.2439 2.7692 174 4 33
63.5539 -5.4428 2.4863 172 255 36
-51.9793 -5.2064 3.2782 174 4 33
64.0539 -5.6973 -1.7058 172 255 36
-51.4793 -5.1783 3.6599 174 4 33
64.5539 -5.72641 -2.1849 172 255 36
-50.9793 -5.1595 3.9145 174 4 33
65.0539 -5.7918 -3.2629 172 255 36
-50.4793 -5.1314 4.2962 174 4 33
-59.1961 -7.5642 -38.7064 172 255 36
-49.9793 -5.0939 4.8052 174 4 33
-58.6961 -7.6664 -40.1062 172 255 36
-49.4793 -5.0752 5.0598 174 4 33
-58.1961 -7.081 -32.0893 172 255 36
-48.9793 -5.0471 5.4415 174 4 33
-57.6961 -7.0252 -31.3258 172 255 36
-48.4793 -5.0283 5.696 174 4 33
-57.1961 -6.8858 -29.417 172 255 36
-47.9793 -5.0096 5.9506 174 4 33
-56.6961 -6.7929 -28.1445 172 255 36
-47.4793 -5.0002 6.0778 174 4 33
-56.1961 -6.71859 -27.1265 172 255 36
-46.9793 -4.9908 6.2051 174 4 33
-55.6961 -6.6907 -26.7448 172 255 36
-46.4793 -4.9908 6.2051 174 4 33
-55.1961 -6.6535 -26.2358 172 255 36
-45.9793 -4.9814 6.3323 174 4 33
-54.6961 -6.6256 -25.854 172 255 36
-45.4793 -4.9721 6.4596 174 4 33
-54.1961 -6.5978 -25.4723 172 255 36
-44.9793 -4.9627 6.5868 174 4 33
-53.6961 -6.5513 -24.836 172 255 36
-44.4793 -4.95329 6.7141 174 4 33
-53.1961 -6.47699 -23.818 172 255 36
-43.9793 -4.9252 7.0959 174 4 33
-52.6961 -6.3747 -22.4182 172 255 36
-43.4793 -4.9065 7.3504 174 4 33
-52.1961 -6.3283 -21.782 172 255 36
-42.9793 -4.8784 7.7322 174 4 33
-51.6961 -6.3004 -21.4002 172 255 36
-42.4793 -4.8596 7.9867 174 4 33
-51.1961 -6.2353 -20.5095 172 255 36
-41.9793 -4.8409 8.2412 174 4 33
-50.6961 -6.1703 -19.6187 172 255 36
-41.4793 -4.83151 8.3684 174 4 33
-50.1961 -6.1331 -19.1097 172 255 36
-40.9793 -4.8127 8.6229 174 4 33
-49.6961 -6.096 -18.6007 172 255 36
-40.4793 -4.8034 8.7502 174 4 33
-49.1961 -6.0681 -18.219 172 255 36
-39.9793 -4.7846 9.0047 174 4 33
-48.6961 -6.04019 -17.8372 172 255 36
-39.4793 -4.7753 9.132 174 4 33
-48.1961 -6.003 -17.3282 172 255 36
-38.9793 -4.75649 9.3865 174 4 33
-47.6961 -5.9659 -16.8192 172 255 36
-38.4793 -4.75649 9.3865 174 4 33
-47.1961 -5.9473 -16.5647 172 255 36
-37.9793 -4.7471 9.5138 174 4 33
-46.6961 -5.9194 -16.1829 172 255 36
-37.4793 -4.73779 9.641 174 4 33
-46.1961 -5.9008 -15.9284 172 255 36
-36.9793 -4.73779 9.641 174 4 33
-45.6961 -5.8729 -15.5467 172 255 36
-36.4793 -4.73779 9.641 174 4 33
-45.1961 -5.8543 -15.2922 172 255 36
-35.9793 -4.73779 9.641 174 4 33
-44.6961 -5.8358 -15.0377 172 255 36
-35.4793 -4.7284 9.7682 174 4 33
-44.1961 -5.8265 -14.9104 172 255 36
-34.9793 -4.7284 9.7682 174 4 33
-43.6961 -5.8172 -14.7832 172 255 36
-34.4793 -4.7284 9.7682 174 4 33
-43.1961 -5.8172 -14.7832 172 255 36
-33.9793 -4.7284 9.7682 174 4 33
-42.6961 -5.8079 -14.6559 172 255 36
-33.4793 -4.7284 9.7682 174 4 33
-42.1961 -5.79859 -14.5287 172 255 36
-32.9793 -4.719 9.8955 174 4 33
-41.6961 -5.78 -14.2742 172 255 36
-32.4793 -4.7284 9.7682 174 4 33
-41.1961 -5.76139 -14.0197 172 255 36
-31.9793 -4.7284 9.7682 174 4 33
-40.6961 -5.7428 -13.7652 172 255 36
-31.4793 -4.73779 9.641 174 4 33
-40.1961 -5.6964 -13.1289 172 255 36
-30.9793 -4.75649 9.3865 174 4 33
-39.6961 -5.6592 -12.6199 172 255 36
-30.4793 -4.7659 9.2592 174 4 33
-39.1961 -5.6334 -12.2456 172 255 36
-29.9793 -4.7846 9.0047 174 4 33
-38.6961 -5.6118 -11.8863 172 255 36
-29.4793 -4.79401 8.8775 174 4 33
-38.1961 -5.6046 -11.7665 172 255 36
-28.9793 -4.8127 8.6229 174 4 33
-37.6961 -5.5974 -11.6468 172 255 36
-28.4793 -4.8221 8.4957 174 4 33
-37.1961 -5.5903 -11.527 172 255 36
-27.9793 -4.8221 8.4957 174 4 33
-36.6961 -5.5831 -11.4072 172 255 36
-27.4793 -4.8221 8.4957 174 4 33
-36.1961 -5.5687 -11.1677 172 255 36
-26.9793 -4.8221 8.4957 174 4 33
-35.6961 -5.5543 -10.9281 172 255 36
-26.4793 -4.8221 8.4957 174 4 33
-35.1961 -5.5399 -10.6886 172 255 36
-25.9793 -4.8221 8.4957 174 4 33
-34.6961 -5.5327 -10.5688 172 255 36
-25.4793 -4.8221 8.4957 174 4 33
-34.1961 -5.5255 -10.449 172 255 36
-24.9793 -4.83151 8.3684 174 4 33
-33.6961 -5.5183 -10.3293 172 255 36
-24.4793 -4.8409 8.2412 174 4 33
-33.1961 -5.5039 -10.0897 172 255 36
-23.9793 -4.8502 8.1139 174 4 33
-32.6961 -5.4968 -9.97 172 255 36
-23.4793 -4.8502 8.1139 174 4 33
-32.1961 -5.4896 -9.8502 172 255 36
-22.9793 -4.869 7.8594 174 4 33
-31.6961 -5.4752 -9.6106 172 255 36
-22.4793 -4.8784 7.7322 174 4 33
-31.1961 -5.4536 -9.2513 172 255 36
-21.9793 -4.8877 7.6049 174 4 33
-30.6961 -5.432 -8.892 172 255 36
-21.4793 -4.8971 7.4776 174 4 33
-30.1961 -5.4248 -8.7722 172 255 36
-20.9793 -4.9065 7.3504 174 4 33
-29.6961 -5.3241 -7.0954 172 255 36
-20.4793 -4.9065 7.3504 174 4 33
-29.1961 -5.281 -6.3768 172 255 36
-19.9793 -4.9065 7.3504 174 4 33
-28.6961 -5.245 -5.7779 172 255 36
-19.4793 -4.91579 7.2231 174 4 33
-28.1961 -5.2019 -5.0593 172 255 36
-18.9793 -4.9252 7.0959 174 4 33
-27.6961 -5.1659 -4.4604 172 255 36
-18.4793 -4.9346 6.9686 174 4 33
-27.1961 -5.1443 -4.1011 172 255 36
-17.9793 -4.944 6.8413 174 4 33
-26.6961 -5.1155 -3.622 172 255 36
-17.4793 -4.944 6.8413 174 4 33
-26.1961 -5.1012 -3.3825 172 255 36
-16.9793 -4.944 6.8413 174 4 33
-25.6961 -5.0868 -3.1429 172 255 36
-16.4793 -4.9346 6.9686 174 4 33
-25.1961 -5.05799 -2.6638 172 255 36
-15.9793 -4.91579 7.2231 174 4 33
-24.6961 -5.0436 -2.4243 172 255 36
-15.4793 -4.9065 7.3504 174 4 33
-24.1961 -5.0292 -2.1848 172 255 36
-14.9793 -4.8784 7.7322 174 4 33
-23.6961 -5.022 -2.065 172 255 36
-14.4793 -4.869 7.8594 174 4 33
-23.1961 -5.0076 -1.8254 172 255 36
-13.9793 -4.8596 7.9867 174 4 33
-22.6961 -4.9717 -1.2266 172 255 36
-13.4793 -4.8502 8.1139 174 4 33
-22.1961 -4.9357 -0.6277 172 255 36
-12.9793 -4.83151 8.3684 174 4 33
-21.6961 -4.9069 -0.148597 172 255 36
-12.4793 -4.8221 8.4957 174 4 33
-21.1961 -4.8566 0.689801 172 255 36
-11.9793 -4.8127 8.6229 174 4 33
-20.6961 -4.8494 0.809598 172 255 36
-11.4793 -4.8034 8.7502 174 4 33
-20.1961 -4.8638 0.570001 172 255 36
-10.9793 -4.7846 9.0047 174 4 33
-19.6961 -4.8782 0.330499 172 255 36
-10.4793 -4.7846 9.0047 174 4 33
-19.1961 -4.4034 8.2354 172 255 36
-9.9793 -4.7846 9.0047 174 4 33
-18.6961 -4.3099 9.7925 172 255 36
-9.4793 -4.7846 9.0047 174 4 33
-18.1961 -4.20919 11.4693 172 255 36
-8.9793 -4.79401 8.8775 174 4 33
-17.6961 -4.1517 12.4275 172 255 36
-8.4793 -4.8034 8.7502 174 4 33
-17.1961 -4.1301 12.7868 172 255 36
-7.9793 -4.8127 8.6229 174 4 33
-16.6961 -4.087 13.5054 172 255 36
-7.4793 -4.8127 8.6229 174 4 33
-16.1961 -4.0222 14.5834 172 255 36
-6.9793 -4.8127 8.6229 174 4 33
-15.6961 -4.0007 14.9427 172 255 36
-6.4793 -4.8221 8.4957 174 4 33
-15.1961 -3.9935 15.0625 172 255 36
-5.9793 -4.8221 8.4957 174 4 33
-14.6961 -3.98629 15.1822 172 255 36
-5.4793 -4.8221 8.4957 174 4 33
-14.1961 -3.98629 15.1822 172 255 36
-4.9793 -4.8221 8.4957 174 4 33
-13.6961 -3.96469 15.5415 172 255 36
-4.4793 -4.8034 8.7502 174 4 33
-13.1961 -3.8424 17.5777 172 255 36
-3.9793 -4.79401 8.8775 174 4 33
-12.6961 -3.8208 17.937 172 255 36
-3.4793 -4.7659 9.2592 174 4 33
-12.1961 -3.79209 18.4161 172 255 36
-2.9793 -4.7284 9.7682 174 4 33
-11.6961 -3.77771 18.6556 172 255 36
-2.4793 -4.6628 10.6591 174 4 33
-11.1961 -3.7633 18.8952 172 255 36
-1.9793 -4.5972 11.5499 174 4 33
-10.6961 -3.7417 19.2545 172 255 36
-1.4793 -4.54099 12.3134 174 4 33
-10.1961 -3.7057 19.8533 172 255 36
-0.9793 -4.5004 12.9272 174 4 33
-9.6961 -3.6842 20.2127 172 255 36
-0.4793 -4.4568 13.6459 174 4 33
-9.1961 -3.6626 20.572 172 255 36
0.0207 -4.4422 13.8854 174 4 33
-8.6961 -3.641 20.9313 172 255 36
0.5207 -4.3986 14.6041 174 4 33
-8.1961 -3.6266 21.1709 172 255 36
1.0207 -4.34039 15.5623 174 4 33
-7.6961 -3.60511 21.5302 172 255 36
1.5207 -4.3113 16.0414 174 4 33
-7.1961 -3.5907 21.7697 172 255 36
2.0207 -4.28951 16.4007 174 4 33
-6.6961 -3.5691 22.129 172 255 36
2.5207 -4.2677 16.76 174 4 33
-6.1961 -3.5547 22.3686 172 255 36
3.0207 -4.2459 17.1193 174 4 33
-5.6961 -3.54029 22.6081 172 255 36
3.5207 -4.2168 17.5984 174 4 33
-5.1961 -3.5115 23.0872 172 255 36
4.0207 -4.2023 17.838 174 4 33
-4.6961 -3.5043 23.207 172 255 36
4.5207 -4.1877 18.0776 174 4 33
-4.1961 -3.4828 23.5663 172 255 36
5.0207 -4.1732 18.3171 174 4 33
-3.6961 -3.4684 23.8058 172 255 36
5.5207 -4.16589 18.4369 174 4 33
-3.1961 -3.454 24.0454 172 255 36
6.0207 -4.1368 18.916 174 4 33
-2.6961 -3.43959 24.2849 172 255 36
6.5207 -4.1223 19.1555 174 4 33
-2.1961 -3.4324 24.4047 172 255 36
7.0207 -4.1078 19.3951 174 4 33
-1.6961 -3.418 24.6443 172 255 36
7.5207 -4.0932 19.6346 174 4 33
-1.1961 -3.4108 24.764 172 255 36
8.0207 -4.0859 19.7544 174 4 33
-0.6961 -3.4036 24.8838 172 255 36
8.5207 -4.07871 19.8742 174 4 33
-0.1961 -3.38929 25.1234 172 255 36
9.0207 -4.07871 19.8742 174 4 33
0.3039 -3.38929 25.1234 172 255 36
9.5207 -4.0714 19.9939 174 4 33
0.8039 -3.3821 25.2431 172 255 36
10.0207 -4.0641 20.1137 174 4 33
1.3039 -3.37491 25.3629 172 255 36
10.5207 -4.0569 20.2335 174 4 33
1.8039 -3.3677 25.4827 172 255 36
11.0207 -4.0496 20.3533 174 4 33
2.3039 -3.3605 25.6024 172 255 36
11.5207 -4.0423 20.473 174 4 33
2.8039 -3.3605 25.6024 172 255 36
12.0207 -4.0423 20.473 174 4 33
3.3039 -3.35331 25.7222 172 255 36
12.5207 -4.0423 20.473 174 4 33
3.8039 -3.3461 25.842 172 255 36
13.0207 -4.0423 20.473 174 4 33
4.3039 -3.3461 25.842 172 255 36
13.5207 -4.0423 20.473 174 4 33
4.8039 -3.3389 25.9618 172 255 36
14.0207 -4.0423 20.473 174 4 33
5.3039 -3.3389 25.9618 172 255 36
14.5207 -4.0423 20.473 174 4 33
5.8039 -3.3389 25.9618 172 255 36
15.0207 -4.035 20.5928 174 4 33
6.3039 -3.3317 26.0815 172 255 36
15.5207 -4.035 20.5928 174 4 33
6.8039 -3.3245 26.2013 172 255 36
16.0207 -4.035 20.5928 174 4 33
7.3039 -3.3173 26.321 172 255 36
16.5207 -4.035 20.5928 174 4 33
7.8039 -3.303 26.5606 172 255 36
17.0207 -4.035 20.5928 174 4 33
8.3039 -3.2958 26.6804 172 255 36
17.5207 -4.0278 20.7126 174 4 33
8.8039 -3.2814 26.9199 172 255 36
18.0207 -4.0278 20.7126 174 4 33
9.3039 -3.267 27.1595 172 255 36
18.5207 -4.035 20.5928 174 4 33
9.8039 -3.2598 27.2792 172 255 36
19.0207 -4.035 20.5928 174 4 33
10.3039 -3.2526 27.399 172 255 36
19.5207 -4.0423 20.473 174 4 33
10.8039 -3.24659 27.512 172 255 36
20.0207 -4.0423 20.473 174 4 33
11.3039 -3.24659 27.512 172 255 36
20.5207 -4.0496 20.3533 174 4 33
11.8039 -3.24659 27.512 172 255 36
21.0207 -4.0496 20.3533 174 4 33
12.3039 -3.24659 27.512 172 255 36
21.5207 -4.0569 20.2335 174 4 33
12.8039 -3.2406 27.6251 172 255 36
22.0207 -4.0569 20.2335 174 4 33
13.3039 -3.2285 27.8511 172 255 36
22.5207 -4.0569 20.2335 174 4 33
13.8039 -3.2225 27.9641 172 255 36
23.0207 -4.0641 20.1137 174 4 33
14.3039 -3.2165 28.0772 172 255 36
23.5207 -4.0714 19.9939 174 4 33
14.8039 -3.2044 28.3032 172 255 36
24.0207 -4.0714 19.9939 174 4 33
15.3039 -3.1984 28.4162 172 255 36
24.5207 -4.07871 19.8742 174 4 33
15.8039 -3.1864 28.6423 172 255 36
25.0207 -4.0859 19.7544 174 4 33
16.3039 -3.1683 28.9814 172 255 36
25.5207 -4.0932 19.6346 174 4 33
16.8039 -3.1563 29.2074 172 255 36
26.0207 -4.0932 19.6346 174 4 33
17.3039 -3.1382 29.5465 172 255 36
26.5207 -4.1005 19.5148 174 4 33
17.8039 -3.1262 29.7725 172 255 36
27.0207 -4.1078 19.3951 174 4 33
18.3039 -3.1202 29.8855 172 255 36
27.5207 -4.115 19.2753 174 4 33
18.8039 -3.1081 30.1116 172 255 36
28.0207 -4.1223 19.1555 174 4 33
19.3039 -3.1021 30.2246 172 255 36
28.5207 -4.1296 19.0357 174 4 33
19.8039 -3.0961 30.3376 172 255 36
29.0207 -4.1441 18.7962 174 4 33
20.3039 -3.0961 30.3376 172 255 36
29.5207 -4.1514 18.6764 174 4 33
20.8039 -3.0901 30.4507 172 255 36
30.0207 -4.16589 18.4369 174 4 33
21.3039 -3.0841 30.5637 172 255 36
30.5207 -4.1805 18.1973 174 4 33
21.8039 -3.0901 30.4507 172 255 36
31.0207 -4.195 17.9578 174 4 33
22.3039 -3.0901 30.4507 172 255 36
31.5207 -4.2023 17.838 174 4 33
22.8039 -3.0901 30.4507 172 255 36
32.0207 -4.2096 17.7182 174 4 33
23.3039 -3.0901 30.4507 172 255 36
32.5207 -4.2168 17.5984 174 4 33
23.8039 -3.0961 30.3376 172 255 36
33.0207 -4.2241 17.4787 174 4 33
24.3039 -3.1021 30.2246 172 255 36
33.5207 -4.2241 17.4787 174 4 33
24.8039 -3.1021 30.2246 172 255 36
34.0207 -4.2314 17.3589 174 4 33
25.3039 -3.1081 30.1116 172 255 36
34.5207 -4.2314 17.3589 174 4 33
25.8039 -3.1021 30.2246 172 255 36
35.0207 -4.2386 17.2391 174 4 33
26.3039 -3.0961 30.3376 172 255 36
35.5207 -4.2459 17.1193 174 4 33
26.8039 -3.0961 30.3376 172 255 36
36.0207 -4.2532 16.9996 174 4 33
27.3039 -3.0901 30.4507 172 255 36
36.5207 -4.2677 16.76 174 4 33
27.8039 -3.0901 30.4507 172 255 36
37.0207 -4.28951 16.4007 174 4 33
28.3039 -3.0901 30.4507 172 255 36
37.5207 -4.2968 16.2809 174 4 33
28.8039 -3.0961 30.3376 172 255 36
38.0207 -4.3041 16.1611 174 4 33
29.3039 -3.0961 30.3376 172 255 36
38.5207 -4.3186 15.9216 174 4 33
29.8039 -3.0961 30.3376 172 255 36
39.0207 -4.3332 15.682 174 4 33
30.3039 -3.0961 30.3376 172 255 36
39.5207 -4.355 15.3227 174 4 33
30.8039 -3.1021 30.2246 172 255 36
40.0207 -4.3695 15.0832 174 4 33
31.3039 -3.1081 30.1116 172 255 36
40.5207 -4.4059 14.4843 174 4 33
31.8039 -3.1081 30.1116 172 255 36
41.0207 -4.4568 13.6459 174 4 33
32.3039 -3.1142 29.9986 172 255 36
41.5207 -4.5077 12.8074 174 4 33
32.8039 -3.1142 29.9986 172 255 36
42.0207 -4.5316 12.4407 174 4 33
33.3039 -3.1202 29.8855 172 255 36
42.5207 -4.5503 12.1861 174 4 33
33.8039 -3.1262 29.7725 172 255 36
43.0207 -4.5503 12.1861 174 4 33
34.3039 -3.1262 29.7725 172 255 36
43.5207 -4.5503 12.1861 174 4 33
34.8039 -3.1382 29.5465 172 255 36
44.0207 -4.54099 12.3134 174 4 33
35.3039 -3.1443 29.4334 172 255 36
44.5207 -4.5316 12.4407 174 4 33
35.8039 -3.1563 29.2074 172 255 36
45.0207 -4.5316 12.4407 174 4 33
36.3039 -3.1683 28.9814 172 255 36
45.5207 -4.5316 12.4407 174 4 33
36.8039 -3.1743 28.8683 172 255 36
46.0207 -4.54099 12.3134 174 4 33
37.3039 -3.1924 28.5292 172 255 36
46.5207 -4.54099 12.3134 174 4 33
37.8039 -3.2044 28.3032 172 255 36
47.0207 -4.5503 12.1861 174 4 33
38.3039 -3.2105 28.1902 172 255 36
47.5207 -4.5691 11.9316 174 4 33
38.8039 -3.2225 27.9641 172 255 36
48.0207 -4.5878 11.6771 174 4 33
39.3039 -3.2285 27.8511 172 255 36
48.5207 -4.6066 11.4226 174 4 33
39.8039 -3.23449 27.7381 172 255 36
49.0207 -4.63471 11.0408 174 4 33
40.3039 -3.2406 27.6251 172 255 36
49.5207 -4.65341 10.7863 174 4 33
40.8039 -3.2526 27.399 172 255 36
50.0207 -4.6722 10.5318 174 4 33
41.3039 -3.267 27.1595 172 255 36
50.5207 -4.70029 10.15 174 4 33
41.8039 -3.2814 26.9199 172 255 36
51.0207 -4.719 9.8955 174 4 33
42.3039 -3.2958 26.6804 172 255 36
51.5207 -4.7659 9.2592 174 4 33
42.8039 -3.3101 26.4408 172 255 36
52.0207 -4.79401 8.8775 174 4 33
43.3039 -3.3317 26.0815 172 255 36
52.5207 -4.8127 8.6229 174 4 33
43.8039 -3.3461 25.842 172 255 36
53.0207 -4.8409 8.2412 174 4 33
44.3039 -3.3605 25.6024 172 255 36
53.5207 -4.869 7.8594 174 4 33
44.8039 -3.3821 25.2431 172 255 36
54.0207 -4.8784 7.7322 174 4 33
45.3039 -3.3965 25.0036 172 255 36
54.5207 -4.9065 7.3504 174 4 33
45.8039 -3.418 24.6443 172 255 36
55.0207 -4.9252 7.0959 174 4 33
46.3039 -3.4252 24.5245 172 255 36
55.5207 -4.944 6.8413 174 4 33
46.8039 -3.4468 24.1652 172 255 36
56.0207 -4.9721 6.4596 174 4 33
47.3039 -3.4612 23.9256 172 255 36
56.5207 -4.9908 6.2051 174 4 33
47.8039 -3.4828 23.5663 172 255 36
57.0207 -5.0189 5.8233 174 4 33
48.3039 -3.4972 23.3268 172 255 36
57.5207 -5.0471 5.4415 174 4 33
48.8039 -3.5187 22.9674 172 255 36
58.0207 -5.0939 4.8052 174 4 33
49.3039 -3.5475 22.4884 172 255 36
58.5207 -5.1314 4.2962 174 4 33
49.8039 -3.5763 22.0092 172 255 36
59.0207 -5.1595 3.9145 174 4 33
50.3039 -3.60511 21.5302 172 255 36
59.5207 -5.197 3.4054 174 4 33
50.8039 -3.6266 21.1709 172 255 36
60.0207 -5.2626 2.5146 174 4 33
51.3039 -3.6626 20.572 172 255 36
60.5207 -5.3095 1.8784 174 4 33
51.8039 -3.6986 19.9731 172 255 36
61.0207 -5.3563 1.2421 174 4 33
52.3039 -3.7273 19.494 172 255 36
61.5207 -5.4032 0.605801 174 4 33
52.8039 -3.7633 18.8952 172 255 36
62.0207 -5.4688 -0.285 174 4 33
53.3039 -3.7993 18.2963 172 255 36
62.5207 -5.525 -1.0486 174 4 33
53.8039 -3.8352 17.6975 172 255 36
63.0207 -5.5813 -1.8121 174 4 33
54.3039 -3.87121 17.0986 172 255 36
63.5207 -5.6563 -2.8301 174 4 33
54.8039 -3.9071 16.4997 172 255 36
64.0207 -5.7687 -4.3572 174 4 33
55.3039 -3.9431 15.9009 172 255 36
64.5207 -5.8156 -4.9935 174 4 33
55.8039 -3.9791 15.302 172 255 36
65.0207 -5.8999 -6.1388 174 4 33
56.3039 -4.0222 14.5834 172 255 36
65.5207 -5.9374 -6.6479 174 4 33
56.8039 -4.051 14.1043 172 255 36
66.0207 -6.0124 -7.6659 174 4 33
57.3039 -4.087 13.5054 172 255 36
66.5207 -6.0968 -8.8112 174 4 33
57.8039 -4.13729 12.667 172 255 36
67.0207 -6.1811 -9.9565 174 4 33
58.3039 -4.1733 12.0682 172 255 36
67.5207 -6.24671 -10.8473 174 4 33
58.8039 -4.20211 11.5891 172 255 36
68.0207 -6.3404 -12.1199 174 4 33
59.3039 -4.2452 10.8704 172 255 36
68.5207 -6.481 -14.0287 174 4 33
59.8039 -4.2884 10.1518 172 255 36
-65.7293 -5.9557 -16.6995 174 4 33
60.3039 -4.3387 9.3134 172 255 36
-65.2293 -5.86279 -15.427 174 4 33
60.8039 -4.3747 8.7145 172 255 36
-64.7293 -5.742 -13.7727 174 4 33
61.3039 -4.461 7.2773 172 255 36
-64.2293 -5.6491 -12.5002 174 4 33
61.8039 -4.5185 6.3191 172 255 36
-63.7293 -5.5747 -11.4822 174 4 33
62.3039 -4.5689 5.48071 172 255 36
-63.2293 -5.5097 -10.5914 174 4 33
62.8039 -4.684 3.5643 172 255 36
-62.7293 -5.4353 -9.5734 174 4 33
63.3039 -4.7487 2.4864 172 255 36
-62.2293 -5.3889 -8.9372 174 4 33
63.8039 -4.9501 -0.867301 172 255 36
-61.7293 -5.3331 -8.1736 174 4 33
64.3039 -5.022 -2.065 172 255 36
-61.2293 -5.28671 -7.5374 174 4 33
64.8039 -5.0724 -2.9034 172 255 36
-60.7293 -5.2309 -6.7739 174 4 33
-59.4461 -6.8624 -38.9594 172 255 36
-60.2293 -5.1844 -6.1376 174 4 33
-58.9461 -6.8532 -38.8321 172 255 36
-59.7293 -5.1473 -5.6286 174 4 33
-58.4461 -6.4294 -32.9788 172 255 36
-59.2293 -5.1008 -4.9924 174 4 33
-57.9461 -6.328 -31.5791 172 255 36
-58.7293 -5.0729 -4.6106 174 4 33
-57.4461 -6.2451 -30.4339 172 255 36
-58.2293 -5.00791 -3.7198 174 4 33
-56.9461 -6.1161 -28.6524 172 255 36
-57.7293 -4.98 -3.3381 174 4 33
-56.4461 -6.0608 -27.889 172 255 36
-57.2293 -4.9242 -2.5746 174 4 33
-55.9461 -5.9963 -26.9983 172 255 36
-56.7293 -4.8778 -1.9383 174 4 33
-55.4461 -5.9503 -26.362 172 255 36
-56.2293 -4.8406 -1.4293 174 4 33
-54.9461 -5.9226 -25.9803 172 255 36
-55.7293 -4.8034 -0.920299 174 4 33
-54.4461 -5.895 -25.5986 172 255 36
-55.2293 -4.7663 -0.4113 174 4 33
-53.9461 -5.8489 -24.9623 172 255 36
-54.7293 -4.7291 0.097698 174 4 33
-53.4461 -5.8213 -24.5806 172 255 36
-54.2293 -4.6826 0.733902 174 4 33
-52.9461 -5.7568 -23.6899 172 255 36
-53.7293 -4.6362 1.3702 174 4 33
-52.4461 -5.6739 -22.5446 172 255 36
-53.2293 -4.599 1.8792 174 4 33
-51.9461 -5.6278 -21.9084 172 255 36
-52.7293 -4.5525 2.5155 174 4 33
-51.4461 -5.6002 -21.5267 172 255 36
-52.2293 -4.5247 2.8972 174 4 33
-50.9461 -5.508 -20.2542 172 255 36
-51.7293 -4.4875 3.4062 174 4 33
-50.4461 -5.46199 -19.618 172 255 36
-51.2293 -4.4596 3.788 174 4 33
-49.9461 -5.4159 -18.9818 172 255 36
-50.7293 -4.43169 4.1697 174 4 33
-49.4461 -5.3883 -18.6 172 255 36
-50.2293 -4.4039 4.5515 174 4 33
-48.9461 -5.3514 -18.0911 172 255 36
-49.7293 -4.3853 4.806 174 4 33
-48.4461 -5.3238 -17.7093 172 255 36
-49.2293 -4.3574 5.1877 174 4 33
-47.9461 -5.2869 -17.2003 172 255 36
-48.7293 -4.3295 5.5695 174 4 33
-47.4461 -5.2685 -16.9458 172 255 36
-48.2293 -4.3109 5.824 174 4 33
-46.9461 -5.2316 -16.4369 172 255 36
-47.7293 -4.3016 5.9512 174 4 33
-46.4461 -5.2132 -16.1824 172 255 36
-47.2293 -4.2831 6.2057 174 4 33
-45.9461 -5.1948 -15.9279 172 255 36
-46.7293 -4.2831 6.2057 174 4 33
-45.4461 -5.1671 -15.5461 172 255 36
-46.2293 -4.2738 6.333 174 4 33
-44.9461 -5.1579 -15.4189 172 255 36
-45.7293 -4.2645 6.4602 174 4 33
-44.4461 -5.1395 -15.1644 172 255 36
-45.2293 -4.2645 6.4602 174 4 33
-43.9461 -5.1303 -15.0372 172 255 36
-44.7293 -4.2552 6.5875 174 4 33
-43.4461 -5.12111 -14.9099 172 255 36
-44.2293 -4.2459 6.7147 174 4 33
-42.9461 -5.1119 -14.7827 172 255 36
-43.7293 -4.2273 6.9693 174 4 33
-42.4461 -5.1026 -14.6554 172 255 36
-43.2293 -4.1994 7.351 174 4 33
-41.9461 -5.0934 -14.5282 172 255 36
-42.7293 -4.1808 7.6055 174 4 33
-41.4461 -5.075 -14.2737 172 255 36
-42.2293 -4.1622 7.86 174 4 33
-40.9461 -5.0474 -13.8919 172 255 36
-41.7293 -4.1437 8.1145 174 4 33
-40.4461 -5.0105 -13.383 172 255 36
-41.2293 -4.1344 8.2418 174 4 33
-39.9461 -4.96441 -12.7467 172 255 36
-40.7293 -4.1158 8.4963 174 4 33
-39.4461 -4.91549 -12.0057 172 255 36
-40.2293 -4.0972 8.7508 174 4 33
-38.9461 -4.8941 -11.6464 172 255 36
-39.7293 -4.0879 8.878 174 4 33
-38.4461 -4.887 -11.5266 172 255 36
-39.2293 -4.0786 9.0053 174 4 33
-37.9461 -4.887 -11.5266 172 255 36
-38.7293 -4.06 9.2598 174 4 33
-37.4461 -4.887 -11.5266 172 255 36
-38.2293 -4.0507 9.387 174 4 33
-36.9461 -4.87989 -11.4068 172 255 36
-37.7293 -4.0414 9.5143 174 4 33
-36.4461 -4.8657 -11.1673 172 255 36
-37.2293 -4.0414 9.5143 174 4 33
-35.9461 -4.8514 -10.9278 172 255 36
-36.7293 -4.0321 9.6415 174 4 33
-35.4461 -4.8443 -10.808 172 255 36
-36.2293 -4.0321 9.6415 174 4 33
-34.9461 -4.8372 -10.6882 172 255 36
-35.7293 -4.0321 9.6415 174 4 33
-34.4461 -4.8301 -10.5684 172 255 36
-35.2293 -4.0229 9.7688 174 4 33
-33.9461 -4.82299 -10.4487 172 255 36
-34.7293 -4.0321 9.6415 174 4 33
-33.4461 -4.8159 -10.3289 172 255 36
-34.2293 -4.0229 9.7688 174 4 33
-32.9461 -4.8087 -10.2091 172 255 36
-33.7293 -4.0229 9.7688 174 4 33
-32.4461 -4.7945 -9.9696 172 255 36
-33.2293 -4.0229 9.7688 174 4 33
-31.9461 -4.7803 -9.7301 172 255 36
-32.7293 -4.0229 9.7688 174 4 33
-31.4461 -4.76609 -9.4905 172 255 36
-32.2293 -4.0321 9.6415 174 4 33
-30.9461 -4.7447 -9.1312 172 255 36
-31.7293 -4.0414 9.5143 174 4 33
-30.4461 -4.73049 -8.8917 172 255 36
-31.2293 -4.0507 9.387 174 4 33
-29.9461 -4.6593 -7.694 172 255 36
-30.7293 -4.0693 9.1325 174 4 33
-29.4461 -4.61669 -6.9753 172 255 36
-30.2293 -4.0786 9.0053 174 4 33
-28.9461 -4.5669 -6.137 172 255 36
-29.7293 -4.0972 8.7508 174 4 33
-28.4461 -4.5313 -5.5381 172 255 36
-29.2293 -4.1065 8.6235 174 4 33
-27.9461 -4.4886 -4.8195 172 255 36
-28.7293 -4.1251 8.369 174 4 33
-27.4461 -4.4601 -4.3404 172 255 36
-28.2293 -4.1344 8.2418 174 4 33
-26.9461 -4.4317 -3.8613 172 255 36
-27.7293 -4.1251 8.369 174 4 33
-26.4461 -4.41031 -3.502 172 255 36
-27.2293 -4.1158 8.4963 174 4 33
-25.9461 -4.389 -3.1427 172 255 36
-26.7293 -4.1158 8.4963 174 4 33
-25.4461 -4.3605 -2.6636 172 255 36
-26.2293 -4.1065 8.6235 174 4 33
-24.9461 -4.3534 -2.5439 172 255 36
-25.7293 -4.1065 8.6235 174 4 33
-24.4461 -4.3321 -2.1846 172 255 36
-25.2293 -4.1065 8.6235 174 4 33
-23.9461 -4.3107 -1.8252 172 255 36
-24.7293 -4.1251 8.369 174 4 33
-23.4461 -4.2752 -1.2264 172 255 36
-24.2293 -4.1437 8.1145 174 4 33
-22.9461 -4.2396 -0.627601 172 255 36
-23.7293 -4.1437 8.1145 174 4 33
-22.4461 -4.21109 -0.148502 172 255 36
-23.2293 -4.1529 7.9873 174 4 33
-21.9461 -4.1969 0.091103 172 255 36
-22.7293 -4.1622 7.86 174 4 33
-21.4461 -4.1756 0.450398 172 255 36
-22.2293 -4.1715 7.7328 174 4 33
-20.9461 -4.1613 0.6899 172 255 36
-21.7293 -4.1808 7.6055 174 4 33
-20.4461 -4.1684 0.5701 172 255 36
-21.2293 -4.1808 7.6055 174 4 33
-19.9461 -4.1684 0.5701 172 255 36
-20.7293 -4.19009 7.4783 174 4 33
-19.4461 -4.1827 0.330602 172 255 36
-20.2293 -4.19009 7.4783 174 4 33
-18.9461 -4.1756 0.450398 172 255 36
-19.7293 -4.1994 7.351 174 4 33
-17.9461 -3.6206 9.7924 172 255 36
-19.2293 -4.218 7.0965 174 4 33
-17.4461 -3.5566 10.8704 172 255 36
-18.7293 -4.2273 6.9693 174 4 33
-16.9461 -3.4712 12.3076 172 255 36
-18.2293 -4.2273 6.9693 174 4 33
-16.4461 -3.4356 12.9065 172 255 36
-17.7293 -4.2366 6.842 174 4 33
-15.9461 -3.3787 13.8646 172 255 36
-17.2293 -4.2459 6.7147 174 4 33
-15.4461 -3.3432 14.4635 172 255 36
-16.7293 -4.2366 6.842 174 4 33
-14.9461 -3.3289 14.703 172 255 36
-16.2293 -4.2273 6.9693 174 4 33
-14.4461 -3.3218 14.8228 172 255 36
-15.7293 -4.2087 7.2238 174 4 33
-13.9461 -3.3147 14.9425 172 255 36
-15.2293 -4.19009 7.4783 174 4 33
-13.4461 -3.3076 15.0623 172 255 36
-14.7293 -4.1715 7.7328 174 4 33
-12.9461 -3.2862 15.4216 172 255 36
-14.2293 -4.1529 7.9873 174 4 33
-12.4461 -3.1653 17.4577 172 255 36
-13.7293 -4.1437 8.1145 174 4 33
-11.9461 -3.144 17.817 172 255 36
-13.2293 -4.1251 8.369 174 4 33
-11.4461 -3.12259 18.1763 172 255 36
-12.7293 -4.1158 8.4963 174 4 33
-10.9461 -3.1084 18.4159 172 255 36
-12.2293 -4.1065 8.6235 174 4 33
-10.4461 -3.0942 18.6554 172 255 36
-11.7293 -4.0879 8.878 174 4 33
-9.9461 -3.0586 19.2542 172 255 36
-11.2293 -4.0879 8.878 174 4 33
-9.4461 -3.03009 19.7333 172 255 36
-10.7293 -4.0786 9.0053 174 4 33
-8.9461 -3.00879 20.0926 172 255 36
-10.2293 -4.0786 9.0053 174 4 33
-8.4461 -2.9874 20.4519 172 255 36
-9.7293 -4.0786 9.0053 174 4 33
-7.9461 -2.97319 20.6915 172 255 36
-9.2293 -4.0879 8.878 174 4 33
-7.4461 -2.959 20.931 172 255 36
-8.7293 -4.0972 8.7508 174 4 33
-6.9461 -2.9376 21.2903 172 255 36
-8.2293 -4.0879 8.878 174 4 33
-6.4461 -2.91629 21.6497 172 255 36
-7.7293 -4.0972 8.7508 174 4 33
-5.9461 -2.9021 21.8892 172 255 36
-7.2293 -4.0972 8.7508 174 4 33
-5.4461 -2.8807 22.2485 172 255 36
-6.7293 -4.0972 8.7508 174 4 33
-4.9461 -2.85939 22.6078 172 255 36
-6.2293 -4.1065 8.6235 174 4 33
-4.4461 -2.8452 22.8474 172 255 36
-5.7293 -4.1065 8.6235 174 4 33
-3.9461 -2.8238 23.2067 172 255 36
-5.2293 -4.1158 8.4963 174 4 33
-3.4461 -2.8096 23.4462 172 255 36
-4.7293 -4.1065 8.6235 174 4 33
-2.9461 -2.7953 23.6857 172 255 36
-4.2293 -4.0972 8.7508 174 4 33
-2.4461 -2.7882 23.8055 172 255 36
-3.7293 -4.0786 9.0053 174 4 33
-1.9461 -2.7811 23.9253 172 255 36
-3.2293 -4.06 9.2598 174 4 33
-1.4461 -2.7669 24.1648 172 255 36
-2.7293 -4.0414 9.5143 174 4 33
-0.9461 -2.7527 24.4044 172 255 36
-2.2293 -3.995 10.1505 174 4 33
-0.4461 -2.7455 24.5241 172 255 36
-1.7293 -3.9299 11.0413 174 4 33
0.0539 -2.7384 24.6439 172 255 36
-1.2293 -3.8649 11.9321 174 4 33
0.5539 -2.7313 24.7637 172 255 36
-0.7293 -3.8112 12.6881 174 4 33
1.0539 -2.7242 24.8834 172 255 36
-0.2293 -3.76811 13.4067 174 4 33
1.5539 -2.7171 25.0032 172 255 36
0.2707 -3.7609 13.5265 174 4 33
2.0539 -2.71 25.123 172 255 36
0.7707 -3.7177 14.2451 174 4 33
2.5539 -2.71 25.123 172 255 36
1.2707 -3.6674 15.0835 174 4 33
3.0539 -2.7029 25.2427 172 255 36
1.7707 -3.6386 15.5626 174 4 33
3.5539 -2.6957 25.3625 172 255 36
2.2707 -3.6098 16.0417 174 4 33
4.0539 -2.6957 25.3625 172 255 36
2.7707 -3.5882 16.401 174 4 33
4.5539 -2.6957 25.3625 172 255 36
3.2707 -3.5667 16.7603 174 4 33
5.0539 -2.6957 25.3625 172 255 36
3.7707 -3.5379 17.2394 174 4 33
5.5539 -2.6957 25.3625 172 255 36
4.2707 -3.5235 17.479 174 4 33
6.0539 -2.6886 25.4823 172 255 36
4.7707 -3.50909 17.7185 174 4 33
6.5539 -2.6815 25.6021 172 255 36
5.2707 -3.4947 17.9581 174 4 33
7.0539 -2.6744 25.7218 172 255 36
5.7707 -3.4875 18.0778 174 4 33
7.5539 -2.6602 25.9614 172 255 36
6.2707 -3.466 18.4371 174 4 33
8.0539 -2.6459 26.2009 172 255 36
6.7707 -3.4444 18.7965 174 4 33
8.5539 -2.6388 26.3207 172 255 36
7.2707 -3.43 19.036 174 4 33
9.0539 -2.6246 26.5602 172 255 36
7.7707 -3.41561 19.2756 174 4 33
9.5539 -2.6175 26.68 172 255 36
8.2707 -3.4084 19.3953 174 4 33
10.0539 -2.6104 26.7998 172 255 36
8.7707 -3.4012 19.5151 174 4 33
10.5539 -2.6033 26.9195 172 255 36
9.2707 -3.4012 19.5151 174 4 33
11.0539 -2.5961 27.0393 172 255 36
9.7707 -3.4012 19.5151 174 4 33
11.5539 -2.589 27.1591 172 255 36
10.2707 -3.39401 19.6349 174 4 33
12.0539 -2.5819 27.2789 172 255 36
10.7707 -3.3797 19.8744 174 4 33
12.5539 -2.5748 27.3986 172 255 36
11.2707 -3.3725 19.9942 174 4 33
13.0539 -2.5689 27.5116 172 255 36
11.7707 -3.3653 20.114 174 4 33
13.5539 -2.5629 27.6247 172 255 36
12.2707 -3.35809 20.2337 174 4 33
14.0539 -2.5511 27.8507 172 255 36
12.7707 -3.35809 20.2337 174 4 33
14.5539 -2.5392 28.0768 172 255 36
13.2707 -3.35809 20.2337 174 4 33
15.0539 -2.5273 28.3028 172 255 36
13.7707 -3.35809 20.2337 174 4 33
15.5539 -2.5214 28.4159 172 255 36
14.2707 -3.35809 20.2337 174 4 33
16.0539 -2.5095 28.642 172 255 36
14.7707 -3.35809 20.2337 174 4 33
16.5539 -2.4917 28.981 172 255 36
15.2707 -3.35809 20.2337 174 4 33
17.0539 -2.4799 29.2071 172 255 36
15.7707 -3.35809 20.2337 174 4 33
17.5539 -2.46801 29.4332 172 255 36
16.2707 -3.3509 20.3535 174 4 33
18.0539 -2.4561 29.6592 172 255 36
16.7707 -3.3509 20.3535 174 4 33
18.5539 -2.4502 29.7722 172 255 36
17.2707 -3.3509 20.3535 174 4 33
19.0539 -2.4384 29.9983 172 255 36
17.7707 -3.3509 20.3535 174 4 33
19.5539 -2.4384 29.9983 172 255 36
18.2707 -3.3509 20.3535 174 4 33
20.0539 -2.4324 30.1113 172 255 36
18.7707 -3.3509 20.3535 174 4 33
20.5539 -2.4324 30.1113 172 255 36
19.2707 -3.35809 20.2337 174 4 33
21.0539 -2.4265 30.2244 172 255 36
19.7707 -3.35809 20.2337 174 4 33
21.5539 -2.4206 30.3374 172 255 36
20.2707 -3.35809 20.2337 174 4 33
22.0539 -2.4265 30.2244 172 255 36
20.7707 -3.3653 20.114 174 4 33
22.5539 -2.4265 30.2244 172 255 36
21.2707 -3.3653 20.114 174 4 33
23.0539 -2.4265 30.2244 172 255 36
21.7707 -3.3653 20.114 174 4 33
23.5539 -2.4324 30.1113 172 255 36
22.2707 -3.3653 20.114 174 4 33
24.0539 -2.4384 29.9983 172 255 36
22.7707 -3.3725 19.9942 174 4 33
24.5539 -2.4384 29.9983 172 255 36
23.2707 -3.3797 19.8744 174 4 33
25.0539 -2.4443 29.8853 172 255 36
23.7707 -3.3868 19.7546 174 4 33
25.5539 -2.4443 29.8853 172 255 36
24.2707 -3.3868 19.7546 174 4 33
26.0539 -2.4384 29.9983 172 255 36
24.7707 -3.39401 19.6349 174 4 33
26.5539 -2.4324 30.1113 172 255 36
25.2707 -3.39401 19.6349 174 4 33
27.0539 -2.4265 30.2244 172 255 36
25.7707 -3.4012 19.5151 174 4 33
27.5539 -2.4265 30.2244 172 255 36
26.2707 -3.4012 19.5151 174 4 33
28.0539 -2.4265 30.2244 172 255 36
26.7707 -3.41561 19.2756 174 4 33
28.5539 -2.4265 30.2244 172 255 36
27.2707 -3.4228 19.1558 174 4 33
29.0539 -2.4324 30.1113 172 255 36
27.7707 -3.43 19.036 174 4 33
29.5539 -2.4324 30.1113 172 255 36
28.2707 -3.4372 18.9162 174 4 33
30.0539 -2.4384 29.9983 172 255 36
28.7707 -3.4516 18.6767 174 4 33
30.5539 -2.4384 29.9983 172 255 36
29.2707 -3.466 18.4371 174 4 33
31.0539 -2.4384 29.9983 172 255 36
29.7707 -3.4732 18.3174 174 4 33
31.5539 -2.4443 29.8853 172 255 36
30.2707 -3.4947 17.9581 174 4 33
32.0539 -2.4502 29.7722 172 255 36
30.7707 -3.50909 17.7185 174 4 33
32.5539 -2.4561 29.6592 172 255 36
31.2707 -3.5235 17.479 174 4 33
33.0539 -2.4561 29.6592 172 255 36
31.7707 -3.5235 17.479 174 4 33
33.5539 -2.4621 29.5462 172 255 36
32.2707 -3.5379 17.2394 174 4 33
34.0539 -2.4621 29.5462 172 255 36
32.7707 -3.5451 17.1197 174 4 33
34.5539 -2.46801 29.4332 172 255 36
33.2707 -3.5451 17.1197 174 4 33
35.0539 -2.4799 29.2071 172 255 36
33.7707 -3.5523 16.9999 174 4 33
35.5539 -2.48581 29.0941 172 255 36
34.2707 -3.5523 16.9999 174 4 33
36.0539 -2.4917 28.981 172 255 36
34.7707 -3.5523 16.9999 174 4 33
36.5539 -2.5095 28.642 172 255 36
35.2707 -3.5667 16.7603 174 4 33
37.0539 -2.5214 28.4159 172 255 36
35.7707 -3.5739 16.6406 174 4 33
37.5539 -2.5333 28.1898 172 255 36
36.2707 -3.5882 16.401 174 4 33
38.0539 -2.5451 27.9638 172 255 36
36.7707 -3.5954 16.2812 174 4 33
38.5539 -2.5511 27.8507 172 255 36
37.2707 -3.6098 16.0417 174 4 33
39.0539 -2.5629 27.6247 172 255 36
37.7707 -3.617 15.9219 174 4 33
39.5539 -2.5629 27.6247 172 255 36
38.2707 -3.6242 15.8021 174 4 33
40.0539 -2.5689 27.5116 172 255 36
38.7707 -3.6458 15.4428 174 4 33
40.5539 -2.5819 27.2789 172 255 36
39.2707 -3.6674 15.0835 174 4 33
41.0539 -2.5961 27.0393 172 255 36
39.7707 -3.6817 14.844 174 4 33
41.5539 -2.6033 26.9195 172 255 36
40.2707 -3.7105 14.3649 174 4 33
42.0539 -2.6246 26.5602 172 255 36
40.7707 -3.7537 13.6463 174 4 33
42.5539 -2.6388 26.3207 172 255 36
41.2707 -3.7968 12.9276 174 4 33
