ply
format ascii 1.0
element vertex 1161
property float x
property float y
property float z
property uchar red
property uchar green
property uchar blue
end_header
-0.0562297 0.0926939 -0.00370378 172 255 36
-0.0563141 0.0926619 -0.0036448 174 4 33
-0.0554985 0.0927131 -0.00339938 172 255 36
-0.0555829 0.0926818 -0.00334038 174 4 33
-0.0548465 0.0927225 -0.00325155 172 255 36
-0.0536453 0.092709 -0.00293352 174 4 33
-0.0541866 0.0927328 -0.00308813 172 255 36
-0.0530482 0.0927118 -0.00289421 174 4 33
-0.0535609 0.0927389 -0.00299259 172 255 36
-0.0521981 0.0927715 -0.0032477 174 4 33
-0.0529638 0.0927414 -0.00295331 172 255 36
-0.052487 0.09271 -0.00292627 174 4 33
-0.0524026 0.0927393 -0.0029854 172 255 36
-0.0519096 0.0927103 -0.00292621 174 4 33
-0.0518252 0.0927393 -0.00298536 172 255 36
-0.0513902 0.0927034 -0.0030408 174 4 33
-0.0513058 0.0927321 -0.00309998 172 255 36
-0.0508654 0.092697 -0.0031448 174 4 33
-0.050781 0.0927255 -0.00320401 172 255 36
-0.0503515 0.0926893 -0.00327036 174 4 33
-0.0502671 0.0927176 -0.0033296 172 255 36
-0.0498452 0.0926805 -0.00341083 174 4 33
-0.0497608 0.0927087 -0.0034701 172 255 36
-0.0493641 0.0926686 -0.00360147 174 4 33
-0.0492797 0.0926966 -0.00366078 172 255 36
-0.0489612 0.0926467 -0.00394678 174 4 33
-0.0488769 0.0926748 -0.00400612 172 255 36
-0.0485945 0.0926202 -0.00436372 174 4 33
-0.0485102 0.0926484 -0.0044231 172 255 36
-0.0481938 0.0925981 -0.00471327 174 4 33
-0.0481095 0.0926263 -0.00477269 172 255 36
-0.0474042 0.0925523 -0.00543596 174 4 33
-0.0477243 0.0926022 -0.00515308 172 255 36
-0.0471033 0.0925173 -0.00598315 174 4 33
-0.04732 0.0925806 -0.00549545 172 255 36
-0.0468697 0.0924739 -0.00666365 174 4 33
-0.0470191 0.0925459 -0.00604268 172 255 36
-0.0465554 0.0924408 -0.0071843 174 4 33
-0.0467856 0.0925029 -0.00672322 172 255 36
-0.0462625 0.0924048 -0.00774737 174 4 33
-0.0464713 0.09247 -0.00724391 172 255 36
-0.0454161 0.0924624 -0.0081059 174 4 33
-0.0461785 0.0924343 -0.00780702 172 255 36
-0.0459904 0.0923663 -0.00835155 174 4 33
-0.0459064 0.0923961 -0.00841125 172 255 36
-0.0455393 0.0923506 -0.00860159 174 4 33
-0.0454554 0.0923803 -0.00866132 172 255 36
-0.0450759 0.0923364 -0.00882697 174 4 33
-0.044992 0.092366 -0.00888673 172 255 36
-0.0445867 0.0923255 -0.00900148 174 4 33
-0.0445028 0.092355 -0.00906127 172 255 36
-0.0440882 0.0923158 -0.00915757 174 4 33
-0.0440043 0.0923451 -0.0092174 172 255 36
-0.0435826 0.0923069 -0.00929961 174 4 33
-0.0434987 0.0923361 -0.00935947 172 255 36
-0.0430683 0.0922993 -0.00942425 174 4 33
-0.0429844 0.0923283 -0.00948414 172 255 36
-0.0425434 0.0922929 -0.00952803 174 4 33
-0.0424595 0.0923217 -0.00958795 172 255 36
-0.0419814 0.0922913 -0.00955838 174 4 33
-0.0418975 0.0923198 -0.00961833 172 255 36
-0.0414405 0.092287 -0.00963058 174 4 33
-0.0413566 0.0923152 -0.00969055 172 255 36
-0.0408783 0.0922854 -0.00966044 174 4 33
-0.0407944 0.0923133 -0.00972044 172 255 36
-0.0403676 0.0922772 -0.0097926 174 4 33
-0.0402838 0.0923049 -0.00985263 172 255 36
-0.039862 0.0922684 -0.00993455 174 4 33
-0.0397782 0.092296 -0.00999461 172 255 36
-0.0393577 0.0922594 -0.010079 174 4 33
-0.0392739 0.0922868 -0.0101391 172 255 36
-0.0383076 0.0922467 -0.010286 174 4 33
-0.0387421 0.0922811 -0.0102294 172 255 36
-0.0374631 0.0923004 -0.0106504 174 4 33
-0.0382238 0.0922737 -0.0103462 172 255 36
-0.0371453 0.0922484 -0.010271 174 4 33
-0.0376018 0.0922793 -0.0102578 172 255 36
-0.0382909 0.0915842 -0.00911184 174 4 33
-0.0370615 0.0922747 -0.0103312 172 255 36
-0.0363884 0.0922716 -0.00991552 174 4 33
-0.0363046 0.0922972 -0.00997575 172 255 36
-0.034412 0.0923933 -0.00918651 174 4 33
-0.0351737 0.0923664 -0.00888024 172 255 36
-0.0341314 0.0923393 -0.00887637 174 4 33
-0.0345861 0.0923677 -0.00885989 172 255 36
-0.0332859 0.0923897 -0.00924368 174 4 33
-0.0340475 0.0923629 -0.00893665 172 255 36
-0.0345238 0.0924045 -0.00848819 174 4 33
-0.0332178 0.0923945 -0.00843724 172 255 36
-0.031968 0.0923952 -0.00802229 174 4 33
-0.0324965 0.0924125 -0.00815225 172 255 36
-0.0314145 0.0923925 -0.00806945 174 4 33
-0.031884 0.0924169 -0.00808264 172 255 36
-0.0308227 0.0923946 -0.00804101 174 4 33
-0.0313305 0.0924139 -0.00812983 172 255 36
-0.030243 0.0923953 -0.0080363 174 4 33
-0.0307387 0.0924157 -0.00810141 172 255 36
-0.0293968 0.0924427 -0.00840639 174 4 33
-0.030159 0.092416 -0.00809673 172 255 36
-0.0277495 0.092577 -0.0062926 174 4 33
-0.0285131 0.0925498 -0.00598179 172 255 36
-0.0281592 0.0918515 -0.00505608 174 4 33
-0.0276934 0.0925801 -0.00550202 172 255 36
-0.0264624 0.0925838 -0.00512403 174 4 33
-0.0269541 0.0926004 -0.00518146 172 255 36
-0.0258575 0.0925877 -0.00506939 174 4 33
-0.0263782 0.0926002 -0.0051845 172 255 36
-0.0250091 0.0926309 -0.00544255 174 4 33
-0.0257733 0.0926037 -0.00512988 172 255 36
-0.0254322 0.0919064 -0.00422938 174 4 33
-0.0248703 0.0926445 -0.00448531 172 255 36
-0.0249546 0.0926295 -0.00442481 174 4 33
-0.0242218 0.0926534 -0.00434459 172 255 36
-0.0243061 0.0926388 -0.00428406 174 4 33
-0.0233701 0.0926877 -0.00380163 172 255 36
-0.0230789 0.091987 -0.00299957 174 4 33
-0.0224822 0.0927266 -0.00318683 172 255 36
-0.0222761 0.0920162 -0.00255345 174 4 33
-0.0216199 0.0927623 -0.00262294 172 255 36
-0.0203367 0.0927782 -0.00214079 174 4 33
-0.0208759 0.0927831 -0.00229304 172 255 36
-0.0197448 0.0927804 -0.00211185 174 4 33
-0.0202522 0.0927889 -0.0022014 172 255 36
-0.0188941 0.0928183 -0.00248933 174 4 33
-0.0196603 0.0927908 -0.00217249 172 255 36
-0.0201426 0.0928577 -0.00171283 174 4 33
-0.0190184 0.0927988 -0.00204488 172 255 36
-0.0152838 0.0931263 0.00236175 174 4 33
-0.0160533 0.0930978 0.00268111 172 255 36
-0.0155988 0.0930886 0.00266656 174 4 33
-0.0155139 0.093093 0.00260596 172 255 36
-0.0150407 0.0930865 0.00262857 174 4 33
-0.0149558 0.0930906 0.00256794 172 255 36
-0.014542 0.0930768 0.00247287 174 4 33
-0.0144571 0.0930808 0.00241221 172 255 36
-0.0140687 0.0930639 0.00226701 174 4 33
-0.0139838 0.0930677 0.00220631 172 255 36
-0.0136303 0.0930465 0.00199174 174 4 33
-0.0135455 0.0930503 0.00193101 172 255 36
-0.0132145 0.0930263 0.00167209 174 4 33
-0.0131297 0.0930301 0.00161132 172 255 36
-0.0128001 0.0930059 0.00134962 174 4 33
-0.0127153 0.0930097 0.00128882 172 255 36
-0.0117432 0.0929941 0.00115608 174 4 33
-0.0122339 0.0929977 0.00109897 172 255 36
-0.01089 0.0930252 0.000772925 174 4 33
-0.0116584 0.0929975 0.00109522 172 255 36
-0.0104949 0.0930067 0.00134147 174 4 33
-0.0110227 0.0930048 0.00121073 172 255 36
-0.00988182 0.0930114 0.00141212 174 4 33
-0.0104101 0.0930092 0.00128056 172 255 36
-0.00928178 0.0930147 0.00145702 174 4 33
-0.00979704 0.0930136 0.00135118 172 255 36
-0.00842837 0.0930441 0.0010721 174 4 33
-0.009197 0.0930165 0.00139606 172 255 36
-0.00801957 0.093029 0.00166992 174 4 33
-0.00855382 0.0930247 0.00152638 172 255 36
-0.00738683 0.0930364 0.00177961 174 4 33
-0.00793477 0.0930299 0.00160891 172 255 36
-0.00676212 0.0930427 0.0018734 174 4 33
-0.00730202 0.0930369 0.00171857 172 255 36
-0.00616599 0.0930455 0.00191057 174 4 33
-0.0066773 0.0930428 0.00181234 172 255 36
-0.00557329 0.0930478 0.00194099 174 4 33
-0.00608117 0.0930452 0.00184948 172 255 36
-0.0047195 0.0930745 0.00155341 174 4 33
-0.00548846 0.0930471 0.00187988 172 255 36
-0.00499148 0.0930486 0.00194987 174 4 33
-0.00490665 0.0930476 0.00188873 172 255 36
-0.00445291 0.093044 0.00187308 174 4 33
-0.00436809 0.0930428 0.00181191 172 255 36
-0.00390615 0.0930405 0.00181258 174 4 33
-0.00382134 0.093039 0.00175138 172 255 36
-0.0033971 0.0930321 0.00167741 174 4 33
-0.0033123 0.0930304 0.00161618 172 255 36
-0.0029103 0.0930209 0.00149819 174 4 33
-0.00282551 0.0930191 0.00143693 172 255 36
-0.00242923 0.0930089 0.00130761 174 4 33
-0.00234446 0.093007 0.00124632 172 255 36
-0.00197348 0.0929938 0.00106696 174 4 33
-0.00188873 0.0929918 0.00100563 172 255 36
-0.00144821 0.0930685 0.00102545 174 4 33
-0.00142744 0.0929773 0.000775888 172 255 36
-0.000195356 0.0929898 0.000222119 174 4 33
-0.000963412 0.0929631 0.00055161 172 255 36
0.0249939 0.0961219 0.0454061 174 4 33
0.0241951 0.0960846 0.0457534 172 255 36
0.0246233 0.0961275 0.0457003 174 4 33
0.0247119 0.0960766 0.0456401 172 255 36
0.025193 0.0961268 0.0456862 174 4 33
0.0252816 0.0960756 0.0456259 172 255 36
0.0257686 0.0961269 0.045683 174 4 33
0.0258572 0.0960754 0.0456227 172 255 36
0.0263195 0.0961237 0.0456333 174 4 33
0.0264081 0.0960719 0.045573 172 255 36
0.0268851 0.0961225 0.0456115 174 4 33
0.0269737 0.0960704 0.0455512 172 255 36
0.0274379 0.0961196 0.0455656 174 4 33
0.0275265 0.0960672 0.0455052 172 255 36
0.0279857 0.096116 0.0455105 174 4 33
0.0280743 0.0960634 0.0454501 172 255 36
0.0285322 0.0961122 0.0454528 174 4 33
0.0286208 0.0960593 0.0453924 172 255 36
0.0290888 0.0961098 0.045414 174 4 33
0.0291774 0.0960566 0.0453536 172 255 36
0.0296431 0.0961071 0.0453709 174 4 33
0.0297317 0.0960536 0.0453104 172 255 36
0.0301748 0.0961013 0.0452856 174 4 33
0.0302634 0.0960476 0.0452251 172 255 36
0.0306867 0.096093 0.0451632 174 4 33
0.0307753 0.0960391 0.0451027 172 255 36
0.0311788 0.0960819 0.0450038 174 4 33
0.0312674 0.0960279 0.0449432 172 255 36
0.0316595 0.0960695 0.044823 174 4 33
0.031748 0.0960153 0.0447624 172 255 36
0.0321318 0.0960558 0.0446266 174 4 33
0.0322203 0.0960015 0.044566 172 255 36
0.0326053 0.0960424 0.0444326 174 4 33
0.0326938 0.095988 0.0443719 172 255 36
0.0330539 0.0960256 0.0441919 174 4 33
0.0331424 0.0959711 0.0441312 172 255 36
0.0334905 0.0960072 0.0439288 174 4 33
0.033579 0.0959527 0.0438681 172 255 36
0.0339032 0.0959857 0.0436208 174 4 33
0.0339916 0.0959312 0.04356 172 255 36
0.0343093 0.0959633 0.0433006 174 4 33
0.0343977 0.0959088 0.0432398 172 255 36
0.034696 0.0959383 0.0429441 174 4 33
0.0347844 0.0958839 0.0428833 172 255 36
0.035435 0.0958838 0.042167 174 4 33
0.0351788 0.09586 0.0425413 172 255 36
0.0357039 0.0958432 0.0415902 174 4 33
0.0355233 0.0958295 0.0421061 172 255 36
0.0359328 0.0957973 0.0409386 174 4 33
0.0357922 0.0957892 0.0415292 172 255 36
0.0361877 0.0957548 0.0403359 174 4 33
0.036021 0.0957437 0.0408776 172 255 36
0.0360145 0.0958106 0.0401836 174 4 33
0.0362759 0.0957015 0.0402748 172 255 36
0.0373292 0.0956945 0.0393236 174 4 33
0.0365346 0.0956599 0.0396791 172 255 36
0.0112625 0.0922641 -0.0104461 174 4 33
0.0109874 0.0922908 -0.0100762 172 255 36
0.0115783 0.0922311 -0.0109636 174 4 33
0.0113463 0.0922635 -0.0105086 172 255 36
0.0118828 0.0921967 -0.0115038 174 4 33
0.0116621 0.0922307 -0.0110262 172 255 36
0.0121657 0.0921596 -0.0120866 174 4 33
0.0119665 0.0921965 -0.0115664 172 255 36
0.0124244 0.0921193 -0.0127173 174 4 33
0.0122494 0.0921597 -0.0121492 172 255 36
0.0126244 0.0920716 -0.0134646 174 4 33
0.012508 0.0921198 -0.01278 172 255 36
0.0125809 0.0921935 -0.0135038 174 4 33
0.0127079 0.0920725 -0.0135273 172 255 36
0.013811 0.0920648 -0.014326 174 4 33
0.0130528 0.0920434 -0.0139873 172 255 36
0.0369943 0.0938779 0.0137755 174 4 33
0.0365462 0.0938501 0.0137942 172 255 36
0.0378571 0.0938716 0.0133576 174 4 33
0.0370801 0.0938444 0.013713 172 255 36
0.0365834 0.094021 0.0142162 174 4 33
0.0377533 0.0938569 0.0138921 172 255 36
0.0389713 0.0939113 0.0142336 174 4 33
0.0384249 0.0938692 0.0140683 172 255 36
0.0398345 0.0939036 0.0138143 174 4 33
0.0390572 0.0938764 0.014171 172 255 36
0.0401093 0.0939097 0.0142024 174 4 33
0.0396335 0.0938763 0.0141691 172 255 36
0.0409725 0.0939013 0.0137823 174 4 33
0.0401952 0.0938742 0.0141398 172 255 36
0.057446 0.0959835 0.0434532 174 4 33
0.0566486 0.0959495 0.0438224 172 255 36
0.0565601 0.0960169 0.0438842 174 4 33
0.0573108 0.0959606 0.0439811 172 255 36
0.0575324 0.0953633 0.0446218 174 4 33
0.0582162 0.0960035 0.0445943 172 255 36
0.0599262 0.0960814 0.0448483 174 4 33
0.0591278 0.0960472 0.0452192 172 255 36
0.0590392 0.096117 0.0452811 174 4 33
0.059921 0.0960754 0.0456229 172 255 36
0.0598324 0.096146 0.0456848 174 4 33
0.0606681 0.0960976 0.0459403 172 255 36
0.0605795 0.0961688 0.0460022 174 4 33
0.0614645 0.0961263 0.0463498 172 255 36
0.0613758 0.0961983 0.0464117 174 4 33
0.0622414 0.0961523 0.0467229 172 255 36
0.0621527 0.096225 0.0467848 174 4 33
0.0629011 0.0961631 0.0468769 172 255 36
0.0634025 0.0962383 0.0469626 174 4 33
0.0634912 0.0961648 0.0469006 172 255 36
0.0639549 0.0962353 0.0469161 174 4 33
0.0640436 0.0961615 0.0468541 172 255 36
0.065036 0.0962262 0.0467785 174 4 33
0.0645595 0.0961535 0.0467391 172 255 36
0.0659241 0.0961861 0.0463415 174 4 33
0.0651247 0.0961519 0.0467164 172 255 36
0.0656329 0.0962291 0.046815 174 4 33
0.0657216 0.0961544 0.0467529 172 255 36
0.0661905 0.0962269 0.046778 174 4 33
0.0662792 0.0961519 0.0467159 172 255 36
0.066715 0.0962201 0.0466793 174 4 33
0.0668037 0.0961449 0.0466171 172 255 36
0.0672267 0.0962118 0.0465567 174 4 33
0.0673154 0.0961364 0.0464945 172 255 36
0.0677049 0.0961989 0.0463713 174 4 33
0.0677936 0.0961234 0.0463091 172 255 36
0.0681865 0.0961865 0.0461923 174 4 33
0.0682752 0.0961109 0.04613 172 255 36
0.0686696 0.0961744 0.0460161 174 4 33
0.0687583 0.0960986 0.0459538 172 255 36
0.0691435 0.0961609 0.0458226 174 4 33
0.0692321 0.096085 0.0457603 172 255 36
0.0695941 0.0961445 0.0455856 174 4 33
0.0696827 0.0960685 0.0455232 172 255 36
0.0700277 0.0961257 0.045317 174 4 33
0.0701163 0.0960497 0.0452546 172 255 36
0.0704532 0.0961058 0.045033 174 4 33
0.0705418 0.0960298 0.0449706 172 255 36
0.070859 0.0960834 0.0447121 174 4 33
0.0709475 0.0960074 0.0446496 172 255 36
0.071269 0.0960615 0.0443992 174 4 33
0.0713575 0.0959855 0.0443367 172 255 36
0.0716765 0.0960393 0.0440817 174 4 33
0.071765 0.0959633 0.0440192 172 255 36
0.0720869 0.0960175 0.0437696 174 4 33
0.0721754 0.0959415 0.043707 172 255 36
0.0724845 0.0959939 0.0434334 174 4 33
0.0725729 0.095918 0.0433708 172 255 36
0.0728798 0.0959701 0.0430932 174 4 33
0.0729682 0.0958942 0.0430305 172 255 36
0.0732646 0.0959448 0.0427331 174 4 33
0.073353 0.095869 0.0426704 172 255 36
0.0736256 0.0959164 0.0423285 174 4 33
0.0737139 0.0958407 0.0422658 172 255 36
0.0739764 0.0958867 0.0419049 174 4 33
0.0740647 0.0958111 0.0418421 172 255 36
0.0746578 0.0958245 0.0410199 174 4 33
0.0744143 0.0957813 0.0414165 172 255 36
0.0749644 0.0957889 0.0405138 174 4 33
0.074746 0.0957492 0.0409571 172 255 36
0.0752618 0.095752 0.0399902 174 4 33
0.0750526 0.0957138 0.0404509 172 255 36
0.0755357 0.0957121 0.039423 174 4 33
0.0753499 0.0956772 0.0399273 172 255 36
0.0757771 0.0956678 0.0387946 174 4 33
0.0756238 0.0956375 0.03936 172 255 36
0.0759788 0.0956183 0.0380924 174 4 33
0.0758651 0.0955936 0.0387316 172 255 36
0.0761695 0.0955673 0.0373693 174 4 33
0.0760668 0.0955445 0.0380293 172 255 36
0.0763601 0.0955163 0.0366463 174 4 33
0.0762574 0.0954939 0.0373062 172 255 36
0.076572 0.0954681 0.035963 174 4 33
0.0764479 0.0954434 0.0365831 172 255 36
0.0763822 0.095595 0.0358008 174 4 33
0.0766598 0.0953956 0.0358998 172 255 36
0.07769 0.0953812 0.0348837 174 4 33
0.0768984 0.0953513 0.0352663 172 255 36
-0.0774268 0.0922549 -0.0214367 174 4 33
-0.0773435 0.0923122 -0.021495 172 255 36
-0.0765591 0.0922919 -0.020862 174 4 33
-0.0764758 0.0923483 -0.0209203 172 255 36
-0.0748411 0.0924363 -0.0186039 174 4 33
-0.0747576 0.09249 -0.0186622 172 255 36
-0.0735109 0.0925318 -0.0171135 174 4 33
-0.0734273 0.0925836 -0.0171718 172 255 36
-0.0732294 0.0918258 -0.0165577 174 4 33
-0.0724807 0.0926294 -0.0164411 172 255 36
-0.0725644 0.0925786 -0.0163828 174 4 33
-0.0716683 0.0926586 -0.0159758 172 255 36
-0.071752 0.0926087 -0.0159175 174 4 33
-0.0708998 0.0926824 -0.0155975 172 255 36
-0.0702036 0.0926591 -0.015138 174 4 33
-0.0701198 0.0927076 -0.0151963 172 255 36
-0.0692266 0.0927099 -0.0143469 174 4 33
-0.0691427 0.0927572 -0.0144052 172 255 36
-0.0690095 0.0919971 -0.0139185 174 4 33
-0.0682315 0.0927987 -0.0137442 172 255 36
-0.0681338 0.0920354 -0.0133281 174 4 33
-0.06738 0.0928328 -0.0132016 172 255 36
-0.067464 0.0927874 -0.0131433 174 4 33
-0.0665886 0.0928594 -0.0127781 172 255 36
-0.0650163 0.0929171 -0.0125976 174 4 33
-0.0657757 0.0928886 -0.0123118 172 255 36
-0.0658597 0.0928447 -0.0122534 174 4 33
-0.0649953 0.0929139 -0.0119098 172 255 36
-0.0650794 0.0928708 -0.0118514 174 4 33
-0.0642649 0.0929329 -0.0116069 172 255 36
-0.064349 0.0928904 -0.0115485 174 4 33
-0.0635885 0.0929452 -0.0114109 172 255 36
-0.0615075 0.0924399 -0.00706817 174 4 33
-0.0607855 0.0932217 -0.00700566 172 255 36
-0.0597493 0.0932536 -0.00587157 174 4 33
-0.0596647 0.0932892 -0.00592993 172 255 36
-0.0593717 0.0925654 -0.00512611 174 4 33
-0.0587133 0.0933356 -0.00518958 172 255 36
-0.0587979 0.0933011 -0.00513121 174 4 33
-0.0579742 0.0933557 -0.00486942 172 255 36
-0.0580589 0.0933219 -0.00481103 174 4 33
-0.0573107 0.0933664 -0.00469893 172 255 36
-0.0573954 0.0933331 -0.00464052 174 4 33
-0.0566399 0.093378 -0.00451403 172 255 36
-0.0567246 0.0933452 -0.00445559 174 4 33
-0.0558692 0.0934021 -0.00413125 172 255 36
-0.0559539 0.09337 -0.00407279 174 4 33
-0.0551606 0.0934184 -0.00387158 172 255 36
-0.053921 0.093409 -0.00347715 174 4 33
-0.0544701 0.0934324 -0.00364751 172 255 36
-0.0530708 0.0934695 -0.00382967 174 4 33
-0.0538362 0.0934395 -0.00353567 172 255 36
-0.053358 0.0934075 -0.00350556 174 4 33
-0.0532732 0.0934377 -0.00356411 172 255 36
-0.0528257 0.0934021 -0.00359467 174 4 33
-0.0527409 0.0934321 -0.00365325 172 255 36
-0.0522741 0.0933992 -0.00364557 174 4 33
-0.0521893 0.0934289 -0.00370418 172 255 36
-0.0517535 0.0933923 -0.00375791 174 4 33
-0.0516687 0.0934218 -0.00381655 172 255 36
-0.0511983 0.0933899 -0.00380162 174 4 33
-0.0511135 0.0934191 -0.00386029 172 255 36
-0.0506918 0.0933813 -0.00394202 174 4 33
-0.0506071 0.0934103 -0.00400072 172 255 36
-0.0501761 0.0933738 -0.00406401 174 4 33
-0.0500914 0.0934026 -0.00412274 172 255 36
-0.0493013 0.093339 -0.00461802 174 4 33
-0.0495916 0.093393 -0.00427633 172 255 36
-0.0490279 0.093301 -0.00521978 174 4 33
-0.0492166 0.0933678 -0.00467682 172 255 36
-0.048704 0.0932693 -0.00572136 174 4 33
-0.0489433 0.0933301 -0.00527862 172 255 36
-0.0483788 0.0932377 -0.0062205 174 4 33
-0.0486194 0.0932986 -0.00578024 172 255 36
-0.0480694 0.0932042 -0.00675098 174 4 33
-0.0482942 0.0932672 -0.00627942 172 255 36
-0.047711 0.0931769 -0.00718428 174 4 33
-0.0479849 0.0932339 -0.00680994 172 255 36
-0.0473695 0.0931474 -0.00765113 174 4 33
-0.0476265 0.0932067 -0.00724328 172 255 36
-0.0471386 0.093104 -0.00833701 174 4 33
-0.0472851 0.0931774 -0.00771017 172 255 36
-0.0462921 0.0931624 -0.00869457 174 4 33
-0.0470542 0.0931344 -0.00839609 172 255 36
-0.0468099 0.0930729 -0.00882921 174 4 33
-0.0467256 0.0931035 -0.00888833 172 255 36
-0.0463746 0.0930552 -0.00911044 174 4 33
-0.0462903 0.0930858 -0.00916959 172 255 36
-0.0458669 0.0930468 -0.0092483 174 4 33
-0.0457826 0.0930772 -0.00930748 172 255 36
-0.045369 0.0930371 -0.00940535 174 4 33
-0.0452847 0.0930673 -0.00946456 172 255 36
-0.0448507 0.09303 -0.00952227 174 4 33
-0.0447664 0.09306 -0.00958151 172 255 36
-0.0443257 0.0930237 -0.00962588 174 4 33
-0.0442414 0.0930535 -0.00968516 172 255 36
-0.0438029 0.0930171 -0.00973389 174 4 33
-0.0437186 0.0930467 -0.0097932 172 255 36
-0.0432986 0.0930082 -0.00987854 174 4 33
-0.0432144 0.0930376 -0.00993788 172 255 36
-0.0428043 0.092998 -0.010043 174 4 33
-0.0427201 0.0930273 -0.0101024 172 255 36
-0.0422685 0.092993 -0.0101251 174 4 33
-0.0421843 0.0930221 -0.0101845 172 255 36
-0.0417577 0.092985 -0.0102569 174 4 33
-0.0416735 0.0930139 -0.0103163 172 255 36
-0.0412762 0.0929733 -0.0104466 174 4 33
-0.041192 0.093002 -0.0105061 172 255 36
-0.0402528 0.0929572 -0.0107063 174 4 33
-0.0407115 0.0929899 -0.0106977 172 255 36
-0.0394082 0.0930124 -0.0110689 174 4 33
-0.0401686 0.0929856 -0.0107658 172 255 36
-0.0396497 0.0929608 -0.0106554 174 4 33
-0.0395655 0.0929888 -0.0107149 172 255 36
-0.0391096 0.0929565 -0.0107291 174 4 33
-0.0390254 0.0929842 -0.0107887 172 255 36
-0.0385347 0.0929565 -0.0107339 174 4 33
-0.0384505 0.0929839 -0.0107935 172 255 36
-0.0379977 0.0929517 -0.0108137 174 4 33
-0.0379135 0.0929789 -0.0108733 172 255 36
-0.0374808 0.0929444 -0.0109332 174 4 33
-0.0373966 0.0929714 -0.0109929 172 255 36
-0.0369982 0.0929327 -0.0111211 174 4 33
-0.0369141 0.0929596 -0.0111808 172 255 36
-0.0359603 0.0929186 -0.0113521 174 4 33
-0.0363681 0.0929557 -0.0112428 172 255 36
-0.0351162 0.0929713 -0.0117179 174 4 33
-0.0358762 0.0929451 -0.0114119 172 255 36
-0.0363519 0.0929851 -0.0109643 174 4 33
-0.0351551 0.092963 -0.0111275 172 255 36
-0.0345102 0.0929566 -0.0107673 174 4 33
-0.034426 0.0929818 -0.0108271 172 255 36
-0.0333018 0.0923718 -0.00837694 174 4 33
-0.0321085 0.0931263 -0.0085254 172 255 36
-0.0321929 0.0931041 -0.00846561 174 4 33
-0.0314398 0.0931376 -0.00834461 172 255 36
-0.0309405 0.0931171 -0.00827221 174 4 33
-0.0308561 0.0931384 -0.00833205 172 255 36
-0.0303656 0.0931659 -0.00824816 174 4 33
-0.0303476 0.0931298 -0.00846841 172 255 36
-0.0291257 0.0931418 -0.0090105 174 4 33
-0.0298875 0.0931153 -0.00870046 172 255 36
-0.0285973 0.0925316 -0.00592139 174 4 33
-0.0280898 0.0932669 -0.00628501 172 255 36
-0.0281744 0.0932487 -0.00622513 174 4 33
-0.027327 0.0932899 -0.00591789 172 255 36
-0.0261951 0.0932809 -0.00573578 174 4 33
-0.0266522 0.093302 -0.00572515 172 255 36
-0.0253467 0.0933246 -0.00610837 174 4 33
-0.0261105 0.0932976 -0.00579573 172 255 36
-0.0265912 0.0933537 -0.00534043 174 4 33
-0.0254645 0.0933061 -0.00565969 172 255 36
-0.0255491 0.0932898 -0.00559972 174 4 33
-0.0247374 0.0933247 -0.00536329 172 255 36
-0.024822 0.0933091 -0.0053033 174 4 33
-0.0240689 0.0933361 -0.005183 172 255 36
-0.0234544 0.092674 -0.00374109 174 4 33
-0.0228005 0.0934219 -0.00381506 172 255 36
-0.0225666 0.0927139 -0.00312628 174 4 33
-0.0219086 0.093461 -0.00319262 172 255 36
-0.0217043 0.0927505 -0.00256237 174 4 33
-0.0210489 0.0934961 -0.00263377 172 255 36
-0.0198049 0.0935072 -0.00222872 174 4 33
-0.0203381 0.0935126 -0.00236948 172 255 36
-0.0189538 0.0935452 -0.00260581 174 4 33
-0.01972 0.0935177 -0.0022888 172 255 36
-0.0202038 0.0935845 -0.0018285 174 4 33
-0.019082 0.0935252 -0.00216882 172 255 36
-0.0184476 0.0935335 -0.0018278 174 4 33
-0.0183627 0.0935429 -0.00188793 172 255 36
-0.014776 0.0938496 0.00222558 174 4 33
-0.0155455 0.0938211 0.00254549 172 255 36
-0.0150689 0.093815 0.00257502 174 4 33
-0.0149836 0.0938192 0.00251494 172 255 36
-0.014552 0.0938077 0.00245537 174 4 33
-0.0144667 0.0938117 0.00239526 172 255 36
-0.0140701 0.093796 0.00226643 174 4 33
-0.0139848 0.0937998 0.00220629 172 255 36
-0.0136052 0.0937821 0.00204374 174 4 33
-0.01352 0.0937859 0.00198357 172 255 36
-0.0131736 0.0937641 0.0017553 174 4 33
-0.0130884 0.0937678 0.0016951 172 255 36
-0.0127748 0.0937418 0.00140198 174 4 33
-0.0126896 0.0937456 0.00134174 172 255 36
-0.0123289 0.0937255 0.00114177 174 4 33
-0.0122437 0.0937292 0.0010815 172 255 36
-0.0112133 0.0937212 0.00106446 174 4 33
-0.0117229 0.0937222 0.000969543 172 255 36
-0.0103597 0.0937521 0.000681273 174 4 33
-0.0111281 0.0937244 0.00100413 172 255 36
-0.00994555 0.0937361 0.00128816 174 4 33
-0.0104773 0.0937335 0.00114937 172 255 36
-0.00936168 0.0937372 0.00130109 174 4 33
-0.00986037 0.0937384 0.00122778 172 255 36
-0.00850791 0.0937668 0.000916572 174 4 33
-0.0092765 0.0937392 0.00124068 172 255 36
-0.0097635 0.0938257 0.00170902 174 4 33
-0.00863604 0.0937471 0.00136562 172 255 36
-0.00744249 0.0937619 0.00167163 174 4 33
-0.00798767 0.0937559 0.00150618 172 255 36
-0.00658844 0.09379 0.00128574 174 4 33
-0.00735728 0.0937625 0.00161115 172 255 36
-0.00617904 0.0937763 0.00188699 174 4 33
-0.00671184 0.093771 0.00174593 172 255 36
-0.00558596 0.0937786 0.00191815 174 4 33
-0.00609381 0.093776 0.00182646 172 255 36
-0.00473173 0.0938054 0.00153093 174 4 33
-0.00550073 0.093778 0.00185759 172 255 36
-0.00500152 0.0937798 0.0019322 174 4 33
-0.00491629 0.0937788 0.00187162 172 255 36
-0.00445949 0.0937757 0.00186232 174 4 33
-0.00437426 0.0937745 0.00180171 172 255 36
-0.00391882 0.0937714 0.00178973 174 4 33
-0.0038336 0.0937699 0.00172909 172 255 36
-0.00341195 0.0937627 0.00165022 174 4 33
-0.00332674 0.0937611 0.00158955 172 255 36
-0.00292002 0.0937523 0.00148119 174 4 33
-0.00283482 0.0937505 0.00142049 172 255 36
-0.00244169 0.0937401 0.00128517 174 4 33
-0.00235651 0.0937382 0.00122443 172 255 36
-0.0019615 0.0937281 0.00109287 174 4 33
-0.00187634 0.0937261 0.0010321 172 255 36
-0.00102212 0.0937016 0.000666661 174 4 33
-0.00139315 0.0937144 0.000845707 172 255 36
-0.000168838 0.0937261 0.000276112 174 4 33
-0.000936992 0.0936994 0.000605828 172 255 36
0.0249303 0.0968192 0.0452876 174 4 33
0.0241316 0.0967819 0.0456351 172 255 36
0.0245298 0.096821 0.0455264 174 4 33
0.0246188 0.0967703 0.0454667 172 255 36
0.0250933 0.0968195 0.0455004 174 4 33
0.0251823 0.0967685 0.0454407 172 255 36
0.0256537 0.0968176 0.0454687 174 4 33
0.0257427 0.0967663 0.045409 172 255 36
0.0262049 0.0968145 0.04542 174 4 33
0.0262939 0.0967629 0.0453602 172 255 36
0.0267672 0.0968128 0.0453918 174 4 33
0.0268562 0.0967609 0.045332 172 255 36
0.0273231 0.0968102 0.0453517 174 4 33
0.0274121 0.0967581 0.0452919 172 255 36
0.0278614 0.0968055 0.0452787 174 4 33
0.0279504 0.0967531 0.0452188 172 255 36
0.0284041 0.0968012 0.0452139 174 4 33
0.0284931 0.0967486 0.045154 172 255 36
0.0289539 0.0967979 0.0451626 174 4 33
0.0290429 0.096745 0.0451027 172 255 36
0.0294998 0.0967942 0.0451037 174 4 33
0.0295888 0.096741 0.0450438 172 255 36
0.0300374 0.0967892 0.0450295 174 4 33
0.0301264 0.0967358 0.0449695 172 255 36
0.0305617 0.0967825 0.0449302 174 4 33
0.0306506 0.0967289 0.0448702 172 255 36
0.0310679 0.0967735 0.0447971 174 4 33
0.0311568 0.0967197 0.0447371 172 255 36
0.0315652 0.0967633 0.0446475 174 4 33
0.0316541 0.0967093 0.0445874 172 255 36
0.032054 0.096752 0.044482 174 4 33
0.0321429 0.0966979 0.0444219 172 255 36
0.0325327 0.0967394 0.0442975 174 4 33
0.0326216 0.0966851 0.0442374 172 255 36
0.0329788 0.0967224 0.0440523 174 4 33
0.0330677 0.0966681 0.0439921 172 255 36
0.0334094 0.0967035 0.0437778 174 4 33
0.0334982 0.0966491 0.0437176 172 255 36
0.0338372 0.0966841 0.0434981 174 4 33
0.033926 0.0966297 0.0434379 172 255 36
0.0342466 0.0966623 0.0431843 174 4 33
0.0343354 0.0966079 0.043124 172 255 36
0.0346434 0.0966388 0.0428467 174 4 33
0.0347322 0.0965845 0.0427864 172 255 36
0.035376 0.0965839 0.0420575 174 4 33
0.0351161 0.0965595 0.0424248 172 255 36
0.0356845 0.0965489 0.0415548 174 4 33
0.0354647 0.0965298 0.0419971 172 255 36
0.03595 0.0965082 0.0409718 174 4 33
0.0357732 0.096495 0.0414944 172 255 36
0.0362296 0.0964694 0.0404151 174 4 33
0.0360386 0.0964546 0.0409113 172 255 36
0.0364874 0.0964277 0.0398176 174 4 33
0.0363182 0.096416 0.0403546 172 255 36
0.0373706 0.0964092 0.0394012 174 4 33
0.0365759 0.0963746 0.039757 172 255 36
0.0118262 0.0930614 -0.0102583 174 4 33
0.0110652 0.0930387 -0.00992065 172 255 36
0.0117578 0.0929925 -0.0106068 174 4 33
0.0114789 0.0930184 -0.0102446 172 255 36
0.0120475 0.0929565 -0.0111763 174 4 33
0.011842 0.0929917 -0.0106688 172 255 36
0.0123158 0.0929178 -0.011788 174 4 33
0.0121316 0.092956 -0.0112383 172 255 36
0.0125846 0.0928792 -0.0123989 174 4 33
0.0123999 0.0929176 -0.0118501 172 255 36
0.0128252 0.0928369 -0.0130652 174 4 33
0.0126686 0.0928793 -0.012461 172 255 36
0.0130778 0.0927962 -0.0137082 174 4 33
0.0129092 0.0928374 -0.0131274 172 255 36
0.0139201 0.0928186 -0.0141094 174 4 33
0.0131617 0.0927971 -0.0137704 172 255 36
0.0370564 0.0946117 0.0138939 174 4 33
0.0366208 0.0945853 0.0139355 172 255 36
0.0379198 0.0946053 0.0134763 174 4 33
0.0371427 0.0945781 0.0138319 172 255 36
0.0366443 0.0947547 0.0143359 174 4 33
0.0377844 0.0945864 0.0139523 172 255 36
0.0390111 0.0946419 0.0143101 174 4 33
0.0384677 0.0946002 0.0141502 172 255 36
0.0395975 0.0946434 0.0143272 174 4 33
0.0390974 0.0946069 0.0142481 172 255 36
0.0404612 0.0946352 0.0139078 174 4 33
0.0396838 0.0946081 0.0142651 172 255 36
0.0402867 0.0947855 0.0146725 174 4 33
0.040261 0.0946081 0.0142648 172 255 36
0.0415628 0.0946282 0.0138077 174 4 33
0.0407854 0.0946012 0.0141658 172 255 36
0.058049 0.0966937 0.043501 174 4 33
0.0572515 0.0966597 0.0438708 172 255 36
0.0571626 0.0967274 0.0439321 174 4 33
0.0579122 0.0966705 0.0440266 172 255 36
0.0581277 0.0960723 0.0446562 174 4 33
0.0587384 0.0967027 0.0444918 172 255 36
0.0603948 0.0967732 0.0446453 174 4 33
0.0595965 0.0967391 0.0450167 172 255 36
0.0595075 0.096809 0.0450781 174 4 33
0.0602905 0.0967542 0.0452348 172 255 36
0.0602015 0.0968247 0.0452962 174 4 33
0.0609967 0.0967709 0.0454757 172 255 36
0.0609077 0.096842 0.0455371 174 4 33
0.0617927 0.0967992 0.0458845 172 255 36
0.0617037 0.096871 0.0459459 174 4 33
0.0625849 0.096827 0.0462862 172 255 36
0.0624958 0.0968996 0.0463476 174 4 33
0.0632541 0.0968389 0.0464578 172 255 36
0.0637671 0.0969155 0.0465657 174 4 33
0.0638562 0.0968421 0.0465042 172 255 36
0.0643018 0.0969103 0.0464859 174 4 33
0.0643909 0.0968366 0.0464244 172 255 36
0.0648433 0.0969059 0.046419 174 4 33
0.0649324 0.096832 0.0463574 172 255 36
0.0654231 0.0969066 0.0464234 174 4 33
0.0655122 0.0968323 0.0463618 172 255 36
0.0659966 0.0969064 0.0464163 174 4 33
0.0660857 0.0968318 0.0463547 172 255 36
0.0665587 0.0969047 0.0463879 174 4 33
0.0666478 0.0968298 0.0463263 172 255 36
0.0670832 0.0968981 0.0462891 174 4 33
0.0671723 0.096823 0.0462274 172 255 36
0.0675715 0.0968866 0.0461226 174 4 33
0.0676606 0.0968114 0.0460609 172 255 36
0.0680641 0.0968758 0.0459641 174 4 33
0.0681531 0.0968004 0.0459024 172 255 36
0.0685466 0.0968637 0.0457868 174 4 33
0.0686356 0.0967882 0.045725 172 255 36
0.069023 0.0968507 0.045598 174 4 33
0.069112 0.0967751 0.0455362 172 255 36
0.0694769 0.0968348 0.0453673 174 4 33
0.0695659 0.0967591 0.0453055 172 255 36
0.0699102 0.0968162 0.045098 174 4 33
0.0699992 0.0967404 0.0450361 172 255 36
0.0703243 0.0967951 0.0447927 174 4 33
0.0704132 0.0967193 0.0447308 172 255 36
0.0707299 0.0967727 0.0444716 174 4 33
0.0708188 0.096697 0.0444097 172 255 36
0.0711284 0.0967495 0.0441373 174 4 33
0.0712173 0.0966738 0.0440753 172 255 36
0.0715397 0.096728 0.0438268 174 4 33
0.0716286 0.0966523 0.0437648 172 255 36
0.0719732 0.0967094 0.0435577 174 4 33
0.072062 0.0966337 0.0434957 172 255 36
0.0723883 0.0966883 0.0432544 174 4 33
0.0724771 0.0966126 0.0431923 172 255 36
0.0727872 0.0966652 0.0429209 174 4 33
0.072876 0.0965895 0.0428588 172 255 36
0.073182 0.0966416 0.0425797 174 4 33
0.0732708 0.0965659 0.0425175 172 255 36
0.0735596 0.0966156 0.042206 174 4 33
0.0736483 0.09654 0.0421438 172 255 36
0.0739224 0.0965877 0.0418049 174 4 33
0.0740111 0.0965122 0.0417427 172 255 36
0.0746282 0.0965292 0.0409655 174 4 33
0.0743723 0.0964842 0.0413386 172 255 36
0.0749341 0.0964939 0.0404582 174 4 33
0.0747168 0.096454 0.0409032 172 255 36
0.0752476 0.0964595 0.0399648 174 4 33
0.0750227 0.0964189 0.0403958 172 255 36
0.0755305 0.0964211 0.0394143 174 4 33
0.0753361 0.0963847 0.0399024 172 255 36
0.075799 0.0963808 0.0388366 174 4 33
0.075619 0.0963465 0.0393519 172 255 36
0.0760181 0.096334 0.0381668 174 4 33
0.0758874 0.0963065 0.0387741 172 255 36
0.0761999 0.0962822 0.0374273 174 4 33
0.0761065 0.0962601 0.0381043 172 255 36
0.0763711 0.0962291 0.0366678 174 4 33
0.0762882 0.0962088 0.0373647 172 255 36
0.0765638 0.0961789 0.0359489 174 4 33
0.0764593 0.0961562 0.0366052 172 255 36
0.0767811 0.0961318 0.0352755 174 4 33
0.076652 0.0961064 0.0358862 172 255 36
0.0764879 0.0962473 0.0349224 174 4 33
0.0768692 0.0960597 0.0352128 172 255 36
0.077796 0.0960322 0.0340043 174 4 33
0.0770049 0.0960025 0.0343872 172 255 36
-0.076506 0.0930933 -0.0216054 174 4 33
-0.0772593 0.0930664 -0.0213273 172 255 36
-0.0764969 0.0930432 -0.0207374 174 4 33
-0.0764131 0.0930995 -0.0207951 172 255 36
-0.0748555 0.0931769 -0.0186311 174 4 33
-0.0747716 0.0932307 -0.0186888 172 255 36
-0.0737227 0.0932469 -0.0175315 174 4 33
-0.0736387 0.0932992 -0.0175892 172 255 36
-0.0719216 0.0933743 -0.0171116 174 4 33
-0.072678 0.0933465 -0.0168303 172 255 36
-0.0727621 0.0932953 -0.0167726 174 4 33
-0.0718343 0.0933793 -0.0163032 172 255 36
-0.0719184 0.093329 -0.0162455 174 4 33
-0.0710394 0.0934061 -0.0158724 172 255 36
-0.0703557 0.0933808 -0.0154376 174 4 33
-0.0702715 0.0934296 -0.0154954 172 255 36
-0.0694666 0.0934202 -0.0148205 174 4 33
-0.0693824 0.093468 -0.0148783 172 255 36
-0.0676803 0.0935414 -0.014437 174 4 33
-0.0684385 0.0935132 -0.0141528 172 255 36
-0.0683154 0.0927524 -0.0136859 174 4 33
-0.0676108 0.0935441 -0.0136573 172 255 36
-0.0660472 0.0936004 -0.0134923 174 4 33
-0.066806 0.0935721 -0.013207 172 255 36
-0.0668904 0.093527 -0.0131492 174 4 33
-0.0660141 0.0935985 -0.0127823 172 255 36
-0.0660985 0.0935541 -0.0127245 174 4 33
-0.065213 0.0936261 -0.0123395 172 255 36
-0.0652975 0.0935825 -0.0122817 174 4 33
-0.0644182 0.0936529 -0.011909 172 255 36
-0.0645027 0.0936101 -0.0118511 174 4 33
-0.0636627 0.0936749 -0.0115563 172 255 36
-0.0630285 0.0936508 -0.0112186 174 4 33
-0.062944 0.0936923 -0.0112765 172 255 36
-0.06087 0.0931847 -0.0069473 174 4 33
-0.0604087 0.0939337 -0.00740101 172 255 36
-0.0595275 0.0939456 -0.00657374 174 4 33
-0.0594426 0.0939816 -0.00663159 172 255 36
-0.0576534 0.0940665 -0.00603594 174 4 33
-0.0584173 0.0940368 -0.00574486 172 255 36
-0.0569172 0.0940861 -0.00572235 174 4 33
-0.0576813 0.0940564 -0.00543077 172 255 36
-0.0577663 0.0940223 -0.0053729 174 4 33
-0.0570158 0.0940672 -0.00525633 172 255 36
-0.0571008 0.0940336 -0.00519844 174 4 33
-0.0563649 0.0940763 -0.00511073 172 255 36
-0.0551558 0.0940613 -0.00477671 174 4 33
-0.0556927 0.094088 -0.00492308 172 255 36
-0.0543062 0.0941232 -0.00512803 174 4 33
-0.0550707 0.0940935 -0.00483468 172 255 36
-0.0555538 0.0940849 -0.00440034 174 4 33
-0.054336 0.0941129 -0.00452321 172 255 36
-0.0544211 0.0940814 -0.00446522 174 4 33
-0.0536526 0.094126 -0.00431322 172 255 36
-0.0532378 0.0940856 -0.00440843 174 4 33
-0.0531527 0.0941164 -0.00446647 172 255 36
-0.0526674 0.094085 -0.00442235 174 4 33
-0.0525823 0.0941155 -0.00448042 172 255 36
-0.0521599 0.0940766 -0.00456049 174 4 33
-0.0520748 0.0941069 -0.00461859 172 255 36
-0.0517312 0.0940583 -0.00485469 174 4 33
-0.0516461 0.0940886 -0.00491282 172 255 36
-0.0513385 0.0940354 -0.00522044 174 4 33
-0.0512535 0.0940658 -0.00527861 172 255 36
-0.0509567 0.0940112 -0.00560739 174 4 33
-0.0508717 0.0940417 -0.0056656 172 255 36
-0.050554 0.0939897 -0.00595308 174 4 33
-0.050469 0.0940202 -0.00601132 172 255 36
-0.0501547 0.0939678 -0.00630553 174 4 33
-0.0500697 0.0939983 -0.00636381 172 255 36
-0.0492165 0.0939413 -0.00673409 174 4 33
-0.0495152 0.0939955 -0.00640889 172 255 36
-0.0488675 0.0939129 -0.0071861 174 4 33
-0.0491316 0.0939716 -0.00679243 172 255 36
-0.0485044 0.0938864 -0.00761028 174 4 33
-0.0487826 0.0939434 -0.00724448 172 255 36
-0.0482387 0.0938477 -0.00822706 174 4 33
-0.0484196 0.093917 -0.0076687 172 255 36
-0.0479711 0.0938091 -0.00884049 174 4 33
-0.0481539 0.0938786 -0.00828552 172 255 36
-0.0471246 0.0938684 -0.00919711 174 4 33
-0.0478864 0.0938404 -0.00889899 172 255 36
-0.0475765 0.0937866 -0.00920212 174 4 33
-0.0474918 0.0938179 -0.00926066 172 255 36
-0.0471263 0.0937709 -0.0094538 174 4 33
-0.0470416 0.0938022 -0.00951237 172 255 36
-0.046672 0.0937558 -0.00969741 174 4 33
-0.0465873 0.093787 -0.00975601 172 255 36
-0.046164 0.0937475 -0.00983465 174 4 33
-0.0460793 0.0937785 -0.00989329 172 255 36
-0.045662 0.0937384 -0.00998363 174 4 33
-0.0455773 0.0937692 -0.0100423 172 255 36
-0.0451052 0.093736 -0.0100244 174 4 33
-0.0450206 0.0937666 -0.0100831 172 255 36
-0.0446167 0.0937253 -0.0102003 174 4 33
-0.0445321 0.0937557 -0.010259 172 255 36
-0.0440972 0.0937183 -0.0103149 174 4 33
-0.0440126 0.0937485 -0.0103737 172 255 36
-0.043601 0.0937084 -0.0104755 174 4 33
-0.0435164 0.0937385 -0.0105343 172 255 36
-0.0431241 0.0936963 -0.0106743 174 4 33
-0.0430395 0.0937262 -0.0107331 172 255 36
-0.0426027 0.0936896 -0.0107851 174 4 33
-0.0425181 0.0937193 -0.0108439 172 255 36
-0.042113 0.0936789 -0.0109585 174 4 33
-0.0420284 0.0937085 -0.0110174 172 255 36
-0.0409038 0.0937089 -0.0117408 174 4 33
-0.0416638 0.0936822 -0.0114385 172 255 36
-0.0407989 0.0936274 -0.0117857 174 4 33
-0.0412314 0.0936644 -0.0117252 172 255 36
-0.0417483 0.0936525 -0.0113796 174 4 33
-0.0407144 0.0936569 -0.0118447 172 255 36
-0.0411913 0.0936866 -0.0114 174 4 33
-0.0399164 0.0936841 -0.011408 172 255 36
-0.0389636 0.0936414 -0.0115812 174 4 33
-0.0393872 0.0936782 -0.0115033 172 255 36
-0.0381192 0.0936961 -0.0119444 174 4 33
-0.0388791 0.0936697 -0.0116403 172 255 36
-0.0393562 0.0937033 -0.0111942 174 4 33
-0.0382036 0.0936818 -0.0114462 172 255 36
-0.0377332 0.0936515 -0.0114315 174 4 33
-0.0376487 0.093679 -0.0114906 172 255 36
-0.0372416 0.093641 -0.0116013 174 4 33
-0.0371571 0.0936684 -0.0116604 172 255 36
-0.0367752 0.0936275 -0.0118206 174 4 33
-0.0366907 0.0936548 -0.0118798 172 255 36
-0.0361274 0.0936817 -0.0116585 174 4 33
-0.0361928 0.0936449 -0.0120372 172 255 36
-0.0348911 0.0936666 -0.0124133 174 4 33
-0.0356507 0.0936406 -0.012107 172 255 36
-0.0305476 0.0938811 -0.0086038 174 4 33
-0.0304323 0.0938568 -0.00863452 172 255 36
-0.0293065 0.093857 -0.00936676 174 4 33
-0.0300682 0.0938306 -0.00905664 172 255 36
-0.0268228 0.0940211 -0.00674113 174 4 33
-0.0275862 0.0939942 -0.00642929 172 255 36
-0.0264532 0.0939847 -0.0062447 174 4 33
-0.0269289 0.094004 -0.00627114 172 255 36
-0.0256047 0.0940289 -0.00661676 174 4 33
-0.0263682 0.094002 -0.0063041 172 255 36
-0.0257884 0.093996 -0.00607148 174 4 33
-0.0257034 0.0940128 -0.0061309 172 255 36
-0.0243954 0.0940265 -0.00559985 174 4 33
-0.0249133 0.094039 -0.00570981 172 255 36
-0.0235464 0.094069 -0.00597337 174 4 33
-0.0243104 0.0940421 -0.00565931 172 255 36
-0.0247929 0.094102 -0.00520195 174 4 33
-0.0235726 0.0940619 -0.00534177 172 255 36
-0.0228853 0.0934085 -0.00375505 174 4 33
-0.0223471 0.0941418 -0.00405868 172 255 36
-0.0219934 0.0934486 -0.0031326 174 4 33
-0.0213463 0.094194 -0.00322066 172 255 36
-0.0211338 0.0934846 -0.00257373 174 4 33
-0.0205166 0.0942251 -0.00272103 172 255 36
-0.0206019 0.0942138 -0.00266153 174 4 33
-0.0198358 0.0942379 -0.00251621 172 255 36
-0.0199211 0.0942272 -0.00245668 174 4 33
-0.0191993 0.0942452 -0.00239927 172 255 36
-0.0192846 0.0942349 -0.00233972 174 4 33
-0.0184629 0.0942648 -0.0020845 172 255 36
-0.0185482 0.0942552 -0.00202493 174 4 33
-0.0176372 0.0942954 -0.00159289 172 255 36
-0.0177226 0.0942866 -0.0015333 174 4 33
-0.0169531 0.0943085 -0.00138144 172 255 36
-0.0137217 0.0945691 0.00202816 174 4 33
-0.0144911 0.0945408 0.00234898 172 255 36
-0.0140701 0.0945283 0.00226864 174 4 33
-0.0139844 0.0945321 0.00220906 172 255 36
-0.0136049 0.0945145 0.00204675 174 4 33
-0.0135192 0.0945183 0.00198714 172 255 36
-0.0131597 0.0944983 0.00178497 174 4 33
-0.0130741 0.094502 0.00172532 172 255 36
-0.0127475 0.0944779 0.00145805 174 4 33
-0.0126619 0.0944816 0.00139837 172 255 36
-0.0123215 0.0944593 0.00115854 174 4 33
-0.0122359 0.094463 0.00109883 172 255 36
-0.0112936 0.0944441 0.000907733 174 4 33
-0.0117639 0.09445 0.000890344 172 255 36
-0.0104396 0.094475 0.000524951 174 4 33
-0.011208 0.0944474 0.000847957 172 255 36
-0.00998521 0.0944639 0.00121187 174 4 33
-0.0105194 0.0944611 0.00106814 172 255 36
-0.00942564 0.094462 0.00117673 174 4 33
-0.00989963 0.0944663 0.00115205 172 255 36
-0.00881882 0.094466 0.00123504 174 4 33
-0.00934006 0.0944641 0.00111688 172 255 36
-0.00796464 0.0944952 0.00085048 174 4 33
-0.00873324 0.0944677 0.00117516 172 255 36
-0.0092218 0.0945554 0.0016446 174 4 33
-0.00808148 0.0944769 0.00132248 172 255 36
-0.00816708 0.0944757 0.00138238 174 4 33
-0.00743387 0.0944856 0.00146153 172 255 36
-0.00751948 0.0944849 0.00152146 174 4 33
-0.00677975 0.094495 0.00161352 172 255 36
-0.00562544 0.0945062 0.00184225 174 4 33
-0.00613437 0.0945034 0.00174817 172 255 36
-0.00477079 0.094533 0.00145541 174 4 33
-0.0055398 0.0945056 0.00178225 172 255 36
-0.00502749 0.094509 0.00188305 174 4 33
-0.00494185 0.0945081 0.00182302 172 255 36
-0.0044688 0.094507 0.00184614 174 4 33
-0.00438316 0.0945058 0.00178609 172 255 36
-0.00392237 0.0945035 0.00178493 174 4 33
-0.00383674 0.094502 0.00172485 172 255 36
-0.00341287 0.0944952 0.00165064 174 4 33
-0.00332725 0.0944936 0.00159053 172 255 36
-0.00293168 0.0944836 0.00146029 174 4 33
-0.00284608 0.0944818 0.00140014 172 255 36
-0.00246238 0.0944703 0.00124647 174 4 33
-0.00237679 0.0944684 0.00118629 172 255 36
-0.00197034 0.0944599 0.0010776 174 4 33
-0.00188477 0.0944579 0.00101739 172 255 36
-0.00146791 0.0944509 0.000929306 174 4 33
-0.00138235 0.0944487 0.000869065 172 255 36
-0.000961906 0.094525 0.000856958 174 4 33
-0.000915624 0.094435 0.000650077 172 255 36
0.000294035 0.0944449 5.11347e-05 174 4 33
-0.000474028 0.0944183 0.000381365 172 255 36
0.0248891 0.0975196 0.0452108 174 4 33
0.0240903 0.0974823 0.0455585 172 255 36
0.0244745 0.0975196 0.0454238 174 4 33
0.0245639 0.097469 0.0453646 172 255 36
0.0250081 0.0975142 0.045342 174 4 33
0.0250975 0.0974634 0.0452828 172 255 36
0.0255533 0.0975103 0.0452818 174 4 33
0.0256427 0.0974592 0.0452226 172 255 36
0.0260869 0.0975049 0.0452 174 4 33
0.0261763 0.0974536 0.0451408 172 255 36
0.0266507 0.0975035 0.0451749 174 4 33
0.0267401 0.0974519 0.0451156 172 255 36
0.0271846 0.0974982 0.0450935 174 4 33
0.027274 0.0974463 0.0450342 172 255 36
0.0277275 0.097494 0.045029 174 4 33
0.0278168 0.0974419 0.0449697 172 255 36
0.028275 0.0974904 0.0449733 174 4 33
0.0283643 0.097438 0.0449139 172 255 36
0.0288145 0.0974858 0.0449026 174 4 33
0.0289038 0.0974332 0.0448432 172 255 36
0.0293551 0.0974813 0.0448338 174 4 33
0.0294444 0.0974284 0.0447744 172 255 36
0.0298841 0.0974753 0.0447435 174 4 33
0.0299734 0.0974222 0.0446841 172 255 36
0.0304259 0.0974711 0.0446771 174 4 33
0.0305152 0.0974177 0.0446176 172 255 36
0.0309503 0.0974645 0.044578 174 4 33
0.0310396 0.0974109 0.0445185 172 255 36
0.0314516 0.0974549 0.044436 174 4 33
0.0315409 0.0974011 0.0443765 172 255 36
0.0319536 0.0974453 0.044295 174 4 33
0.0320429 0.0973914 0.0442354 172 255 36
0.03244 0.0974339 0.0441252 174 4 33
0.0325293 0.0973798 0.0440656 172 255 36
0.0328973 0.0974186 0.0439008 174 4 33
0.0329866 0.0973644 0.0438412 172 255 36
0.0333275 0.0973996 0.0436254 174 4 33
0.0334167 0.0973454 0.0435657 172 255 36
0.0337591 0.0973809 0.0433531 174 4 33
0.0338483 0.0973267 0.0432934 172 255 36
0.0341833 0.0973613 0.0430667 174 4 33
0.0342725 0.0973071 0.043007 172 255 36
0.0345711 0.0973369 0.0427125 174 4 33
0.0346603 0.0972827 0.0426527 172 255 36
0.0349344 0.0973093 0.042312 174 4 33
0.0350235 0.0972552 0.0422522 172 255 36
0.0356457 0.0972521 0.041483 174 4 33
0.0353913 0.0972283 0.0418605 172 255 36
0.0359406 0.0972157 0.0409551 174 4 33
0.0357347 0.0971983 0.0414231 172 255 36
0.0362319 0.0971787 0.0404204 174 4 33
0.0360296 0.0971621 0.0408952 172 255 36
0.0364851 0.0971367 0.0398142 174 4 33
0.0363209 0.0971253 0.0403604 172 255 36
0.0363044 0.0971939 0.0396542 174 4 33
0.036574 0.0970837 0.0397542 172 255 36
0.0376216 0.0970765 0.0387921 174 4 33
0.0368272 0.0970421 0.0391482 172 255 36
0.0119129 0.0937505 -0.0102981 174 4 33
0.0116281 0.0937751 -0.00994784 172 255 36
0.0122176 0.0937167 -0.0108377 174 4 33
0.0119975 0.0937494 -0.0103595 172 255 36
0.0124871 0.0936784 -0.0114472 174 4 33
0.0123022 0.0937158 -0.0108992 172 255 36
0.0127451 0.0936387 -0.0120793 174 4 33
0.0125716 0.0936779 -0.0115087 172 255 36
0.0130011 0.0935988 -0.0127155 174 4 33
0.0128296 0.0936385 -0.0121408 172 255 36
0.0132405 0.0935567 -0.0133845 174 4 33
0.0130855 0.0935989 -0.0127771 172 255 36
0.0131199 0.0936707 -0.0135689 174 4 33
0.0133249 0.0935572 -0.0134461 172 255 36
0.0143533 0.0935407 -0.0143937 174 4 33
0.013595 0.0935193 -0.0140542 172 255 36
0.0371313 0.095347 0.0140359 174 4 33
0.036713 0.0953226 0.0141097 172 255 36
0.0377577 0.0953538 0.0141276 174 4 33
0.037218 0.0953133 0.0139745 172 255 36
0.0386218 0.0953468 0.0137099 174 4 33
0.0378444 0.0953196 0.0140662 172 255 36
0.0390541 0.0953729 0.0143925 174 4 33
0.0385198 0.0953322 0.0142495 172 255 36
0.03966 0.095377 0.0144459 174 4 33
0.0391408 0.0953378 0.014331 172 255 36
0.0405243 0.0953687 0.0140268 174 4 33
0.0397467 0.0953415 0.0143844 172 255 36
0.0408018 0.0953759 0.014422 174 4 33
0.0403361 0.095343 0.014407 172 255 36
0.0410143 0.0955318 0.0149601 174 4 33
0.0408885 0.0953398 0.0143604 172 255 36
0.0422925 0.0953731 0.0140933 174 4 33
0.0415149 0.0953461 0.0144521 172 255 36
0.0585763 0.0973939 0.0434075 174 4 33
0.0577788 0.09736 0.0437778 172 255 36
0.0576896 0.097428 0.0438386 174 4 33
0.0584449 0.0973714 0.0439437 172 255 36
0.0583556 0.0974399 0.0440045 174 4 33
0.0592301 0.0973981 0.0443322 172 255 36
0.0591408 0.0974673 0.0443931 174 4 33
0.059977 0.0974199 0.0446492 172 255 36
0.0598877 0.0974898 0.0447101 174 4 33
0.0606471 0.0974318 0.0448226 172 255 36
0.0605578 0.0975022 0.0448835 174 4 33
0.0613792 0.0974516 0.045112 172 255 36
0.0629923 0.0975162 0.0451817 174 4 33
0.0621936 0.0974821 0.045555 172 255 36
0.0621042 0.0975539 0.0456159 174 4 33
0.0629615 0.0975065 0.0459114 172 255 36
0.0628721 0.097579 0.0459723 174 4 33
0.0636349 0.0975189 0.0460909 172 255 36
0.0641155 0.0975912 0.0461383 174 4 33
0.064205 0.0975179 0.0460773 172 255 36
0.0646424 0.0975849 0.0460437 174 4 33
0.0647318 0.0975114 0.0459827 172 255 36
0.0651843 0.0975807 0.0459777 174 4 33
0.0652737 0.0975069 0.0459166 172 255 36
0.06574 0.0975782 0.0459372 174 4 33
0.0658294 0.0975041 0.0458761 172 255 36
0.0663337 0.0975806 0.0459676 174 4 33
0.0664231 0.0975062 0.0459065 172 255 36
0.0668954 0.0975789 0.0459384 174 4 33
0.0669848 0.0975042 0.0458773 172 255 36
0.0674047 0.0975704 0.0458114 174 4 33
0.0674941 0.0974955 0.0457502 172 255 36
0.0679025 0.0975603 0.0456626 174 4 33
0.0679919 0.0974852 0.0456014 172 255 36
0.0683843 0.0975482 0.0454839 174 4 33
0.0684737 0.097473 0.0454227 172 255 36
0.0688561 0.0975347 0.0452868 174 4 33
0.0689455 0.0974594 0.0452255 172 255 36
0.0693129 0.0975193 0.0450614 174 4 33
0.0694023 0.0974439 0.0450001 172 255 36
0.0697402 0.0975001 0.0447807 174 4 33
0.0698295 0.0974247 0.0447194 172 255 36
0.070165 0.0974805 0.0444956 174 4 33
0.0702543 0.0974051 0.0444342 172 255 36
0.0706001 0.0974623 0.0442297 174 4 33
0.0706894 0.0973868 0.0441683 172 255 36
0.071028 0.0974431 0.0439503 174 4 33
0.0711173 0.0973676 0.0438889 172 255 36
0.0714452 0.0974226 0.0436508 174 4 33
0.0715344 0.0973471 0.0435893 172 255 36
0.0718803 0.0974043 0.043385 174 4 33
0.0719695 0.0973288 0.0433235 172 255 36
0.0723044 0.0973847 0.0430984 174 4 33
0.0723936 0.0973091 0.0430369 172 255 36
0.0727007 0.0973614 0.04276 174 4 33
0.0727899 0.0972859 0.0426984 172 255 36
0.0730947 0.0973378 0.0424172 174 4 33
0.0731838 0.0972623 0.0423556 172 255 36
0.0734811 0.0973132 0.0420601 174 4 33
0.0735702 0.0972378 0.0419984 172 255 36
0.0738549 0.0972871 0.0416796 174 4 33
0.073944 0.0972117 0.0416179 172 255 36
0.0742258 0.0972605 0.0412936 174 4 33
0.0743148 0.0971852 0.0412319 172 255 36
0.0745766 0.0972312 0.0408701 174 4 33
0.0746656 0.0971561 0.0408083 172 255 36
0.0752293 0.0971664 0.0399314 174 4 33
0.0749821 0.0971226 0.0403206 172 255 36
0.0755209 0.0971294 0.0393973 174 4 33
0.0753182 0.0970916 0.0398695 172 255 36
0.0758006 0.097091 0.0388407 174 4 33
0.0756098 0.0970549 0.0393354 172 255 36
0.0760391 0.0970471 0.0382073 174 4 33
0.0758894 0.0970167 0.0387788 172 255 36
0.0762154 0.0969951 0.0374573 174 4 33
0.0761279 0.0969732 0.0381453 172 255 36
0.0763924 0.0969433 0.0367089 174 4 33
0.0763041 0.0969217 0.0373953 172 255 36
0.0765537 0.0968894 0.035931 174 4 33
0.076481 0.0968703 0.0366468 172 255 36
0.0767191 0.096836 0.0351608 174 4 33
0.0766423 0.0968169 0.0358689 172 255 36
0.0768796 0.096782 0.0343814 174 4 33
0.0768076 0.096764 0.0350986 172 255 36
0.0766506 0.096908 0.0341505 174 4 33
0.076968 0.0967105 0.0343192 172 255 36
0.0779591 0.0966915 0.0332314 174 4 33
0.0771685 0.0966621 0.0336146 172 255 36
-0.0765397 0.0937814 -0.020821 174 4 33
-0.0764555 0.0938378 -0.0208782 172 255 36
