ply
format ascii 1.0
element vertex 1197
property float x
property float y
property float z
property uchar red
property uchar green
property uchar blue
end_header
0.0865067 0.140189 0.0295009 172 255 36
0.0871688 0.140191 0.0294162 174 4 33
0.0870868 0.140189 0.0295059 172 255 36
0.0872257 0.140195 0.0288236 174 4 33
0.0876165 0.140186 0.029417 172 255 36
0.0872239 0.140114 0.0297763 174 4 33
0.0881628 0.140184 0.0293591 172 255 36
0.0884862 0.140073 0.0292562 174 4 33
0.0887322 0.140184 0.0293443 172 255 36
-0.084695 0.139544 -0.0145414 174 4 33
-0.0847736 0.139585 -0.0144655 172 255 36
-0.0851483 0.139617 -0.0151223 174 4 33
-0.0841708 0.139587 -0.0144151 172 255 36
-0.0845535 0.139408 -0.0140929 174 4 33
-0.0836075 0.139586 -0.0144428 172 255 36
-0.0839902 0.139408 -0.0141204 174 4 33
-0.0831081 0.139582 -0.0145973 172 255 36
-0.0825516 0.139535 -0.0148707 174 4 33
-0.0826302 0.139576 -0.0147946 172 255 36
-0.0826085 0.139388 -0.0148151 174 4 33
-0.0822259 0.139566 -0.0151378 172 255 36
-0.0878698 0.138728 -0.0428209 174 4 33
-0.0879463 0.138787 -0.0427457 172 255 36
-0.0875222 0.138673 -0.0430782 174 4 33
-0.087373 0.138787 -0.0427542 172 255 36
-0.0857737 0.138675 -0.0434733 174 4 33
-0.0867983 0.138787 -0.0427597 172 255 36
-0.0854017 0.138662 -0.0434725 174 4 33
-0.0862541 0.138785 -0.0428293 172 255 36
-0.0856604 0.138722 -0.0430307 174 4 33
-0.0857369 0.138781 -0.0429554 172 255 36
-0.0851658 0.138569 -0.0430679 174 4 33
-0.085253 0.138776 -0.0431513 172 255 36
-0.0849381 0.138655 -0.0437112 174 4 33
-0.0847898 0.138769 -0.0433906 172 255 36
-0.044124 0.139228 -0.0209258 174 4 33
-0.0437428 0.139394 -0.021257 172 255 36
-0.039884 0.139798 -0.0185594 174 4 33
-0.0428879 0.139409 -0.0207066 172 255 36
-0.0425209 0.141735 -0.0176723 174 4 33
-0.041912 0.139432 -0.0199164 172 255 36
-0.040821 0.139416 -0.0191324 174 4 33
-0.0408993 0.139456 -0.0190531 172 255 36
-0.0398641 0.139438 -0.01838 174 4 33
-0.0399425 0.139477 -0.0183007 172 255 36
-0.0395668 0.140075 -0.0176119 174 4 33
-0.0391053 0.139492 -0.0177855 172 255 36
-0.0384752 0.139395 -0.0175758 174 4 33
-0.0382919 0.139505 -0.0173174 172 255 36
-0.0376345 0.139445 -0.0175276 174 4 33
-0.0375776 0.139513 -0.017046 172 255 36
-0.0369368 0.139451 -0.0172879 174 4 33
-0.0368797 0.139519 -0.0168068 172 255 36
-0.0342219 0.140119 -0.0161705 174 4 33
-0.0362145 0.139524 -0.0166327 172 255 36
-0.0322163 0.136392 -0.0156234 174 4 33
-0.0356116 0.139526 -0.0165821 172 255 36
-0.0351688 0.139418 -0.0167372 174 4 33
-0.0349844 0.139528 -0.0164832 172 255 36
-0.034576 0.139418 -0.0167056 174 4 33
-0.0343915 0.139529 -0.0164524 172 255 36
-0.0337115 0.139494 -0.0164844 174 4 33
-0.03379 0.139531 -0.0164045 172 255 36
-0.0333366 0.139423 -0.0165355 174 4 33
-0.0331519 0.139534 -0.016284 172 255 36
-0.0324742 0.139498 -0.0163208 174 4 33
-0.0325527 0.139535 -0.0162408 172 255 36
-0.0330533 0.143175 -0.0138553 174 4 33
-0.0319326 0.139538 -0.016156 172 255 36
-0.0312529 0.139502 -0.0161889 174 4 33
-0.0313314 0.139539 -0.0161088 172 255 36
-0.030675 0.139502 -0.0161877 174 4 33
-0.0307535 0.139539 -0.0161076 172 255 36
-0.0317442 0.140129 -0.0158359 174 4 33
-0.0301841 0.139539 -0.0161233 172 255 36
-0.029515 0.139502 -0.0161773 174 4 33
-0.0295935 0.139539 -0.0160971 172 255 36
-0.0289599 0.139501 -0.0162215 174 4 33
-0.0290384 0.139538 -0.0161413 172 255 36
-0.0284062 0.1395 -0.0162684 174 4 33
-0.0284847 0.139537 -0.0161881 172 255 36
-0.0280917 0.139425 -0.0164318 174 4 33
-0.0279069 0.139537 -0.0161873 172 255 36
-0.0263469 0.139455 -0.0168872 174 4 33
-0.0273598 0.139535 -0.0162471 172 255 36
-0.0266718 0.139375 -0.0160796 174 4 33
-0.0268252 0.139533 -0.016332 172 255 36
-0.026211 0.139493 -0.0164949 174 4 33
-0.0262895 0.13953 -0.0164145 172 255 36
-0.0248113 0.139442 -0.0172761 174 4 33
-0.0257756 0.139527 -0.0165405 172 255 36
-0.0243087 0.139437 -0.0174241 174 4 33
-0.0252616 0.139523 -0.016666 172 255 36
-0.0246757 0.139482 -0.0168853 174 4 33
-0.0247542 0.139519 -0.0168047 172 255 36
-0.0241732 0.139478 -0.0170337 174 4 33
-0.0242517 0.139515 -0.0169531 172 255 36
-0.0241155 0.139358 -0.0167347 174 4 33
-0.0237334 0.139512 -0.0170702 172 255 36
-0.0231558 0.139471 -0.0173058 174 4 33
-0.0232342 0.139508 -0.0172251 172 255 36
-0.0226685 0.139465 -0.0174844 174 4 33
-0.0227469 0.139502 -0.0174037 172 255 36
-0.0221892 0.13946 -0.0176787 174 4 33
-0.0222676 0.139497 -0.017598 172 255 36
-0.0213052 0.139545 -0.0190181 174 4 33
-0.0218022 0.139491 -0.0178201 172 255 36
-0.0208857 0.139537 -0.0193312 174 4 33
-0.0213504 0.139484 -0.018069 172 255 36
-0.0208537 0.139438 -0.0184649 174 4 33
-0.020932 0.139475 -0.0183841 172 255 36
-0.0204343 0.139428 -0.0187782 174 4 33
-0.0205126 0.139466 -0.0186973 172 255 36
-0.0189357 0.139337 -0.0205081 174 4 33
-0.0200997 0.139457 -0.0190235 172 255 36
-0.0194677 0.139323 -0.0199357 174 4 33
-0.0196971 0.139447 -0.0193699 172 255 36
-0.0186694 0.139303 -0.0206429 174 4 33
-0.0192876 0.139438 -0.0197028 172 255 36
-0.018278 0.139292 -0.0210123 174 4 33
-0.0188811 0.139428 -0.0200416 172 255 36
-0.018412 0.13938 -0.0204921 174 4 33
-0.0184902 0.139418 -0.0204111 172 255 36
-0.0180211 0.139368 -0.020862 174 4 33
-0.0180993 0.139407 -0.020781 172 255 36
-0.0181125 0.139241 -0.020859 174 4 33
-0.0177313 0.139396 -0.0211959 172 255 36
-0.0169628 0.139208 -0.0220141 174 4 33
-0.0173406 0.139385 -0.0215662 172 255 36
-0.0160512 0.139221 -0.0234691 174 4 33
-0.0169471 0.139375 -0.0219306 172 255 36
-0.0162804 0.13925 -0.0232583 174 4 33
-0.0165819 0.139363 -0.0223513 172 255 36
-0.0161499 0.139311 -0.0228753 174 4 33
-0.0162279 0.139351 -0.0227942 172 255 36
-0.0149511 0.139185 -0.0247239 174 4 33
-0.0158758 0.139338 -0.0232409 172 255 36
-0.015887 0.13917 -0.0233158 174 4 33
-0.0155064 0.139326 -0.0236532 172 255 36
-0.0144755 0.139182 -0.0254051 174 4 33
-0.0151374 0.139315 -0.0240662 172 255 36
-0.0142429 0.13916 -0.0256106 174 4 33
-0.0147774 0.139303 -0.0244972 172 255 36
-0.0137368 0.139156 -0.0262306 174 4 33
-0.0144247 0.13929 -0.0249426 172 255 36
-0.0134346 0.139139 -0.0262982 174 4 33
-0.0140704 0.139278 -0.0253848 172 255 36
-0.0136088 0.139226 -0.0258501 174 4 33
-0.0136866 0.139267 -0.0257688 172 255 36
-0.0131852 0.139217 -0.0261548 174 4 33
-0.013263 0.139258 -0.0260735 172 255 36
-0.0128327 0.13914 -0.0267275 174 4 33
-0.0127829 0.139253 -0.0262664 172 255 36
-0.0124237 0.139131 -0.0265828 174 4 33
-0.0122525 0.13925 -0.0263595 172 255 36
-0.0111013 0.139083 -0.0264194 174 4 33
-0.0116746 0.13925 -0.0263584 172 255 36
-0.011085 0.139206 -0.0265696 174 4 33
-0.0111627 0.139247 -0.0264882 172 255 36
-0.0110915 0.139334 -0.0273887 174 4 33
-0.0107214 0.139239 -0.0267579 172 255 36
0.000878742 0.139742 -0.0037975 174 4 33
0.00126386 0.139876 -0.00413817 172 255 36
0.006443 0.131823 0.00266836 174 4 33
0.00300968 0.139941 -0.00182133 172 255 36
0.00929758 0.128918 0.0037533 174 4 33
0.0038482 0.139956 -0.00130344 172 255 36
0.0043621 0.139844 -0.00032268 174 4 33
0.00474802 0.139974 -0.000664041 172 255 36
0.00513696 0.139856 6.92917e-05 174 4 33
0.00552297 0.139985 -0.00027223 172 255 36
0.00593541 0.139868 0.000508035 174 4 33
0.00632152 0.139997 0.000166348 172 255 36
0.00730078 0.139992 0.000721712 174 4 33
0.00722099 0.140015 0.000805079 172 255 36
0.00804482 0.139983 0.000988438 174 4 33
0.00811611 0.140033 0.00143516 172 255 36
0.0113928 0.1371 0.00306943 174 4 33
0.00892716 0.140046 0.0018985 172 255 36
0.00964753 0.140009 0.00187931 174 4 33
0.00971951 0.140058 0.00232483 172 255 36
0.0105117 0.140045 0.00250879 174 4 33
0.0104318 0.140066 0.00259244 172 255 36
0.0153365 0.132662 0.0054228 174 4 33
0.0110992 0.140071 0.00277093 172 255 36
0.011668 0.139973 0.00298068 174 4 33
0.0118788 0.140082 0.00317198 172 255 36
0.0128194 0.140078 0.00364977 174 4 33
0.0127394 0.140098 0.00373362 172 255 36
0.0134121 0.140006 0.00415493 174 4 33
0.0136245 0.140115 0.0043439 172 255 36
0.0144673 0.140105 0.00462729 174 4 33
0.0143872 0.140125 0.00471129 172 255 36
0.0147784 0.141544 0.00403864 174 4 33
0.0150781 0.140132 0.00493643 172 255 36
0.0159243 0.140123 0.00522659 174 4 33
0.0158442 0.140142 0.00531071 172 255 36
0.0166031 0.140113 0.00537861 174 4 33
0.0166778 0.140157 0.00581887 172 255 36
0.0175113 0.140147 0.00608337 174 4 33
0.0174311 0.140166 0.00616763 172 255 36
0.0180638 0.140131 0.00598747 174 4 33
0.018139 0.140174 0.00642661 172 255 36
0.018592 0.14007 0.00641595 174 4 33
0.0188074 0.140179 0.00659799 172 255 36
0.0194813 0.140162 0.00654408 174 4 33
0.0194011 0.14018 0.0066285 172 255 36
0.0201485 0.140167 0.00671178 174 4 33
0.0200683 0.140185 0.00679626 172 255 36
0.0205721 0.140087 0.00772732 174 4 33
0.0209599 0.140204 0.00738259 172 255 36
0.0216479 0.140115 0.0078163 174 4 33
0.0218651 0.140224 0.00799425 172 255 36
0.022841 0.140265 0.0077593 174 4 33
0.0226092 0.140234 0.00830541 172 255 36
0.0233046 0.140219 0.00829094 174 4 33
0.0232242 0.140236 0.0083757 172 255 36
0.0236404 0.14013 0.00830629 174 4 33
0.0238583 0.140239 0.00848157 172 255 36
0.0247696 0.140238 0.00886985 174 4 33
0.0246892 0.140254 0.00895473 172 255 36
0.0255576 0.140251 0.00926274 174 4 33
0.0254772 0.140267 0.00934769 172 255 36
0.0262463 0.140258 0.00947027 174 4 33
0.0261658 0.140274 0.00955528 172 255 36
0.0267176 0.140176 0.0097466 174 4 33
0.0269374 0.140285 0.00991777 172 255 36
0.0274595 0.140193 0.0108858 174 4 33
0.027848 0.140305 0.0105396 172 255 36
0.0289503 0.14035 0.0105449 174 4 33
0.0286336 0.140317 0.0109281 172 255 36
0.0289459 0.140214 0.0115054 174 4 33
0.0293346 0.140325 0.0111589 172 255 36
0.0303098 0.14033 0.0116655 174 4 33
0.0302292 0.140344 0.0117509 172 255 36
0.0309266 0.140255 0.0122257 174 4 33
0.0311497 0.140364 0.0123912 172 255 36
0.0319732 0.140361 0.0126144 174 4 33
0.0318925 0.140374 0.0126999 172 255 36
0.0327177 0.140371 0.0129261 174 4 33
0.032637 0.140384 0.0130117 172 255 36
0.0337447 0.140425 0.0130306 174 4 33
0.0334375 0.140397 0.0134281 172 255 36
0.0342107 0.140392 0.013557 174 4 33
0.0341299 0.140404 0.0136427 172 255 36
0.0345759 0.140301 0.0136569 174 4 33
0.034801 0.14041 0.0138176 172 255 36
0.0356531 0.140409 0.0140939 174 4 33
0.0355723 0.140421 0.0141797 172 255 36
0.0360554 0.140334 0.0150784 174 4 33
0.0364449 0.140439 0.0147305 172 255 36
0.0370397 0.140345 0.0150291 174 4 33
0.0372666 0.140453 0.0151865 172 255 36
0.0380789 0.140452 0.0153878 174 4 33
0.037998 0.140463 0.0154739 172 255 36
0.0386068 0.140437 0.0152625 174 4 33
0.0386891 0.140469 0.0156861 172 255 36
0.039395 0.140461 0.0156889 174 4 33
0.0393141 0.140472 0.0157751 172 255 36
0.0398236 0.14044 0.0153795 174 4 33
0.039906 0.140473 0.0158022 172 255 36
0.0402527 0.140364 0.0156437 174 4 33
0.0404804 0.140473 0.0157968 172 255 36
0.0409144 0.140369 0.0158023 174 4 33
0.0411423 0.140478 0.0159545 172 255 36
0.0412521 0.141952 0.015196 174 4 33
0.0418154 0.140484 0.0161332 172 255 36
0.0425558 0.140479 0.0161998 174 4 33
0.0424748 0.140489 0.0162862 172 255 36
0.0429093 0.140385 0.0162968 174 4 33
0.0431379 0.140494 0.0164463 172 255 36
0.0439033 0.14049 0.0165595 174 4 33
0.0438223 0.1405 0.016646 172 255 36
0.0442362 0.140395 0.0166206 174 4 33
0.0444652 0.140504 0.0167683 172 255 36
0.0463427 0.137525 0.0181215 174 4 33
0.0450829 0.140506 0.0168437 172 255 36
0.0469524 0.137643 0.0172092 174 4 33
0.0456975 0.140509 0.0169131 172 255 36
0.0462394 0.141245 0.0158844 174 4 33
0.0462464 0.140507 0.0168599 172 255 36
0.046884 0.140497 0.0167345 174 4 33
0.046803 0.140506 0.0168213 172 255 36
0.0474437 0.140496 0.0167015 174 4 33
0.0473627 0.140505 0.0167883 172 255 36
0.0480232 0.140496 0.0167055 174 4 33
0.0479422 0.140505 0.0167924 172 255 36
0.048436 0.140469 0.0163757 174 4 33
0.0485192 0.140505 0.0167916 172 255 36
0.0491151 0.141126 0.0168263 174 4 33
0.0491027 0.140505 0.0168031 172 255 36
0.0494229 0.141186 0.016059 174 4 33
0.0496687 0.140504 0.0167821 172 255 36
0.0511831 0.140457 0.0161171 174 4 33
0.0502012 0.140502 0.0166983 172 255 36
0.0516643 0.140451 0.0159376 174 4 33
0.0507531 0.1405 0.0166508 172 255 36
0.0513471 0.140487 0.0164437 174 4 33
0.0512661 0.140496 0.0165308 172 255 36
0.0518437 0.140388 0.0165326 174 4 33
0.0517471 0.140491 0.0163509 172 255 36
0.0521508 0.140444 0.0157684 174 4 33
0.0522335 0.140485 0.0161813 172 255 36
0.0532808 0.140493 0.0150188 174 4 33
0.0527034 0.140479 0.0159808 172 255 36
0.0532506 0.140463 0.0156863 174 4 33
0.0531697 0.140472 0.0157735 172 255 36
0.0535501 0.141082 0.0154066 174 4 33
0.0536667 0.140467 0.0156237 172 255 36
0.054271 0.140362 0.0156754 174 4 33
0.0541745 0.140463 0.0154939 172 255 36
0.0545785 0.140413 0.0149127 174 4 33
0.0546606 0.140458 0.0153235 172 255 36
0.0552306 0.140444 0.0150716 174 4 33
0.0551497 0.140453 0.015159 172 255 36
0.0555258 0.140398 0.0145261 174 4 33
0.0556076 0.140445 0.0149361 172 255 36
0.0552181 0.140349 0.0152882 174 4 33
0.0560563 0.140438 0.014696 172 255 36
0.0576705 0.140349 0.0131412 174 4 33
0.0564859 0.140429 0.0144203 172 255 36
0.0565254 0.140324 0.0144956 174 4 33
0.0569148 0.14042 0.0141432 172 255 36
0.0579539 0.141133 0.0118888 174 4 33
0.0573412 0.140411 0.0138616 172 255 36
0.0583474 0.141124 0.0115459 174 4 33
0.0577512 0.140401 0.0135494 172 255 36
0.0582147 0.14038 0.0130988 174 4 33
0.058134 0.14039 0.0131864 172 255 36
0.0585874 0.140366 0.0127169 174 4 33
0.0585067 0.140377 0.0128045 172 255 36
0.0589813 0.140355 0.0123746 174 4 33
0.0589006 0.140366 0.0124622 172 255 36
0.0592279 0.140975 0.011996 174 4 33
0.0593337 0.140358 0.0121931 172 255 36
0.0597127 0.140292 0.0115648 174 4 33
0.0597922 0.140351 0.0119712 172 255 36
0.0609078 0.140376 0.0109357 174 4 33
0.0602696 0.140345 0.0117847 172 255 36
0.0608427 0.140329 0.0115386 174 4 33
0.0607621 0.14034 0.0116264 172 255 36
0.0613728 0.140326 0.0114504 174 4 33
0.0612922 0.140337 0.0115382 172 255 36
0.0609034 0.140241 0.0118916 174 4 33
0.0618655 0.140337 0.0115307 172 255 36
0.0616435 0.140223 0.0114064 174 4 33
0.0623879 0.140333 0.0114281 172 255 36
0.0693813 0.140753 0.0235275 174 4 33
0.0697704 0.140739 0.024126 172 255 36
0.0706402 0.14075 0.0244307 174 4 33
0.0705586 0.140752 0.0245195 172 255 36
0.0701668 0.140669 0.0248746 174 4 33
0.0711708 0.140754 0.0245845 172 255 36
0.0714702 0.140641 0.0244015 174 4 33
0.0717096 0.140751 0.0245127 172 255 36
0.0730516 0.140702 0.0262816 174 4 33
0.0732935 0.140811 0.0263907 172 255 36
0.0741648 0.140824 0.0266978 174 4 33
0.0740831 0.140824 0.0267869 172 255 36
0.074736 0.140734 0.0272747 174 4 33
0.0749792 0.140843 0.0273816 172 255 36
0.0753703 0.140777 0.0281225 174 4 33
0.0757628 0.140855 0.0277663 172 255 36
0.0767863 0.140878 0.0276551 174 4 33
0.0764496 0.140862 0.0279706 172 255 36
0.0772589 0.140872 0.0281612 174 4 33
0.077177 0.140871 0.0282506 172 255 36
0.0777111 0.140898 0.0283041 174 4 33
0.078102 0.140892 0.0288993 172 255 36
0.0790712 0.140912 0.0293879 174 4 33
0.0789892 0.14091 0.0294774 172 255 36
0.0795918 0.140817 0.0298845 174 4 33
0.0798385 0.140926 0.0299849 172 255 36
0.0804259 0.140833 0.0303659 174 4 33
0.0806733 0.140942 0.0304652 172 255 36
0.0815233 0.140956 0.0307311 174 4 33
0.0814413 0.140953 0.0308209 172 255 36
0.0822386 0.140964 0.0309884 174 4 33
0.0821565 0.140961 0.0310782 172 255 36
0.0817632 0.140888 0.0314357 174 4 33
0.0827891 0.140964 0.0311812 172 255 36
0.0833938 0.140964 0.0309892 174 4 33
0.0833117 0.140961 0.0310791 172 255 36
0.0833836 0.140882 0.0312276 174 4 33
0.0837768 0.140954 0.0308697 172 255 36
0.0842814 0.140948 0.030491 174 4 33
0.0841994 0.140945 0.030581 172 255 36
0.0846906 0.140938 0.0301771 174 4 33
0.0846086 0.140935 0.0302671 172 255 36
0.0814699 0.145667 0.0344824 174 4 33
0.0850431 0.140927 0.0300007 172 255 36
0.0825848 0.149286 0.0356189 174 4 33
0.0854805 0.140918 0.0297395 172 255 36
0.0862322 0.140871 0.0287739 174 4 33
0.0859097 0.14091 0.029463 172 255 36
0.0864069 0.140902 0.0290707 174 4 33
0.086325 0.1409 0.0291608 172 255 36
0.0865688 0.141518 0.0285511 174 4 33
0.086695 0.140888 0.0287738 172 255 36
0.0868702 0.141558 0.0278047 174 4 33
0.0870709 0.140876 0.0283979 172 255 36
0.0874262 0.140766 0.0283504 174 4 33
0.0876709 0.140877 0.0284402 172 255 36
-0.0899339 0.14029 -0.0146271 174 4 33
-0.0900125 0.140331 -0.0145511 172 255 36
-0.0903875 0.140361 -0.015208 174 4 33
-0.089389 0.140333 -0.0144596 172 255 36
-0.0891676 0.140154 -0.0140851 174 4 33
-0.0887845 0.140335 -0.0144058 172 255 36
-0.0881976 0.14029 -0.0146188 174 4 33
-0.0882762 0.140331 -0.0145427 172 255 36
-0.0891596 0.140365 -0.0150623 174 4 33
-0.087771 0.140327 -0.0146858 172 255 36
-0.0872114 0.140281 -0.0149528 174 4 33
-0.0872899 0.140322 -0.0148766 172 255 36
-0.0870817 0.140354 -0.015521 174 4 33
-0.0867068 0.140322 -0.0148653 172 255 36
-0.0870898 0.140142 -0.0145442 174 4 33
-0.0859526 0.140332 -0.0145146 172 255 36
-0.0863276 0.140363 -0.01517 174 4 33
-0.0852937 0.140336 -0.0143529 172 255 36
-0.0856688 0.140367 -0.0150081 174 4 33
-0.0847173 0.140336 -0.0143547 172 255 36
-0.0851004 0.140157 -0.0140331 174 4 33
-0.0841112 0.140338 -0.0142977 172 255 36
-0.0839404 0.140158 -0.0140224 174 4 33
-0.0835573 0.140336 -0.0143442 172 255 36
-0.0829844 0.140291 -0.0145855 174 4 33
-0.083063 0.140332 -0.014509 172 255 36
-0.0825406 0.140283 -0.0148499 174 4 33
-0.0826191 0.140324 -0.0147734 172 255 36
-0.0825929 0.140137 -0.0147849 174 4 33
-0.08221 0.140315 -0.015107 172 255 36
-0.0817449 0.140264 -0.0155619 174 4 33
-0.0818234 0.140305 -0.0154853 172 255 36
-0.0813674 0.140252 -0.0159582 174 4 33
-0.0814459 0.140294 -0.0158816 172 255 36
-0.0814243 0.140106 -0.0159025 174 4 33
-0.0810417 0.140285 -0.0162249 172 255 36
-0.0886211 0.139443 -0.0429642 174 4 33
-0.0884719 0.139556 -0.0426383 172 255 36
-0.0880416 0.139443 -0.0429589 174 4 33
-0.0878924 0.139556 -0.0426338 172 255 36
-0.0874743 0.139441 -0.0429791 174 4 33
-0.0873251 0.139555 -0.0426548 172 255 36
-0.0857366 0.139443 -0.0433997 174 4 33
-0.0867484 0.139555 -0.0426563 172 255 36
-0.0853758 0.139429 -0.0434197 174 4 33
-0.086204 0.139553 -0.0427254 172 255 36
-0.0856239 0.13949 -0.0429555 174 4 33
-0.0857003 0.139549 -0.0428797 172 255 36
-0.0851565 0.139335 -0.0430492 174 4 33
-0.0852272 0.139543 -0.0430982 172 255 36
-0.0849283 0.139421 -0.0436923 174 4 33
-0.0847801 0.139535 -0.0433714 172 255 36
-0.0635573 0.139534 -0.0414804 174 4 33
-0.0636338 0.13959 -0.0414028 172 255 36
-0.0634571 0.139693 -0.0421264 174 4 33
-0.0630921 0.139588 -0.0414775 172 255 36
-0.0634689 0.139399 -0.0411507 174 4 33
-0.0625344 0.139587 -0.0415187 172 255 36
-0.0629112 0.139398 -0.0411917 174 4 33
-0.0620433 0.139582 -0.0416995 172 255 36
-0.0614809 0.139521 -0.0419688 174 4 33
-0.0615574 0.139577 -0.0418911 172 255 36
-0.064335 0.142865 -0.0393241 174 4 33
-0.0610503 0.139572 -0.0420384 172 255 36
-0.061427 0.139383 -0.0417111 174 4 33
-0.0605398 0.139569 -0.0421785 172 255 36
-0.0604191 0.139375 -0.0420189 174 4 33
-0.0600425 0.139564 -0.0423464 172 255 36
-0.0594037 0.139507 -0.0424558 174 4 33
-0.0594802 0.139563 -0.0423779 172 255 36
-0.0593812 0.139369 -0.0422635 174 4 33
-0.0590046 0.139557 -0.0425913 172 255 36
-0.057526 0.139417 -0.0435441 174 4 33
-0.0585312 0.139551 -0.0428092 172 255 36
-0.0570064 0.139413 -0.0436651 174 4 33
-0.0580188 0.139547 -0.0429453 172 255 36
-0.0574134 0.139488 -0.0431246 174 4 33
-0.0574898 0.139544 -0.0430466 172 255 36
-0.0568939 0.139485 -0.043246 174 4 33
-0.0569703 0.139541 -0.043168 172 255 36
-0.0596913 0.143668 -0.040451 174 4 33
-0.0564465 0.139538 -0.0432802 172 255 36
-0.0562624 0.139349 -0.0429871 174 4 33
-0.055886 0.139537 -0.0433156 172 255 36
-0.0404845 0.140056 -0.0182873 174 4 33
-0.043099 0.14015 -0.0211262 172 255 36
-0.0421248 0.140126 -0.0205738 174 4 33
-0.0422029 0.140167 -0.0204942 172 255 36
-0.0410768 0.140153 -0.0196408 174 4 33
-0.041155 0.140193 -0.0195611 172 255 36
-0.0400241 0.14018 -0.0186985 174 4 33
-0.0401024 0.140219 -0.0186187 172 255 36
-0.0391062 0.140198 -0.0180234 174 4 33
-0.0391845 0.140237 -0.0179435 172 255 36
-0.0382953 0.140212 -0.0175604 174 4 33
-0.0383736 0.14025 -0.0174805 172 255 36
-0.0387801 0.141058 -0.0181821 174 4 33
-0.0376515 0.140258 -0.0171933 172 255 36
-0.0380255 0.140318 -0.0178315 174 4 33
-0.0369234 0.140266 -0.0168946 172 255 36
-0.036322 0.140202 -0.0172172 174 4 33
-0.0362654 0.14027 -0.0167345 172 255 36
-0.0357242 0.140203 -0.0171763 174 4 33
-0.0356676 0.140272 -0.016694 172 255 36
-0.0350928 0.140206 -0.0170685 174 4 33
-0.0350361 0.140275 -0.0165867 172 255 36
-0.0343655 0.140238 -0.0166374 174 4 33
-0.0344439 0.140275 -0.0165571 172 255 36
-0.0337609 0.14024 -0.0165835 174 4 33
-0.0338393 0.140277 -0.0165032 172 255 36
-0.0345576 0.145597 -0.0120289 174 4 33
-0.0331809 0.140281 -0.0163426 172 255 36
-0.032496 0.140246 -0.0163652 174 4 33
-0.0325744 0.140283 -0.0162848 172 255 36
-0.0333375 0.143225 -0.0142493 174 4 33
-0.0319721 0.140284 -0.0162352 172 255 36
-0.0323547 0.140127 -0.0159021 174 4 33
-0.0313615 0.140286 -0.0161692 172 255 36
-0.0329848 0.145654 -0.0135448 174 4 33
-0.0307739 0.140287 -0.0161489 172 255 36
-0.0326625 0.145542 -0.0134158 174 4 33
-0.0302111 0.140286 -0.0161778 172 255 36
-0.0305938 0.14013 -0.0158443 174 4 33
-0.0296285 0.140286 -0.0161675 172 255 36
-0.0300112 0.14013 -0.0158339 174 4 33
-0.0290703 0.140285 -0.0162053 172 255 36
-0.028887 0.140128 -0.0158942 174 4 33
-0.0285044 0.140284 -0.0162281 172 255 36
-0.0278691 0.140246 -0.0163494 174 4 33
-0.0279475 0.140283 -0.0162686 172 255 36
-0.0273154 0.140245 -0.0163964 174 4 33
-0.0273938 0.140282 -0.0163156 172 255 36
-0.0272468 0.140124 -0.0160759 174 4 33
-0.0268642 0.140279 -0.0164101 172 255 36
-0.0254494 0.14016 -0.0169156 174 4 33
-0.0263162 0.140278 -0.0164685 172 255 36
-0.0249211 0.140157 -0.0170125 174 4 33
-0.0257969 0.140275 -0.0165835 172 255 36
-0.0244011 0.140153 -0.0171257 174 4 33
-0.0252654 0.140272 -0.0166743 172 255 36
-0.0238823 0.14015 -0.0172415 174 4 33
-0.0247372 0.140269 -0.0167719 172 255 36
-0.0241389 0.140229 -0.0169669 174 4 33
-0.0242173 0.140266 -0.0168858 172 255 36
-0.0236203 0.140226 -0.0170834 174 4 33
-0.0236987 0.140263 -0.0170023 172 255 36
-0.0240647 0.141079 -0.0176178 174 4 33
-0.0231991 0.140259 -0.0171564 172 255 36
-0.0235815 0.140105 -0.0168213 174 4 33
-0.0227044 0.140254 -0.0173203 172 255 36
-0.0230868 0.1401 -0.0169851 174 4 33
-0.0222063 0.14025 -0.0174775 172 255 36
-0.0225887 0.140096 -0.0171422 174 4 33
-0.0217422 0.140244 -0.0177021 172 255 36
-0.0216739 0.140083 -0.0176178 174 4 33
-0.0212916 0.140237 -0.0179533 172 255 36
-0.0201897 0.140098 -0.019078 174 4 33
-0.0208594 0.140229 -0.0182412 172 255 36
-0.0197796 0.140089 -0.0194098 174 4 33
-0.020422 0.140221 -0.0185186 172 255 36
-0.0192356 0.140106 -0.0199614 174 4 33
-0.0200086 0.140212 -0.0188438 172 255 36
-0.0189555 0.14007 -0.0200659 174 4 33
-0.0195989 0.140203 -0.0191762 172 255 36
-0.0185626 0.14006 -0.0204322 174 4 33
-0.0191811 0.140195 -0.0194925 172 255 36
-0.0181691 0.14005 -0.0207973 174 4 33
-0.0187757 0.140185 -0.0198334 172 255 36
-0.0176535 0.140061 -0.0214043 174 4 33
-0.0183833 0.140175 -0.0202002 172 255 36
-0.0172543 0.140049 -0.0217577 174 4 33
-0.0179903 0.140165 -0.0205658 172 255 36
-0.0170018 0.140018 -0.0219184 174 4 33
-0.0176001 0.140155 -0.0209368 172 255 36
-0.016529 0.140023 -0.0226101 174 4 33
-0.0172012 0.140145 -0.0212906 172 255 36
-0.0161643 0.14001 -0.0230319 174 4 33
-0.0168245 0.140134 -0.0216885 172 255 36
-0.0158057 0.139996 -0.023466 174 4 33
-0.0164766 0.140122 -0.0221436 172 255 36
-0.0154587 0.139982 -0.023923 174 4 33
-0.0161122 0.14011 -0.0225657 172 255 36
-0.0154284 0.139918 -0.023552 174 4 33
-0.0157539 0.140098 -0.0230001 172 255 36
-0.0144997 0.139932 -0.0249754 174 4 33
-0.0154073 0.140085 -0.0234575 172 255 36
-0.0147261 0.139956 -0.0247607 174 4 33
-0.0150475 0.140074 -0.023889 172 255 36
-0.0141421 0.13992 -0.0254117 174 4 33
-0.0146753 0.140062 -0.0242958 172 255 36
-0.0137664 0.139909 -0.0258121 174 4 33
-0.0143265 0.14005 -0.0247489 172 255 36
-0.0133671 0.139898 -0.0261654 174 4 33
-0.0139694 0.140038 -0.0251857 172 255 36
-0.0135166 0.139986 -0.0256683 174 4 33
-0.0135943 0.140027 -0.0255866 172 255 36
-0.0131169 0.139855 -0.0258379 174 4 33
-0.0131954 0.140017 -0.0259405 172 255 36
-0.0127858 0.139898 -0.0266386 174 4 33
-0.0127365 0.140011 -0.0261754 172 255 36
-0.0120422 0.13985 -0.0259964 174 4 33
-0.0122129 0.140008 -0.0262819 172 255 36
-0.0117111 0.139892 -0.0267965 174 4 33
-0.0116619 0.140006 -0.0263342 172 255 36
-0.0110997 0.13996 -0.0266002 174 4 33
-0.0111774 0.140001 -0.0265183 172 255 36
-0.0107449 0.139826 -0.0268584 174 4 33
-0.010738 0.139994 -0.0267917 172 255 36
-0.0105348 0.139862 -0.0274176 174 4 33
-0.0103648 0.139982 -0.0271965 172 255 36
0.00701049 0.133297 0.00264745 174 4 33
0.00281809 0.140671 -0.00220203 172 255 36
0.00323668 0.140552 -0.00141087 174 4 33
0.00362267 0.140683 -0.00175146 172 255 36
0.00406707 0.140567 -0.000908737 174 4 33
0.00445318 0.140697 -0.0012495 172 255 36
0.00994349 0.128924 0.00388935 174 4 33
0.0052246 0.140707 -0.000864678 172 255 36
0.00565032 0.140591 -5.82978e-05 174 4 33
0.00603662 0.14072 -0.000399389 172 255 36
0.00664165 0.140615 0.000763134 174 4 33
0.00702814 0.140743 0.000421844 172 255 36
0.00784705 0.140709 0.000591503 174 4 33
0.00791748 0.14076 0.00104045 172 255 36
0.00869308 0.140725 0.00112569 174 4 33
0.00876392 0.140775 0.00157401 172 255 36
0.00947673 0.140737 0.00153602 174 4 33
0.00954789 0.140786 0.00198374 172 255 36
0.0101958 0.140745 0.00181796 174 4 33
0.0102672 0.140794 0.00226513 172 255 36
0.0154693 0.133406 0.0056854 174 4 33
0.0109872 0.140801 0.00254799 172 255 36
0.0115728 0.140703 0.00278983 174 4 33
0.0117832 0.140813 0.0029816 172 255 36
0.0127214 0.140808 0.00345437 174 4 33
0.0126415 0.140829 0.00353867 172 255 36
0.0135876 0.140824 0.00402692 174 4 33
0.0135076 0.140844 0.00411129 172 255 36
0.0136979 0.141458 0.00445384 174 4 33
0.0142738 0.140855 0.00448573 172 255 36
0.0144633 0.141468 0.0048268 174 4 33
0.0149867 0.140862 0.0047544 172 255 36
0.0185518 0.138601 0.00719026 174 4 33
0.0157729 0.140873 0.00516853 172 255 36
0.0165185 0.140843 0.00520644 174 4 33
0.0165925 0.140887 0.00564884 172 255 36
0.0174393 0.140878 0.00593968 174 4 33
0.0173592 0.140897 0.00602439 172 255 36
0.0180263 0.140863 0.00590902 174 4 33
0.0181009 0.140906 0.00635028 172 255 36
0.0188491 0.140893 0.00644057 174 4 33
0.0187689 0.140911 0.0065254 172 255 36
0.0194456 0.140894 0.00647625 174 4 33
0.0193654 0.140912 0.00656112 172 255 36
0.0198068 0.140808 0.00652859 174 4 33
0.0200222 0.140917 0.00670934 172 255 36
0.0205943 0.140969 0.006799 174 4 33
0.0209775 0.140939 0.00741457 172 255 36
0.0217702 0.140914 0.00751948 174 4 33
0.021846 0.140956 0.0079579 172 255 36
0.0223718 0.142383 0.00755718 174 4 33
0.0225879 0.140966 0.00826486 172 255 36
0.0229971 0.14086 0.00818059 174 4 33
0.0232147 0.140969 0.00835708 172 255 36
0.0236343 0.140863 0.0082935 174 4 33
0.0238521 0.140972 0.00846913 172 255 36
0.0243228 0.140875 0.00934003 174 4 33
0.0247113 0.140989 0.00899506 172 255 36
0.025595 0.140986 0.00933127 174 4 33
0.0255146 0.141002 0.00941668 172 255 36
0.025089 0.140153 0.00969336 174 4 33
0.0262192 0.141009 0.00965417 172 255 36
0.0268704 0.140978 0.00950161 174 4 33
0.0269477 0.141018 0.00993614 172 255 36
0.0278982 0.14102 0.0103966 174 4 33
0.0278177 0.141035 0.0104822 172 255 36
0.0281956 0.140935 0.0111816 174 4 33
0.0285845 0.141046 0.0108358 172 255 36
0.0288752 0.140941 0.0113723 174 4 33
0.0292641 0.141052 0.0110264 172 255 36
0.0315035 0.140266 0.0130469 174 4 33
0.0301312 0.141069 0.0115671 172 255 36
0.0308957 0.140984 0.0121663 174 4 33
0.0311186 0.141093 0.0123322 172 255 36
0.0319767 0.141092 0.0126197 174 4 33
0.0318961 0.141105 0.0127057 172 255 36
0.0324074 0.141005 0.0128361 174 4 33
0.0326312 0.141114 0.013 172 255 36
0.0334497 0.141111 0.0132133 174 4 33
0.033369 0.141124 0.0132994 172 255 36
0.0338421 0.141022 0.0133617 174 4 33
0.0340666 0.141131 0.0135237 172 255 36
0.0345127 0.141027 0.0135372 174 4 33
0.0347375 0.141136 0.0136983 172 255 36
0.0350786 0.141039 0.0143316 174 4 33
0.0354682 0.141145 0.0139844 172 255 36
0.0358109 0.141779 0.0146202 174 4 33
0.0362953 0.14116 0.0144506 172 255 36
0.0371931 0.141163 0.0148112 174 4 33
0.0371123 0.141174 0.0148976 172 255 36
0.0374825 0.141081 0.0155863 174 4 33
0.0378724 0.141185 0.0152386 172 255 36
0.0381799 0.141089 0.0158106 174 4 33
0.0385699 0.141192 0.0154628 172 255 36
0.0379078 0.142655 0.0143418 174 4 33
0.0392335 0.141197 0.0156237 172 255 36
0.0387468 0.14194 0.0148291 174 4 33
0.039834 0.141198 0.015667 172 255 36
0.0401794 0.141089 0.015505 174 4 33
0.0404068 0.141198 0.0156585 172 255 36
0.0408578 0.141095 0.015695 174 4 33
0.0410855 0.141204 0.0158476 172 255 36
0.0418409 0.141199 0.0159421 174 4 33
0.04176 0.141209 0.0160289 172 255 36
0.0426591 0.141116 0.0166287 174 4 33
0.0424064 0.141214 0.0161576 172 255 36
0.0431302 0.141207 0.016193 174 4 33
0.0430493 0.141217 0.0162799 172 255 36
0.043185 0.141842 0.016532 174 4 33
0.0436885 0.141221 0.0163954 172 255 36
0.0434939 0.141909 0.0157597 174 4 33
0.0443132 0.141224 0.0164837 172 255 36
0.0450146 0.141216 0.0164772 174 4 33
0.0449337 0.141226 0.0165643 172 255 36
0.0456296 0.14122 0.0165474 174 4 33
0.0455487 0.141229 0.0166345 172 255 36
0.0462358 0.141125 0.0168397 174 4 33
0.0460868 0.141226 0.0165612 172 255 36
0.0465436 0.141188 0.0160707 174 4 33
0.046626 0.141224 0.0164901 172 255 36
0.0472675 0.141214 0.0163716 174 4 33
0.0471866 0.141223 0.0164588 172 255 36
0.0473571 0.141123 0.0167775 174 4 33
0.0477473 0.141222 0.0164277 172 255 36
0.048534 0.141245 0.0158576 174 4 33
0.0483234 0.141222 0.0164253 172 255 36
0.0490015 0.141214 0.0163751 174 4 33
0.0489206 0.141223 0.0164625 172 255 36
0.0485304 0.141125 0.0168126 174 4 33
0.0495053 0.141224 0.0164761 172 255 36
0.0496629 0.141124 0.0167713 174 4 33
0.0500531 0.141222 0.016421 172 255 36
0.0515015 0.141169 0.0156295 174 4 33
0.0505892 0.141219 0.0163441 172 255 36
0.0511823 0.141207 0.016135 174 4 33
0.0511014 0.141216 0.0162225 172 255 36
0.0516676 0.141107 0.0162031 174 4 33
0.0515836 0.14121 0.0160449 172 255 36
0.0519758 0.141162 0.0154373 174 4 33
0.0520577 0.141204 0.0158523 172 255 36
0.052762 0.14108 0.0152992 174 4 33
0.0525263 0.141198 0.0156495 172 255 36
0.0530699 0.141182 0.0153481 174 4 33
0.0529891 0.141191 0.0154358 172 255 36
0.0530747 0.141212 0.0146353 174 4 33
0.0534608 0.141185 0.0152386 172 255 36
0.0530709 0.141088 0.0155897 174 4 33
0.05394 0.141179 0.0150554 172 255 36
0.0545201 0.141164 0.014822 174 4 33
0.0544393 0.141174 0.0149098 172 255 36
0.0548575 0.141123 0.0143514 174 4 33
0.0549386 0.14117 0.014764 172 255 36
0.0545488 0.141073 0.0151154 174 4 33
0.0554249 0.141164 0.0145942 172 255 36
0.0550351 0.141067 0.0149457 174 4 33
0.0558855 0.141158 0.0143764 172 255 36
0.0570649 0.141078 0.0130838 174 4 33
0.0563165 0.141149 0.0141034 172 255 36
0.056804 0.141129 0.0136972 174 4 33
0.0567233 0.141139 0.0137851 172 255 36
0.0576003 0.142578 0.0112314 174 4 33
0.057145 0.14113 0.0134946 172 255 36
0.0575723 0.141144 0.0122543 174 4 33
0.0575613 0.14112 0.0131942 172 255 36
0.0575681 0.141013 0.0132083 174 4 33
0.0579575 0.14111 0.0128562 172 255 36
0.0584196 0.141087 0.0124026 174 4 33
0.058339 0.141098 0.0124906 172 255 36
0.058813 0.141077 0.0120594 174 4 33
0.0587324 0.141088 0.0121475 172 255 36
0.0594076 0.140388 0.0113682 174 4 33
0.0591596 0.141079 0.0118673 172 255 36
0.0587705 0.140982 0.0122197 174 4 33
0.059617 0.141072 0.0116435 172 255 36
0.0608094 0.141102 0.0107536 174 4 33
0.0601081 0.141067 0.0114826 172 255 36
0.0607263 0.141053 0.0113203 174 4 33
0.0606458 0.141064 0.0114085 172 255 36
0.0612746 0.141052 0.0112662 174 4 33
0.0611941 0.141063 0.0113544 172 255 36
0.0618569 0.140961 0.0115155 174 4 33
0.0617396 0.141061 0.0112949 172 255 36
0.0621676 0.140994 0.0107559 174 4 33
0.0622459 0.141057 0.0111624 172 255 36
0.0699234 0.141466 0.0241693 174 4 33
0.0698419 0.141468 0.0242585 172 255 36
0.0703829 0.14137 0.0245242 174 4 33
0.0706223 0.14148 0.0246372 172 255 36
0.071346 0.141396 0.0249195 174 4 33
0.0712168 0.141481 0.0246694 172 255 36
0.0716494 0.141446 0.0241644 174 4 33
0.0717381 0.141478 0.0245646 172 255 36
0.0745889 0.140851 0.0267852 174 4 33
0.0733193 0.141536 0.0264377 172 255 36
0.0743515 0.139304 0.0273006 174 4 33
0.074079 0.141547 0.026778 172 255 36
0.0744781 0.144828 0.0300161 174 4 33
0.0749966 0.141567 0.027413 172 255 36
0.0761434 0.141596 0.0275334 174 4 33
0.075835 0.141582 0.0279 172 255 36
0.0766161 0.14159 0.0280377 174 4 33
0.0765343 0.141589 0.0281275 172 255 36
0.0761414 0.141511 0.0284833 174 4 33
0.0772331 0.141596 0.0283541 172 255 36
0.0778455 0.141627 0.0285562 174 4 33
0.0782368 0.141621 0.0291496 172 255 36
0.0792752 0.141646 0.029767 174 4 33
0.0791933 0.141644 0.029857 172 255 36
0.0797512 0.141548 0.0301811 174 4 33
0.0799982 0.141657 0.0302816 172 255 36
0.0805672 0.141562 0.0306288 174 4 33
0.0808148 0.141671 0.0307282 172 255 36
0.0817307 0.141689 0.0311166 174 4 33
0.0816487 0.141686 0.0312068 172 255 36
0.0821795 0.141589 0.0314868 174 4 33
0.0824282 0.141698 0.0315841 172 255 36
0.0831686 0.141706 0.0316447 174 4 33
0.0830865 0.141703 0.0317351 172 255 36
0.0832728 0.141631 0.0320975 174 4 33
0.0836666 0.141703 0.0317402 172 255 36
0.0842407 0.141701 0.0314908 174 4 33
0.0841587 0.141698 0.0315812 172 255 36
0.0855562 0.141624 0.0296634 174 4 33
0.0846001 0.14169 0.0313274 172 255 36
0.0845941 0.141607 0.0313309 174 4 33
0.0849877 0.141679 0.0309733 172 255 36
0.0854288 0.141669 0.0304757 174 4 33
0.0853468 0.141666 0.0305662 172 255 36
0.085731 0.141653 0.0299625 174 4 33
0.0856491 0.14165 0.030053 172 255 36
0.086696 0.140198 0.0289123 174 4 33
0.0859579 0.141634 0.0295518 172 255 36
0.0855646 0.141562 0.0299097 174 4 33
0.0863156 0.141621 0.029142 172 255 36
0.0859224 0.141548 0.0294999 174 4 33
0.0866211 0.141605 0.0286347 172 255 36
0.0862281 0.141532 0.0289927 174 4 33
0.0869617 0.141591 0.028193 172 255 36
-0.0910566 0.141038 -0.0145646 174 4 33
-0.0911351 0.14108 -0.0144883 172 255 36
-0.0909574 0.141108 -0.0151918 174 4 33
-0.090582 0.141079 -0.0145364 172 255 36
-0.0909654 0.140898 -0.0142167 174 4 33
-0.0899361 0.141082 -0.0144006 172 255 36
-0.0903195 0.140901 -0.0140807 174 4 33
-0.0893112 0.141085 -0.0143062 172 255 36
-0.0896866 0.141114 -0.0149611 174 4 33
-0.0887468 0.141084 -0.014332 172 255 36
-0.0891302 0.140904 -0.0140119 174 4 33
-0.0882286 0.141081 -0.0144492 172 255 36
-0.0876654 0.141035 -0.0147096 174 4 33
-0.0877439 0.141076 -0.014633 172 255 36
-0.0881192 0.141107 -0.0152874 174 4 33
-0.0872329 0.141073 -0.0147644 172 255 36
-0.0869914 0.140895 -0.0143498 174 4 33
-0.0866081 0.141075 -0.0146704 172 255 36
-0.0862657 0.140904 -0.0140553 174 4 33
-0.0858823 0.141083 -0.0143761 172 255 36
-0.0850454 0.140908 -0.013925 174 4 33
-0.0852614 0.141085 -0.0142898 172 255 36
-0.08472 0.141062 -0.0147697 174 4 33
-0.084662 0.141087 -0.014246 172 255 36
-0.0839886 0.141046 -0.014288 174 4 33
-0.0840671 0.141087 -0.0142111 172 255 36
-0.0826905 0.141044 -0.0153241 174 4 33
-0.0835369 0.141085 -0.0143047 172 255 36
-0.0829745 0.141039 -0.0145669 174 4 33
-0.083053 0.14108 -0.0144899 172 255 36
-0.0825545 0.141031 -0.0148791 174 4 33
-0.082633 0.141072 -0.0148021 172 255 36
-0.0822145 0.141088 -0.0161704 174 4 33
-0.0822426 0.141062 -0.0151727 172 255 36
-0.0817611 0.141011 -0.0155951 174 4 33
-0.0818395 0.141052 -0.0155181 172 255 36
-0.081788 0.141081 -0.0164696 174 4 33
-0.0814131 0.141044 -0.0158175 172 255 36
-0.0808645 0.140997 -0.0161071 174 4 33
-0.0809429 0.141039 -0.01603 172 255 36
-0.0813177 0.141076 -0.016682 174 4 33
-0.0803866 0.141037 -0.0160716 172 255 36
-0.0796683 0.141 -0.0160248 174 4 33
-0.0797467 0.141041 -0.0159476 172 255 36
-0.0790867 0.141 -0.0160163 174 4 33
-0.0791651 0.141041 -0.0159391 172 255 36
-0.0807696 0.140859 -0.0157496 174 4 33
-0.0786136 0.14104 -0.0159905 172 255 36
-0.0801297 0.140863 -0.0156255 174 4 33
-0.078029 0.14104 -0.0159761 172 255 36
-0.0807614 0.141075 -0.0167234 174 4 33
-0.0774796 0.141039 -0.0160315 172 255 36
-0.0801215 0.141079 -0.0165992 174 4 33
-0.0769643 0.141035 -0.0161545 172 255 36
-0.0795399 0.141079 -0.0165904 174 4 33
-0.0764115 0.141034 -0.0162032 172 255 36
-0.0784038 0.141079 -0.016627 174 4 33
-0.075847 0.141033 -0.0162287 172 255 36
-0.0755775 0.141077 -0.0167458 174 4 33
-0.0752027 0.141037 -0.0160959 172 255 36
-0.0878154 0.140262 -0.0427096 174 4 33
-0.0878918 0.140321 -0.0426335 172 255 36
-0.0874575 0.140208 -0.0429456 174 4 33
-0.0873084 0.140322 -0.0426209 172 255 36
-0.0866592 0.140262 -0.0427067 174 4 33
-0.0867356 0.140321 -0.0426305 172 255 36
-0.0860935 0.140114 -0.0425937 174 4 33
-0.0862028 0.140319 -0.0427238 172 255 36
-0.0858654 0.1402 -0.0432376 174 4 33
-0.0857167 0.140314 -0.0429151 172 255 36
-0.0645442 0.140309 -0.0411299 174 4 33
-0.0646207 0.140364 -0.0410519 172 255 36
-0.0640301 0.140305 -0.0412625 174 4 33
-0.0641066 0.140361 -0.0411845 172 255 36
-0.0637301 0.140241 -0.0415821 174 4 33
-0.0635792 0.140358 -0.0412893 172 255 36
-0.0631653 0.14024 -0.0416076 174 4 33
-0.0630144 0.140357 -0.0413156 172 255 36
-0.0626099 0.140239 -0.041653 174 4 33
-0.0624591 0.140356 -0.0413617 172 255 36
-0.0610291 0.140229 -0.041969 174 4 33
-0.0618975 0.140355 -0.0413948 172 255 36
-0.0604298 0.14022 -0.0423745 174 4 33
-0.0613789 0.140352 -0.041518 172 255 36
-0.0600932 0.140217 -0.0424275 174 4 33
-0.0608787 0.140347 -0.0416798 172 255 36
-0.0594752 0.140207 -0.042794 174 4 33
-0.0603933 0.140342 -0.0418724 172 255 36
-0.0591068 0.140207 -0.0427803 174 4 33
-0.0599434 0.140335 -0.0421396 172 255 36
-0.0585753 0.140203 -0.0428759 174 4 33
-0.059439 0.140331 -0.0422927 172 255 36
-0.0580576 0.1402 -0.0430007 174 4 33
-0.0589575 0.140325 -0.0424937 172 255 36
-0.0575331 0.140197 -0.0431109 174 4 33
-0.0584261 0.140322 -0.04259 172 255 36
-0.0570056 0.140194 -0.0432151 174 4 33
-0.0579086 0.140319 -0.0427155 172 255 36
-0.0564767 0.140191 -0.0433162 174 4 33
-0.0573842 0.140316 -0.0428265 172 255 36
-0.0557977 0.140181 -0.0435551 174 4 33
-0.0568569 0.140313 -0.0429314 172 255 36
-0.0555512 0.140422 -0.0437046 174 4 33
-0.0563281 0.14031 -0.0430332 172 255 36
-0.0556858 0.140254 -0.0431354 174 4 33
-0.0557621 0.14031 -0.0430568 172 255 36
-0.0555632 0.140123 -0.0427323 174 4 33
-0.0551864 0.14031 -0.0430603 172 255 36
-0.0431129 0.140856 -0.0213892 174 4 33
-0.0431909 0.140897 -0.0213092 172 255 36
-0.0427493 0.140745 -0.0204908 174 4 33
-0.0423674 0.14091 -0.0208212 172 255 36
-0.0417425 0.140769 -0.0196388 174 4 33
-0.0413604 0.140933 -0.0199694 172 255 36
-0.0402976 0.140889 -0.0193867 174 4 33
-0.0402432 0.140961 -0.0188988 172 255 36
-0.0394935 0.140869 -0.018457 174 4 33
-0.0393116 0.14098 -0.0181965 172 255 36
-0.0387886 0.140837 -0.0172141 174 4 33
-0.0384059 0.140998 -0.0175453 172 255 36
-0.0351491 0.141088 -0.0125987 174 4 33
-0.0350895 0.141144 -0.0121144 172 255 36
-0.0344394 0.141109 -0.0122068 174 4 33
-0.0345181 0.141144 -0.012126 172 255 36
-0.034902 0.140989 -0.0117941 174 4 33
-0.0339955 0.141141 -0.0122347 172 255 36
-0.0339537 0.140978 -0.0122033 174 4 33
-0.0335699 0.141133 -0.0125354 172 255 36
-0.0351326 0.140952 -0.0171516 174 4 33
-0.0350765 0.141021 -0.0166677 172 255 36
-0.0344037 0.140984 -0.0167143 174 4 33
-0.034482 0.141022 -0.0166336 172 255 36
-0.0340349 0.140914 -0.0167801 174 4 33
-0.0338508 0.141025 -0.0165269 172 255 36
-0.0335152 0.140875 -0.0159145 174 4 33
-0.0331322 0.141033 -0.0162468 172 255 36
-0.032385 0.140874 -0.0159628 174 4 33
-0.0325631 0.141032 -0.0162632 172 255 36
-0.0320584 0.140961 -0.0167769 174 4 33
-0.032002 0.141031 -0.0162954 172 255 36
-0.0314659 0.140961 -0.0167463 174 4 33
-0.0314095 0.141032 -0.0162653 172 255 36
-0.0307394 0.140996 -0.016318 174 4 33
-0.0308178 0.141033 -0.016237 172 255 36
-0.0302909 0.140961 -0.016705 174 4 33
-0.0302344 0.141033 -0.0162249 172 255 36
-0.0306174 0.140876 -0.015892 174 4 33
-0.029676 0.141032 -0.0162624 172 255 36
-0.030059 0.140876 -0.0159293 174 4 33
-0.0291143 0.141031 -0.0162934 172 255 36
-0.0294973 0.140875 -0.0159602 174 4 33
-0.0285412 0.141031 -0.0163018 172 255 36
-0.0289242 0.140875 -0.0159685 174 4 33
-0.0279948 0.14103 -0.0163633 172 255 36
-0.0283777 0.140874 -0.0160299 174 4 33
-0.0274385 0.141028 -0.0164051 172 255 36
-0.0278214 0.140873 -0.0160715 174 4 33
-0.0269037 0.141026 -0.0164894 172 255 36
-0.0265408 0.140913 -0.0167927 174 4 33
-0.0263567 0.141025 -0.0165496 172 255 36
-0.0259939 0.140911 -0.0168526 174 4 33
-0.0258099 0.141023 -0.0166102 172 255 36
-0.0242672 0.140938 -0.0173498 174 4 33
-0.0252677 0.141021 -0.0166799 172 255 36
-0.0246534 0.140982 -0.0168433 174 4 33
-0.0247317 0.141019 -0.0167618 172 255 36
-0.0241329 0.140979 -0.0169561 174 4 33
-0.0242112 0.141016 -0.0168746 172 255 36
-0.0245857 0.141081 -0.0175062 174 4 33
-0.0236902 0.141013 -0.0169864 172 255 36
-0.0235691 0.140855 -0.0167975 174 4 33
-0.0231863 0.141009 -0.017132 172 255 36
-0.0223644 0.140888 -0.0176666 174 4 33
-0.0226792 0.141005 -0.0172713 172 255 36
-0.0221032 0.140964 -0.0175108 174 4 33
-0.0221815 0.141001 -0.0174291 172 255 36
-0.0220851 0.141063 -0.0182715 174 4 33
-0.0217109 0.140995 -0.0176408 172 255 36
-0.0216286 0.140835 -0.017529 174 4 33
-0.021246 0.140989 -0.0178639 172 255 36
-0.0207119 0.140946 -0.0181865 174 4 33
-0.0207901 0.140983 -0.0181047 172 255 36
-0.019676 0.140845 -0.0192053 174 4 33
-0.0203544 0.140975 -0.0183855 172 255 36
-0.0192592 0.140836 -0.0195238 174 4 33
-0.0199264 0.140967 -0.0186816 172 255 36
-0.0188482 0.140827 -0.0198539 174 4 33
-0.0194952 0.140959 -0.0189714 172 255 36
-0.0184537 0.140817 -0.0202169 174 4 33
-0.0190788 0.140951 -0.0192905 172 255 36
-0.0180494 0.140808 -0.0205604 174 4 33
-0.0186682 0.140942 -0.0196212 172 255 36
-0.0176462 0.140799 -0.0209061 174 4 33
-0.0182742 0.140932 -0.0199847 172 255 36
-0.0172607 0.140787 -0.0212869 174 4 33
-0.0178704 0.140923 -0.0203288 172 255 36
-0.0167358 0.140798 -0.0218786 174 4 33
-0.0174676 0.140914 -0.020675 172 255 36
-0.0165076 0.140766 -0.0220845 174 4 33
-0.0170826 0.140903 -0.0210563 172 255 36
-0.016162 0.140753 -0.0225447 174 4 33
-0.0166834 0.140894 -0.0214097 172 255 36
-0.0157978 0.140741 -0.0229681 174 4 33
-0.0163306 0.140882 -0.0218549 172 255 36
-0.0154536 0.140729 -0.0234309 174 4 33
-0.0159856 0.140869 -0.0223156 172 255 36
-0.0151163 0.140716 -0.023908 174 4 33
-0.015622 0.140858 -0.0227395 172 255 36
-0.0147544 0.140703 -0.0243356 174 4 33
-0.0152784 0.140846 -0.0232028 172 255 36
-0.014394 0.140692 -0.0247665 174 4 33
-0.0149418 0.140833 -0.0236803 172 255 36
-0.0140449 0.140679 -0.0252198 174 4 33
-0.0145804 0.140821 -0.0241084 172 255 36
-0.0136838 0.140668 -0.0256493 174 4 33
-0.0142206 0.14081 -0.0245398 172 255 36
-0.0132997 0.140657 -0.026033 174 4 33
-0.0138721 0.140797 -0.0249936 172 255 36
-0.0134339 0.140745 -0.0255058 174 4 33
-0.0135116 0.140786 -0.0254236 172 255 36
-0.0130764 0.140612 -0.0257584 174 4 33
-0.013128 0.140776 -0.0258078 172 255 36
-0.0127445 0.140655 -0.0265607 174 4 33
-0.0126957 0.140768 -0.0260954 172 255 36
-0.0112626 0.140639 -0.0270563 174 4 33
-0.0122036 0.140763 -0.0262644 172 255 36
-0.0109371 0.140629 -0.0270718 174 4 33
-0.0116963 0.14076 -0.0264033 172 255 36
-0.0105415 0.140618 -0.0274327 174 4 33
-0.0112142 0.140754 -0.0265922 172 255 36
-0.0106892 0.140706 -0.0269322 174 4 33
-0.0107668 0.140748 -0.0268498 172 255 36
-0.010376 0.140571 -0.0272727 174 4 33
-0.0103717 0.140738 -0.0272112 172 255 36
-0.0101649 0.140607 -0.0278313 174 4 33
-0.00999562 0.140727 -0.0276103 172 255 36
0.00849751 0.131848 0.00330843 174 4 33
0.00423117 0.141424 -0.00169052 172 255 36
0.00455108 0.141301 -0.00109453 174 4 33
0.00493746 0.141431 -0.00143486 172 255 36
0.0124713 0.129834 0.00331618 174 4 33
0.00562651 0.141437 -0.0012134 172 255 36
0.00666898 0.141434 -0.000533108 174 4 33
0.00658942 0.141458 -0.000448898 172 255 36
0.0077517 0.141462 0.000468692 174 4 33
0.00767206 0.141485 0.000553004 172 255 36
0.00830883 0.141389 0.000886234 174 4 33
0.00851656 0.141499 0.00108271 172 255 36
0.00939738 0.141489 0.00144192 174 4 33
0.00931767 0.141511 0.00152638 172 255 36
0.00974689 0.143746 0.000229978 174 4 33
0.010034 0.141518 0.00180204 172 255 36
0.0105759 0.141417 0.00195312 174 4 33
0.0107851 0.141527 0.00214656 172 255 36
0.0135678 0.134864 0.00534756 174 4 33
0.0116363 0.141542 0.00268943 172 255 36
0.0125927 0.141537 0.00319812 174 4 33
0.0125129 0.141558 0.00328286 172 255 36
0.0134164 0.141551 0.00368623 174 4 33
0.0133365 0.141571 0.00377104 172 255 36
0.00568862 0.112248 0.00136685 174 4 33
0.0140856 0.14158 0.00411163 172 255 36
0.0149309 0.14157 0.00439949 174 4 33
0.014851 0.14159 0.00448443 172 255 36
0.0148875 0.143089 0.00355723 174 4 33
0.0156333 0.141601 0.00489085 172 255 36
0.0163645 0.141568 0.00489651 174 4 33
0.0164377 0.141613 0.0053411 172 255 36
0.0173179 0.141606 0.0056979 174 4 33
0.0172379 0.141625 0.00578305 172 255 36
0.0178263 0.141528 0.00604663 174 4 33
0.0180409 0.141637 0.00623037 172 255 36
0.018818 0.141626 0.00638153 174 4 33
0.0187379 0.141644 0.00646681 172 255 36
0.0183497 0.141525 0.00680999 174 4 33
0.019357 0.141646 0.00654466 172 255 36
0.0197868 0.141541 0.00648965 174 4 33
0.020002 0.14165 0.00667077 172 255 36
0.0205332 0.141699 0.00668631 174 4 33
0.0209167 0.141669 0.00730021 172 255 36
0.0215986 0.141579 0.00772145 174 4 33
0.0218155 0.141688 0.00790015 172 255 36
0.0231495 0.144833 0.0106892 174 4 33
0.0225282 0.141696 0.00815271 172 255 36
0.0232457 0.141682 0.00817878 174 4 33
0.0231655 0.141699 0.00826444 172 255 36
0.0234351 0.141589 0.00875978 174 4 33
0.0238238 0.141704 0.00841553 172 255 36
0.0257821 0.140301 0.00894003 174 4 33
0.024701 0.141721 0.00897508 172 255 36
0.025316 0.141627 0.00928013 174 4 33
0.025535 0.141736 0.00945385 172 255 36
0.0260534 0.141636 0.00958042 174 4 33
0.0262728 0.141745 0.00975316 172 255 36
0.0267559 0.141643 0.00981555 174 4 33
0.0269756 0.141752 0.00998735 172 255 36
0.0275553 0.141656 0.0102318 174 4 33
0.0277755 0.141765 0.0104025 172 255 36
0.0281364 0.141664 0.0110701 174 4 33
0.0285256 0.141775 0.0107249 172 255 36
0.0293085 0.141768 0.0108722 174 4 33
0.0292281 0.141782 0.0109584 172 255 36
0.02996 0.141758 0.0109578 174 4 33
0.0300379 0.141796 0.0113921 172 255 36
0.0339709 0.136129 0.0137355 174 4 33
0.0310603 0.141821 0.0122225 172 255 36
0.0317856 0.141798 0.0122129 174 4 33
0.0318645 0.141834 0.0126458 172 255 36
0.0323742 0.141734 0.0127725 174 4 33
0.0325978 0.141843 0.0129368 172 255 36
0.0330865 0.141742 0.013026 174 4 33
0.0333105 0.141851 0.0131893 172 255 36
0.0337858 0.141749 0.013255 174 4 33
0.0340101 0.141858 0.0134174 172 255 36
0.0337514 0.143273 0.0126431 174 4 33
0.0347233 0.141866 0.013671 172 255 36
0.0353699 0.141839 0.0135191 174 4 33
0.0354498 0.141874 0.0139493 172 255 36
0.0362816 0.141872 0.0141866 174 4 33
0.0362009 0.141884 0.0142734 172 255 36
0.0370293 0.141882 0.0145043 174 4 33
0.0369486 0.141894 0.0145912 172 255 36
0.037793 0.141894 0.0148521 174 4 33
0.0377123 0.141905 0.014939 172 255 36
0.0385207 0.141903 0.0151326 174 4 33
0.03844 0.141914 0.0152196 172 255 36
0.0392141 0.141909 0.0153489 174 4 33
0.0391333 0.14192 0.0154359 172 255 36
0.038743 0.141817 0.0157833 174 4 33
0.0397601 0.141923 0.0155281 172 255 36
0.0400996 0.141814 0.0153541 174 4 33
0.0403267 0.141923 0.015508 172 255 36
0.0407243 0.141816 0.0154434 174 4 33
0.0409515 0.141925 0.0155965 172 255 36
0.0412484 0.14183 0.0161498 174 4 33
0.0416388 0.141932 0.0158018 172 255 36
0.0417845 0.142557 0.016072 174 4 33
0.0423228 0.141938 0.0160007 172 255 36
0.0420945 0.142624 0.0152974 174 4 33
0.0429575 0.141941 0.0161078 172 255 36
0.0436563 0.141933 0.0160962 174 4 33
0.0435755 0.141943 0.0161836 172 255 36
0.0442623 0.141935 0.0161496 174 4 33
0.0441815 0.141945 0.0162371 172 255 36
0.0445533 0.142631 0.0155785 174 4 33
0.0447629 0.141945 0.0162447 172 255 36
