ply
format ascii 1.0
element vertex 1173
property float x
property float y
property float z
property uchar red
property uchar green
property uchar blue
end_header
0.0773835 0.0850406 -0.037277 174 4 33
-0.0683906 0.0884529 0.0474405 172 255 36
0.0773753 0.0849922 -0.0379512 174 4 33
-0.0675445 0.0884915 0.0479433 172 255 36
0.0774095 0.0849476 -0.0385905 174 4 33
-0.0667368 0.0885246 0.0483742 172 255 36
0.077392 0.0848984 -0.0392724 174 4 33
-0.0660801 0.088536 0.0485226 172 255 36
0.0773529 0.0848473 -0.0399723 174 4 33
-0.0654528 0.0885432 0.0486161 172 255 36
0.0765593 0.0846827 -0.0419611 174 4 33
-0.0648298 0.0885484 0.0486968 172 255 36
0.0765782 0.0846367 -0.042613 174 4 33
-0.0642257 0.0885514 0.048744 172 255 36
0.0766679 0.0845969 -0.0432066 174 4 33
-0.0636161 0.0885551 0.0488008 172 255 36
-0.069008 0.0876922 0.047404 174 4 33
-0.063071 0.0885514 0.0487439 172 255 36
-0.066702 0.087856 0.0485691 174 4 33
-0.0625938 0.0885392 0.0485641 172 255 36
-0.0658081 0.0878885 0.0486244 174 4 33
-0.0621356 0.0885221 0.0483412 172 255 36
-0.064908 0.0879216 0.0486844 174 4 33
-0.0616686 0.0885062 0.0481349 172 255 36
-0.0638231 0.0879719 0.0488897 174 4 33
-0.0612154 0.0884884 0.0479027 172 255 36
-0.0631886 0.0879803 0.048741 174 4 33
-0.0607766 0.0884685 0.0476434 172 255 36
-0.0626865 0.0879764 0.0484881 174 4 33
-0.0603306 0.0884496 0.0473978 172 255 36
-0.0622331 0.087968 0.0481971 174 4 33
-0.0598702 0.0884328 0.0471789 172 255 36
-0.0617835 0.0879592 0.047903 174 4 33
-0.0594259 0.0884137 0.04693 172 255 36
-0.0612704 0.0879563 0.0476589 174 4 33
-0.0589982 0.0883923 0.0466503 172 255 36
-0.0606898 0.0879597 0.0474678 174 4 33
-0.0586106 0.088365 0.0462953 172 255 36
-0.0601309 0.0879611 0.0472597 174 4 33
-0.0582781 0.0883299 0.0458373 172 255 36
-0.0596827 0.0879521 0.0469645 174 4 33
-0.0579489 0.0882942 0.0453732 172 255 36
-0.0592733 0.0879396 0.0466389 174 4 33
-0.0576423 0.0882554 0.0448666 172 255 36
-0.0589139 0.0879224 0.0462739 174 4 33
-0.0573578 0.0882133 0.0443189 172 255 36
-0.0586075 0.0879003 0.0458673 174 4 33
-0.0571094 0.0881661 0.0437036 172 255 36
-0.0583266 0.0878758 0.0454407 174 4 33
-0.056897 0.0881137 0.0430209 172 255 36
-0.0580362 0.0878522 0.0450215 174 4 33
-0.0566734 0.0880629 0.0423592 172 255 36
-0.0577874 0.0878248 0.0445697 174 4 33
-0.0564411 0.0880134 0.0417138 172 255 36
-0.0575894 0.0877926 0.0440777 174 4 33
-0.0561872 0.0879669 0.0411087 172 255 36
-0.0574014 0.0877595 0.0435782 174 4 33
-0.0559322 0.0879206 0.0405058 172 255 36
-0.057196 0.087728 0.0430921 174 4 33
-0.0556664 0.0878759 0.0399231 172 255 36
-0.0569931 0.0876963 0.0426041 174 4 33
-0.0553966 0.0878318 0.0393478 172 255 36
-0.0567977 0.0876638 0.0421103 174 4 33
-0.0551049 0.0877907 0.0388135 172 255 36
-0.0565868 0.0876329 0.0416286 174 4 33
-0.054789 0.0877532 0.0383244 172 255 36
-0.056362 0.0876032 0.0411579 174 4 33
-0.0544857 0.0877139 0.0378119 172 255 36
-0.0561452 0.0875728 0.0406809 174 4 33
-0.0541568 0.0876782 0.0373472 172 255 36
-0.0559384 0.0875414 0.0401959 174 4 33
-0.0537873 0.0876483 0.0369583 172 255 36
-0.055717 0.0875114 0.0397225 174 4 33
-0.0533891 0.0876226 0.0366232 172 255 36
-0.0554592 0.0874848 0.0392778 174 4 33
-0.0529968 0.0875961 0.036277 172 255 36
-0.055178 0.0874603 0.0388513 174 4 33
-0.0526217 0.087567 0.0358988 172 255 36
-0.0549133 0.0874344 0.0384119 174 4 33
-0.0522415 0.0875387 0.0355301 172 255 36
-0.0546077 0.0874122 0.0380048 174 4 33
-0.0518711 0.087509 0.0351429 172 255 36
-0.0542489 0.0873949 0.0376393 174 4 33
-0.0350491 0.087769 0.0385302 172 255 36
-0.0537952 0.0873866 0.0373484 174 4 33
-0.0344338 0.0877744 0.0386012 172 255 36
-0.053357 0.0873767 0.0370455 174 4 33
-0.0339153 0.087766 0.038491 172 255 36
-0.0529752 0.0873616 0.0366981 174 4 33
-0.0334391 0.0877515 0.0383018 172 255 36
-0.0526662 0.0873397 0.0362935 174 4 33
-0.0328002 0.0877603 0.0384169 172 255 36
-0.0524445 0.0873097 0.0358204 174 4 33
-0.0321349 0.0877729 0.0385816 172 255 36
-0.0523146 0.0872712 0.035275 174 4 33
-0.0314035 0.087795 0.0388696 172 255 36
-0.0521789 0.0872333 0.0347342 174 4 33
-0.030674 0.0878169 0.0391542 172 255 36
-0.0206929 0.0894018 0.0497712 174 4 33
-0.0298107 0.087858 0.0396892 172 255 36
-0.019237 0.0894865 0.050268 174 4 33
-0.0287428 0.0879284 0.0406067 172 255 36
-0.0181304 0.0895389 0.0504904 174 4 33
-0.0274694 0.0880283 0.0419086 172 255 36
-0.0170569 0.089588 0.0506869 174 4 33
-0.0251611 0.0882768 0.0451464 172 255 36
-0.0159588 0.0896396 0.0509024 174 4 33
-0.024055 0.0883528 0.0461356 172 255 36
-0.0150964 0.0896692 0.0509329 174 4 33
-0.0230142 0.0884193 0.0470024 172 255 36
-0.014343 0.0896886 0.0508776 174 4 33
-0.0220347 0.088477 0.0477546 172 255 36
-0.0136524 0.0897022 0.050773 174 4 33
-0.0210466 0.088536 0.048523 172 255 36
-0.013018 0.0897107 0.0506242 174 4 33
-0.0201401 0.0885748 0.0491083 172 255 36
-0.012394 0.089718 0.0504673 174 4 33
-0.0192807 0.0886065 0.0496049 172 255 36
-0.0117968 0.089723 0.0502892 174 4 33
-0.0185463 0.0886242 0.0498812 172 255 36
-0.0112372 0.0897245 0.0500816 174 4 33
-0.017764 0.0886473 0.050242 172 255 36
-0.0106405 0.0897293 0.0499032 174 4 33
-0.0170002 0.0886683 0.0505703 172 255 36
-0.0100756 0.0897313 0.0496998 174 4 33
-0.0162888 0.0886834 0.0508063 172 255 36
-0.00950367 0.0897338 0.0495018 174 4 33
-0.0156055 0.0886953 0.0509928 172 255 36
-0.00892346 0.0897372 0.0493105 174 4 33
-0.0149832 0.0887004 0.0510719 172 255 36
-0.00836791 0.0897383 0.0490998 174 4 33
-0.0143999 0.088701 0.0510823 172 255 36
-0.00779777 0.0897407 0.0489004 174 4 33
-0.0138715 0.0886955 0.0509963 172 255 36
-0.0072796 0.0897383 0.0486603 174 4 33
-0.013395 0.0886842 0.0508186 172 255 36
-0.00679076 0.0897331 0.0483971 174 4 33
-0.0129366 0.0886708 0.0506093 172 255 36
-0.0063021 0.089728 0.0481337 174 4 33
-0.012494 0.0886556 0.0503721 172 255 36
-0.00582708 0.0897215 0.0478596 174 4 33
-0.0120554 0.08864 0.0501279 172 255 36
-0.00536253 0.0897141 0.0475774 174 4 33
-0.0116134 0.0886247 0.0498895 172 255 36
-0.00489612 0.0897069 0.0472964 174 4 33
-0.0111553 0.0886113 0.0496796 172 255 36
-0.00446302 0.0896966 0.0469896 174 4 33
-0.0107033 0.0885972 0.049459 172 255 36
-0.00399773 0.0896892 0.0467078 174 4 33
-0.0102381 0.0885845 0.0492615 172 255 36
-0.00355385 0.0896799 0.0464093 174 4 33
-0.00976887 0.0885724 0.0490712 172 255 36
-0.00311884 0.0896698 0.0461037 174 4 33
-0.00927529 0.0885629 0.0489237 172 255 36
-0.00270752 0.0896574 0.0457796 174 4 33
-0.00878023 0.0885537 0.0487789 172 255 36
-0.00229989 0.0896448 0.0454525 174 4 33
-0.00830089 0.0885423 0.0486052 172 255 36
-0.00193116 0.0896284 0.045095 174 4 33
-0.00781975 0.0885285 0.0484253 172 255 36
-0.00158735 0.0896098 0.0447177 174 4 33
-0.0073528 0.0885127 0.0482188 172 255 36
-0.00125552 0.08959 0.0443311 174 4 33
-0.006891 0.0884961 0.0480026 172 255 36
-0.000931146 0.0895696 0.0439386 174 4 33
-0.00643252 0.088479 0.0477803 172 255 36
-0.00064182 0.0895459 0.0435186 174 4 33
-0.00598729 0.08846 0.0475331 172 255 36
-0.000362351 0.0895213 0.0430908 174 4 33
-0.00555154 0.0884397 0.0472683 172 255 36
-7.46621e-05 0.0894975 0.0426695 174 4 33
-0.00511729 0.0884192 0.0470006 172 255 36
0.000190333 0.0894715 0.0422303 174 4 33
-0.00468961 0.0883977 0.0467206 172 255 36
0.000430352 0.0894433 0.0417716 174 4 33
-0.00425101 0.0883778 0.0464611 172 255 36
0.000671533 0.0894151 0.0413137 174 4 33
-0.00380775 0.0883585 0.0462103 172 255 36
0.000895018 0.0893853 0.0408419 174 4 33
-0.00337703 0.0883374 0.045936 172 255 36
0.00108969 0.0893528 0.0403475 174 4 33
-0.00297136 0.0883128 0.0456149 172 255 36
0.00128453 0.0893203 0.0398532 174 4 33
-0.00256674 0.088288 0.0452918 172 255 36
0.00149747 0.0892896 0.039373 174 4 33
-0.00216534 0.0882627 0.0449627 172 255 36
0.00173749 0.0892613 0.0389143 174 4 33
-0.00177856 0.0882354 0.0446062 172 255 36
0.00197755 0.089233 0.0384556 174 4 33
-0.00139334 0.0882078 0.0442468 172 255 36
0.00218433 0.0892016 0.0379706 174 4 33
-0.00103055 0.088177 0.0438455 172 255 36
0.00234046 0.0891656 0.0374458 174 4 33
-0.00068038 0.0881444 0.0434205 172 255 36
0.00246085 0.0891262 0.0368931 174 4 33
-0.000300549 0.088116 0.0430511 172 255 36
0.00254898 0.0890838 0.0363149 174 4 33
5.34803e-05 0.0880839 0.0426334 172 255 36
0.002586 0.0890367 0.0356965 174 4 33
0.000366978 0.0880461 0.0421398 172 255 36
0.00261987 0.0889892 0.0350758 174 4 33
0.000690266 0.0880096 0.0416646 172 255 36
0.00259617 0.0889364 0.0344097 174 4 33
0.000981323 0.0879685 0.0411291 172 255 36
0.00255654 0.0888821 0.0337311 174 4 33
0.00127118 0.0879272 0.0405913 172 255 36
0.00242234 0.088819 0.0329782 174 4 33
0.00154918 0.0878842 0.0400314 172 255 36
0.00227169 0.0887545 0.0322123 174 4 33
0.00178817 0.0878356 0.0393984 172 255 36
0.00214799 0.0886924 0.0314676 174 4 33
0.00197054 0.0877789 0.0386597 172 255 36
0.00201866 0.0886298 0.0307185 174 4 33
0.00221552 0.0877312 0.0380379 172 255 36
0.00178748 0.0885577 0.0298894 174 4 33
0.00249139 0.0876879 0.037474 172 255 36
0.00156649 0.0884866 0.0290682 174 4 33
0.00274155 0.0876409 0.036862 172 255 36
0.00144009 0.0884242 0.0283214 174 4 33
0.00295584 0.0875888 0.0361829 172 255 36
0.00136662 0.0883668 0.0276162 174 4 33
0.00319561 0.0875404 0.0355514 172 255 36
0.0122385 0.0882141 0.0212705 174 4 33
0.00636893 0.0859236 0.0144886 172 255 36
0.0132664 0.0882591 0.021431 174 4 33
0.00716802 0.0859555 0.0149034 172 255 36
0.0143565 0.0883098 0.0216404 174 4 33
0.00839789 0.0860492 0.0161239 172 255 36
0.0154006 0.0883563 0.0218136 174 4 33
0.0094024 0.0861105 0.0169229 172 255 36
0.0163358 0.0883926 0.0219012 174 4 33
0.0103336 0.0861613 0.0175849 172 255 36
0.0171956 0.088422 0.0219296 174 4 33
0.0112697 0.0862128 0.0182558 172 255 36
0.0181965 0.0884644 0.0220689 174 4 33
0.0120681 0.0862445 0.0186693 172 255 36
0.0191572 0.0885032 0.0221766 174 4 33
0.0129035 0.0862816 0.019152 172 255 36
0.020171 0.0885468 0.022326 174 4 33
0.0137721 0.0863234 0.0196969 172 255 36
0.0209511 0.0885688 0.0222917 174 4 33
0.014506 0.0863459 0.0199896 172 255 36
0.0218094 0.088598 0.0223189 174 4 33
0.0152242 0.0863661 0.0202532 172 255 36
0.022546 0.0886158 0.0222505 174 4 33
0.0158939 0.0863794 0.0204258 172 255 36
0.023209 0.0886269 0.0221242 174 4 33
0.0165292 0.0863877 0.0205343 172 255 36
0.0238717 0.088638 0.0219977 174 4 33
0.017099 0.0863866 0.0205202 172 255 36
0.0244642 0.0886425 0.0218159 174 4 33
0.0176784 0.0863869 0.0205239 172 255 36
0.0250023 0.0886419 0.0215914 174 4 33
0.0182408 0.0863848 0.0204961 172 255 36
0.0254955 0.0886371 0.0213316 174 4 33
0.0188232 0.0863855 0.0205054 172 255 36
0.0259895 0.0886325 0.0210725 174 4 33
0.019412 0.0863871 0.0205269 172 255 36
0.0265085 0.0886302 0.0208329 174 4 33
0.0200273 0.0863926 0.0205978 172 255 36
0.0270007 0.0886254 0.0205723 174 4 33
0.0206415 0.0863979 0.0206668 172 255 36
0.0275449 0.0886254 0.0203526 174 4 33
0.0212478 0.086402 0.020721 172 255 36
0.0280562 0.0886223 0.0201071 174 4 33
0.0218322 0.086403 0.0207341 172 255 36
0.0285777 0.0886202 0.0198696 174 4 33
0.0223966 0.0864012 0.0207099 172 255 36
0.0290976 0.0886179 0.0196308 174 4 33
0.0229402 0.0863963 0.0206468 172 255 36
0.0296417 0.0886179 0.019411 174 4 33
0.0234727 0.0863899 0.0205628 172 255 36
0.0301754 0.088617 0.019183 174 4 33
0.0239873 0.0863809 0.0204455 172 255 36
0.0306479 0.0886103 0.018907 174 4 33
0.0244964 0.0863711 0.0203178 172 255 36
0.0310948 0.0886013 0.0186108 174 4 33
0.0249873 0.0863587 0.0201561 172 255 36
0.0315181 0.08859 0.0182961 174 4 33
0.0254757 0.0863459 0.0199897 172 255 36
0.0319237 0.0885772 0.0179675 174 4 33
0.0259638 0.0863331 0.0198228 172 255 36
0.0323 0.0885616 0.0176159 174 4 33
0.0264607 0.0863215 0.0196723 172 255 36
0.0326691 0.0885452 0.0172586 174 4 33
0.0269507 0.086309 0.0195088 172 255 36
0.0330503 0.0885301 0.0169106 174 4 33
0.0274056 0.0862914 0.0192799 172 255 36
0.0334172 0.0885136 0.0165516 174 4 33
0.0278728 0.0862756 0.0190738 172 255 36
0.0338121 0.0884998 0.0162146 174 4 33
0.0283362 0.0862592 0.0188607 172 255 36
0.0343025 0.0884948 0.0159526 174 4 33
0.0287824 0.0862404 0.0186155 172 255 36
0.0349265 0.0885022 0.0157957 174 4 33
0.029224 0.0862209 0.0183614 172 255 36
0.0358639 0.0885387 0.015885 174 4 33
0.0296743 0.0862027 0.0181237 172 255 36
0.0379609 0.0886831 0.0168858 174 4 33
0.0301284 0.086185 0.0178933 172 255 36
0.0387499 0.0887059 0.0168587 174 4 33
0.0305623 0.0861644 0.0176249 172 255 36
0.0393612 0.0887122 0.0166917 174 4 33
0.0309874 0.0861425 0.0173402 172 255 36
0.0398251 0.0887047 0.0164089 174 4 33
0.0314038 0.0861194 0.017039 172 255 36
0.0401481 0.0886841 0.0160152 174 4 33
0.0318004 0.0860935 0.0167009 172 255 36
0.0403591 0.0886532 0.0155337 174 4 33
0.0321927 0.0860669 0.0163549 172 255 36
0.0404381 0.0886099 0.0149483 174 4 33
0.0326001 0.0860425 0.0160369 172 255 36
0.0402504 0.0885419 0.0141533 174 4 33
0.0330002 0.086017 0.0157054 172 255 36
0.0397726 0.0884469 0.0131303 174 4 33
0.0334095 0.0859929 0.0153911 172 255 36
0.0394741 0.0883686 0.0122483 174 4 33
0.0338719 0.0859764 0.015176 172 255 36
0.0393872 0.0883099 0.0115324 174 4 33
0.0344047 0.08597 0.0150927 172 255 36
0.0395267 0.0882722 0.0109946 174 4 33
0.0349906 0.0859712 0.0151086 172 255 36
0.0397373 0.0882413 0.0105128 174 4 33
0.0356226 0.0859791 0.0152109 172 255 36
0.0399662 0.0882119 0.0100452 174 4 33
0.0362998 0.0859934 0.0153977 172 255 36
0.0402141 0.0881843 0.00959265 174 4 33
0.0369846 0.0860088 0.0155986 172 255 36
0.0404541 0.0881561 0.00913388 174 4 33
0.0376929 0.0860277 0.0158436 172 255 36
0.0406929 0.0881277 0.00867412 174 4 33
0.0383786 0.0860432 0.0160463 172 255 36
0.0409192 0.0880982 0.00820456 174 4 33
0.0389601 0.0860438 0.016054 172 255 36
0.0411159 0.0880658 0.00771167 174 4 33
0.0394683 0.0860339 0.0159247 172 255 36
0.0413278 0.088035 0.00723086 174 4 33
0.0399421 0.086019 0.015731 172 255 36
0.0416554 0.0880148 0.00684094 174 4 33
0.0403887 0.0860002 0.0154865 172 255 36
0.0420112 0.0879974 0.00647314 174 4 33
0.0408287 0.0859805 0.0152295 172 255 36
0.0423334 0.0879767 0.00607886 174 4 33
0.0412653 0.0859603 0.0149662 172 255 36
0.0426186 0.0879526 0.00565562 174 4 33
0.0416921 0.0859387 0.0146846 172 255 36
0.0428286 0.0879215 0.00517324 174 4 33
0.0416032 0.0853457 0.00695866 172 255 36
0.0429924 0.0878862 0.0046545 174 4 33
0.0419789 0.0853167 0.00658157 172 255 36
0.043138 0.0878491 0.00412159 174 4 33
0.0423838 0.0852924 0.00625275 172 255 36
0.0433047 0.087814 0.00360514 174 4 33
0.0428068 0.0852714 0.0059474 172 255 36
0.0434578 0.0877777 0.00307802 174 4 33
0.0432085 0.0852476 0.00560008 172 255 36
0.043615 0.0877417 0.0025542 174 4 33
0.0435488 0.0852154 0.00513113 172 255 36
0.0438062 0.0877089 0.00205701 174 4 33
0.04385 0.0851779 0.00458466 172 255 36
0.0440596 0.0876819 0.00160867 174 4 33
0.0441479 0.0851399 0.00403186 172 255 36
0.0443667 0.0876599 0.00120264 174 4 33
0.0445006 0.0851094 0.00358749 172 255 36
0.0447151 0.0876416 0.000829142 174 4 33
0.0448639 0.0850804 0.00316406 172 255 36
0.0449621 0.087614 0.000375738 174 4 33
0.0452079 0.0850487 0.00270244 172 255 36
0.0451407 0.0875801 -0.000131299 174 4 33
0.0455423 0.0850157 0.00222182 172 255 36
0.0453931 0.087553 -0.000580314 174 4 33
0.0458364 0.0849772 0.00166156 172 255 36
0.045663 0.0875274 -0.00101561 174 4 33
0.0460919 0.0849335 0.00102471 172 255 36
0.0459116 0.0875 -0.00146767 174 4 33
0.0464316 0.0849012 0.000554658 172 255 36
0.0461104 0.0874678 -0.00195889 174 4 33
0.046816 0.084875 0.000172964 172 255 36
0.0462011 0.0874257 -0.00253496 174 4 33
0.0472058 0.0848496 -0.000198082 172 255 36
0.0463868 0.0873924 -0.00303654 174 4 33
0.0475575 0.0848189 -0.000644372 172 255 36
0.0467274 0.0873735 -0.00341624 174 4 33
0.0479059 0.0847878 -0.00109742 172 255 36
0.0470713 0.0873548 -0.00379341 174 4 33
0.0482781 0.08476 -0.00150313 172 255 36
0.0474732 0.0873417 -0.00412488 174 4 33
0.0485999 0.0847252 -0.0020088 172 255 36
0.0479084 0.0873315 -0.0044303 174 4 33
0.0489315 0.0846919 -0.00249502 172 255 36
0.0483952 0.0873262 -0.00469509 174 4 33
0.0492571 0.0846577 -0.00299308 172 255 36
0.0488478 0.0873176 -0.00498674 174 4 33
0.0496143 0.0846278 -0.00342853 172 255 36
0.0491795 0.0872979 -0.00537351 174 4 33
0.050055 0.0846092 -0.00369872 172 255 36
0.0494978 0.0872769 -0.00577071 174 4 33
0.0505455 0.0845974 -0.00387049 172 255 36
0.0499275 0.0872663 -0.00608052 174 4 33
0.0510297 0.0845848 -0.00405491 172 255 36
0.0506319 0.0872812 -0.00617419 174 4 33
0.0514933 0.0845693 -0.00427998 172 255 36
0.0512266 0.0872859 -0.00635422 174 4 33
0.0519283 0.08455 -0.0045616 172 255 36
0.0517872 0.0872874 -0.00656094 174 4 33
0.0523242 0.0845253 -0.00492043 172 255 36
0.0523247 0.0872868 -0.006786 174 4 33
0.0527186 0.0845005 -0.00528231 172 255 36
0.0528202 0.0872823 -0.00704396 174 4 33
0.0531316 0.0844782 -0.00560753 172 255 36
0.0533599 0.0872818 -0.00726725 174 4 33
0.0535956 0.0844628 -0.00583181 172 255 36
0.0538855 0.0872801 -0.00750154 174 4 33
0.0540602 0.0844475 -0.0060548 172 255 36
0.0545056 0.0872872 -0.00766156 174 4 33
0.0545319 0.0844331 -0.00626373 172 255 36
0.05498 0.0872807 -0.00793614 174 4 33
0.0550246 0.0844216 -0.0064313 172 255 36
0.0554077 0.0872699 -0.0082473 174 4 33
0.0555621 0.0844162 -0.00651011 172 255 36
0.0558965 0.0872647 -0.0085106 174 4 33
0.0562428 0.0844303 -0.00630555 172 255 36
0.0562593 0.0872479 -0.00887291 174 4 33
0.0571449 0.0844744 -0.00566309 172 255 36
0.0566342 0.0872321 -0.00922565 174 4 33
0.0578747 0.0844951 -0.00536162 172 255 36
0.0620949 0.0876893 -0.00558082 174 4 33
0.0585562 0.0845092 -0.00515564 172 255 36
0.0628835 0.087712 -0.00560842 174 4 33
0.0592567 0.0845259 -0.00491188 172 255 36
0.0635268 0.0877212 -0.00575022 174 4 33
0.0599365 0.0845398 -0.00470934 172 255 36
0.0641176 0.0877256 -0.00593323 174 4 33
0.0605545 0.0845454 -0.00462894 172 255 36
0.0649208 0.0877496 -0.0059494 174 4 33
0.0611625 0.0845495 -0.00456814 172 255 36
0.0656953 0.087771 -0.00598814 174 4 33
0.0617114 0.0845457 -0.00462451 172 255 36
0.0665316 0.0877982 -0.00597818 174 4 33
0.0622978 0.0845469 -0.00460663 172 255 36
0.067247 0.0878141 -0.00606333 174 4 33
0.0628705 0.0845463 -0.00461579 172 255 36
0.0679478 0.0878287 -0.00615991 174 4 33
0.0634628 0.0845483 -0.00458621 172 255 36
0.0685334 0.0878326 -0.00634703 174 4 33
0.064069 0.0845522 -0.00452914 172 255 36
0.0691042 0.0878351 -0.0065459 174 4 33
0.0646581 0.0845538 -0.00450599 172 255 36
0.0696055 0.087831 -0.00679922 174 4 33
0.0651984 0.0845488 -0.00457913 172 255 36
0.0701072 0.0878271 -0.00705243 174 4 33
0.0657086 0.0845397 -0.00471199 172 255 36
0.0705619 0.0878188 -0.00734237 174 4 33
0.0661853 0.084526 -0.00491109 172 255 36
0.0710063 0.0878095 -0.00764056 174 4 33
0.0666641 0.0845126 -0.00510607 172 255 36
0.07146 0.0878012 -0.00793145 174 4 33
0.0671343 0.0844981 -0.00531802 172 255 36
0.0718662 0.0877883 -0.00825958 174 4 33
0.0676147 0.0844849 -0.00550991 172 255 36
0.0722377 0.0877722 -0.00861495 174 4 33
0.0681045 0.084473 -0.00568314 172 255 36
0.0725966 0.0877551 -0.00898036 174 4 33
0.0685844 0.0844598 -0.00587589 172 255 36
0.0729054 0.0877331 -0.00938506 174 4 33
0.0690319 0.0844421 -0.00613274 172 255 36
0.0731852 0.0877085 -0.0098126 174 4 33
0.0694686 0.084423 -0.00641105 172 255 36
0.0734755 0.087685 -0.0102319 174 4 33
0.0699007 0.0844033 -0.00669841 172 255 36
0.0737714 0.0876619 -0.0106467 174 4 33
0.0703214 0.084382 -0.00700831 172 255 36
0.0740596 0.0876381 -0.0110676 174 4 33
0.0707198 0.0843577 -0.0073622 172 255 36
0.0743374 0.0876133 -0.0114967 174 4 33
0.071112 0.0843326 -0.00772851 172 255 36
0.0746079 0.0875879 -0.0119315 174 4 33
0.0715175 0.0843092 -0.00806833 172 255 36
0.0748561 0.0875604 -0.0123839 174 4 33
0.0719419 0.0842885 -0.00837107 172 255 36
0.0750701 0.0875297 -0.0128632 174 4 33
0.0723565 0.0842663 -0.00869303 172 255 36
0.0752704 0.0874978 -0.0133531 174 4 33
0.0727189 0.0842372 -0.00911822 172 255 36
0.0754559 0.0874644 -0.0138547 174 4 33
0.0730498 0.0842037 -0.00960583 172 255 36
0.0756317 0.0874302 -0.014364 174 4 33
0.0733779 0.0841698 -0.0100988 172 255 36
0.0757773 0.0873931 -0.014897 174 4 33
0.0736697 0.0841311 -0.0106636 172 255 36
0.0759487 0.0873584 -0.0154098 174 4 33
0.0739766 0.0840943 -0.0111987 172 255 36
0.0761156 0.0873233 -0.015926 174 4 33
0.0742495 0.084053 -0.011801 172 255 36
0.0762362 0.087284 -0.0164787 174 4 33
0.0745372 0.0840136 -0.0123739 172 255 36
0.0763493 0.0872439 -0.0170372 174 4 33
0.0748427 0.0839767 -0.0129118 172 255 36
0.0764381 0.0872016 -0.0176149 174 4 33
0.0751106 0.0839347 -0.013524 172 255 36
0.0764969 0.0871564 -0.018216 174 4 33
0.0753831 0.0838933 -0.0141271 172 255 36
0.0765433 0.0871102 -0.0188271 174 4 33
0.0756146 0.0838463 -0.0148111 172 255 36
0.076594 0.0870643 -0.0194347 174 4 33
0.0757855 0.0837911 -0.0156154 172 255 36
0.0766014 0.0870144 -0.0200764 174 4 33
0.0760385 0.0828061 -0.0299626 172 255 36
0.0765791 0.0869618 -0.0207413 174 4 33
0.0763444 0.0827693 -0.0304996 172 255 36
0.0763716 0.0868919 -0.0215518 174 4 33
0.0766164 0.0827278 -0.0311036 172 255 36
0.0758342 0.0867913 -0.0226217 174 4 33
0.0768517 0.0826814 -0.0317803 172 255 36
0.0757882 0.0867364 -0.0233052 174 4 33
0.0770836 0.0826344 -0.0324638 172 255 36
0.075704 0.086678 -0.0240189 174 4 33
-0.0734862 0.0888429 0.0433095 172 255 36
0.0753042 0.0865903 -0.0249806 174 4 33
-0.0727094 0.0888713 0.0436826 172 255 36
0.0753999 0.0865507 -0.0255659 174 4 33
-0.0711384 0.0890128 0.0455412 172 255 36
0.0756075 0.0865214 -0.0260624 174 4 33
-0.0699844 0.0890949 0.0466198 172 255 36
0.0758755 0.0864973 -0.0265091 174 4 33
-0.0690625 0.089144 0.0472642 172 255 36
0.0761304 0.086472 -0.0269665 174 4 33
-0.0681346 0.0891939 0.0479198 172 255 36
0.0763543 0.0864442 -0.0274495 174 4 33
-0.0673193 0.0892278 0.0483649 172 255 36
0.0765386 0.0864128 -0.0279653 174 4 33
-0.066584 0.0892497 0.0486583 172 255 36
0.07665 0.0863751 -0.028541 174 4 33
-0.0659183 0.0892596 0.0488138 172 255 36
0.0767224 0.0863341 -0.0291488 174 4 33
-0.0652784 0.0892665 0.048924 172 255 36
0.0767363 0.0862879 -0.0298048 174 4 33
-0.0646903 0.0892677 0.0489429 172 255 36
0.0768186 0.0862477 -0.0304046 174 4 33
-0.0641267 0.0892662 0.0489187 172 255 36
0.0769155 0.0862088 -0.0309923 174 4 33
-0.0635228 0.0892692 0.0489653 172 255 36
0.0770312 0.0861715 -0.0315644 174 4 33
-0.0629615 0.0892674 0.0489371 172 255 36
0.077139 0.0861335 -0.0321431 174 4 33
-0.0624461 0.0892605 0.0488281 172 255 36
0.0772508 0.0860958 -0.0327186 174 4 33
-0.0619549 0.0892509 0.0486765 172 255 36
0.0773942 0.0860609 -0.0332679 174 4 33
-0.0614569 0.0892405 0.0485312 172 255 36
0.07747 0.0860201 -0.033873 174 4 33
-0.060994 0.0892242 0.0483171 172 255 36
0.0775282 0.0859778 -0.0344926 174 4 33
-0.0605506 0.0892051 0.0480667 172 255 36
0.0775461 0.085932 -0.0351453 174 4 33
-0.0601094 0.0891857 0.0478119 172 255 36
0.0775212 0.0858826 -0.0358334 174 4 33
-0.0596851 0.0891639 0.0475256 172 255 36
0.0774446 0.0858285 -0.0365639 174 4 33
-0.0592637 0.0891417 0.047234 172 255 36
0.0774272 0.0857796 -0.0372458 174 4 33
-0.0588601 0.089117 0.0469089 172 255 36
0.0774272 0.0857323 -0.0379134 174 4 33
-0.0584956 0.0890867 0.0465109 172 255 36
0.0774583 0.0856877 -0.0385552 174 4 33
-0.0581563 0.0890528 0.0460655 172 255 36
0.0774393 0.0856387 -0.0392384 174 4 33
-0.0578361 0.0890161 0.0455846 172 255 36
0.0767298 0.0854823 -0.041158 174 4 33
-0.0575356 0.0889767 0.0450668 172 255 36
0.0766553 0.0854285 -0.0418869 174 4 33
-0.0572472 0.0889356 0.0445264 172 255 36
0.0766794 0.0853832 -0.0425347 174 4 33
-0.0569787 0.0888916 0.0439487 172 255 36
-0.0671987 0.0885841 0.0488214 174 4 33
-0.0567775 0.088838 0.0432451 172 255 36
-0.0662588 0.0886205 0.0489128 174 4 33
-0.0565703 0.0887853 0.0425527 172 255 36
-0.0654412 0.0886458 0.0489079 174 4 33
-0.0563531 0.088734 0.0418791 172 255 36
-0.064537 0.088679 0.0489713 174 4 33
-0.0561325 0.0886832 0.0412119 172 255 36
-0.0636238 0.0887131 0.0490415 174 4 33
-0.0558657 0.088639 0.040631 172 255 36
-0.0630371 0.0887169 0.0488552 174 4 33
-0.0556026 0.0885942 0.0400432 172 255 36
-0.062475 0.0887186 0.0486496 174 4 33
-0.0553172 0.0885527 0.039497 172 255 36
-0.061959 0.088716 0.0484077 174 4 33
-0.0549701 0.0885199 0.0390665 172 255 36
-0.0614393 0.0887137 0.0481689 174 4 33
-0.0546073 0.0884893 0.0386651 172 255 36
-0.0609275 0.0887108 0.0479237 174 4 33
-0.0542501 0.088458 0.0382534 172 255 36
-0.0603914 0.08871 0.0476976 174 4 33
-0.053924 0.0884222 0.0377835 172 255 36
-0.0598896 0.088706 0.0474447 174 4 33
-0.0536406 0.0883803 0.0372335 172 255 36
-0.0594591 0.0886956 0.0471356 174 4 33
-0.0533437 0.0883404 0.0367091 172 255 36
-0.0590472 0.0886834 0.0468118 174 4 33
-0.0530108 0.0883056 0.0362517 172 255 36
-0.0586971 0.0886655 0.0464396 174 4 33
-0.0526509 0.0882746 0.035845 172 255 36
-0.0584009 0.0886426 0.0460249 174 4 33
-0.0522712 0.0882465 0.0354754 172 255 36
-0.0581209 0.0886182 0.0455977 174 4 33
-0.0355594 0.0884886 0.0386563 172 255 36
-0.0578322 0.0885946 0.0451771 174 4 33
-0.0349337 0.0884955 0.0387469 172 255 36
-0.0575851 0.0885672 0.0447239 174 4 33
-0.0341754 0.0885213 0.0390854 172 255 36
-0.057394 0.0885346 0.0442267 174 4 33
-0.0335678 0.0885256 0.039142 172 255 36
-0.0572302 0.0884995 0.043708 174 4 33
-0.0330503 0.0885171 0.0390299 172 255 36
-0.0570707 0.088464 0.0431859 174 4 33
-0.0324952 0.0885139 0.0389882 172 255 36
-0.0568647 0.0884328 0.0427004 174 4 33
-0.031893 0.0885175 0.0390347 172 255 36
-0.0566835 0.0883993 0.0421954 174 4 33
-0.031219 0.0885312 0.0392156 172 255 36
-0.0564982 0.0883662 0.0416936 174 4 33
-0.0304644 0.0885565 0.0395471 172 255 36
-0.0562805 0.088336 0.0412172 174 4 33
-0.0296034 0.0885969 0.0400776 172 255 36
-0.0560515 0.0883069 0.0407498 174 4 33
-0.0282654 0.0887052 0.0415003 172 255 36
-0.0558201 0.088278 0.0402843 174 4 33
-0.0271772 0.0887779 0.0424559 172 255 36
-0.0555637 0.0882516 0.0398384 174 4 33
-0.0246142 0.0890607 0.0461699 172 255 36
-0.0552353 0.0882316 0.039449 174 4 33
-0.0236557 0.089115 0.0468828 172 255 36
-0.0549023 0.0882122 0.0390634 174 4 33
-0.0227196 0.0891661 0.047554 172 255 36
-0.0545741 0.0881922 0.038674 174 4 33
-0.0217838 0.0892171 0.0482244 172 255 36
-0.0542721 0.0881699 0.0382639 174 4 33
-0.0209335 0.0892542 0.0487283 172 255 36
-0.0540134 0.0881435 0.0378197 174 4 33
-0.0200891 0.0892839 0.0491984 172 255 36
-0.0536833 0.0881238 0.0374318 174 4 33
-0.0193178 0.0893055 0.0495399 172 255 36
-0.0533422 0.088105 0.0370524 174 4 33
-0.0186235 0.0893186 0.0497458 172 255 36
-0.0530187 0.0880846 0.0366592 174 4 33
-0.0179257 0.089332 0.0499578 172 255 36
-0.0527294 0.0880611 0.0362393 174 4 33
-0.0172754 0.0893401 0.0500862 172 255 36
-0.0525491 0.0880275 0.0357335 174 4 33
-0.0166475 0.0893458 0.0501751 172 255 36
-0.0524101 0.0879901 0.0351953 174 4 33
-0.0159928 0.0893544 0.0503114 172 255 36
-0.0213349 0.0901042 0.0499089 174 4 33
-0.0153769 0.0893587 0.0503793 172 255 36
-0.0205169 0.0901295 0.0499043 174 4 33
-0.0147903 0.0893597 0.0503955 172 255 36
-0.0191401 0.0902063 0.0503391 174 4 33
-0.0142323 0.0893576 0.0503614 172 255 36
-0.0180906 0.0902529 0.0505166 174 4 33
-0.0137041 0.0893521 0.0502748 172 255 36
-0.0171793 0.0902868 0.0505854 174 4 33
-0.0131799 0.0893462 0.0501814 172 255 36
-0.0162411 0.0903231 0.0506755 174 4 33
-0.0126732 0.0893383 0.0500571 172 255 36
-0.0152746 0.0903621 0.0507878 174 4 33
-0.0121765 0.0893293 0.049915 172 255 36
-0.0144621 0.0903868 0.0507789 174 4 33
-0.0116862 0.0893196 0.0497618 172 255 36
-0.0137345 0.0904037 0.0507033 174 4 33
-0.0111986 0.0893096 0.0496038 172 255 36
-0.0130456 0.0904171 0.0505974 174 4 33
-0.0107197 0.0892986 0.0494305 172 255 36
-0.0123582 0.0904303 0.0504902 174 4 33
-0.0102344 0.0892883 0.0492684 172 255 36
-0.0117097 0.09044 0.0503525 174 4 33
-0.00975391 0.0892776 0.0490979 172 255 36
-0.0111364 0.0904427 0.0501558 174 4 33
-0.00925624 0.0892687 0.0489577 172 255 36
-0.0105379 0.0904476 0.0499787 174 4 33
-0.00877356 0.0892581 0.048791 172 255 36
-0.00997983 0.0904489 0.0497699 174 4 33
-0.00829726 0.0892467 0.0486124 172 255 36
-0.00941154 0.0904511 0.0495691 174 4 33
-0.0078242 0.0892318 0.0484174 172 255 36
-0.00884204 0.0904534 0.0493693 174 4 33
-0.00735745 0.0892161 0.0482105 172 255 36
-0.00827952 0.0904552 0.049164 174 4 33
-0.00690249 0.0891986 0.0479816 172 255 36
-0.00773298 0.0904554 0.0489462 174 4 33
-0.0064461 0.0891814 0.0477553 172 255 36
-0.00722614 0.0904519 0.0486971 174 4 33
-0.00599612 0.0891633 0.0475171 172 255 36
-0.00675883 0.0904448 0.0484169 174 4 33
-0.00555392 0.089144 0.0472643 172 255 36
-0.00628683 0.0904382 0.0481405 174 4 33
-0.00512425 0.089123 0.0469881 172 255 36
-0.00581513 0.0904315 0.0478638 174 4 33
-0.00470302 0.0891008 0.0466961 172 255 36
-0.00535368 0.0904238 0.047579 174 4 33
-0.00426666 0.0890807 0.0464323 172 255 36
-0.00492233 0.0904134 0.0472706 174 4 33
-0.00382971 0.0890607 0.0461697 172 255 36
-0.00450549 0.0904016 0.0469508 174 4 33
-0.00340341 0.0890392 0.0458872 172 255 36
-0.00407475 0.0903912 0.0466421 174 4 33
-0.00300031 0.0890144 0.0455613 172 255 36
-0.0036201 0.0903829 0.046352 174 4 33
-0.00260084 0.088989 0.0452285 172 255 36
-0.00317924 0.0903734 0.0460511 174 4 33
-0.00219814 0.0889642 0.0449019 172 255 36
-0.00276743 0.0903612 0.0457273 174 4 33
-0.00180329 0.0889382 0.0445605 172 255 36
-0.00237295 0.0903474 0.0453899 174 4 33
-0.00142475 0.0889098 0.0441886 172 255 36
-0.00198944 0.0903325 0.0450439 174 4 33
-0.00106847 0.0888784 0.0437752 172 255 36
-0.00163285 0.0903152 0.0446768 174 4 33
-0.000713117 0.0888468 0.0433599 172 255 36
-0.00131407 0.0902943 0.0442799 174 4 33
-0.000350401 0.0888162 0.0429585 172 255 36
-0.00100356 0.0902728 0.0438765 174 4 33
-2.99066e-05 0.0887796 0.0424781 172 255 36
-0.000730034 0.0902478 0.0434441 174 4 33
0.000284672 0.0887422 0.0419866 172 255 36
-0.00048304 0.0902204 0.0429908 174 4 33
0.000586979 0.088703 0.0414721 172 255 36
-0.000217184 0.0901947 0.0425523 174 4 33
0.000891998 0.0886642 0.0409627 172 255 36
4.27763e-05 0.0901685 0.0421091 174 4 33
0.00118002 0.088623 0.0404216 172 255 36
0.000282663 0.0901404 0.0416503 174 4 33
0.00145121 0.0885794 0.0398489 172 255 36
0.000535473 0.0901135 0.0412015 174 4 33
0.00167146 0.0885286 0.039181 172 255 36
0.000744697 0.0900826 0.0407186 174 4 33
0.00189335 0.088478 0.0385161 172 255 36
0.000927184 0.0900493 0.0402146 174 4 33
0.00215911 0.0884336 0.0379333 172 255 36
0.00113185 0.0900179 0.039728 174 4 33
0.00243747 0.088391 0.037374 172 255 36
0.00139439 0.0899919 0.039287 174 4 33
0.00268788 0.0883445 0.0367625 172 255 36
0.00166701 0.0899668 0.0388538 174 4 33
0.0029034 0.0882929 0.0360857 172 255 36
0.00190535 0.0899386 0.0383937 174 4 33
0.00587165 0.0866602 0.0146402 172 255 36
0.00208969 0.0899054 0.0378911 174 4 33
0.0066843 0.0866937 0.0150803 172 255 36
0.00223303 0.0898684 0.0373563 174 4 33
0.00774907 0.0867631 0.015992 172 255 36
0.00235057 0.089829 0.0368014 174 4 33
0.00876723 0.0868259 0.0168165 172 255 36
0.0024434 0.0897874 0.0362269 174 4 33
0.00980141 0.0868909 0.017671 172 255 36
0.00248675 0.0897412 0.0356135 174 4 33
0.0107031 0.0869371 0.0182777 172 255 36
0.00247455 0.0896898 0.0349564 174 4 33
0.0115706 0.0869784 0.0188204 172 255 36
0.00246174 0.0896384 0.034299 174 4 33
0.012381 0.0870116 0.0192563 172 255 36
0.00242378 0.0895847 0.0336217 174 4 33
0.0132789 0.0870573 0.0198559 172 255 36
0.00230465 0.0895234 0.0328807 174 4 33
0.0140076 0.0870788 0.020139 172 255 36
0.00216394 0.0894603 0.0321226 174 4 33
0.0146636 0.08709 0.020286 172 255 36
0.00204046 0.0893987 0.0313782 174 4 33
0.0153697 0.0871084 0.0205269 172 255 36
0.00183676 0.0893296 0.0305705 174 4 33
0.0159998 0.0871159 0.0206256 172 255 36
0.0015198 0.0892502 0.029674 174 4 33
0.0166234 0.0871225 0.0207121 172 255 36
0.00134077 0.0891834 0.0288858 174 4 33
0.0172027 0.0871227 0.0207156 172 255 36
0.00123239 0.0891232 0.0281533 174 4 33
0.0177699 0.0871213 0.0206967 172 255 36
0.0123128 0.0889404 0.021324 174 4 33
0.0183755 0.0871253 0.0207495 172 255 36
0.0135715 0.0890064 0.0216659 174 4 33
0.0189606 0.0871264 0.020764 172 255 36
0.0147495 0.0890648 0.0219444 174 4 33
0.0195573 0.0871292 0.0208003 172 255 36
0.0157537 0.0891073 0.0220862 174 4 33
0.0201713 0.0871344 0.0208688 172 255 36
0.0166082 0.0891359 0.0221104 174 4 33
0.0207807 0.087139 0.0209287 172 255 36
0.0175185 0.0891696 0.0221785 174 4 33
0.0213786 0.0871419 0.0209671 172 255 36
0.018629 0.0892219 0.0224039 174 4 33
0.0219533 0.0871415 0.0209621 172 255 36
0.0196955 0.0892701 0.0225948 174 4 33
0.0225081 0.0871383 0.02092 172 255 36
0.0205775 0.0893013 0.0226405 174 4 33
0.0230577 0.0871343 0.020868 172 255 36
0.0213493 0.0893222 0.0225998 174 4 33
0.0235704 0.0871251 0.0207472 172 255 36
0.0221888 0.0893495 0.0226122 174 4 33
0.02408 0.0871155 0.0206204 172 255 36
0.0228264 0.0893581 0.0224659 174 4 33
0.0245752 0.0871038 0.0204668 172 255 36
0.0234888 0.089369 0.0223392 174 4 33
0.0250568 0.0870901 0.0202877 172 255 36
0.0241563 0.0893804 0.0222164 174 4 33
0.0255427 0.0870771 0.0201167 172 255 36
0.0247096 0.0893812 0.0220038 174 4 33
0.0260269 0.0870638 0.0199423 172 255 36
0.025213 0.0893775 0.0217521 174 4 33
0.0265271 0.0870529 0.019798 172 255 36
0.02567 0.0893694 0.0214638 174 4 33
0.0270084 0.0870392 0.0196185 172 255 36
0.0261223 0.0893609 0.0211718 174 4 33
0.0274704 0.0870228 0.0194027 172 255 36
0.0265887 0.0893537 0.020891 174 4 33
0.0279343 0.0870066 0.0191906 172 255 36
0.0270353 0.0893447 0.0205946 174 4 33
0.0283952 0.08699 0.0189727 172 255 36
0.0275269 0.0893399 0.0203336 174 4 33
0.0288446 0.0869718 0.0187333 172 255 36
0.0280339 0.0893364 0.0200847 174 4 33
0.029292 0.0869533 0.0184904 172 255 36
0.028568 0.0893355 0.019857 174 4 33
0.029749 0.0869362 0.0182652 172 255 36
0.0291117 0.0893354 0.0196369 174 4 33
0.0301975 0.0869178 0.0180242 172 255 36
0.029664 0.0893362 0.0194236 174 4 33
0.0306208 0.0868959 0.0177361 172 255 36
0.0302171 0.089337 0.0192109 174 4 33
0.0310469 0.0868743 0.0174532 172 255 36
0.0307149 0.0893327 0.0189548 174 4 33
0.0314714 0.0868526 0.0171672 172 255 36
0.0311829 0.0893257 0.0186752 174 4 33
0.0318743 0.0868277 0.0168409 172 255 36
0.0316129 0.0893152 0.0183657 174 4 33
0.0322605 0.0868005 0.0164835 172 255 36
0.0320158 0.0893021 0.0180349 174 4 33
0.0326526 0.0867741 0.0161369 172 255 36
0.0323932 0.0892867 0.0176842 174 4 33
0.0330334 0.0867461 0.0157693 172 255 36
0.0327743 0.0892717 0.0173363 174 4 33
0.0334219 0.0867192 0.0154161 172 255 36
0.0331413 0.0892553 0.0169773 174 4 33
0.0338524 0.0866983 0.0151414 172 255 36
0.0335006 0.0892382 0.0166123 174 4 33
0.0343516 0.0866872 0.0149952 172 255 36
0.0338971 0.0892246 0.0162765 174 4 33
0.0349134 0.086685 0.0149661 172 255 36
0.0343828 0.0892192 0.0160107 174 4 33
0.0355436 0.0866925 0.015065 172 255 36
0.0349857 0.0892246 0.0158373 174 4 33
0.0362154 0.086706 0.0152416 172 255 36
0.0359438 0.0892628 0.0159428 174 4 33
0.0369091 0.0867225 0.0154592 172 255 36
0.0379961 0.0894019 0.0169085 174 4 33
0.0376555 0.0867466 0.0157755 172 255 36
0.0387079 0.0894174 0.0168206 174 4 33
0.0383295 0.0867604 0.0159561 172 255 36
0.039253 0.0894175 0.0166015 174 4 33
0.0389078 0.0867605 0.015958 172 255 36
0.0396793 0.0894066 0.0162892 174 4 33
0.039431 0.0867528 0.0158567 172 255 36
0.0399389 0.0893804 0.0158458 174 4 33
0.039904 0.0867379 0.0156615 172 255 36
0.0400812 0.0893433 0.0153102 174 4 33
0.0403529 0.0867196 0.0154212 172 255 36
0.0400197 0.0892874 0.0146144 174 4 33
0.0407801 0.0866983 0.0151405 172 255 36
0.039509 0.08919 0.0135657 174 4 33
0.0412002 0.0866759 0.0148462 172 255 36
0.0390985 0.0891019 0.0125956 174 4 33
0.0416445 0.0866569 0.0145974 172 255 36
0.0390047 0.0890431 0.0118743 174 4 33
0.0411871 0.0860985 0.00726251 172 255 36
0.0391051 0.0890021 0.0113059 174 4 33
0.0415381 0.0860662 0.00683917 172 255 36
0.0392979 0.0889696 0.0108099 174 4 33
0.0419138 0.0860375 0.00646195 172 255 36
0.0395414 0.088942 0.010354 174 4 33
0.0423218 0.0860143 0.00613227 172 255 36
0.0398131 0.0889168 0.00992007 174 4 33
0.0427372 0.0859925 0.00581197 172 255 36
0.0400655 0.0888898 0.00947106 174 4 33
0.0431234 0.0859667 0.00543371 172 255 36
0.0402951 0.0888608 0.00900399 174 4 33
0.0434445 0.0859321 0.00492681 172 255 36
0.0405321 0.0888325 0.00854292 174 4 33
0.0437056 0.0858895 0.00430116 172 255 36
0.0407396 0.0888014 0.00805859 174 4 33
0.0439787 0.0858485 0.00369929 172 255 36
0.0409546 0.088771 0.00758013 174 4 33
0.0442965 0.0858135 0.0031857 172 255 36
0.041195 0.088743 0.00712156 174 4 33
0.0446281 0.0857803 0.00269961 172 255 36
0.041494 0.0887203 0.00670916 174 4 33
0.0449799 0.0857499 0.00225335 172 255 36
0.0418075 0.0886991 0.00630819 174 4 33
0.0452886 0.0857137 0.00172199 172 255 36
0.0420993 0.0886758 0.00589001 174 4 33
0.0455727 0.0856741 0.00114185 172 255 36
0.0423598 0.0886496 0.00544745 174 4 33
0.0458498 0.0856337 0.000547736 172 255 36
0.0425713 0.0886188 0.00496627 174 4 33
0.0462103 0.0856044 0.000118791 172 255 36
0.0427459 0.0885848 0.00445611 174 4 33
0.0466106 0.0855805 -0.000231535 172 255 36
0.0429004 0.0885488 0.00393009 174 4 33
0.0469696 0.0855511 -0.000663542 172 255 36
0.0430471 0.0885121 0.00339787 174 4 33
0.0472898 0.0855164 -0.00117215 172 255 36
0.0431839 0.0884745 0.00285803 174 4 33
0.0476379 0.0854855 -0.00162572 172 255 36
0.0433265 0.0884374 0.0023226 174 4 33
0.047974 0.085453 -0.002103 172 255 36
0.0435322 0.0884062 0.00183696 174 4 33
0.0483282 0.0854229 -0.00254456 172 255 36
0.0437924 0.08838 0.00139402 174 4 33
0.0485726 0.085378 -0.00320307 172 255 36
0.0440602 0.0883545 0.000957013 174 4 33
0.0488656 0.0853396 -0.00376566 172 255 36
0.0443534 0.0883314 0.000540072 174 4 33
0.0492693 0.0853162 -0.00410914 172 255 36
0.0445881 0.0883028 7.70995e-05 174 4 33
0.0496787 0.0852936 -0.00444158 172 255 36
0.0446994 0.0882628 -0.000482901 174 4 33
0.0501232 0.0852757 -0.00470422 172 255 36
0.0448684 0.0882282 -0.000997405 174 4 33
0.050608 0.0852632 -0.00488737 172 255 36
0.0450296 0.0881929 -0.00151816 174 4 33
0.0510889 0.0852502 -0.00507817 172 255 36
0.0451216 0.0881512 -0.00209328 174 4 33
0.0515487 0.0852343 -0.00531068 172 255 36
0.0452405 0.0881119 -0.00264731 174 4 33
0.051992 0.0852163 -0.0055759 172 255 36
0.0454511 0.0880811 -0.00312929 174 4 33
0.0524103 0.0851948 -0.00589051 172 255 36
0.0457436 0.0880578 -0.00354671 174 4 33
0.052846 0.0851757 -0.00617086 172 255 36
0.0461457 0.0880448 -0.00387805 174 4 33
0.0533346 0.0851637 -0.00634651 172 255 36
0.0465798 0.0880346 -0.00418437 174 4 33
0.0538259 0.0851521 -0.00651671 172 255 36
0.0469121 0.088015 -0.00457057 174 4 33
0.05431 0.0851396 -0.00670103 172 255 36
0.0472228 0.0879935 -0.00497379 174 4 33
0.0548009 0.0851279 -0.00687208 172 255 36
0.0475328 0.0879719 -0.00537758 174 4 33
0.0553149 0.0851194 -0.00699746 172 255 36
0.0479634 0.0879613 -0.00568659 174 4 33
0.0558299 0.085111 -0.00712074 172 255 36
0.0483397 0.0879458 -0.00603828 174 4 33
0.0565097 0.0851248 -0.0069182 172 255 36
0.0486909 0.0879281 -0.00640962 174 4 33
0.05737 0.0851629 -0.00635847 172 255 36
0.0490279 0.0879089 -0.00679219 174 4 33
0.0582051 0.0851977 -0.00584848 172 255 36
0.0496686 0.0879178 -0.00693604 174 4 33
0.0588723 0.0852098 -0.0056707 172 255 36
0.0504817 0.0879427 -0.00694438 174 4 33
0.0595677 0.0852257 -0.00543716 172 255 36
0.0511007 0.0879496 -0.00710525 174 4 33
0.0602038 0.0852336 -0.00532091 172 255 36
0.0516561 0.0879506 -0.00731621 174 4 33
0.0608406 0.0852416 -0.00520337 172 255 36
0.0521374 0.0879447 -0.0075853 174 4 33
0.0614006 0.0852393 -0.0052376 172 255 36
0.0525981 0.087937 -0.00787065 174 4 33
0.0619337 0.0852333 -0.00532524 172 255 36
0.0530709 0.0879305 -0.00814638 174 4 33
0.0624815 0.0852294 -0.00538374 172 255 36
0.0535538 0.0879249 -0.00841428 174 4 33
0.0630951 0.0852342 -0.00531206 172 255 36
0.0541406 0.0879287 -0.00860053 174 4 33
0.0637244 0.0852413 -0.00520917 172 255 36
0.0546579 0.0879263 -0.00884141 174 4 33
0.0643273 0.0852447 -0.00515868 172 255 36
0.0552288 0.0879287 -0.0090401 174 4 33
0.064891 0.0852429 -0.0051856 172 255 36
0.0557671 0.0879281 -0.00926435 174 4 33
0.0654242 0.0852369 -0.00527302 172 255 36
0.056231 0.0879208 -0.00954716 174 4 33
0.0659171 0.0852255 -0.00544012 172 255 36
0.0566959 0.0879134 -0.00982925 174 4 33
0.0664065 0.0852137 -0.00561398 172 255 36
0.0571207 0.0879024 -0.0101428 174 4 33
0.0669035 0.0852028 -0.00577297 172 255 36
0.0629072 0.0883861 -0.006242 174 4 33
0.0674134 0.0851937 -0.00590652 172 255 36
0.0634555 0.0883865 -0.00645851 174 4 33
0.0679561 0.085189 -0.00597505 172 255 36
0.0640827 0.0883941 -0.00661284 174 4 33
0.068451 0.0851779 -0.00613806 172 255 36
0.0647397 0.0884045 -0.00674397 174 4 33
0.0688997 0.0851606 -0.00639274 172 255 36
0.0657402 0.0884467 -0.00660499 174 4 33
0.0693384 0.0851419 -0.00666687 172 255 36
0.06668 0.0884831 -0.0065138 174 4 33
0.0697744 0.0851228 -0.00694656 172 255 36
0.0673667 0.0884963 -0.00662152 174 4 33
0.0701864 0.0851005 -0.00727374 172 255 36
0.0679765 0.0885024 -0.00678961 174 4 33
0.070588 0.0850768 -0.0076214 172 255 36
0.0685269 0.0885029 -0.0070044 174 4 33
0.0710058 0.0850553 -0.00793693 172 255 36
0.0690658 0.0885025 -0.00722832 174 4 33
0.0714237 0.0850338 -0.00825253 172 255 36
0.0696156 0.0885029 -0.00744363 174 4 33
0.071858 0.0850145 -0.00853548 172 255 36
0.070181 0.0885049 -0.00764657 174 4 33
0.07229 0.0849949 -0.00882299 172 255 36
0.070705 0.088503 -0.0078822 174 4 33
0.0726757 0.0849691 -0.0092022 172 255 36
0.0711865 0.0884972 -0.00815115 174 4 33
0.0730273 0.0849386 -0.00964891 172 255 36
0.0716033 0.0884854 -0.00847095 174 4 33
0.0733648 0.0849063 -0.0101233 172 255 36
0.0719755 0.0884696 -0.00882594 174 4 33
0.0736706 0.0848697 -0.0106605 172 255 36
0.072309 0.0884502 -0.00921114 174 4 33
0.0739832 0.084834 -0.0111843 172 255 36
0.0726061 0.0884274 -0.00962511 174 4 33
0.0742485 0.0847919 -0.0118017 172 255 36
0.0728959 0.0884039 -0.0100447 174 4 33
0.0745294 0.0847519 -0.0123881 172 255 36
0.0732203 0.0883835 -0.0104371 174 4 33
0.0748317 0.0847148 -0.0129322 172 255 36
0.0735318 0.0883621 -0.0108398 174 4 33
0.0751142 0.0846751 -0.0135155 172 255 36
0.0738554 0.0883417 -0.0112328 174 4 33
0.0753827 0.0846334 -0.0141265 172 255 36
0.0741677 0.0883204 -0.0116348 174 4 33
0.0756284 0.0845887 -0.0147827 172 255 36
0.07445 0.0882961 -0.0120604 174 4 33
0.0757918 0.0845329 -0.0156017 172 255 36
0.0746894 0.088268 -0.0125197 174 4 33
0.0759219 0.0844726 -0.0164864 172 255 36
0.074908 0.0882381 -0.0129953 174 4 33
0.0761142 0.0844207 -0.0172481 172 255 36
0.0751234 0.0882076 -0.0134734 174 4 33
0.076368 0.0835207 -0.0304523 172 255 36
0.075304 0.0881741 -0.0139789 174 4 33
0.0766229 0.0834772 -0.0310902 172 255 36
0.0754614 0.0881384 -0.0145026 174 4 33
0.0768451 0.0834293 -0.0317928 172 255 36
0.0756472 0.0881053 -0.0150041 174 4 33
0.0770926 0.0833848 -0.0324455 172 255 36
0.0758138 0.0880705 -0.0155205 174 4 33
-0.073411 0.0895607 0.0434507 172 255 36
0.0759677 0.0880345 -0.016047 174 4 33
-0.0725755 0.0895971 0.0439336 172 255 36
0.0761139 0.0879977 -0.0165794 174 4 33
-0.0709815 0.0897407 0.0458351 172 255 36
0.076236 0.0879587 -0.0171309 174 4 33
-0.0698349 0.0898211 0.0468998 172 255 36
0.0763161 0.0879159 -0.0177154 174 4 33
-0.0687811 0.0898884 0.047791 172 255 36
0.076422 0.0878755 -0.0182796 174 4 33
-0.0678989 0.0899315 0.0483612 172 255 36
0.0764735 0.08783 -0.0188865 174 4 33
-0.067128 0.0899572 0.0487173 172 255 36
0.0765175 0.0877839 -0.0194994 174 4 33
-0.0664268 0.0899708 0.0489355 172 255 36
0.0765303 0.0877348 -0.0201368 174 4 33
-0.0657668 0.0899799 0.0490809 172 255 36
0.076477 0.0876797 -0.0208261 174 4 33
-0.065151 0.0899842 0.0491486 172 255 36
0.0762608 0.0876096 -0.0216435 174 4 33
-0.064593 0.0899821 0.0491144 172 255 36
0.0759108 0.087527 -0.022566 174 4 33
-0.0640283 0.0899807 0.0490923 172 255 36
0.0757609 0.087463 -0.0233312 174 4 33
-0.0634254 0.0899835 0.0491373 172 255 36
0.0757448 0.0874113 -0.0239913 174 4 33
-0.0628543 0.0899828 0.0491263 172 255 36
0.0752638 0.0873166 -0.0250168 174 4 33
-0.0622912 0.0899812 0.0491012 172 255 36
0.0753842 0.0872797 -0.0255834 174 4 33
-0.0617714 0.0899749 0.0489998 172 255 36
0.0755843 0.0872499 -0.0260861 174 4 33
-0.061274 0.0899661 0.048859 172 255 36
0.0758488 0.0872257 -0.0265356 174 4 33
-0.0607895 0.0899558 0.0486956 172 255 36
0.0761146 0.0872016 -0.0269841 174 4 33
-0.0603246 0.0899412 0.0484897 172 255 36
0.0763387 0.0871739 -0.027467 174 4 33
-0.0598833 0.089922 0.0482353 172 255 36
0.0765343 0.0871437 -0.0279733 174 4 33
-0.0594629 0.0898998 0.0479417 172 255 36
0.0766581 0.0871073 -0.0285388 174 4 33
-0.059066 0.0898743 0.0476043 172 255 36
0.0767407 0.0870673 -0.0291383 174 4 33
-0.0586971 0.0898449 0.0472143 172 255 36
0.0767182 0.0870184 -0.0298244 174 4 33
-0.0583439 0.0898132 0.0467952 172 255 36
0.0767784 0.0869765 -0.0304424 174 4 33
-0.0580192 0.0897775 0.0463226 172 255 36
0.0768608 0.0869366 -0.031042 174 4 33
-0.0577113 0.0897395 0.0458186 172 255 36
0.0769921 0.0869008 -0.0316014 174 4 33
-0.0574251 0.0896983 0.0452741 172 255 36
0.0771357 0.0868662 -0.0321505 174 4 33
-0.0571277 0.0896588 0.0447504 172 255 36
0.077262 0.08683 -0.032714 174 4 33
-0.0568606 0.089615 0.0441701 172 255 36
0.0774 0.0867948 -0.0332679 174 4 33
-0.0566372 0.089565 0.0435081 172 255 36
0.0774714 0.086754 -0.0338765 174 4 33
-0.0564268 0.0895132 0.0428217 172 255 36
0.077529 0.0867119 -0.0344966 174 4 33
-0.056221 0.0894607 0.0421269 172 255 36
0.0775329 0.0866652 -0.0351609 174 4 33
-0.0560171 0.0894079 0.0414284 172 255 36
0.0775152 0.0866166 -0.0358431 174 4 33
-0.0557719 0.089361 0.0408072 172 255 36
0.077488 0.0865672 -0.036533 174 4 33
-0.055516 0.0893156 0.0402058 172 255 36
0.077487 0.08652 -0.0372013 174 4 33
-0.0552057 0.0892779 0.0397064 172 255 36
0.077479 0.0864723 -0.0378755 174 4 33
-0.0548251 0.0892501 0.0393384 172 255 36
0.0774804 0.0864254 -0.0385419 174 4 33
-0.0544137 0.0892267 0.0390281 172 255 36
0.0774468 0.0863754 -0.0392371 174 4 33
-0.0540149 0.0892015 0.0386942 172 255 36
0.0767212 0.0862187 -0.04117 174 4 33
-0.053663 0.0891696 0.0382725 172 255 36
0.0766906 0.0861689 -0.0418628 174 4 33
-0.05336 0.0891309 0.0377593 172 255 36
0.0767538 0.0861273 -0.0424783 174 4 33
-0.0531359 0.089081 0.0370987 172 255 36
-0.0678216 0.0893005 0.0489745 174 4 33
-0.0529197 0.08903 0.0364232 172 255 36
-0.0669119 0.089334 0.049042 174 4 33
-0.0526451 0.0889872 0.0358569 172 255 36
-0.0658927 0.0893774 0.0491957 174 4 33
-0.0353582 0.0892271 0.0390335 172 255 36
-0.0651036 0.0893998 0.0491686 174 4 33
-0.0346768 0.0892418 0.0392281 172 255 36
-0.0642574 0.0894275 0.0491862 174 4 33
-0.0339199 0.0892672 0.039564 172 255 36
-0.0634409 0.0894525 0.0491806 174 4 33
-0.0332909 0.0892744 0.0396605 172 255 36
-0.0627582 0.0894651 0.0490698 174 4 33
-0.0327339 0.0892716 0.0396226 172 255 36
-0.0620906 0.0894764 0.048947 174 4 33
-0.0321962 0.089266 0.0395483 172 255 36
-0.0615289 0.089478 0.0487411 174 4 33
-0.0316466 0.0892621 0.0394965 172 255 36
-0.0609797 0.0894784 0.0485253 174 4 33
-0.0310003 0.0892718 0.0396254 172 255 36
-0.0604888 0.0894736 0.0482637 174 4 33
-0.03021 0.0893019 0.0400237 172 255 36
-0.0599893 0.0894694 0.0480088 174 4 33
-0.0292756 0.0893523 0.0406915 172 255 36
-0.0595637 0.0894585 0.0476959 174 4 33
-0.0280252 0.0894474 0.0419504 172 255 36
-0.0591813 0.0894437 0.0473491 174 4 33
-0.0251407 0.0897732 0.0462656 172 255 36
-0.0588204 0.0894269 0.0469854 174 4 33
-0.0242162 0.0898222 0.0469148 172 255 36
-0.0584851 0.0894078 0.0466015 174 4 33
-0.0233222 0.089867 0.0475071 172 255 36
-0.0581979 0.0893842 0.0461798 174 4 33
-0.0223993 0.0899158 0.0481534 172 255 36
-0.0579312 0.0893588 0.045742 174 4 33
-0.0215013 0.0899589 0.0487456 172 255 36
-0.0576752 0.0893324 0.0452958 174 4 33
-0.0207324 0.0899801 0.0490828 172 255 36
-0.0574326 0.0893048 0.044839 174 4 33
-0.0199567 0.0900019 0.0494319 172 255 36
-0.0572117 0.0892751 0.0443652 174 4 33
-0.0192395 0.0900174 0.0496781 172 255 36
-0.0570119 0.0892436 0.0438748 174 4 33
