ply
format ascii 1.0
element vertex 1203
property float x
property float y
property float z
property uchar red
property uchar green
property uchar blue
end_header
0.0402232 0.137148 0.00433484 174 4 33
0.0544298 0.136807 -0.00754971 172 255 36
0.0409615 0.137154 0.00426101 174 4 33
0.0547008 0.136788 -0.00815709 172 255 36
0.041615 0.137157 0.00412186 174 4 33
0.0549494 0.136768 -0.00880905 172 255 36
0.0422345 0.137158 0.00395654 174 4 33
0.0552137 0.136749 -0.00942975 172 255 36
0.0428256 0.13716 0.00376936 174 4 33
0.0554538 0.136729 -0.0100985 172 255 36
0.0433816 0.137159 0.00355521 174 4 33
0.0556772 0.136707 -0.0108002 172 255 36
0.0439205 0.137157 0.00332787 174 4 33
0.0558912 0.136685 -0.0115206 172 255 36
0.0444432 0.137155 0.00308813 174 4 33
0.0561419 0.136665 -0.0121683 172 255 36
0.0450117 0.137155 0.00288348 174 4 33
0.0563763 0.136644 -0.0128483 172 255 36
0.0455594 0.137154 0.00266295 174 4 33
-0.0701196 0.139677 0.0637618 172 255 36
0.0461386 0.137154 0.00246665 174 4 33
-0.0696337 0.139674 0.0636009 172 255 36
0.0466371 0.13715 0.00220817 174 4 33
-0.069106 0.139672 0.0635135 172 255 36
0.0470903 0.137146 0.00191493 174 4 33
-0.0685107 0.139673 0.063545 172 255 36
0.0475159 0.13714 0.00160034 174 4 33
-0.0679601 0.139672 0.0634981 172 255 36
0.0479735 0.137135 0.00131037 174 4 33
-0.0674202 0.139671 0.0634321 172 255 36
0.048383 0.137129 0.000983574 174 4 33
-0.0668785 0.139669 0.0633694 172 255 36
0.0487779 0.137123 0.000645303 174 4 33
-0.0663204 0.139669 0.0633354 172 255 36
0.0491635 0.137115 0.000300032 174 4 33
-0.0657638 0.139668 0.0632989 172 255 36
0.0495503 0.137108 -4.43868e-05 174 4 33
-0.0651935 0.139668 0.0632865 172 255 36
0.0499012 0.137099 -0.000416408 174 4 33
-0.0646257 0.139668 0.0632697 172 255 36
0.0502516 0.137091 -0.000788854 174 4 33
-0.0640583 0.139667 0.0632522 172 255 36
0.0506019 0.137082 -0.00116135 174 4 33
-0.0634988 0.139667 0.0632208 172 255 36
0.0509274 0.137072 -0.00155303 174 4 33
-0.0629604 0.139665 0.0631522 172 255 36
0.0512507 0.137064 -0.00194628 174 4 33
-0.0624418 0.139663 0.0630488 172 255 36
0.0515454 0.137053 -0.00236155 174 4 33
-0.0619472 0.139661 0.0629033 172 255 36
0.0518181 0.137041 -0.00279378 174 4 33
-0.0614535 0.139658 0.062756 172 255 36
0.0520918 0.13703 -0.00322531 174 4 33
-0.060979 0.139654 0.062575 172 255 36
0.0523818 0.137019 -0.00364418 174 4 33
-0.0605152 0.13965 0.0623751 172 255 36
0.0526764 0.137009 -0.00405959 174 4 33
-0.0600318 0.139647 0.0622097 172 255 36
0.0529739 0.136998 -0.00447268 174 4 33
-0.0595334 0.139645 0.0620708 172 255 36
0.053293 0.136988 -0.00486923 174 4 33
-0.0590177 0.139643 0.0619622 172 255 36
0.0536138 0.136979 -0.00526442 174 4 33
-0.0584968 0.139641 0.0618629 172 255 36
0.053899 0.136967 -0.00568701 174 4 33
-0.0579919 0.139638 0.0617353 172 255 36
0.0541483 0.136955 -0.00613722 174 4 33
-0.0575021 0.139635 0.0615812 172 255 36
0.0543915 0.136943 -0.00659214 174 4 33
-0.0570207 0.139632 0.0614123 172 255 36
0.0546474 0.136931 -0.00703728 174 4 33
-0.0565548 0.139628 0.0612162 172 255 36
0.0548941 0.136918 -0.0074896 174 4 33
-0.0560983 0.139624 0.0610035 172 255 36
0.0551159 0.136905 -0.00796107 174 4 33
-0.0556316 0.139621 0.0608087 172 255 36
0.055316 0.13689 -0.00844922 174 4 33
-0.0551561 0.139617 0.0606295 172 255 36
0.0555191 0.136877 -0.00893492 174 4 33
-0.0546727 0.139614 0.0604642 172 255 36
0.055677 0.136861 -0.0094555 174 4 33
-0.0542151 0.13961 0.0602534 172 255 36
0.0558254 0.136845 -0.00998354 174 4 33
-0.0537579 0.139606 0.060042 172 255 36
0.0559887 0.136829 -0.0104999 174 4 33
-0.0532995 0.139602 0.0598326 172 255 36
0.0561497 0.136814 -0.011018 174 4 33
-0.0528536 0.139597 0.0596012 172 255 36
0.0563005 0.136798 -0.0115441 174 4 33
-0.0524059 0.139593 0.0593731 172 255 36
0.0564344 0.136781 -0.0120832 174 4 33
-0.0519522 0.139589 0.0591554 172 255 36
0.0565811 0.136764 -0.0126124 174 4 33
-0.0514584 0.139586 0.0590083 172 255 36
0.0567257 0.136748 -0.0131432 174 4 33
-0.0509956 0.139582 0.0588067 172 255 36
0.0568423 0.136731 -0.0136956 174 4 33
-0.0505937 0.139576 0.058498 172 255 36
0.0569486 0.136713 -0.014256 174 4 33
-0.050187 0.139571 0.0581977 172 255 36
0.0570366 0.136695 -0.0148304 174 4 33
-0.0497602 0.139566 0.0579326 172 255 36
0.0570172 0.136673 -0.0154873 174 4 33
-0.0493577 0.13956 0.0576249 172 255 36
0.0568194 0.136643 -0.0162818 174 4 33
-0.0490145 0.139552 0.0572127 172 255 36
0.0566101 0.136613 -0.017085 174 4 33
-0.0487217 0.139542 0.056712 172 255 36
0.056665 0.136594 -0.0176848 174 4 33
-0.0483736 0.139535 0.0563086 172 255 36
0.0567877 0.136577 -0.0182325 174 4 33
-0.0479908 0.139528 0.0559661 172 255 36
-0.0700641 0.138632 0.0645641 174 4 33
-0.0475553 0.139523 0.0557164 172 255 36
-0.0695431 0.13863 0.064323 174 4 33
-0.0471649 0.139517 0.0553874 172 255 36
-0.0688999 0.138632 0.0641759 174 4 33
-0.0468103 0.13951 0.0549953 172 255 36
-0.0682945 0.138633 0.0639998 174 4 33
-0.0464271 0.139503 0.0546536 172 255 36
-0.0676254 0.138636 0.0638726 174 4 33
-0.0460307 0.139497 0.0543351 172 255 36
-0.0669522 0.13864 0.0637486 174 4 33
-0.045652 0.13949 0.0539854 172 255 36
-0.0662269 0.138645 0.0636648 174 4 33
-0.0421928 0.139471 0.0529608 172 255 36
-0.0655698 0.138648 0.0635284 174 4 33
-0.0415013 0.139474 0.0531616 172 255 36
-0.0648166 0.138655 0.0634661 174 4 33
-0.0408397 0.139477 0.0533099 172 255 36
-0.0640619 0.138661 0.0634048 174 4 33
-0.0402319 0.139478 0.0533635 172 255 36
-0.0632441 0.13867 0.0633921 174 4 33
-0.0396116 0.13948 0.0534392 172 255 36
-0.0624928 0.138676 0.0633283 174 4 33
-0.0390166 0.13948 0.0534702 172 255 36
-0.0617813 0.138681 0.0632338 174 4 33
-0.0384781 0.139479 0.0534018 172 255 36
-0.061091 0.138685 0.0631229 174 4 33
-0.0379574 0.139477 0.0533021 172 255 36
-0.0604151 0.138689 0.063001 174 4 33
-0.0374301 0.139475 0.0532139 172 255 36
-0.0598267 0.138689 0.0628118 174 4 33
-0.0368809 0.139475 0.0531643 172 255 36
-0.0592721 0.138688 0.0625966 174 4 33
-0.0362651 0.139476 0.0532321 172 255 36
-0.0587051 0.138688 0.0623909 174 4 33
-0.0356114 0.139478 0.0533666 172 255 36
-0.0581168 0.138688 0.0622016 174 4 33
-0.0348979 0.139483 0.053606 172 255 36
-0.0575407 0.138688 0.0620028 174 4 33
-0.0342049 0.139487 0.0538097 172 255 36
-0.0569052 0.13869 0.0618499 174 4 33
-0.0335377 0.13949 0.0539678 172 255 36
-0.0563265 0.13869 0.0616532 174 4 33
-0.032894 0.139492 0.0540846 172 255 36
-0.0557545 0.13869 0.0614512 174 4 33
-0.0322784 0.139493 0.0541519 172 255 36
-0.0552009 0.138689 0.0612353 174 4 33
-0.0316367 0.139496 0.0542651 172 255 36
-0.0546896 0.138686 0.0609867 174 4 33
-0.0309443 0.139499 0.0544676 172 255 36
-0.0541339 0.138685 0.0607723 174 4 33
-0.0302287 0.139504 0.054711 172 255 36
-0.0535873 0.138684 0.0605508 174 4 33
-0.0295568 0.139507 0.0548774 172 255 36
-0.0530579 0.138682 0.0603163 174 4 33
-0.0289248 0.139509 0.0549736 172 255 36
-0.0525295 0.13868 0.0600808 174 4 33
-0.0283094 0.13951 0.0550406 172 255 36
-0.0520382 0.138678 0.0598169 174 4 33
-0.02772 0.139511 0.0550618 172 255 36
-0.0515653 0.138674 0.0595387 174 4 33
-0.0271256 0.139511 0.0550918 172 255 36
-0.051079 0.13867 0.0592709 174 4 33
-0.0264363 0.139515 0.0552889 172 255 36
-0.0505065 0.13867 0.0590693 174 4 33
-0.0257789 0.139518 0.0554298 172 255 36
-0.0499806 0.138668 0.058832 174 4 33
-0.0252059 0.139518 0.055422 172 255 36
-0.0495503 0.138663 0.0585212 174 4 33
-0.0246731 0.139516 0.0553436 172 255 36
-0.0491252 0.138657 0.0582062 174 4 33
-0.0241459 0.139514 0.0552552 172 255 36
-0.0486942 0.138651 0.0578958 174 4 33
-0.0236275 0.139513 0.0551516 172 255 36
-0.0482987 0.138644 0.057558 174 4 33
-0.0231085 0.139511 0.0550488 172 255 36
-0.0479962 0.138635 0.0571487 174 4 33
-0.0225955 0.139508 0.0549355 172 255 36
-0.0477144 0.138624 0.0567236 174 4 33
-0.0220803 0.139506 0.0548263 172 255 36
-0.0473972 0.138614 0.0563255 174 4 33
-0.0215686 0.139504 0.0547107 172 255 36
-0.046943 0.138609 0.056033 174 4 33
-0.0210082 0.139504 0.0546809 172 255 36
-0.0464557 0.138606 0.0557661 174 4 33
-0.0204313 0.139504 0.0546801 172 255 36
-0.0460625 0.138599 0.0554266 174 4 33
-0.0199155 0.139501 0.0545718 172 255 36
-0.0457663 0.138588 0.0550124 174 4 33
-0.0194116 0.139499 0.0544425 172 255 36
-0.0454904 0.138578 0.0545826 174 4 33
-0.0189269 0.139496 0.0542793 172 255 36
-0.0451659 0.138568 0.0541902 174 4 33
-0.0184575 0.139492 0.0540894 172 255 36
-0.0448571 0.138558 0.0537858 174 4 33
-0.0179814 0.139489 0.0539112 172 255 36
-0.0446574 0.138544 0.0532974 174 4 33
-0.0175334 0.139484 0.0536835 172 255 36
-0.0445392 0.138527 0.0527463 174 4 33
-0.0170948 0.13948 0.0534393 172 255 36
-0.0406641 0.138606 0.0538025 174 4 33
-0.0166265 0.139476 0.0532474 172 255 36
-0.0400573 0.138607 0.0536274 174 4 33
-0.016112 0.139474 0.0531368 172 255 36
-0.039309 0.138614 0.0535613 174 4 33
-0.0155738 0.139473 0.0530678 172 255 36
-0.0385234 0.138621 0.0535238 174 4 33
-0.0150734 0.13947 0.0529324 172 255 36
-0.0378377 0.138625 0.0534095 174 4 33
-0.01463 0.139466 0.0526967 172 255 36
-0.0372259 0.138627 0.0532383 174 4 33
-0.0141893 0.139461 0.0524561 172 255 36
-0.0365509 0.13863 0.0531156 174 4 33
-0.0137732 0.139456 0.0521724 172 255 36
-0.0358402 0.138635 0.0530205 174 4 33
-0.0133685 0.13945 0.0518685 172 255 36
-0.0347971 0.138652 0.0531812 174 4 33
-0.0129611 0.139444 0.0515694 172 255 36
-0.0332302 0.138688 0.0537452 174 4 33
-0.0125516 0.139438 0.051274 172 255 36
-0.0319984 0.138713 0.0540511 174 4 33
-0.0121332 0.139433 0.0509942 172 255 36
-0.0310356 0.138727 0.0541501 174 4 33
-0.01171 0.139428 0.0507229 172 255 36
-0.0296609 0.138757 0.054566 174 4 33
-0.0112737 0.139423 0.0504746 172 255 36
-0.028374 0.138782 0.0549144 174 4 33
-0.0108272 0.139419 0.0502443 172 255 36
-0.0273982 0.138797 0.0550234 174 4 33
-0.0103395 0.139416 0.0500865 172 255 36
-0.0265539 0.138807 0.055031 174 4 33
-0.00982895 0.139414 0.049969 172 255 36
-0.025273 0.138833 0.0553748 174 4 33
-0.00935423 0.13941 0.0497883 172 255 36
-0.0243952 0.138844 0.0554083 174 4 33
-0.00893386 0.139405 0.049512 172 255 36
-0.0237349 0.138847 0.0552745 174 4 33
-0.00853291 0.139399 0.0492016 172 255 36
-0.0230424 0.138851 0.0551652 174 4 33
-0.00814869 0.139392 0.0488616 172 255 36
-0.0224019 0.138853 0.0550162 174 4 33
-0.00778093 0.139383 0.0484856 172 255 36
-0.0217679 0.138855 0.0548621 174 4 33
-0.00739307 0.139371 0.048132 172 255 36
-0.0211714 0.138856 0.0546791 174 4 33
-0.00698572 0.139361 0.0478148 172 255 36
-0.0204592 0.138861 0.0545851 174 4 33
-0.00658246 0.13935 0.0474899 172 255 36
-0.0196024 0.138871 0.0546024 174 4 33
-0.00619172 0.139338 0.0471417 172 255 36
-0.0189415 0.138874 0.054469 174 4 33
-0.00579797 0.139327 0.0467991 172 255 36
-0.0183851 0.138873 0.0542551 174 4 33
-0.00534166 0.139319 0.0465733 172 255 36
-0.0178538 0.138872 0.0540219 174 4 33
-0.00486435 0.139313 0.0463866 172 255 36
-0.0172944 0.138871 0.0538103 174 4 33
-0.0044032 0.139306 0.0461698 172 255 36
-0.0167761 0.138869 0.0535671 174 4 33
-0.00396991 0.139297 0.0459009 172 255 36
-0.0163172 0.138864 0.0532783 174 4 33
-0.00357126 0.139285 0.0455675 172 255 36
-0.0158479 0.13886 0.0529974 174 4 33
-0.00319123 0.139273 0.0451993 172 255 36
-0.0151466 0.138864 0.052895 174 4 33
-0.00282566 0.13926 0.0448041 172 255 36
-0.0144308 0.13887 0.0528039 174 4 33
-0.00244092 0.139248 0.0444447 172 255 36
-0.0138919 0.138868 0.0525765 174 4 33
-0.00203001 0.139237 0.0441341 172 255 36
-0.0134119 0.138865 0.0523038 174 4 33
-0.00161331 0.139227 0.0438343 172 255 36
-0.0129554 0.138861 0.052013 174 4 33
-0.00118466 0.139218 0.0435569 172 255 36
-0.012542 0.138854 0.0516891 174 4 33
-0.000748411 0.139209 0.0432936 172 255 36
-0.0121547 0.138847 0.0513451 174 4 33
-0.000297494 0.139201 0.0430576 172 255 36
-0.0117192 0.138842 0.0510382 174 4 33
0.000152528 0.139193 0.0428201 172 255 36
-0.0112833 0.138836 0.0507316 174 4 33
0.000595473 0.139185 0.0425692 172 255 36
-0.0108612 0.13883 0.0504143 174 4 33
0.00103568 0.139176 0.0423133 172 255 36
-0.0103945 0.138826 0.0501314 174 4 33
0.001461 0.139166 0.0420296 172 255 36
-0.0099166 0.138822 0.0498571 174 4 33
0.00189412 0.139157 0.0417605 172 255 36
-0.00925525 0.138826 0.049724 174 4 33
0.00230819 0.139147 0.0414558 172 255 36
-0.00864458 0.138828 0.0495519 174 4 33
0.00272702 0.139137 0.0411601 172 255 36
-0.00818593 0.138823 0.0492628 174 4 33
0.00315988 0.139128 0.0408904 172 255 36
-0.00778613 0.138816 0.0489284 174 4 33
0.00359072 0.139119 0.040617 172 255 36
-0.00740846 0.138809 0.0485771 174 4 33
0.00402007 0.13911 0.0403408 172 255 36
-0.00702501 0.138801 0.04823 174 4 33
0.00443819 0.1391 0.0400437 172 255 36
-0.00665376 0.138794 0.0478736 174 4 33
0.00484213 0.139089 0.0397201 172 255 36
-0.00629992 0.138785 0.0475039 174 4 33
0.00522877 0.139077 0.0393643 172 255 36
-0.00590775 0.138778 0.0471636 174 4 33
0.0056155 0.139065 0.0390086 172 255 36
-0.00549809 0.138773 0.0468367 174 4 33
0.00601248 0.139054 0.038672 172 255 36
-0.00507499 0.138767 0.0465203 174 4 33
0.00641815 0.139043 0.0383517 172 255 36
-0.00459213 0.138763 0.0462499 174 4 33
0.00683439 0.139033 0.038051 172 255 36
-0.00403266 0.138763 0.0460383 174 4 33
0.00726666 0.139024 0.0377803 172 255 36
-0.00351313 0.13876 0.0457961 174 4 33
0.00772092 0.139016 0.0375506 172 255 36
-0.00309193 0.138754 0.0454781 174 4 33
0.00815958 0.139007 0.0372918 172 255 36
-0.00268562 0.138748 0.0451487 174 4 33
0.00857615 0.138997 0.0369918 172 255 36
-0.00231346 0.13874 0.0447931 174 4 33
0.0089843 0.138987 0.0366761 172 255 36
-0.00197411 0.138732 0.0444121 174 4 33
0.00937851 0.138975 0.0363343 172 255 36
-0.00160741 0.138724 0.0440522 174 4 33
0.00976448 0.138963 0.0359772 172 255 36
-0.00118951 0.138718 0.0437318 174 4 33
0.0101342 0.13895 0.0355899 172 255 36
-0.000753645 0.138713 0.0434252 174 4 33
0.0105095 0.138937 0.0352128 172 255 36
-0.000260974 0.138709 0.0431622 174 4 33
0.0108972 0.138926 0.0348589 172 255 36
0.000226748 0.138706 0.0428955 174 4 33
0.0112704 0.138913 0.034478 172 255 36
0.000707223 0.138702 0.0426232 174 4 33
0.0116713 0.138902 0.0341486 172 255 36
0.00122055 0.1387 0.0423762 174 4 33
0.012072 0.138891 0.0338191 172 255 36
0.00170289 0.138696 0.0421053 174 4 33
0.0124877 0.13888 0.0335174 172 255 36
0.00216693 0.138692 0.0418204 174 4 33
0.0128723 0.138868 0.0331578 172 255 36
0.00260244 0.138687 0.0415135 174 4 33
0.013256 0.138856 0.0327963 172 255 36
0.00303957 0.138682 0.0412077 174 4 33
0.0136332 0.138844 0.0324228 172 255 36
0.00350247 0.138678 0.040922 174 4 33
0.0139925 0.13883 0.032016 172 255 36
0.00395057 0.138673 0.0406248 174 4 33
0.0143311 0.138815 0.0315704 172 255 36
0.00440684 0.138668 0.0403338 174 4 33
0.0146762 0.1388 0.0311371 172 255 36
0.00485073 0.138663 0.0400333 174 4 33
0.015004 0.138785 0.0306715 172 255 36
0.00529241 0.138658 0.0397311 174 4 33
0.0153479 0.13877 0.0302358 172 255 36
0.00570749 0.138652 0.0394085 174 4 33
0.0157143 0.138757 0.0298422 172 255 36
0.00608977 0.138644 0.0390605 174 4 33
0.0160723 0.138743 0.0294328 172 255 36
0.00647495 0.138638 0.0387149 174 4 33
0.0164291 0.138729 0.0290213 172 255 36
0.00685027 0.13863 0.0383617 174 4 33
0.0167708 0.138715 0.0285817 172 255 36
0.00725158 0.138624 0.0380284 174 4 33
0.0170889 0.138698 0.0280979 172 255 36
0.00769774 0.138619 0.0377297 174 4 33
0.0174087 0.138682 0.0276172 172 255 36
0.00820025 0.138616 0.0374744 174 4 33
0.0177206 0.138666 0.0271219 172 255 36
0.00870008 0.138613 0.0372169 174 4 33
0.0180181 0.138648 0.0265998 172 255 36
0.0091182 0.138607 0.0368967 174 4 33
0.0182464 0.138626 0.0259485 172 255 36
0.00954505 0.138601 0.0365831 174 4 33
0.0184228 0.138601 0.0252002 172 255 36
0.00995663 0.138596 0.0362578 174 4 33
0.0186808 0.138581 0.0246043 172 255 36
0.0103452 0.138589 0.0359148 174 4 33
0.0190149 0.138566 0.0241504 172 255 36
0.0107064 0.13858 0.0355506 174 4 33
0.0193188 0.138549 0.0236401 172 255 36
0.0110612 0.138572 0.0351816 174 4 33
0.0195485 0.138527 0.0229914 172 255 36
0.0114131 0.138563 0.0348103 174 4 33
0.0197539 0.138503 0.0222973 172 255 36
0.0117749 0.138555 0.0344467 174 4 33
0.0196584 0.138389 0.0188872 172 255 36
0.0121486 0.138548 0.0340921 174 4 33
0.0199083 0.138368 0.0182761 172 255 36
0.0125678 0.138543 0.0337727 174 4 33
0.0202502 0.138354 0.0178368 172 255 36
0.0129897 0.138537 0.0334553 174 4 33
0.0201163 0.1382 0.0132776 172 255 36
0.0133987 0.13853 0.033128 174 4 33
0.0204617 0.138186 0.0128448 172 255 36
0.0137838 0.138523 0.0327822 174 4 33
0.0207981 0.138171 0.0123951 172 255 36
0.0141387 0.138515 0.0324133 174 4 33
0.0210955 0.138153 0.0118727 172 255 36
0.0144979 0.138506 0.0320476 174 4 33
0.0213601 0.138134 0.0112892 172 255 36
0.0148207 0.138497 0.031654 174 4 33
0.0215985 0.138112 0.0106567 172 255 36
0.0151229 0.138487 0.0312445 174 4 33
0.0218128 0.13809 0.00997919 172 255 36
0.0154221 0.138477 0.0308326 174 4 33
0.0219985 0.138065 0.00924838 172 255 36
0.0157225 0.138466 0.0304217 174 4 33
0.0222415 0.138044 0.00862457 172 255 36
0.0160269 0.138456 0.0300139 174 4 33
0.0225907 0.13803 0.00819873 172 255 36
0.0163712 0.138447 0.0296368 174 4 33
0.0230078 0.13802 0.00789983 172 255 36
0.0167044 0.138438 0.0292511 174 4 33
0.0234441 0.138011 0.00763653 172 255 36
0.0170208 0.138429 0.0288525 174 4 33
0.0291646 0.137971 0.00646038 172 255 36
0.0173321 0.138419 0.02845 174 4 33
0.0297387 0.137971 0.00645417 172 255 36
0.0176252 0.138408 0.0280335 174 4 33
0.0304088 0.137977 0.00662725 172 255 36
0.0179142 0.138398 0.0276137 174 4 33
0.0310291 0.13798 0.00670747 172 255 36
0.0181773 0.138386 0.0271742 174 4 33
0.0316075 0.13798 0.00670939 172 255 36
0.0184227 0.138373 0.0267209 174 4 33
0.032122 0.137976 0.00659213 172 255 36
0.018651 0.138361 0.0262545 174 4 33
0.0325753 0.137968 0.00635467 172 255 36
0.0188405 0.138346 0.0257583 174 4 33
0.0329446 0.137956 0.00594226 172 255 36
0.0189954 0.138331 0.0252353 174 4 33
0.0333226 0.137944 0.00554692 172 255 36
0.0191607 0.138315 0.0247205 174 4 33
0.0337565 0.137935 0.00526255 172 255 36
0.0194116 0.138303 0.0242714 174 4 33
0.0342581 0.137931 0.00511229 172 255 36
0.0196613 0.138291 0.0238215 174 4 33
0.0347858 0.137928 0.00501382 172 255 36
0.0198838 0.138278 0.0233507 174 4 33
0.0353248 0.137926 0.0049378 172 255 36
0.0200407 0.138262 0.0228292 174 4 33
0.035897 0.137925 0.00492759 172 255 36
0.0201435 0.138244 0.0222662 174 4 33
0.0364793 0.137926 0.00493748 172 255 36
0.0202318 0.138227 0.0216921 174 4 33
0.0370885 0.137927 0.00500064 172 255 36
0.0202935 0.138208 0.0210975 174 4 33
0.037698 0.137929 0.00506444 172 255 36
0.0203547 0.138188 0.0205025 174 4 33
0.0382806 0.13793 0.00507467 172 255 36
0.0204096 0.138169 0.0199026 174 4 33
0.038874 0.137931 0.00510646 172 255 36
0.020456 0.13815 0.0192962 174 4 33
0.0394436 0.13793 0.00509126 172 255 36
0.0205132 0.13813 0.0186981 174 4 33
0.0399927 0.137929 0.00503512 172 255 36
0.0206068 0.138112 0.018128 174 4 33
0.0405413 0.137927 0.00497807 172 255 36
0.0207119 0.138095 0.0175669 174 4 33
0.0410576 0.137923 0.00485712 172 255 36
0.0208053 0.138077 0.0169965 174 4 33
0.0415509 0.137918 0.00469042 172 255 36
0.0208429 0.138057 0.0163834 174 4 33
0.0420491 0.137913 0.00453355 172 255 36
0.0208793 0.138036 0.0157692 174 4 33
0.0425263 0.137907 0.00433505 172 255 36
0.0208908 0.138016 0.015136 174 4 33
0.0429926 0.137901 0.00411475 172 255 36
0.020873 0.137994 0.0144802 174 4 33
0.0434583 0.137894 0.00389344 172 255 36
0.0208888 0.137973 0.0138503 174 4 33
0.043929 0.137888 0.00368198 172 255 36
0.0210028 0.137955 0.0132958 174 4 33
0.044404 0.137882 0.00347906 172 255 36
0.0211314 0.137939 0.0127527 174 4 33
0.0449009 0.137877 0.00331952 172 255 36
0.0213212 0.137925 0.0122565 174 4 33
0.0454029 0.137872 0.00317009 172 255 36
0.0215824 0.137913 0.0118155 174 4 33
0.0458625 0.137865 0.00293659 172 255 36
0.0218159 0.1379 0.0113531 174 4 33
0.0463033 0.137857 0.00266576 172 255 36
0.0220402 0.137888 0.0108837 174 4 33
0.0467314 0.137848 0.00236993 172 255 36
0.0222091 0.137872 0.0103715 174 4 33
0.047144 0.137839 0.00204337 172 255 36
0.0223533 0.137856 0.00984049 174 4 33
0.0475624 0.137829 0.00172814 172 255 36
0.0225 0.13784 0.00931122 174 4 33
0.0479771 0.137819 0.00140554 172 255 36
0.0226502 0.137824 0.00878469 174 4 33
0.0483724 0.137809 0.00104463 172 255 36
0.0228137 0.137809 0.00826846 174 4 33
0.0487525 0.137797 0.00065349 172 255 36
0.0230549 0.137797 0.00781193 174 4 33
0.0491365 0.137785 0.000270038 172 255 36
0.0234479 0.13779 0.00747228 174 4 33
0.0495217 0.137774 -0.000110873 172 255 36
0.0238977 0.137785 0.00717631 174 4 33
0.0498917 0.137761 -0.000522048 172 255 36
0.024194 0.137774 0.00676241 174 4 33
0.0502432 0.137748 -0.000969791 172 255 36
0.0244563 0.137763 0.00632205 174 4 33
0.0506049 0.137735 -0.00139733 172 255 36
0.0311792 0.13784 0.00635964 174 4 33
0.0509505 0.137721 -0.0018569 172 255 36
0.0318221 0.137842 0.00621232 174 4 33
0.0512469 0.137705 -0.00241398 172 255 36
0.0325273 0.137847 0.00611293 174 4 33
0.0515675 0.137689 -0.00292309 172 255 36
0.0330929 0.137847 0.00590618 174 4 33
0.051888 0.137674 -0.00343237 172 255 36
0.0335557 0.137842 0.00562033 174 4 33
0.0522298 0.13766 -0.0038994 172 255 36
0.033902 0.137833 0.0052448 174 4 33
0.0525793 0.137646 -0.00435114 172 255 36
0.0342824 0.137827 0.00489538 174 4 33
0.0529106 0.137632 -0.00483895 172 255 36
0.0347898 0.137824 0.00464379 174 4 33
0.0532348 0.137617 -0.00534093 172 255 36
0.0354126 0.137826 0.00448101 174 4 33
0.0535412 0.1376 -0.00587826 172 255 36
0.036172 0.137833 0.00442339 174 4 33
0.0538482 0.137584 -0.00641421 172 255 36
0.0370042 0.137842 0.00442179 174 4 33
0.0541297 0.137567 -0.00700079 172 255 36
0.0379346 0.137854 0.00449586 174 4 33
0.0544182 0.137549 -0.00757366 172 255 36
0.0389276 0.13787 0.0046179 174 4 33
0.0546922 0.137531 -0.00817515 172 255 36
0.0397419 0.137878 0.00460255 174 4 33
0.0549222 0.137511 -0.00886383 172 255 36
0.0404817 0.137884 0.00452994 174 4 33
0.0551543 0.13749 -0.00954829 172 255 36
0.0411705 0.137888 0.00441798 174 4 33
0.0553889 0.13747 -0.0102279 172 255 36
0.0418235 0.137891 0.00427845 174 4 33
0.0555671 0.137446 -0.0110194 172 255 36
0.0424378 0.137892 0.00410915 174 4 33
0.0557562 0.137423 -0.0117892 172 255 36
0.0430003 0.137892 0.00389996 174 4 33
0.0560163 0.137404 -0.0124182 172 255 36
0.0435471 0.13789 0.00367871 174 4 33
-0.0687711 0.140367 0.0630858 172 255 36
0.0440713 0.137889 0.00344007 174 4 33
-0.0681557 0.140368 0.0631527 172 255 36
0.0445808 0.137887 0.00319013 174 4 33
-0.0676028 0.140368 0.0631098 172 255 36
0.0451417 0.137886 0.00297958 174 4 33
-0.0670559 0.140367 0.0630561 172 255 36
0.0457302 0.137886 0.00279056 174 4 33
-0.0664885 0.140366 0.0630387 172 255 36
0.046311 0.137886 0.00259541 174 4 33
-0.0659436 0.140365 0.0629816 172 255 36
0.0468072 0.137883 0.00233526 174 4 33
-0.0653817 0.140365 0.0629543 172 255 36
0.0472453 0.137878 0.00203035 174 4 33
-0.0648068 0.140365 0.0629501 172 255 36
0.0476764 0.137872 0.00171997 174 4 33
-0.0642431 0.140364 0.062926 172 255 36
0.0480999 0.137866 0.00140381 174 4 33
-0.063691 0.140363 0.0628816 172 255 36
0.0484998 0.13786 0.0010695 174 4 33
-0.0631808 0.140361 0.0627634 172 255 36
0.048896 0.137854 0.000732364 174 4 33
-0.062712 0.140358 0.0625723 172 255 36
0.0492935 0.137847 0.000396122 174 4 33
-0.0622243 0.140355 0.0624145 172 255 36
0.0496622 0.137839 3.78981e-05 174 4 33
-0.0617162 0.140352 0.0622927 172 255 36
0.0500083 0.13783 -0.000337947 174 4 33
-0.061212 0.14035 0.0621639 172 255 36
0.0503624 0.137822 -0.000707558 174 4 33
-0.060691 0.140348 0.0620647 172 255 36
0.0507125 0.137813 -0.0010801 174 4 33
-0.0601619 0.140347 0.0619799 172 255 36
0.0510241 0.137803 -0.00148243 174 4 33
-0.0596525 0.140344 0.0618603 172 255 36
0.0513406 0.137795 -0.00188096 174 4 33
-0.0591417 0.140342 0.061743 172 255 36
0.0516333 0.137784 -0.00229784 174 4 33
-0.0586233 0.14034 0.0616393 172 255 36
0.0519148 0.137773 -0.00272327 174 4 33
-0.058138 0.140337 0.0614773 172 255 36
0.052188 0.137761 -0.00315504 174 4 33
-0.0576723 0.140334 0.0612807 172 255 36
0.0524592 0.13775 -0.00358855 174 4 33
-0.0571979 0.14033 0.0610996 172 255 36
0.0527358 0.137738 -0.00401781 174 4 33
-0.0567278 0.140327 0.0609108 172 255 36
0.0530169 0.137728 -0.00444348 174 4 33
-0.056251 0.140324 0.0607338 172 255 36
0.0533269 0.137718 -0.00484698 174 4 33
-0.0557555 0.140321 0.0605898 172 255 36
0.0536209 0.137707 -0.00526282 174 4 33
-0.0552761 0.140318 0.0604173 172 255 36
0.0538947 0.137696 -0.00569421 174 4 33
-0.0548165 0.140314 0.0602101 172 255 36
0.0541305 0.137683 -0.0061549 174 4 33
-0.0543685 0.14031 0.0599824 172 255 36
0.0543812 0.137672 -0.00660406 174 4 33
-0.0538945 0.140306 0.0598005 172 255 36
0.0546169 0.137659 -0.00706471 174 4 33
-0.0534365 0.140302 0.0595905 172 255 36
0.0548365 0.137645 -0.00753783 174 4 33
-0.0530024 0.140298 0.0593384 172 255 36
0.0550532 0.137632 -0.00801308 174 4 33
-0.0525687 0.140293 0.0590854 172 255 36
0.0552618 0.137618 -0.00849475 174 4 33
-0.0520864 0.14029 0.0589181 172 255 36
0.0554476 0.137604 -0.00899387 174 4 33
-0.0516 0.140287 0.0587581 172 255 36
0.0555945 0.137588 -0.00952282 174 4 33
-0.0511559 0.140283 0.0585235 172 255 36
0.0557403 0.137572 -0.0100528 174 4 33
-0.0507521 0.140277 0.0582182 172 255 36
0.0558711 0.137555 -0.0105942 174 4 33
-0.0503447 0.140271 0.057919 172 255 36
0.0560062 0.137539 -0.0111324 174 4 33
-0.0499232 0.140266 0.0576446 172 255 36
0.0561395 0.137523 -0.0116718 174 4 33
-0.049518 0.140261 0.0573417 172 255 36
0.0561998 0.137503 -0.0122675 174 4 33
-0.049167 0.140253 0.0569432 172 255 36
0.0563173 0.137486 -0.0128192 174 4 33
-0.0488437 0.140245 0.0564962 172 255 36
0.0564404 0.13747 -0.0133666 174 4 33
-0.0485487 0.140236 0.0559992 172 255 36
0.0565456 0.137452 -0.0139278 174 4 33
-0.0482289 0.140227 0.0555458 172 255 36
0.0566345 0.137434 -0.0145015 174 4 33
-0.0479327 0.140218 0.0550509 172 255 36
0.0566169 0.137411 -0.0151572 174 4 33
-0.0475198 0.140213 0.0547615 172 255 36
0.0562534 0.137377 -0.0160791 174 4 33
-0.0470492 0.140209 0.0545737 172 255 36
0.0561165 0.13735 -0.0168265 174 4 33
-0.0466648 0.140203 0.054234 172 255 36
0.0561455 0.137331 -0.0174464 174 4 33
-0.0462433 0.140198 0.0539597 172 255 36
0.0563277 0.137316 -0.0179483 174 4 33
-0.0418198 0.140173 0.0525998 172 255 36
0.0818873 0.136555 -0.0516363 174 4 33
-0.0411298 0.140176 0.0527981 172 255 36
0.0823512 0.136551 -0.0519239 174 4 33
-0.0405646 0.140176 0.0527767 172 255 36
0.0827795 0.136546 -0.0522404 174 4 33
-0.0399682 0.140177 0.0528103 172 255 36
0.0830578 0.136535 -0.0526783 174 4 33
-0.0393367 0.140178 0.0529055 172 255 36
-0.0691568 0.139344 0.0639742 174 4 33
-0.0387384 0.140179 0.0529425 172 255 36
-0.0684824 0.139347 0.0638512 174 4 33
-0.0381838 0.140178 0.0529023 172 255 36
-0.0677906 0.139352 0.0637415 174 4 33
-0.0376241 0.140178 0.0528713 172 255 36
-0.0670947 0.139356 0.063635 174 4 33
-0.0370642 0.140177 0.0528406 172 255 36
-0.0663744 0.139361 0.0635474 174 4 33
-0.0364604 0.140178 0.0528872 172 255 36
-0.065745 0.139363 0.0633896 174 4 33
-0.0358129 0.14018 0.0530105 172 255 36
-0.0650139 0.139368 0.0633103 174 4 33
-0.0351064 0.140185 0.0532379 172 255 36
-0.0642257 0.139376 0.0632747 174 4 33
-0.0343916 0.140189 0.0534799 172 255 36
-0.0634279 0.139384 0.0632467 174 4 33
-0.0337601 0.140191 0.0535752 172 255 36
-0.0627083 0.139389 0.0631584 174 4 33
-0.0331263 0.140193 0.0536745 172 255 36
-0.0620366 0.139392 0.0630333 174 4 33
-0.0324942 0.140194 0.0537709 172 255 36
-0.0613987 0.139394 0.0628822 174 4 33
-0.0318898 0.140195 0.0538184 172 255 36
-0.0607933 0.139395 0.0627061 174 4 33
-0.0312271 0.140198 0.0539687 172 255 36
-0.0602386 0.139394 0.0624909 174 4 33
-0.0304952 0.140203 0.0542406 172 255 36
-0.0596891 0.139393 0.0622717 174 4 33
-0.029772 0.140208 0.0544973 172 255 36
-0.0590915 0.139394 0.0620896 174 4 33
-0.0291053 0.140211 0.0546546 172 255 36
-0.0584334 0.139397 0.0619539 174 4 33
-0.0284986 0.140212 0.0547063 172 255 36
-0.0577912 0.139399 0.061806 174 4 33
-0.0279099 0.140212 0.0547264 172 255 36
-0.057152 0.139401 0.061656 174 4 33
-0.0273157 0.140213 0.054756 172 255 36
-0.0565831 0.1394 0.0614517 174 4 33
-0.0266831 0.140215 0.0548533 172 255 36
-0.0560599 0.139398 0.0612122 174 4 33
-0.0260105 0.140218 0.0550209 172 255 36
-0.0555103 0.139397 0.0609932 174 4 33
-0.0253922 0.140219 0.0550929 172 255 36
-0.0549758 0.139396 0.0607625 174 4 33
-0.0248208 0.140219 0.0550825 172 255 36
-0.0543977 0.139395 0.0605652 174 4 33
-0.024259 0.140218 0.055055 172 255 36
-0.0538726 0.139393 0.0603273 174 4 33
-0.0237321 0.140217 0.0549662 172 255 36
-0.0533336 0.139393 0.0601001 174 4 33
-0.0231979 0.140215 0.0548903 172 255 36
-0.0528135 0.139391 0.0598583 174 4 33
-0.022679 0.140213 0.0547875 172 255 36
-0.0523047 0.139388 0.0596077 174 4 33
-0.0221653 0.140211 0.0546755 172 255 36
-0.0518463 0.139383 0.0593184 174 4 33
-0.0216543 0.140209 0.0545586 172 255 36
-0.0513537 0.13938 0.0590555 174 4 33
-0.0211293 0.140207 0.0544664 172 255 36
-0.0507812 0.13938 0.058854 174 4 33
-0.0205608 0.140207 0.0544509 172 255 36
-0.05023 0.139379 0.0586361 174 4 33
-0.0200162 0.140206 0.0543933 172 255 36
-0.0498133 0.139373 0.0583148 174 4 33
-0.0194812 0.140205 0.0543187 172 255 36
-0.0493904 0.139367 0.0579981 174 4 33
-0.0189741 0.140202 0.0541951 172 255 36
-0.048949 0.139362 0.0576957 174 4 33
-0.0184956 0.140199 0.0540211 172 255 36
-0.0485538 0.139355 0.0573577 174 4 33
-0.0180191 0.140196 0.0538437 172 255 36
-0.0482509 0.139346 0.0569488 174 4 33
-0.0175652 0.140192 0.0536264 172 255 36
-0.0479966 0.139334 0.0565024 174 4 33
-0.0171242 0.140187 0.0533864 172 255 36
-0.0477498 0.139321 0.0560502 174 4 33
-0.0166637 0.140184 0.0531807 172 255 36
-0.0474623 0.139311 0.0556293 174 4 33
-0.0161517 0.140181 0.0530657 172 255 36
-0.0470349 0.139305 0.0553162 174 4 33
-0.0156173 0.14018 0.0529901 172 255 36
-0.0465738 0.139301 0.055029 174 4 33
-0.0151225 0.140177 0.0528447 172 255 36
-0.0462169 0.139293 0.0546616 174 4 33
-0.0146921 0.140173 0.0525861 172 255 36
-0.0459141 0.139283 0.0542525 174 4 33
-0.01426 0.140168 0.0523304 172 255 36
-0.0455673 0.139275 0.0538773 174 4 33
-0.0138396 0.140163 0.0520543 172 255 36
-0.0452204 0.139266 0.0535022 174 4 33
-0.0134066 0.140158 0.0518001 172 255 36
-0.0449725 0.139254 0.0530509 174 4 33
-0.0129758 0.140153 0.0515422 172 255 36
-0.0401418 0.139325 0.0535584 174 4 33
-0.0125473 0.140148 0.0512802 172 255 36
-0.0395285 0.139326 0.0533884 174 4 33
-0.0121195 0.140143 0.051017 172 255 36
-0.0387798 0.139332 0.0533225 174 4 33
-0.0116933 0.140138 0.0507509 172 255 36
-0.0381136 0.139335 0.053193 174 4 33
-0.0112635 0.140134 0.0504912 172 255 36
-0.037491 0.139337 0.0530301 174 4 33
-0.0108358 0.140129 0.0502279 172 255 36
-0.0368381 0.139339 0.0528906 174 4 33
-0.0103709 0.140125 0.05003 172 255 36
-0.0361742 0.139342 0.0527594 174 4 33
-0.0098635 0.140123 0.0499068 172 255 36
-0.0352366 0.139355 0.052839 174 4 33
-0.0093842 0.14012 0.0497342 172 255 36
-0.0338301 0.139385 0.0532795 174 4 33
-0.00894789 0.140115 0.049486 172 255 36
-0.0326811 0.139406 0.0535217 174 4 33
-0.00853617 0.14011 0.0491944 172 255 36
-0.0317576 0.139418 0.0535903 174 4 33
-0.00814438 0.140104 0.0488679 172 255 36
-0.0306416 0.139438 0.0538072 174 4 33
-0.00775888 0.140096 0.0485254 172 255 36
-0.0289899 0.139477 0.0544364 174 4 33
-0.00735436 0.140085 0.0482029 172 255 36
-0.0279421 0.139493 0.0546007 174 4 33
-0.00692883 0.140076 0.0479196 172 255 36
-0.0270697 0.139504 0.05463 174 4 33
-0.00651166 0.140066 0.0476207 172 255 36
-0.0261584 0.139516 0.0546894 174 4 33
-0.00610121 0.140056 0.0473092 172 255 36
-0.0248135 0.139544 0.0550824 174 4 33
-0.0057 0.140045 0.0469806 172 255 36
-0.0240342 0.139552 0.0550401 174 4 33
-0.00527986 0.140035 0.0466872 172 255 36
-0.0233475 0.139555 0.0549265 174 4 33
-0.00482854 0.140027 0.046452 172 255 36
-0.0226204 0.139561 0.054844 174 4 33
-0.00437953 0.14002 0.0462126 172 255 36
-0.0219856 0.139563 0.0546904 174 4 33
-0.00394516 0.140011 0.0459457 172 255 36
-0.0213672 0.139564 0.0545243 174 4 33
-0.00353154 0.140001 0.0456402 172 255 36
-0.0206933 0.139568 0.0544009 174 4 33
-0.00314008 0.139989 0.0452934 172 255 36
-0.0199391 0.139574 0.0543393 174 4 33
-0.0027637 0.139977 0.0449184 172 255 36
-0.0191852 0.13958 0.0542774 174 4 33
-0.00237068 0.139965 0.0445744 172 255 36
-0.0185294 0.139583 0.05414 174 4 33
-0.00194564 0.139956 0.0442902 172 255 36
-0.0179155 0.139584 0.0539704 174 4 33
-0.00151967 0.139947 0.0440077 172 255 36
-0.0173402 0.139584 0.0537711 174 4 33
-0.00110363 0.139937 0.0437067 172 255 36
-0.0168197 0.139582 0.0535296 174 4 33
-0.000689894 0.139927 0.0434014 172 255 36
-0.0163398 0.139578 0.0532569 174 4 33
-0.000261366 0.139917 0.0431237 172 255 36
-0.0158883 0.139573 0.0529622 174 4 33
0.000183493 0.139909 0.0428765 172 255 36
-0.0152251 0.139576 0.0528305 174 4 33
0.000624299 0.139901 0.0426217 172 255 36
-0.0145141 0.139581 0.0527357 174 4 33
0.00106602 0.139893 0.0423687 172 255 36
-0.0139907 0.13958 0.0524965 174 4 33
0.00149671 0.139883 0.0420949 172 255 36
-0.0134942 0.139577 0.0522365 174 4 33
0.00192331 0.139874 0.0418137 172 255 36
-0.0130555 0.139572 0.051932 174 4 33
0.00234695 0.139865 0.0415268 172 255 36
-0.0126273 0.139566 0.0516195 174 4 33
0.00277455 0.139855 0.0412474 172 255 36
-0.0122019 0.13956 0.0513047 174 4 33
0.00320569 0.139846 0.0409746 172 255 36
-0.0117298 0.139556 0.051026 174 4 33
0.00363686 0.139837 0.0407018 172 255 36
-0.0112703 0.139552 0.0507376 174 4 33
0.00406258 0.139828 0.0404189 172 255 36
-0.0108337 0.139547 0.0504315 174 4 33
0.00447755 0.139818 0.0401159 172 255 36
-0.0103721 0.139542 0.0501447 174 4 33
0.00488472 0.139808 0.0397983 172 255 36
-0.00992652 0.139537 0.0498455 174 4 33
0.00527846 0.139796 0.0394557 172 255 36
-0.00934975 0.139538 0.0496473 174 4 33
0.00566654 0.139785 0.0391026 172 255 36
-0.00870693 0.13954 0.0494999 174 4 33
0.00605458 0.139773 0.0387493 172 255 36
-0.00822228 0.139537 0.0492308 174 4 33
0.00644139 0.139761 0.0383938 172 255 36
-0.00778907 0.139531 0.0489222 174 4 33
0.006853 0.139751 0.0380845 172 255 36
-0.00739638 0.139525 0.0485823 174 4 33
0.00728096 0.139742 0.0378057 172 255 36
-0.0069951 0.139518 0.048249 174 4 33
0.00773197 0.139734 0.03757 172 255 36
-0.00660892 0.139511 0.0479041 174 4 33
0.00817269 0.139726 0.037315 172 255 36
-0.00619861 0.139505 0.0475777 174 4 33
0.0085817 0.139715 0.0370009 172 255 36
-0.00575568 0.139499 0.0472766 174 4 33
0.00897653 0.139704 0.0366603 172 255 36
-0.00532137 0.139495 0.0469687 174 4 33
0.00935394 0.139692 0.0362873 172 255 36
-0.00489358 0.139489 0.0466559 174 4 33
0.00972247 0.139679 0.0358976 172 255 36
-0.00446682 0.139484 0.0463422 174 4 33
0.0100833 0.139665 0.0354937 172 255 36
-0.00397862 0.13948 0.0460759 174 4 33
0.0104605 0.139653 0.0351201 172 255 36
-0.00346026 0.139478 0.0458327 174 4 33
0.0108266 0.13964 0.034726 172 255 36
-0.00302005 0.139473 0.0455294 174 4 33
0.0111969 0.139627 0.0343395 172 255 36
-0.00260697 0.139467 0.0452053 174 4 33
0.0115983 0.139616 0.0340113 172 255 36
-0.00223555 0.139459 0.044849 174 4 33
0.0120046 0.139606 0.0336921 172 255 36
-0.0018712 0.139451 0.0444873 174 4 33
0.0124053 0.139595 0.0333624 172 255 36
-0.00147044 0.139445 0.0441536 174 4 33
0.0127878 0.139583 0.032999 172 255 36
-0.00102334 0.13944 0.0438557 174 4 33
0.0131631 0.13957 0.0326219 172 255 36
-0.000592677 0.139435 0.0435451 174 4 33
0.013523 0.139557 0.032216 172 255 36
-0.000127864 0.139431 0.0432606 174 4 33
0.0138801 0.139543 0.0318051 172 255 36
0.000324621 0.139426 0.0429668 174 4 33
0.014212 0.139528 0.0313472 172 255 36
0.000766518 0.139421 0.0426648 174 4 33
0.0145304 0.139512 0.0308639 172 255 36
0.00126696 0.139418 0.0424079 174 4 33
0.0148515 0.139497 0.0303858 172 255 36
0.00176054 0.139415 0.0421457 174 4 33
0.0151749 0.139481 0.0299119 172 255 36
0.00222991 0.139411 0.0418648 174 4 33
0.0155502 0.139468 0.0295348 172 255 36
0.0026659 0.139406 0.0415583 174 4 33
0.015926 0.139456 0.0291588 172 255 36
0.00311366 0.139401 0.0412608 174 4 33
0.0162769 0.139442 0.0287363 172 255 36
0.003575 0.139397 0.0409738 174 4 33
0.0166205 0.139428 0.0283001 172 255 36
0.00401451 0.139392 0.0406699 174 4 33
0.0169398 0.139412 0.0278186 172 255 36
0.00448761 0.139388 0.0403919 174 4 33
0.0172245 0.139394 0.0272724 172 255 36
0.00493268 0.139383 0.0400924 174 4 33
0.0175009 0.139375 0.026711 172 255 36
0.00538278 0.139378 0.0397967 174 4 33
0.0177729 0.139356 0.026141 172 255 36
0.00580532 0.139372 0.0394797 174 4 33
0.0179312 0.13933 0.0253592 172 255 36
0.00616924 0.139364 0.0391178 174 4 33
0.0181572 0.139309 0.0247036 172 255 36
0.00654583 0.139358 0.0387654 174 4 33
0.0184858 0.139293 0.0242395 172 255 36
0.00691642 0.13935 0.0384086 174 4 33
0.0188234 0.139279 0.0237921 172 255 36
0.00729487 0.139343 0.0380578 174 4 33
0.0190597 0.139258 0.0231557 172 255 36
0.00771395 0.139337 0.0377382 174 4 33
0.0192181 0.139232 0.022374 172 255 36
0.00823954 0.139335 0.0375006 174 4 33
0.019433 0.139209 0.0216976 172 255 36
0.00873372 0.139331 0.0372388 174 4 33
0.0194364 0.139103 0.0184719 172 255 36
0.00915405 0.139325 0.0369203 174 4 33
0.0196312 0.139079 0.0177581 172 255 36
0.00954904 0.139319 0.0365821 174 4 33
0.0199047 0.13906 0.0171912 172 255 36
0.00995165 0.139313 0.0362499 174 4 33
0.0199838 0.138923 0.0130295 172 255 36
0.0103064 0.139305 0.0358808 174 4 33
0.020358 0.13891 0.0126504 172 255 36
0.010649 0.139296 0.0355024 174 4 33
0.0207328 0.138898 0.0122725 172 255 36
0.0109785 0.139287 0.0351139 174 4 33
0.0210517 0.138882 0.0117901 172 255 36
0.0113229 0.139278 0.0347369 174 4 33
0.021287 0.138861 0.0111519 172 255 36
0.0116815 0.13927 0.0343707 174 4 33
0.0215167 0.138839 0.0105031 172 255 36
0.0120611 0.139262 0.0340208 174 4 33
0.0217511 0.138818 0.00986319 172 255 36
0.0124539 0.139257 0.033681 174 4 33
0.0219691 0.138796 0.00919269 172 255 36
0.0128617 0.13925 0.0333527 174 4 33
0.0222129 0.138776 0.00857041 172 255 36
0.0132567 0.139243 0.0330146 174 4 33
0.022519 0.138759 0.00806419 172 255 36
0.0136309 0.139236 0.0326606 174 4 33
0.0229173 0.138748 0.00773017 172 255 36
0.0139758 0.139227 0.0322839 174 4 33
0.023338 0.138738 0.00743782 172 255 36
0.0142907 0.139217 0.0318841 174 4 33
0.0291938 0.138708 0.00651404 172 255 36
0.0146139 0.139208 0.0314908 174 4 33
0.0297766 0.138708 0.00652413 172 255 36
0.014911 0.139198 0.0310774 174 4 33
0.0304498 0.138714 0.00670309 172 255 36
0.0151977 0.139188 0.0306559 174 4 33
0.0310823 0.138717 0.00680604 172 255 36
0.0154938 0.139177 0.0302417 174 4 33
0.0316704 0.138718 0.00682607 172 255 36
0.0157778 0.139166 0.0298182 174 4 33
0.032189 0.138714 0.00671647 172 255 36
0.0160948 0.139157 0.02942 174 4 33
0.032663 0.138708 0.00652347 172 255 36
0.0164574 0.139148 0.029057 174 4 33
0.033089 0.138699 0.00622781 172 255 36
0.0167967 0.139141 0.028676 174 4 33
0.0334785 0.138688 0.00585534 172 255 36
0.0171081 0.139131 0.0282736 174 4 33
0.0338801 0.138678 0.00550675 172 255 36
0.0173824 0.139119 0.0278426 174 4 33
0.0343525 0.138672 0.0052987 172 255 36
0.0176511 0.139108 0.0274073 174 4 33
0.0348681 0.138668 0.00517633 172 255 36
0.017895 0.139096 0.0269529 174 4 33
0.0354293 0.138667 0.00514433 172 255 36
0.0181287 0.139084 0.0264906 174 4 33
0.0360273 0.138668 0.00518509 172 255 36
0.0183083 0.139069 0.0259868 174 4 33
0.0366094 0.138669 0.00519448 172 255 36
0.0184586 0.139053 0.0254603 174 4 33
0.0372358 0.138671 0.00529176 172 255 36
0.018576 0.139036 0.0249086 174 4 33
0.0378356 0.138673 0.00533628 172 255 36
0.0187634 0.139022 0.0244107 174 4 33
0.0384092 0.138672 0.00532897 172 255 36
0.0190475 0.139012 0.0239873 174 4 33
0.0389979 0.138673 0.00535142 172 255 36
0.019349 0.139002 0.0235771 174 4 33
0.0395423 0.138671 0.00528605 172 255 36
0.0195594 0.138988 0.0230969 174 4 33
0.0400862 0.138669 0.00521971 172 255 36
0.0196997 0.138972 0.0225629 174 4 33
0.0406239 0.138667 0.00514119 172 255 36
0.0198156 0.138956 0.0220099 174 4 33
0.0411372 0.138663 0.00501412 172 255 36
0.019922 0.138938 0.0214497 174 4 33
0.0416384 0.138659 0.00486317 172 255 36
0.0199982 0.13892 0.0208662 174 4 33
0.0421381 0.138654 0.00470917 172 255 36
0.020075 0.138901 0.0202833 174 4 33
0.0426124 0.138648 0.00450484 172 255 36
0.0201042 0.138882 0.0196636 174 4 33
0.0430743 0.138641 0.00427586 172 255 36
0.0201313 0.138861 0.0190423 174 4 33
0.0435375 0.138635 0.00404962 172 255 36
0.0201885 0.138842 0.0184443 174 4 33
0.0440054 0.138628 0.00383256 172 255 36
0.020286 0.138824 0.0178772 174 4 33
0.0444913 0.138623 0.00365135 172 255 36
0.0203727 0.138807 0.0173018 174 4 33
0.0449907 0.138619 0.0034967 172 255 36
0.0204604 0.138789 0.0167272 174 4 33
0.0454822 0.138614 0.00332648 172 255 36
0.0205121 0.13877 0.0161249 174 4 33
0.0459441 0.138607 0.00309753 172 255 36
0.0205629 0.13875 0.0155218 174 4 33
0.0463868 0.138599 0.00283056 172 255 36
0.0206019 0.138731 0.0149097 174 4 33
0.0468022 0.13859 0.00250956 172 255 36
0.0206184 0.138711 0.0142803 174 4 33
0.0472194 0.13858 0.00219202 172 255 36
0.0206506 0.13869 0.0136629 174 4 33
0.0476454 0.138571 0.00189177 172 255 36
0.0207281 0.138673 0.0130806 174 4 33
0.0480595 0.138562 0.00156803 172 255 36
0.0208923 0.138658 0.0125647 174 4 33
0.0484447 0.138551 0.00118706 172 255 36
0.0211545 0.138646 0.0121245 174 4 33
0.0488391 0.13854 0.00082448 172 255 36
0.0214769 0.138636 0.0117305 174 4 33
0.0492228 0.138529 0.000440366 172 255 36
0.0217393 0.138625 0.0112903 174 4 33
0.0495802 0.138516 4.32794e-06 172 255 36
0.0219491 0.138612 0.0108097 174 4 33
0.0499551 0.138504 -0.000397094 172 255 36
0.0220988 0.138596 0.0102828 174 4 33
0.0503097 0.138491 -0.00083881 172 255 36
0.0222408 0.13858 0.00974993 174 4 33
0.0506542 0.138477 -0.00130054 172 255 36
0.0224332 0.138566 0.00925596 174 4 33
0.0509907 0.138463 -0.00177811 172 255 36
0.0225807 0.13855 0.0087273 174 4 33
0.0512963 0.138447 -0.00231683 172 255 36
0.0227093 0.138534 0.00818414 174 4 33
0.0516086 0.138432 -0.00284243 172 255 36
0.0229409 0.138521 0.00772032 174 4 33
0.0519266 0.138417 -0.00335653 172 255 36
0.0232516 0.138511 0.00731738 174 4 33
0.0522573 0.138402 -0.00384561 172 255 36
0.0236802 0.138506 0.00700506 174 4 33
0.0525974 0.138389 -0.00431609 172 255 36
0.0312211 0.138569 0.006388 174 4 33
0.0529189 0.138374 -0.00482342 172 255 36
0.0319045 0.138573 0.00627182 174 4 33
0.053241 0.138359 -0.00532957 172 255 36
0.0326233 0.138578 0.00618297 174 4 33
0.0535348 0.138342 -0.00589171 172 255 36
0.0332128 0.138579 0.00599461 174 4 33
0.0538432 0.138327 -0.006425 172 255 36
0.0337397 0.138577 0.00575801 174 4 33
0.0541178 0.138309 -0.00702541 172 255 36
0.0341577 0.138571 0.00543764 174 4 33
0.054365 0.13829 -0.0076799 172 255 36
0.0345412 0.138563 0.00509067 174 4 33
0.0546324 0.138272 -0.00829448 172 255 36
0.0350237 0.138561 0.00481998 174 4 33
0.054865 0.138251 -0.00897817 172 255 36
0.0356903 0.138564 0.00469082 174 4 33
0.0550898 0.138231 -0.00967706 172 255 36
0.0364814 0.138571 0.00465764 174 4 33
0.0552937 0.138209 -0.0104175 172 255 36
0.037372 0.138582 0.00470103 174 4 33
0.0554842 0.138186 -0.0111846 172 255 36
0.0383504 0.138597 0.00481206 174 4 33
0.0556504 0.138162 -0.0119998 172 255 36
0.0391774 0.138606 0.00480635 174 4 33
-0.0673459 0.141061 0.0625449 172 255 36
0.0399846 0.138614 0.00478555 174 4 33
-0.0669508 0.141055 0.0622241 172 255 36
0.0406977 0.138619 0.00469226 174 4 33
-0.0665452 0.141049 0.0619218 172 255 36
0.0413545 0.138622 0.00455566 174 4 33
-0.0659004 0.141052 0.0620405 172 255 36
0.0420314 0.138625 0.00443448 174 4 33
-0.0652127 0.141055 0.0622347 172 255 36
0.0426168 0.138625 0.00424296 174 4 33
-0.064595 0.141056 0.0623058 172 255 36
0.0431598 0.138624 0.00401883 174 4 33
-0.0639841 0.141057 0.0623647 172 255 36
0.0437216 0.138623 0.00380907 174 4 33
-0.0634229 0.141057 0.0623363 172 255 36
0.0442342 0.138622 0.00356149 174 4 33
-0.0628872 0.141056 0.062263 172 255 36
0.0447455 0.138619 0.00331293 174 4 33
-0.0623618 0.141054 0.0621715 172 255 36
0.0453208 0.138619 0.00311366 174 4 33
-0.0618257 0.141053 0.062099 172 255 36
0.0459044 0.138619 0.00292073 174 4 33
-0.0613006 0.141051 0.0620071 172 255 36
0.0464562 0.138618 0.00270331 174 4 33
-0.0607744 0.141049 0.0619169 172 255 36
0.0469499 0.138615 0.00244109 174 4 33
-0.0602436 0.141048 0.0618351 172 255 36
0.0473978 0.13861 0.00214374 174 4 33
-0.0597317 0.141046 0.0617199 172 255 36
0.0478108 0.138604 0.00181955 174 4 33
-0.0592585 0.141042 0.0615366 172 255 36
0.048244 0.138598 0.00151086 174 4 33
-0.0587798 0.141039 0.0613629 172 255 36
0.0486752 0.138593 0.00120057 174 4 33
-0.0583062 0.141036 0.0611802 172 255 36
0.049065 0.138586 0.000858514 174 4 33
-0.0578445 0.141032 0.0609768 172 255 36
0.0494455 0.138579 0.000509181 174 4 33
-0.0573757 0.141029 0.0607856 172 255 36
0.0498149 0.138572 0.00015143 174 4 33
-0.0568956 0.141026 0.0606145 172 255 36
0.0501758 0.138563 -0.000212889 174 4 33
-0.0563989 0.141023 0.0604724 172 255 36
0.0505022 0.138554 -0.000603723 174 4 33
-0.0558993 0.141021 0.0603357 172 255 36
0.0508119 0.138544 -0.00100751 174 4 33
-0.0554126 0.141018 0.0601761 172 255 36
0.0511162 0.138534 -0.00141545 174 4 33
-0.0549551 0.141014 0.0599651 172 255 36
0.0514346 0.138525 -0.00181252 174 4 33
-0.0545184 0.14101 0.0597175 172 255 36
0.0517211 0.138515 -0.00223409 174 4 33
-0.0540344 0.141007 0.0595533 172 255 36
0.0520057 0.138504 -0.00265716 174 4 33
-0.0535778 0.141003 0.0593407 172 255 36
0.0522722 0.138492 -0.00309417 174 4 33
-0.0531578 0.140998 0.0590638 172 255 36
0.0525319 0.13848 -0.00353652 174 4 33
-0.0527452 0.140993 0.0587737 172 255 36
0.0528055 0.138469 -0.00396786 174 4 33
-0.0522633 0.14099 0.0586057 172 255 36
0.0530657 0.138458 -0.00440979 174 4 33
-0.0517733 0.140987 0.0584521 172 255 36
0.0533457 0.138447 -0.00483631 174 4 33
-0.05133 0.140983 0.0582161 172 255 36
0.0536183 0.138436 -0.00526869 174 4 33
-0.0509238 0.140977 0.0579149 172 255 36
0.0538625 0.138423 -0.00572286 174 4 33
-0.0505075 0.140972 0.0576314 172 255 36
0.0541 0.138411 -0.00618219 174 4 33
-0.0500909 0.140967 0.0573483 172 255 36
0.0543403 0.138399 -0.00663933 174 4 33
-0.049702 0.140961 0.0570168 172 255 36
0.0545579 0.138386 -0.00711406 174 4 33
-0.0493225 0.140955 0.0566684 172 255 36
0.0547684 0.138372 -0.00759417 174 4 33
-0.0490053 0.140947 0.0562106 172 255 36
0.0549706 0.138358 -0.00808063 174 4 33
-0.0486737 0.140939 0.055778 172 255 36
0.0551747 0.138344 -0.00856566 174 4 33
-0.0484158 0.140929 0.0552157 172 255 36
0.055353 0.138331 -0.00907046 174 4 33
-0.0482194 0.140917 0.0545452 172 255 36
0.0555265 0.138316 -0.00957908 174 4 33
-0.0478385 0.140911 0.0541994 172 255 36
0.0556645 0.138299 -0.010115 174 4 33
-0.0414073 0.140877 0.0523084 172 255 36
0.0557635 0.138282 -0.010681 174 4 33
-0.0410156 0.140871 0.0519816 172 255 36
0.0558781 0.138266 -0.0112348 174 4 33
-0.0404289 0.140871 0.051998 172 255 36
0.0559481 0.138247 -0.011823 174 4 33
-0.0397562 0.140874 0.0521658 172 255 36
0.0560124 0.138228 -0.0124156 174 4 33
-0.0390676 0.140877 0.0523616 172 255 36
0.0560842 0.138209 -0.0130025 174 4 33
-0.0384672 0.140878 0.0524023 172 255 36
0.0561884 0.138193 -0.0135644 174 4 33
-0.0378746 0.140879 0.052429 172 255 36
0.0562525 0.138174 -0.0141573 174 4 33
-0.0372733 0.140879 0.0524713 172 255 36
0.0561968 0.13815 -0.0148422 174 4 33
-0.0366606 0.140881 0.0525334 172 255 36
0.0559538 0.138121 -0.0156715 174 4 33
-0.0360165 0.140883 0.0526509 172 255 36
0.0558142 0.138094 -0.0164209 174 4 33
-0.0353242 0.140886 0.0528533 172 255 36
0.055833 0.138074 -0.0170485 174 4 33
-0.0346183 0.14089 0.0530795 172 255 36
0.0558685 0.138055 -0.0176634 174 4 33
-0.0339385 0.140894 0.0532599 172 255 36
0.0647019 0.138143 -0.0179278 174 4 33
-0.0332945 0.140896 0.0533772 172 255 36
0.0648804 0.138129 -0.0184325 174 4 33
-0.0326519 0.140898 0.0534921 172 255 36
0.0651337 0.138118 -0.0188797 174 4 33
-0.0320458 0.140899 0.0535426 172 255 36
0.0653709 0.138105 -0.0193393 174 4 33
-0.0313987 0.140901 0.0536654 172 255 36
0.065633 0.138093 -0.0197797 174 4 33
