ply
format ascii 1.0
comment VCGLIB generated
element vertex 797
property float x
property float y
property float z
property float nx
property float ny
property float nz
element face 0
property list uchar int vertex_indices
end_header
-85.2555 158.54 2183.94 0.0 0.0 1.0
-85.10289999999999 -114.48566666666666 1846.91 0.0 0.0 1.0
-86.25513333333333 -110.206 1846.91 0.0 0.0 1.0
-87.0073 -98.97813333333333 2183.94 0.0 0.0 1.0
-83.41463333333333 -69.8374 1824.39 0.0 0.0 1.0
-82.91793333333334 -65.08613333333334 1818.84 0.0 0.0 1.0
-86.03403333333334 -60.43796666666666 2183.94 0.0 0.0 1.0
-85.04066666666667 -21.382099999999998 1824.39 0.0 0.0 1.0
-86.03406666666666 -8.661803333333333 2183.94 0.0 0.0 1.0
-85.78026666666666 2.00998 1802.42 -0.3067824920812042 -0.919653848237236 0.2451964558775041
-84.51156666666667 5.075526666666668 1807.8499999999997 -1.285689577663866e-28 1.3928276984669413e-28 1.0
-84.51156666666667 6.52568 1807.8499999999997 -2.6459833183892565e-29 1.146500631714237e-28 1.0
-86.618 10.802933333333334 2183.94 0.0 0.0 1.0
-85.15606666666667 16.837866666666667 1807.8499999999997 -4.2036205898651556e-26 -1.1065291165091662e-27 1.0
-84.99496666666666 22.1551 1807.8499999999997 2.074255758064647e-27 4.1499423294042535e-27 1.0
-84.99496666666667 29.244700000000005 1807.8499999999997 4.2326287731878425e-28 7.760286456137023e-27 1.0
-83.86703333333332 31.339366666666667 1807.8499999999997 5.975275356707042e-28 -1.2803341586328778e-28 1.0
-85.14056666666666 43.775133333333336 1802.41 0.0 0.0 1.0
-85.30123333333334 45.06026666666667 1802.41 0.0 0.0 1.0
-85.45013333333333 61.021899999999995 2183.94 0.0 0.0 1.0
-86.7253 77.02833333333334 1754.84 0.0 0.0 1.0
-83.59726666666667 83.7537 1754.84 0.0 0.0 1.0
-86.23783333333331 87.09553333333334 1749.71 0.0 0.0 1.0
-85.49483333333332 102.45400000000001 1761.7300000000002 -0.6783984045432712 -0.6776782363855975 0.2837742282915248
-85.25546666666666 136.15533333333335 2183.94 0.0 0.0 1.0
-84.2822 149.781 2183.94 0.0 0.0 1.0
-86.42336666666667 154.06333333333336 2183.94 0.0 0.0 1.0
-85.45013333333333 157.5666666666667 2183.94 0.0 0.0 1.0
-86.41420000000001 -123.24766666666666 1845.0166666666667 2.327223552229617e-16 -0.9998021658198399 0.019890430411556616
-85.2675 -123.04533333333332 1846.91 0.0 0.0 1.0
-85.94426666666668 -107.07933333333334 1852.63 0.0 0.0 1.0
-87.98053333333333 -120.584 2183.94 0.0 0.0 1.0
-85.10286666666667 -99.50616666666667 1846.91 0.0 0.0 1.0
-85.10286666666667 -99.50616666666667 1846.91 0.0 0.0 1.0
-85.64479999999999 -113.38233333333334 2183.94 0.0 0.0 1.0
-84.08999999999999 -85.31700000000001 1835.58 0.0 0.0 1.0
-87.0073 -98.97813333333333 2183.94 0.0 0.0 1.0
-83.73983333333332 -75.04066666666667 1824.39 0.0 0.0 1.0
-85.67373333333335 -46.119566666666664 1818.84 0.0 0.0 1.0
-85.67373333333335 -46.119566666666664 1818.84 0.0 0.0 1.0
-87.0073 -53.62533333333334 2183.94 0.0 0.0 1.0
-85.64479999999999 -46.812666666666665 2183.94 0.0 0.0 1.0
-85.83943333333333 -32.6034 2183.94 0.0 0.0 1.0
-85.83943333333333 -32.6034 2183.94 0.0 0.0 1.0
-86.61803333333334 -20.340633333333333 2183.94 0.0 0.0 1.0
-86.61803333333334 -20.340633333333333 2183.94 0.0 0.0 1.0
-85.25546666666666 -14.501233333333332 2183.94 0.0 0.0 1.0
-85.2555 -1.265207 2183.94 0.0 0.0 1.0
-84.51156666666667 6.52568 1807.8499999999997 -2.645983318389257e-29 1.1465006317142371e-28 1.0
-84.83383333333333 14.743200000000002 1807.8499999999997 1.7285703156241108e-27 1.728451120318945e-27 1.0
-85.15606666666666 15.709966666666668 1807.8499999999997 7.777207680129357e-26 -1.9011532078476964e-26 1.0
-85.80059999999999 18.1269 1807.8499999999997 2.765521792510283e-26 -6.913804481275756e-27 1.0
-85.45013333333333 29.099766666666667 2183.94 0.0 0.0 1.0
-86.42336666666667 81.65453333333333 2183.94 0.0 0.0 1.0
-83.91789999999999 69.96863333333333 1758.28 8.091248522509033e-17 0.8584968801115327 0.5128187855751432
-87.39659999999999 87.29926666666667 2183.94 0.0 0.0 1.0
-85.45806666666665 78.51853333333332 1749.71 0.0 0.0 1.0
-85.45806666666665 91.1501 1749.71 0.0 0.0 1.0
-85.64706666666666 101.72533333333332 1760.0 0.0 0.0 1.0
-86.22873333333332 137.71266666666668 2183.94 0.0 0.0 1.0
-86.81266666666666 138.686 2183.94 0.0 0.0 1.0
-86.22873333333332 155.42566666666667 2183.94 0.0 0.0 1.0
-85.83943333333333 157.17733333333334 2183.94 0.0 0.0 1.0
-86.42336666666667 -159.31866666666667 2183.94 0.0 0.0 1.0
-82.65836666666667 -134.829 1864.17 0.0 0.0 1.0
-85.12586666666667 -121.86166666666666 1856.47 -0.3471456564265862 0.8681087328727081 0.35479165877215285
-86.25513333333333 -110.206 1846.91 0.0 0.0 1.0
-86.27449999999999 -107.90499999999999 1852.63 0.0 0.0 1.0
-86.09053333333334 -104.11533333333334 1846.91 0.0 0.0 1.0
-87.98053333333333 -120.584 2183.94 0.0 0.0 1.0
-86.544 -86.62580000000001 1835.58 0.0 0.0 1.0
-87.0073 -70.5596 2183.94 0.0 0.0 1.0
-86.48433333333332 -54.22493333333333 1818.84 0.0 0.0 1.0
-85.83586666666667 -50.49646666666666 1818.84 0.0 0.0 1.0
-87.0073 -53.62533333333334 2183.94 0.0 0.0 1.0
-87.78590000000001 -43.50366666666667 2183.94 0.0 0.0 1.0
-85.04066666666667 -21.382099999999998 1824.39 0.0 0.0 1.0
-86.61803333333334 -20.340633333333333 2183.94 0.0 0.0 1.0
-87.30919999999999 -12.910763333333335 1822.54 -0.8514666748530685 -0.3547771751050423 0.3861834507577263
-85.54540000000001 -9.54129 1829.97 0.0 0.0 1.0
-87.20193333333333 -9.0511 2183.94 0.0 0.0 1.0
-86.618 10.802933333333334 2183.94 0.0 0.0 1.0
-86.618 10.802933333333334 2183.94 0.0 0.0 1.0
-85.80060000000002 18.77143333333333 1807.8499999999997 -8.815100713626527e-26 -6.740959369243865e-26 1.0
-86.81266666666666 43.11436666666666 2183.94 0.0 0.0 1.0
-86.1044 42.81126666666666 1802.41 0.0 0.0 1.0
-87.0073 62.189766666666664 2183.94 0.0 0.0 1.0
-87.39659999999999 87.29926666666667 2183.94 0.0 0.0 1.0
-85.45806666666665 78.51853333333334 1749.71 0.0 0.0 1.0
-85.45806666666665 78.51853333333334 1749.71 0.0 0.0 1.0
-85.45806666666665 91.1501 1749.71 0.0 0.0 1.0
-85.45806666666665 92.2417 1749.71 0.0 0.0 1.0
-85.14616666666667 93.02143333333333 1749.71 0.0 0.0 1.0
-85.64706666666666 101.72533333333335 1760.0 0.0 0.0 1.0
-87.0073 133.43066666666667 2183.94 0.0 0.0 1.0
-87.39659999999999 144.91500000000002 2183.94 0.0 0.0 1.0
-87.39659999999999 145.49866666666668 2183.94 0.0 0.0 1.0
-86.42336666666667 154.06333333333333 2183.94 0.0 0.0 1.0
-86.10936666666667 -111.868 1852.63 0.0 0.0 1.0
-86.27449999999999 -107.90499999999999 1852.63 0.0 0.0 1.0
-86.27449999999999 -107.90499999999999 1852.63 0.0 0.0 1.0
-86.10936666666667 -107.07933333333334 1852.63 0.0 0.0 1.0
-86.41976666666666 -100.00006666666667 1846.91 0.0 0.0 1.0
-87.78586666666666 -110.073 2183.94 0.0 0.0 1.0
-86.61796666666667 -109.29433333333334 2183.94 0.0 0.0 1.0
-87.39656666666667 -76.59366666666666 2183.94 0.0 0.0 1.0
-87.20193333333333 -61.8005 2183.94 0.0 0.0 1.0
-85.67373333333335 -46.119566666666664 1818.84 0.0 0.0 1.0
-87.0073 -53.62533333333334 2183.94 0.0 0.0 1.0
-86.99189999999999 -25.284566666666667 1824.39 0.0 0.0 1.0
-87.45693333333332 -19.047600000000003 1818.84 0.0 0.0 1.0
-85.54540000000001 -9.54129 1829.97 0.0 0.0 1.0
-87.4797 -7.398376666666667 1824.39 0.0 0.0 1.0
-86.2287 14.695866666666666 2183.94 0.0 0.0 1.0
-85.47833333333334 17.321233333333335 1807.8499999999997 -2.808733070518256e-27 1.080281950199349e-27 1.0
-85.80060000000002 18.77143333333333 1807.8499999999997 -8.815100713626527e-26 -6.740959369243865e-26 1.0
-84.99496666666666 22.1551 1807.8499999999997 2.074255758064647e-27 4.149942329404252e-27 1.0
-87.25073333333334 41.16816666666667 1807.8499999999997 -8.451212044473461e-27 2.3046650645880066e-26 1.0
-86.10443333333335 45.54216666666667 1802.41 0.0 0.0 1.0
-88.17516666666667 59.27006666666667 2183.94 0.0 0.0 1.0
-85.9336 54.429633333333335 1798.8033333333333 -1.790995519106148e-16 -0.9789978799189529 0.2038704272674082
-88.04733333333336 67.29780000000001 1770.41 0.0 0.0 1.0
-86.11763333333333 102.50966666666666 1760.0 0.0 0.0 1.0
-87.59123333333334 139.27 2183.94 0.0 0.0 1.0
-83.71306666666668 -133.4176666666667 1893.67 0.0 0.0 1.0
-86.6949 -132.96833333333333 1877.8266666666666 -0.21059336855865834 -0.8424784559737083 0.4958633726534694
-87.59123333333334 -150.5596666666667 2183.94 0.0 0.0 1.0
-86.41266666666667 -115.18900000000001 1845.0166666666667 0.5030285974083567 -0.8380755127267021 0.2111673865852792
-87.39659999999999 -112.01966666666665 2183.94 0.0 0.0 1.0
-87.59546666666665 -94.36533333333334 1852.63 0.0 0.0 1.0
-87.20193333333333 -61.8005 2183.94 0.0 0.0 1.0
-88.95376666666668 -51.094899999999996 2183.94 0.0 0.0 1.0
-87.61903333333333 -43.525800000000004 1818.84 0.0 0.0 1.0
-88.75913333333334 -45.83943333333334 2183.94 0.0 0.0 1.0
-88.36983333333335 -42.91973333333334 2183.94 0.0 0.0 1.0
-89.14843333333334 -39.80533333333333 2183.94 0.0 0.0 1.0
-87.3171 -27.3984 1824.39 0.0 0.0 1.0
-86.99189999999999 -25.284566666666667 1824.39 0.0 0.0 1.0
-87.45693333333332 -19.047600000000003 1818.84 0.0 0.0 1.0
-86.92853333333333 9.587103333333333 1807.8499999999997 -6.395304902859207e-26 8.642648936731413e-27 1.0
-87.08963333333332 10.714993333333334 1807.8499999999997 7.13132262849788e-27 1.944775711262382e-27 1.0
-87.98053333333333 42.72506666666667 2183.94 0.0 0.0 1.0
-89.53770000000002 47.59126666666666 2183.94 0.0 0.0 1.0
-88.17516666666667 59.27006666666667 2183.94 0.0 0.0 1.0
-88.36983333333335 60.82723333333333 2183.94 0.0 0.0 1.0
-88.95376666666668 71.14353333333334 2183.94 0.0 0.0 1.0
-88.95376666666668 80.0973 2183.94 0.0 0.0 1.0
-88.75913333333334 92.36013333333334 2183.94 0.0 0.0 1.0
-87.01753333333333 86.15983333333334 1749.71 0.0 0.0 1.0
-87.32943333333333 87.09553333333334 1749.71 0.0 0.0 1.0
-86.58820000000001 103.294 1760.0 0.0 0.0 1.0
-87.39659999999999 144.915 2183.94 0.0 0.0 1.0
-87.78590000000001 145.49866666666668 2183.94 0.0 0.0 1.0
-87.00733333333334 155.81466666666668 2183.94 0.0 0.0 1.0
-91.6442 -114.50100000000002 1612.9399999999998 0.0 -0.9980525784828886 0.06237828615518059
-85.10289999999999 -114.48566666666666 1846.91 0.0 0.0 1.0
-87.92566666666666 -111.70300000000002 1852.63 0.0 0.0 1.0
-87.2428 -100.32933333333334 1846.91 0.0 0.0 1.0
-87.59546666666665 -94.36533333333334 1852.63 0.0 0.0 1.0
-87.98053333333333 -97.81023333333333 2183.94 0.0 0.0 1.0
-89.34303333333334 -97.03163333333333 2183.94 0.0 0.0 1.0
-88.9704 -79.3476 1829.97 0.0 0.0 1.0
-87.29483333333333 -50.334366666666675 1818.84 0.0 0.0 1.0
-88.75913333333334 -45.83943333333334 2183.94 0.0 0.0 1.0
-87.78590000000001 -35.9124 2183.94 0.0 0.0 1.0
-87.1545 -24.471533333333337 1824.39 0.0 0.0 1.0
-89.14843333333334 -16.0584 2183.94 0.0 0.0 1.0
-87.20193333333333 -9.0511 2183.94 0.0 0.0 1.0
-90.53696666666667 -6.727456666666666 1818.84 0.0 0.0 1.0
-87.57303333333334 8.459213333333333 1807.8499999999997 -5.826326142458658e-27 4.56714325195128e-27 1.0
-87.08963333333334 14.420933333333332 1807.8499999999997 -6.482138652768318e-28 3.2412927559402867e-28 1.0
-87.73416666666667 27.794566666666668 1807.8499999999997 -1.152512662430649e-27 7.683064529551506e-28 1.0
-88.05643333333335 28.76133333333333 1807.8499999999997 -4.2408430875102404e-27 -5.8390527490466394e-27 1.0
-87.98053333333333 42.72506666666667 2183.94 0.0 0.0 1.0
-87.06826666666666 44.57829999999999 1802.41 0.0 0.0 1.0
-88.17516666666667 59.27006666666667 2183.94 0.0 0.0 1.0
-88.36983333333335 60.82723333333333 2183.94 0.0 0.0 1.0
-89.34306666666667 72.7007 2183.94 0.0 0.0 1.0
-87.78590000000001 81.07056666666666 2183.94 0.0 0.0 1.0
-87.39659999999999 87.29926666666667 2183.94 0.0 0.0 1.0
-88.75913333333334 92.36013333333334 2183.94 0.0 0.0 1.0
-86.58819999999999 103.294 1760.0 0.0 0.0 1.0
-88.56446666666666 131.48433333333332 2183.94 0.0 0.0 1.0
-88.56446666666666 138.88066666666668 2183.94 0.0 0.0 1.0
-88.1752 158.15066666666667 2183.94 0.0 0.0 1.0
-87.4074 -110.04133333333334 1846.91 0.0 0.0 1.0
-90.3163 -123.698 2183.94 0.0 0.0 1.0
-88.06583333333333 -100.32933333333334 1846.91 0.0 0.0 1.0
-87.38463333333334 -90.01029999999999 1841.2300000000002 -2.832831389590253e-26 -2.9495419997795376e-25 1.0
-89.73236666666668 -90.41366666666666 2183.94 0.0 0.0 1.0
-90.12166666666667 -89.44043333333333 2183.94 0.0 0.0 1.0
-86.4843 -66.8693 1818.84 0.0 0.0 1.0
-87.45696666666667 -56.17023333333333 1818.84 0.0 0.0 1.0
-89.34306666666667 -46.03406666666666 2183.94 0.0 0.0 1.0
-87.1545 -24.471533333333337 1824.39 0.0 0.0 1.0
-87.77329999999999 -17.89493333333333 1817.0033333333333 0.5993817908564973 0.7991620272468428 0.04562371090095444
-87.78116666666666 -17.264433333333333 1818.84 0.0 0.0 1.0
-89.14843333333334 -16.0584 2183.94 0.0 0.0 1.0
-89.14843333333334 -15.474466666666666 2183.94 0.0 0.0 1.0
-89.14843333333334 -15.474466666666666 2183.94 0.0 0.0 1.0
-88.45530000000001 -5.284556666666666 1824.39 0.0 0.0 1.0
-89.3431 -2.4330900000000004 2183.94 0.0 0.0 1.0
-88.4885 1.8418400000000001 1797.0 0.0 0.0 1.0
-88.16816666666666 2.4824800000000002 1797.0 0.0 0.0 1.0
-89.73236666666666 7.29928 2183.94 0.0 0.0 1.0
-87.573 11.8429 1807.8499999999997 6.915234948241625e-27 4.609918208669584e-27 1.0
-88.51406666666666 16.465866666666667 1802.41 0.0 0.0 1.0
-88.56450000000001 30.267666666666667 2183.94 0.0 0.0 1.0
-87.89523333333334 41.16816666666667 1807.8499999999997 -2.0741413443827136e-26 -3.0670908558460996e-42 1.0
-87.89523333333334 41.16816666666667 1807.8499999999997 -2.0741413443827133e-26 -5.9116358189267804e-43 1.0
-87.55016666666667 42.48996666666667 1802.41 0.0 0.0 1.0
-88.3471 54.965833333333336 1800.6066666666666 -0.1394903604627083 -0.9762878236949091 0.16554312019241982
-88.60213333333333 72.49266666666666 1754.84 0.0 0.0 1.0
-88.75913333333334 92.36013333333334 2183.94 0.0 0.0 1.0
-87.9765 77.02833333333334 1754.84 0.0 0.0 1.0
-87.32943333333333 87.09553333333334 1749.71 0.0 0.0 1.0
-86.2378 92.86546666666668 1749.71 0.0 0.0 1.0
-87.95323333333333 99.25926666666668 1749.71 0.0 0.0 1.0
-88.56446666666666 138.88066666666668 2183.94 0.0 0.0 1.0
-88.56446666666666 139.854 2183.94 0.0 0.0 1.0
-88.75913333333334 157.76133333333334 2183.94 0.0 0.0 1.0
-89.73236666666666 -159.90266666666665 2183.94 0.0 0.0 1.0
-87.69066666666667 -134.33666666666667 1875.86 0.0 0.0 1.0
-87.59123333333334 -150.5596666666667 2183.94 0.0 0.0 1.0
-87.73663333333333 -123.21 1846.91 0.0 0.0 1.0
-90.89783333333332 -121.94 1852.63 0.0 0.0 1.0
-87.4074 -110.04133333333334 1846.91 0.0 0.0 1.0
-89.08156666666666 -94.53043333333333 1852.63 0.0 0.0 1.0
-88.6708 -87.2802 1835.58 0.0 0.0 1.0
-89.29660000000001 -77.5535 1829.97 0.0 0.0 1.0
-87.96749999999999 -72.1138 1824.39 0.0 0.0 1.0
-89.53769999999999 -69.97566666666665 2183.94 0.0 0.0 1.0
-87.78116666666666 -46.11953333333333 1818.84 0.0 0.0 1.0
-89.34306666666667 -46.03406666666666 2183.94 0.0 0.0 1.0
-90.12163333333335 -44.4769 2183.94 0.0 0.0 1.0
-87.96749999999999 -27.3984 1824.39 0.0 0.0 1.0
-88.45530000000001 -8.211383333333334 1824.39 0.0 0.0 1.0
-88.45530000000001 -5.284556666666666 1824.39 0.0 0.0 1.0
-88.21750000000002 12.648533333333333 1807.8499999999997 -1.6014903160291706e-24 -6.32325722627962e-25 1.0
-88.51406666666666 16.465866666666667 1802.41 0.0 0.0 1.0
-90.51096666666668 30.073000000000004 2183.94 0.0 0.0 1.0
-89.53770000000002 47.59126666666666 2183.94 0.0 0.0 1.0
-87.89523333333334 41.16816666666667 1807.8499999999997 -2.0741413443827136e-26 -4.5020204833147123e-42 1.0
-89.53770000000002 58.1022 2183.94 0.0 0.0 1.0
-89.53770000000002 59.464733333333335 2183.94 0.0 0.0 1.0
-90.31630000000001 60.0487 2183.94 0.0 0.0 1.0
-90.51096666666668 69.78099999999999 2183.94 0.0 0.0 1.0
-90.51093333333334 78.54013333333333 2183.94 0.0 0.0 1.0
-90.51093333333334 78.54013333333333 2183.94 0.0 0.0 1.0
-88.60213333333333 72.49266666666666 1754.84 0.0 0.0 1.0
-87.9765 77.02833333333335 1754.84 0.0 0.0 1.0
-87.32943333333333 87.09553333333334 1749.71 0.0 0.0 1.0
-87.95323333333333 99.25926666666668 1749.71 0.0 0.0 1.0
-88.56446666666666 131.48433333333332 2183.94 0.0 0.0 1.0
-93.46043333333334 -123.11966666666666 1818.8533333333335 0.23430925481243603 0.970732589720778 0.052701160928700336
-91.4642 -119.377 1864.17 0.0 0.0 1.0
-89.2181 -102.46933333333334 1846.91 0.0 0.0 1.0
-87.98053333333333 -120.584 2183.94 0.0 0.0 1.0
-88.55966666666667 -100.65866666666666 1846.91 0.0 0.0 1.0
-88.55966666666667 -100.65866666666666 1846.91 0.0 0.0 1.0
-88.6708 -87.2802 1835.58 0.0 0.0 1.0
-88.6708 -87.2802 1835.58 0.0 0.0 1.0
-89.34303333333334 -97.03163333333333 2183.94 0.0 0.0 1.0
-89.73236666666668 -90.41366666666666 2183.94 0.0 0.0 1.0
-89.85860000000001 -58.90906666666667 1813.33 0.0 0.0 1.0
-87.45696666666667 -56.17023333333333 1818.84 0.0 0.0 1.0
-89.24013333333333 -46.9301 1818.84 0.0 0.0 1.0
-89.07803333333334 -46.11953333333333 1818.84 0.0 0.0 1.0
-90.12163333333335 -44.4769 2183.94 0.0 0.0 1.0
-88.29270000000001 -26.097566666666665 1824.39 0.0 0.0 1.0
-90.96113333333334 -20.040900000000004 1835.58 0.0 0.0 1.0
-88.5917 -17.264433333333333 1818.84 0.0 0.0 1.0
-87.01326666666667 -10.193693333333334 1829.97 0.0 0.0 1.0
-88.53980000000001 8.459213333333333 1807.8499999999997 -9.6678584072344e-27 -1.1567318750692369e-26 1.0
-88.86203333333333 13.454166666666666 1807.8499999999997 5.185174561834117e-27 3.889104387911439e-27 1.0
-89.31726666666667 14.6988 1802.41 0.0 0.0 1.0
-88.37866666666667 23.282966666666667 1807.8499999999997 -1.631275730729629e-27 -1.4985232991431608e-27 1.0
-89.50656666666667 26.022133333333333 1807.8499999999997 -5.1853533609569355e-27 3.889015020717721e-27 1.0
-91.09486666666668 48.1752 2183.94 0.0 0.0 1.0
-90.63443333333333 46.16313333333333 1807.8499999999997 5.761603041556147e-28 -1.7286001139366147e-27 1.0
-88.04733333333333 67.29780000000001 1770.41 0.0 0.0 1.0
-87.9765 77.02833333333334 1754.84 0.0 0.0 1.0
-86.39376666666665 79.14229999999999 1749.71 0.0 0.0 1.0
-92.26276666666666 101.31400000000001 2183.94 0.0 0.0 1.0
-88.26513333333332 98.9474 1749.71 0.0 0.0 1.0
-88.92183333333334 104.96966666666667 1756.5600000000002 -0.8082000536821006 -0.48493725727434145 0.33413848885677444
-87.73663333333333 -123.21 1846.91 0.0 0.0 1.0
-90.3163 -123.698 2183.94 0.0 0.0 1.0
-89.37306666666666 -103.35033333333332 1845.0166666666667 -0.4464447236734252 -0.8925279536434592 0.06388239717777082
-89.08156666666666 -94.53043333333333 1852.63 0.0 0.0 1.0
-89.08156666666666 -94.53043333333333 1852.63 0.0 0.0 1.0
-89.25099999999999 -67.09936666666665 1820.6899999999998 0.31398109761606835 0.9419432928482045 0.11899035002087577
-93.04136666666666 -77.17763333333333 2183.94 0.0 0.0 1.0
-90.0202 -59.71713333333333 1813.33 0.0 0.0 1.0
-90.3163 -61.216566666666665 2183.94 0.0 0.0 1.0
-88.56446666666666 -53.62533333333334 2183.94 0.0 0.0 1.0
-91.48416666666667 -47.980533333333334 2183.94 0.0 0.0 1.0
-90.3163 -39.221399999999996 2183.94 0.0 0.0 1.0
-88.26746666666666 -18.237066666666667 1818.84 0.0 0.0 1.0
-91.28833333333334 -12.842500000000001 1835.58 0.0 0.0 1.0
-88.45530000000001 -5.284556666666666 1824.39 0.0 0.0 1.0
-89.28926666666666 3.28328 1797.0 0.0 0.0 1.0
-89.31726666666667 14.6988 1802.41 0.0 0.0 1.0
-89.50656666666664 30.533733333333334 1807.8499999999997 8.407241179730312e-26 -2.2130582330183313e-27 1.0
-90.51096666666666 42.91973333333334 2183.94 0.0 0.0 1.0
-88.83533333333332 42.48996666666667 1802.41 0.0 0.0 1.0
-90.31630000000001 60.0487 2183.94 0.0 0.0 1.0
-88.30959999999999 56.02203333333333 1793.4133333333332 -0.8920222540232157 -0.17838955397341308 0.41529924796525775
-91.0949 73.08999999999999 2183.94 0.0 0.0 1.0
-91.48416666666667 80.292 2183.94 0.0 0.0 1.0
-92.26276666666666 101.31400000000001 2183.94 0.0 0.0 1.0
-88.10916666666667 87.40740000000001 1749.71 0.0 0.0 1.0
-88.42106666666666 99.25926666666668 1749.71 0.0 0.0 1.0
-91.87346666666667 147.445 2183.94 0.0 0.0 1.0
-91.87346666666667 149.97566666666668 2183.94 0.0 0.0 1.0
-90.3163 155.03633333333335 2183.94 0.0 0.0 1.0
-87.69066666666667 -134.33666666666667 1875.86 0.0 0.0 1.0
-92.45743333333333 -135.572 2183.94 0.0 0.0 1.0
-89.0815 -112.36333333333334 1852.63 0.0 0.0 1.0
-89.0815 -112.36333333333334 1852.63 0.0 0.0 1.0
-89.2181 -102.46933333333334 1846.91 0.0 0.0 1.0
-87.38463333333334 -90.01029999999999 1841.2300000000002 -2.8328313895902475e-26 -2.9495419997795317e-25 1.0
-89.78590000000001 -78.8583 1829.97 0.0 0.0 1.0
-89.78590000000001 -78.8583 1829.97 0.0 0.0 1.0
-89.78590000000001 -78.8583 1829.97 0.0 0.0 1.0
-91.4842 -88.66183333333333 2183.94 0.0 0.0 1.0
-93.23599999999999 -70.55963333333334 2183.94 0.0 0.0 1.0
-91.48416666666667 -47.980533333333334 2183.94 0.0 0.0 1.0
-91.09486666666668 -46.81263333333334 2183.94 0.0 0.0 1.0
-92.06813333333332 -40.0 2183.94 0.0 0.0 1.0
-90.7317 -30.6504 1824.39 0.0 0.0 1.0
-92.0681 -15.6691 2183.94 0.0 0.0 1.0
-92.0681 -15.6691 2183.94 0.0 0.0 1.0
-88.7009 9.587103333333333 1807.8499999999997 -2.558100792654477e-27 8.296839993524537e-28 1.0
-88.86203333333333 13.454166666666666 1807.8499999999997 5.185174561834117e-27 3.889104387911439e-27 1.0
-89.3173 15.662666666666667 1802.41 0.0 0.0 1.0
-89.50656666666667 26.022133333333333 1807.8499999999997 -5.1853533609569355e-27 3.889015020717721e-27 1.0
-89.8288 29.405833333333334 1807.8499999999997 -3.285076415399762e-26 1.9017611604752932e-26 1.0
-89.50656666666664 30.533733333333334 1807.8499999999997 8.407241179730311e-26 -2.2130582330183384e-27 1.0
-90.12049999999999 42.16866666666667 1802.41 0.0 0.0 1.0
-90.23153333333333 56.02203333333333 1793.4133333333332 0.842929910668996 0.16857190514798204 0.5109331448382832
-90.90023333333333 79.31873333333333 2183.94 0.0 0.0 1.0
-91.48416666666667 80.292 2183.94 0.0 0.0 1.0
-88.04733333333333 67.29780000000001 1770.41 0.0 0.0 1.0
-92.26276666666666 86.90996666666666 2183.94 0.0 0.0 1.0
-92.0681 87.68856666666666 2183.94 0.0 0.0 1.0
-89.51266666666668 89.74656666666668 1749.71 0.0 0.0 1.0
-90.50983333333333 110.50966666666666 1760.0 0.0 0.0 1.0
-89.927 138.686 2183.94 0.0 0.0 1.0
-92.45743333333333 141.99533333333332 2183.94 0.0 0.0 1.0
-91.87346666666667 147.83433333333332 2183.94 0.0 0.0 1.0
-92.06813333333332 154.258 2183.94 0.0 0.0 1.0
-93.04136666666666 -160.68133333333333 2183.94 0.0 0.0 1.0
-85.82476666666666 -114.21633333333334 1593.0266666666666 4.0015333981325174e-17 0.999897838149068 0.014293819112476012
-92.45743333333333 -136.545 2183.94 0.0 0.0 1.0
-89.7561 -69.8374 1824.39 0.0 0.0 1.0
-90.0202 -59.71713333333333 1813.33 0.0 0.0 1.0
-90.90026666666667 -63.94163333333333 2183.94 0.0 0.0 1.0
-90.90026666666667 -63.94163333333333 2183.94 0.0 0.0 1.0
-90.21276666666667 -46.605866666666664 1818.84 0.0 0.0 1.0
-92.4574 -44.476866666666666 2183.94 0.0 0.0 1.0
-90.7317 -31.1382 1824.39 0.0 0.0 1.0
-91.65129999999999 -25.189733333333333 1841.2300000000002 -1.0665732740132263e-27 1.066529945557181e-28 1.0
-91.16963333333332 -24.065066666666667 1843.1233333333337 2.0673444413332982e-16 -0.9873428177132542 0.15860063149323242
-90.29623333333332 -20.673033333333336 1833.71 -0.15792551651773518 -0.9475209219433122 0.27796336757260315
-93.43066666666668 -2.0437963333333333 2183.94 0.0 0.0 1.0
-90.7307 2.32232 1797.0 0.0 0.0 1.0
-89.31726666666668 14.6988 1802.41 0.0 0.0 1.0
-91.03860000000002 20.08066666666667 1795.2066666666667 1.0866604770482082e-15 -0.9825247789333944 0.18613183172656028
-91.87349999999999 29.489066666666663 2183.94 0.0 0.0 1.0
-90.3122 26.18326666666667 1807.8499999999997 -3.457369302557085e-27 -9.877155371030487e-28 1.0
-92.45743333333333 42.53043333333334 2183.94 0.0 0.0 1.0
-89.67823333333332 89.20946666666667 1751.42 0.8541788267890693 0.5124999929028944 0.08787655625809664
-89.2008 92.86546666666668 1749.71 0.0 0.0 1.0
-89.35673333333334 100.819 1749.71 0.0 0.0 1.0
-90.50983333333333 110.50966666666666 1760.0 0.0 0.0 1.0
-92.45743333333333 141.99533333333332 2183.94 0.0 0.0 1.0
-93.04136666666666 -160.68133333333333 2183.94 0.0 0.0 1.0
-89.9071 -107.90533333333333 1852.63 0.0 0.0 1.0
-94.01456666666667 -82.43310000000001 2183.94 0.0 0.0 1.0
-91.2195 -68.0488 1824.39 0.0 0.0 1.0
-90.0202 -59.71713333333333 1813.33 0.0 0.0 1.0
-91.99596666666667 -44.498466666666666 1818.84 0.0 0.0 1.0
-91.9427 -15.460100000000002 1835.58 0.0 0.0 1.0
-92.0681 -15.6691 2183.94 0.0 0.0 1.0
-91.54469999999999 -8.211383333333334 1824.39 0.0 0.0 1.0
-92.84673333333332 5.742096666666666 2183.94 0.0 0.0 1.0
-91.03860000000002 20.08066666666667 1795.2066666666667 1.0866604770482082e-15 -0.9825247789333944 0.18613183172656028
-90.4733 28.277933333333333 1807.8499999999997 8.302575633197632e-26 -6.226860146035687e-26 1.0
-92.0681 47.59126666666666 2183.94 0.0 0.0 1.0
-92.0681 47.59126666666666 2183.94 0.0 0.0 1.0
-93.6253 84.18489999999998 2183.94 0.0 0.0 1.0
-92.0681 87.68856666666666 2183.94 0.0 0.0 1.0
-90.00976666666666 73.58749999999999 1754.84 0.0 0.0 1.0
-91.35083333333334 85.59770000000002 1744.61 0.0 0.0 1.0
-95.57176666666668 108.90533333333333 2183.94 0.0 0.0 1.0
-89.51266666666668 89.74656666666668 1749.71 0.0 0.0 1.0
-90.76023333333335 100.66306666666667 1749.71 0.0 0.0 1.0
-92.26276666666666 147.25033333333332 2183.94 0.0 0.0 1.0
-92.4574 147.83433333333332 2183.94 0.0 0.0 1.0
-91.87346666666667 149.97566666666668 2183.94 0.0 0.0 1.0
-93.0414 -136.545 2183.94 0.0 0.0 1.0
-92.84673333333335 -135.572 2183.94 0.0 0.0 1.0
-94.01460000000002 -114.16066666666666 2183.94 0.0 0.0 1.0
-94.98786666666666 -108.32099999999998 2183.94 0.0 0.0 1.0
-93.04136666666666 -88.27253333333334 2183.94 0.0 0.0 1.0
-94.20923333333333 -76.39903333333334 2183.94 0.0 0.0 1.0
-90.21276666666667 -51.469100000000005 1818.84 0.0 0.0 1.0
-92.06813333333332 -40.0 2183.94 0.0 0.0 1.0
-91.54469999999999 -8.211383333333334 1824.39 0.0 0.0 1.0
-91.67886666666668 -3.4063266666666667 2183.94 0.0 0.0 1.0
-90.7307 2.32232 1797.0 0.0 0.0 1.0
-92.012 3.4434400000000003 1797.0 0.0 0.0 1.0
-94.7932 12.165433333333333 2183.94 0.0 0.0 1.0
-94.01463333333334 14.890499999999998 2183.94 0.0 0.0 1.0
-91.87349999999999 29.489066666666663 2183.94 0.0 0.0 1.0
-91.44006666666667 26.827799999999996 1807.8499999999997 1.5556060082870687e-26 -2.0741413443827426e-26 1.0
-90.95666666666666 27.4723 1807.8499999999997 1.7627484080042337e-25 -6.22185193513565e-26 1.0
-90.76306666666666 41.36546666666667 1802.41 0.0 0.0 1.0
-90.92366666666668 55.50203333333334 1802.41 0.0 0.0 1.0
-93.43066666666668 68.80776666666667 2183.94 0.0 0.0 1.0
-93.43066666666668 72.7007 2183.94 0.0 0.0 1.0
-92.65206666666666 87.10463333333333 2183.94 0.0 0.0 1.0
-90.63536666666666 76.87193333333335 1754.84 0.0 0.0 1.0
-91.35083333333334 88.70746666666668 1744.61 0.0 0.0 1.0
-92.45743333333333 141.99533333333332 2183.94 0.0 0.0 1.0
-93.23599999999999 153.47966666666665 2183.94 0.0 0.0 1.0
-94.7932 156.59333333333333 2183.94 0.0 0.0 1.0
-93.04136666666666 -160.68133333333333 2183.94 0.0 0.0 1.0
-90.89783333333332 -121.94 1852.63 0.0 0.0 1.0
-94.20926666666666 -139.854 2183.94 0.0 0.0 1.0
-89.87656666666668 -100.65866666666666 1846.91 0.0 0.0 1.0
-94.01460000000002 -114.16066666666666 2183.94 0.0 0.0 1.0
-91.74309999999998 -79.8369 1829.97 0.0 0.0 1.0
-94.40386666666666 -87.10463333333333 2183.94 0.0 0.0 1.0
-93.23599999999999 -70.55963333333334 2183.94 0.0 0.0 1.0
-94.40390000000001 -69.97566666666667 2183.94 0.0 0.0 1.0
-91.34753333333333 -46.605866666666664 1818.84 0.0 0.0 1.0
-92.8 -26.010266666666666 1841.2300000000002 0.0 0.0 1.0
-92.4335 -19.8773 1835.58 0.0 0.0 1.0
-92.9686 -6.727456666666666 1818.84 0.0 0.0 1.0
-91.72693333333332 6.506023333333334 1802.41 0.0 0.0 1.0
-91.72693333333332 6.506023333333334 1802.41 0.0 0.0 1.0
-91.49613333333333 19.88083333333333 1791.6299999999999 -0.44718223731695617 0.8943514257634988 -0.012789599798206952
-93.6253 41.36253333333334 2183.94 0.0 0.0 1.0
-90.76306666666666 41.36546666666667 1802.41 0.0 0.0 1.0
-92.56796666666666 46.16313333333333 1807.8499999999997 5.762199059180158e-28 -1.72865971569901e-27 1.0
-92.56796666666666 46.16313333333333 1807.8499999999997 5.762199059180158e-28 -1.72865971569901e-27 1.0
-95.18246666666668 59.854000000000006 2183.94 0.0 0.0 1.0
-94.59853333333335 79.12406666666666 2183.94 0.0 0.0 1.0
-94.20923333333333 80.4866 2183.94 0.0 0.0 1.0
-89.86303333333335 106.53833333333334 1756.5600000000002 -0.8081958112464731 -0.48493471172254615 0.33415244432777413
-93.6253 -149.00233333333333 2183.94 0.0 0.0 1.0
-90.89783333333332 -121.94 1852.63 0.0 0.0 1.0
-93.6241 -118.38 1864.17 0.0 0.0 1.0
-91.06293333333333 -109.22633333333333 1852.63 0.0 0.0 1.0
-95.76639999999999 -117.08 2183.94 0.0 0.0 1.0
-90.40249999999999 -94.2002 1852.63 0.0 0.0 1.0
-94.40386666666666 -87.10463333333333 2183.94 0.0 0.0 1.0
-94.40386666666666 -87.10463333333333 2183.94 0.0 0.0 1.0
-94.79316666666666 -84.5742 2183.94 0.0 0.0 1.0
-94.79316666666666 -84.5742 2183.94 0.0 0.0 1.0
-94.9878 -82.62773333333332 2183.94 0.0 0.0 1.0
-94.20923333333333 -76.39903333333335 2183.94 0.0 0.0 1.0
-94.20923333333333 -76.39903333333334 2183.94 0.0 0.0 1.0
-93.1307 -52.27963333333333 1818.84 0.0 0.0 1.0
-92.80650000000001 -46.11953333333333 1818.84 0.0 0.0 1.0
-94.20923333333333 -44.866166666666665 2183.94 0.0 0.0 1.0
-92.85793333333334 -31.65856666666667 1826.25 1.0954562312424835e-17 0.9945400683594711 0.10435541398288192
-92.8455 -30.9756 1824.39 0.0 0.0 1.0
-92.8455 -30.9756 1824.39 0.0 0.0 1.0
-92.4335 -19.8773 1835.58 0.0 0.0 1.0
-91.9427 -15.460100000000002 1835.58 0.0 0.0 1.0
-94.01460000000002 -0.48661933333333335 2183.94 0.0 0.0 1.0
-91.72693333333332 6.506023333333334 1802.41 0.0 0.0 1.0
-91.92346666666667 26.666666666666668 1807.8499999999997 -3.456902240637914e-27 6.913804481275779e-27 1.0
-94.59853333333335 40.0 2183.94 0.0 0.0 1.0
-92.4925 54.21423333333333 1797.0 0.0 0.0 1.0
-93.7855 62.18053333333333 1777.43 3.074768867142604e-14 -0.8324212050046016 0.5541434267937201
-96.15570000000001 75.4258 2183.94 0.0 0.0 1.0
-93.81993333333332 82.23843333333333 2183.94 0.0 0.0 1.0
-91.08493333333332 81.25026666666666 1751.42 0.5810878256621033 0.8135030828822898 -0.023445106276136243
-91.35083333333334 88.08553333333333 1744.61 0.0 0.0 1.0
-91.35083333333334 88.08553333333333 1744.61 0.0 0.0 1.0
-91.66179999999999 89.48493333333334 1744.61 0.0 0.0 1.0
-91.53996666666666 103.31400000000001 1749.71 0.0 0.0 1.0
-94.40390000000001 153.67433333333335 2183.94 0.0 0.0 1.0
-95.76643333333334 -140.63266666666667 2183.94 0.0 0.0 1.0
-93.6241 -118.38 1864.17 0.0 0.0 1.0
-96.15569999999998 -122.14133333333332 2183.94 0.0 0.0 1.0
-95.96109999999999 -109.29433333333334 2183.94 0.0 0.0 1.0
-94.79316666666666 -84.5742 2183.94 0.0 0.0 1.0
-91.2195 -68.0488 1824.39 0.0 0.0 1.0
-93.25253333333335 -58.424233333333326 1813.33 0.0 0.0 1.0
-96.15573333333333 -68.22383333333333 2183.94 0.0 0.0 1.0
-92.80650000000001 -46.11953333333333 1818.84 0.0 0.0 1.0
-91.65129999999999 -25.189733333333333 1841.2300000000002 -1.0665732740132263e-27 1.066529945557181e-28 1.0
-91.9427 -15.460100000000002 1835.58 0.0 0.0 1.0
-94.59853333333335 -15.085166666666666 2183.94 0.0 0.0 1.0
-92.5203 -8.373986666666667 1824.39 0.0 0.0 1.0
-97.7129 -8.272506666666667 2183.94 0.0 0.0 1.0
-92.9686 -6.727456666666666 1818.84 0.0 0.0 1.0
-92.19510000000001 -4.308943333333334 1824.39 0.0 0.0 1.0
-95.96106666666667 0.09732366666666666 2183.94 0.0 0.0 1.0
-92.48003333333334 2.9608033333333332 1795.2066666666667 0.9999758379979381 5.31674349347578e-15 0.006951504896119112
-92.012 3.4434400000000003 1797.0 0.0 0.0 1.0
-92.012 3.4434400000000003 1797.0 0.0 0.0 1.0
-92.69073333333334 7.791166666666666 1802.41 0.0 0.0 1.0
-92.69073333333334 7.791166666666666 1802.41 0.0 0.0 1.0
-94.01463333333334 14.890499999999998 2183.94 0.0 0.0 1.0
-91.49613333333333 19.88083333333333 1791.6299999999999 -0.4471822373169562 0.8943514257634988 -0.01278959979820688
-91.92346666666667 26.666666666666668 1807.8499999999997 -3.456902240637914e-27 6.913804481275779e-27 1.0
-95.76639999999999 39.80533333333333 2183.94 0.0 0.0 1.0
-93.69586666666665 41.490433333333335 1807.8499999999997 7.022576828778506e-27 9.785977593690796e-28 1.0
-94.7932 48.36983333333333 2183.94 0.0 0.0 1.0
-92.4925 54.21423333333333 1797.0 0.0 0.0 1.0
-93.7855 62.18053333333333 1777.43 1.803383499790379e-16 -0.832421205004615 0.5541434267936999
-95.1825 89.24573333333335 2183.94 0.0 0.0 1.0
-95.1825 89.24573333333332 2183.94 0.0 0.0 1.0
-95.1825 89.24573333333332 2183.94 0.0 0.0 1.0
-91.73020000000001 74.9951 1754.84 0.0 0.0 1.0
-95.96106666666667 98.19959999999999 2183.94 0.0 0.0 1.0
-95.1825 101.89800000000001 2183.94 0.0 0.0 1.0
-93.29423333333334 83.44086666666665 1754.84 0.0 0.0 1.0
-91.9728 84.66473333333333 1744.61 0.0 0.0 1.0
-93.25536666666666 99.72706666666666 1749.71 0.0 0.0 1.0
-94.40389999999998 137.32333333333335 2183.94 0.0 0.0 1.0
-90.50983333333333 110.50966666666666 1760.0 0.0 0.0 1.0
-96.73963333333332 148.41833333333332 2183.94 0.0 0.0 1.0
-95.5718 154.64733333333334 2183.94 0.0 0.0 1.0
-95.37713333333333 155.62033333333332 2183.94 0.0 0.0 1.0
-95.57176666666668 159.708 2183.94 0.0 0.0 1.0
-94.83693333333333 -123.145 1809.6766666666665 -0.19626669538768537 0.9800763968646798 0.03049000804106328
-96.35036666666667 -132.45766666666665 2183.94 0.0 0.0 1.0
-96.35033333333335 -120.19466666666666 2183.94 0.0 0.0 1.0
-96.93426666666666 -118.44266666666665 2183.94 0.0 0.0 1.0
-95.0511 -85.4806 1835.58 0.0 0.0 1.0
-95.57176666666668 -82.0438 2183.94 0.0 0.0 1.0
-93.25253333333335 -58.424233333333326 1813.33 0.0 0.0 1.0
-93.77913333333333 -53.7386 1818.84 0.0 0.0 1.0
-92.6444 -45.309 1818.84 0.0 0.0 1.0
-93.77913333333333 -42.8774 1818.84 0.0 0.0 1.0
-96.15570000000001 -45.450133333333326 2183.94 0.0 0.0 1.0
-92.9243 -20.040900000000004 1835.58 0.0 0.0 1.0
-92.9243 -20.040900000000004 1835.58 0.0 0.0 1.0
-94.59853333333335 -15.085166666666666 2183.94 0.0 0.0 1.0
-91.9062 -10.1937 1829.97 0.0 0.0 1.0
-96.545 8.46715 2183.94 0.0 0.0 1.0
-92.69073333333334 7.791166666666666 1802.41 0.0 0.0 1.0
-93.97590000000001 14.3775 1802.41 0.0 0.0 1.0
-93.49396666666667 16.1446 1802.41 0.0 0.0 1.0
-95.76640000000002 58.880766666666666 2183.94 0.0 0.0 1.0
-96.35036666666667 61.41120000000001 2183.94 0.0 0.0 1.0
-96.73966666666666 63.94163333333333 2183.94 0.0 0.0 1.0
-92.4925 54.21423333333333 1797.0 0.0 0.0 1.0
-96.545 71.33819999999999 2183.94 0.0 0.0 1.0
-95.37713333333333 78.5401 2183.94 0.0 0.0 1.0
-91.8866 76.08993333333335 1754.84 0.0 0.0 1.0
-91.66180000000001 89.48493333333333 1744.61 0.0 0.0 1.0
-91.53996666666666 103.31400000000001 1749.71 0.0 0.0 1.0
-96.9343 144.91466666666668 2183.94 0.0 0.0 1.0
-95.57176666666668 153.09033333333332 2183.94 0.0 0.0 1.0
-95.57176666666668 156.98266666666666 2183.94 0.0 0.0 1.0
-95.76640000000002 158.34533333333334 2183.94 0.0 0.0 1.0
-95.57176666666668 159.708 2183.94 0.0 0.0 1.0
-97.12896666666666 -159.124 2183.94 0.0 0.0 1.0
-96.9343 -149.58633333333333 2183.94 0.0 0.0 1.0
-91.85186666666668 -102.13999999999999 1846.91 0.0 0.0 1.0
-95.96109999999999 -109.29433333333334 2183.94 0.0 0.0 1.0
-95.96109999999999 -109.29433333333334 2183.94 0.0 0.0 1.0
-91.74309999999998 -79.8369 1829.97 0.0 0.0 1.0
-95.57176666666668 -82.0438 2183.94 0.0 0.0 1.0
-94.22223333333334 -59.87876666666667 1813.33 0.0 0.0 1.0
-96.9343 -68.0292 2183.94 0.0 0.0 1.0
-92.80650000000001 -46.11953333333333 1818.84 0.0 0.0 1.0
-92.8 -26.010266666666666 1841.2300000000002 0.0 0.0 1.0
-94.2331 -22.822099999999995 1835.58 0.0 0.0 1.0
-97.12896666666666 -26.569366666666667 2183.94 0.0 0.0 1.0
-93.90590000000002 -14.1513 1835.58 0.0 0.0 1.0
-94.1896 -8.562703333333333 1829.97 0.0 0.0 1.0
-93.6585 -8.211383333333334 1824.39 0.0 0.0 1.0
-94.98783333333331 6.715333333333334 2183.94 0.0 0.0 1.0
-93.49396666666667 16.1446 1802.41 0.0 0.0 1.0
-92.86206666666665 29.827566666666666 1804.2233333333334 -0.7010082917848598 -0.701008291784866 0.13105246925463468
-95.37713333333333 46.22873333333333 2183.94 0.0 0.0 1.0
-96.35036666666667 61.41120000000001 2183.94 0.0 0.0 1.0
-95.37713333333333 78.5401 2183.94 0.0 0.0 1.0
-93.29423333333334 83.44086666666665 1754.84 0.0 0.0 1.0
-94.98783333333334 126.229 2183.94 0.0 0.0 1.0
-97.12896666666666 137.12866666666665 2183.94 0.0 0.0 1.0
-96.15573333333333 154.25833333333333 2183.94 0.0 0.0 1.0
-97.12896666666666 -159.124 2183.94 0.0 0.0 1.0
-95.1194 -120.37399999999998 1864.17 0.0 0.0 1.0
-97.32356666666665 -117.46933333333334 2183.94 0.0 0.0 1.0
-97.90753333333333 -100.146 2183.94 0.0 0.0 1.0
-96.73963333333332 -88.46716666666667 2183.94 0.0 0.0 1.0
-96.93430000000001 -85.54743333333333 2183.94 0.0 0.0 1.0
-94.22223333333334 -59.87876666666667 1813.33 0.0 0.0 1.0
-96.9343 -68.0292 2183.94 0.0 0.0 1.0
-97.71286666666667 -64.13626666666666 2183.94 0.0 0.0 1.0
-97.32366666666667 -40.778600000000004 2183.94 0.0 0.0 1.0
-92.8455 -30.9756 1824.39 0.0 0.0 1.0
-97.12896666666666 -26.569366666666667 2183.94 0.0 0.0 1.0
-94.2331 -22.822099999999995 1835.58 0.0 0.0 1.0
-93.97590000000001 14.3775 1802.41 0.0 0.0 1.0
-93.49396666666667 16.1446 1802.41 0.0 0.0 1.0
-97.3236 45.255500000000005 2183.94 0.0 0.0 1.0
-93.85699999999999 39.39576666666667 1807.8499999999997 2.748659264068068e-25 -1.7200430999837745e-25 1.0
-96.35036666666666 61.4112 2183.94 0.0 0.0 1.0
-93.49396666666667 55.50203333333334 1802.41 0.0 0.0 1.0
-97.12893333333334 69.19706666666667 2183.94 0.0 0.0 1.0
-96.545 71.33819999999999 2183.94 0.0 0.0 1.0
-97.12893333333334 71.92213333333332 2183.94 0.0 0.0 1.0
-97.51823333333333 74.84186666666666 2183.94 0.0 0.0 1.0
-96.73966666666666 76.39903333333334 2183.94 0.0 0.0 1.0
-93.6832 84.50923333333334 1744.61 0.0 0.0 1.0
-93.25536666666666 99.72706666666666 1749.71 0.0 0.0 1.0
-96.9343 144.91466666666668 2183.94 0.0 0.0 1.0
-96.15573333333333 154.25833333333333 2183.94 0.0 0.0 1.0
-92.9595 -134.829 1864.17 0.0 0.0 1.0
-95.09433333333334 -114.50100000000002 1612.9399999999998 -7.286752014489049e-44 -0.9980525784828884 0.0623782861551807
-94.83693333333333 -123.145 1809.6766666666665 -0.19626669538768537 0.98007639686468 0.030490008041063256
-96.56313333333333 -113.706 1858.39 0.0 0.0 1.0
-92.3839 -111.04233333333332 1852.63 0.0 0.0 1.0
-97.71286666666667 -122.92 2183.94 0.0 0.0 1.0
-96.93426666666666 -121.752 2183.94 0.0 0.0 1.0
-97.5182 -118.24799999999999 2183.94 0.0 0.0 1.0
-97.5182 -118.24799999999999 2183.94 0.0 0.0 1.0
-97.5182 -118.248 2183.94 0.0 0.0 1.0
-96.73966666666666 -109.48899999999999 2183.94 0.0 0.0 1.0
-96.545 -81.26520000000001 2183.94 0.0 0.0 1.0
-97.51823333333333 -68.0292 2183.94 0.0 0.0 1.0
-97.71286666666667 -64.13626666666666 2183.94 0.0 0.0 1.0
-94.2331 -22.822099999999995 1835.58 0.0 0.0 1.0
-94.63413333333334 -8.373986666666667 1824.39 0.0 0.0 1.0
-95.4002 -6.403243333333333 1818.84 0.0 0.0 1.0
-94.63413333333334 -3.3333333333333335 1824.39 0.0 0.0 1.0
-97.12893333333334 10.8029 2183.94 0.0 0.0 1.0
-95.46826666666668 21.0272 1807.8499999999997 0.0 -1.0 0.0
-96.22493333333334 30.281133333333333 1802.41 0.0 0.0 1.0
-98.6861 42.91973333333334 2183.94 0.0 0.0 1.0
-95.30716666666666 43.746199999999995 1807.8499999999997 4.9779392265185594e-27 -9.402774094535138e-27 1.0
-94.82376666666666 44.71296666666666 1807.8499999999997 7.05206340630388e-27 -2.489118366790673e-27 1.0
-96.73963333333334 59.27006666666667 2183.94 0.0 0.0 1.0
-97.71286666666667 69.00240000000001 2183.94 0.0 0.0 1.0
-93.2933 55.65566666666667 1797.0 0.0 0.0 1.0
-96.9343 85.15813333333334 2183.94 0.0 0.0 1.0
-94.09093333333334 69.6212 1700.0 0.0 0.0 1.0
-97.90749999999998 92.7494 2183.94 0.0 0.0 1.0
-97.90749999999998 92.7494 2183.94 0.0 0.0 1.0
-93.25536666666666 99.72706666666666 1749.71 0.0 0.0 1.0
-97.90749999999998 147.83433333333332 2183.94 0.0 0.0 1.0
-98.10216666666666 148.22366666666667 2183.94 0.0 0.0 1.0
-98.1022 -159.124 2183.94 0.0 0.0 1.0
-95.10706666666665 -122.46499999999999 1843.1233333333332 -0.25761334090397703 -0.9445531805453526 0.20360416427457864
-96.11630000000001 -121.371 1864.17 0.0 0.0 1.0
-97.12896666666666 -140.04866666666666 2183.94 0.0 0.0 1.0
-97.12896666666666 -140.04866666666666 2183.94 0.0 0.0 1.0
-96.11630000000001 -118.04766666666666 1864.17 0.0 0.0 1.0
-95.73496666666666 -109.234 1858.39 0.0 0.0 1.0
-98.29683333333332 -123.504 2183.94 0.0 0.0 1.0
-98.68616666666667 -114.74466666666666 2183.94 0.0 0.0 1.0
-97.90753333333333 -100.146 2183.94 0.0 0.0 1.0
-95.56233333333334 -64.924 1818.84 0.0 0.0 1.0
-95.56233333333334 -64.924 1818.84 0.0 0.0 1.0
-94.22223333333334 -59.87876666666667 1813.33 0.0 0.0 1.0
-97.51823333333333 -68.0292 2183.94 0.0 0.0 1.0
-95.88653333333332 -43.363699999999994 1818.84 0.0 0.0 1.0
-98.49149999999999 -47.39663333333334 2183.94 0.0 0.0 1.0
-99.07543333333332 -46.423399999999994 2183.94 0.0 0.0 1.0
-95.77233333333334 -34.22766666666667 1824.39 0.0 0.0 1.0
-97.12896666666666 -26.569366666666667 2183.94 0.0 0.0 1.0
-95.8206 -17.5331 1829.97 0.0 0.0 1.0
-97.12896666666666 -0.29197066666666666 2183.94 0.0 0.0 1.0
-97.12896666666666 -0.29197066666666666 2183.94 0.0 0.0 1.0
-94.28223333333334 9.548826666666669 1800.6066666666666 -0.8556432569933361 -0.4889621937019994 0.16967790042301995
-98.29683333333332 12.360066666666667 2183.94 0.0 0.0 1.0
-94.29719999999999 13.253 1802.41 0.0 0.0 1.0
-94.29720000000002 15.180733333333334 1802.41 0.0 0.0 1.0
-93.85699999999999 39.39576666666667 1807.8499999999997 2.748659264068068e-25 -1.7200430999837745e-25 1.0
-97.51823333333334 64.52556666666666 2183.94 0.0 0.0 1.0
-96.73963333333332 83.4063 2183.94 0.0 0.0 1.0
-94.09093333333334 69.6212 1700.0 0.0 0.0 1.0
-93.29423333333334 83.44086666666665 1754.84 0.0 0.0 1.0
-98.29683333333332 144.52566666666667 2183.94 0.0 0.0 1.0
-94.39613333333334 -133.30266666666668 1877.8266666666666 -5.082772247398385e-17 -0.8208626631724515 0.5711256325970937
-99.27006666666666 -153.869 2183.94 0.0 0.0 1.0
-96.11630000000001 -118.04766666666666 1864.17 0.0 0.0 1.0
-95.73496666666666 -109.234 1858.39 0.0 0.0 1.0
-96.06623333333334 -108.24033333333334 1858.39 0.0 0.0 1.0
-97.90749999999998 -118.44266666666665 2183.94 0.0 0.0 1.0
-96.3599 -85.8078 1835.58 0.0 0.0 1.0
-97.90753333333333 -100.146 2183.94 0.0 0.0 1.0
-100.0487 -96.25303333333333 2183.94 0.0 0.0 1.0
-98.68613333333333 -88.66180000000001 2183.94 0.0 0.0 1.0
-98.10216666666666 -85.3528 2183.94 0.0 0.0 1.0
-98.10216666666666 -85.3528 2183.94 0.0 0.0 1.0
-98.10216666666666 -65.69343333333333 2183.94 0.0 0.0 1.0
-96.03269999999999 -21.3497 1835.58 0.0 0.0 1.0
-95.8206 -17.5331 1829.97 0.0 0.0 1.0
-95.70549999999999 -14.1513 1835.58 0.0 0.0 1.0
-95.44716666666666 -8.373986666666667 1824.39 0.0 0.0 1.0
-95.4002 -6.403243333333333 1818.84 0.0 0.0 1.0
-99.27006666666666 -7.883210000000001 2183.94 0.0 0.0 1.0
-96.7992 -3.01733 1829.97 0.0 0.0 1.0
-94.29720000000002 16.465866666666667 1802.41 0.0 0.0 1.0
-101.2167 22.481800000000003 2183.94 0.0 0.0 1.0
-95.46826666666668 21.0272 1807.8499999999997 0.0 -1.0 0.0
-98.6861 42.91973333333334 2183.94 0.0 0.0 1.0
-95.30716666666667 43.74620000000001 1807.8499999999997 -9.95587845303712e-27 1.880554818907028e-26 1.0
-98.68613333333333 63.55233333333333 2183.94 0.0 0.0 1.0
-93.49396666666667 55.50203333333334 1802.41 0.0 0.0 1.0
-97.71286666666667 69.58636666666666 2183.94 0.0 0.0 1.0
-98.10216666666666 72.70073333333333 2183.94 0.0 0.0 1.0
-98.10216666666666 73.47933333333333 2183.94 0.0 0.0 1.0
-94.09093333333334 69.6212 1700.0 0.0 0.0 1.0
-99.07543333333332 91.9708 2183.94 0.0 0.0 1.0
-97.71293333333334 109.68399999999998 2183.94 0.0 0.0 1.0
-94.9271 91.35083333333334 1744.61 0.0 0.0 1.0
-95.70456666666666 96.32653333333333 1744.61 0.0 0.0 1.0
-100.24316666666665 122.72533333333332 2183.94 0.0 0.0 1.0
-94.48656666666666 107.26466666666666 1748.01 -0.6595867944294356 -0.512961480189257 0.5493776301018708
-100.0487 140.438 2183.94 0.0 0.0 1.0
-99.27006666666666 147.63966666666667 2183.94 0.0 0.0 1.0
-100.0487 158.15066666666667 2183.94 0.0 0.0 1.0
-98.1022 -159.124 2183.94 0.0 0.0 1.0
-99.27006666666666 -153.869 2183.94 0.0 0.0 1.0
-99.07543333333332 -124.28233333333333 2183.94 0.0 0.0 1.0
-98.49146666666667 -118.832 2183.94 0.0 0.0 1.0
-96.3599 -85.8078 1835.58 0.0 0.0 1.0
-100.82736666666666 -76.39903333333334 2183.94 0.0 0.0 1.0
-95.23809999999999 -54.22493333333333 1818.84 0.0 0.0 1.0
-95.5623 -47.2543 1818.84 0.0 0.0 1.0
-95.88653333333332 -43.363699999999994 1818.84 0.0 0.0 1.0
-99.07543333333332 -46.423399999999994 2183.94 0.0 0.0 1.0
-95.0511 -24.130899999999997 1835.58 0.0 0.0 1.0
-100.24336666666666 -11.776133333333334 2183.94 0.0 0.0 1.0
-95.44716666666666 -8.373986666666667 1824.39 0.0 0.0 1.0
-99.27006666666666 -7.883210000000001 2183.94 0.0 0.0 1.0
-95.4002 -6.403243333333333 1818.84 0.0 0.0 1.0
-96.39800000000001 5.970149999999999 1786.2699999999998 -3.027927527227989e-25 -8.654171427770333e-26 1.0
-99.07543333333332 13.7226 2183.94 0.0 0.0 1.0
-95.30716666666667 43.74620000000001 1807.8499999999997 -9.95587845303712e-27 1.880554818907028e-26 1.0
-99.46473333333334 61.60583333333333 2183.94 0.0 0.0 1.0
-99.46473333333334 61.60583333333333 2183.94 0.0 0.0 1.0
-100.43803333333334 101.70333333333333 2183.94 0.0 0.0 1.0
-95.23809999999999 85.28666666666668 1744.61 0.0 0.0 1.0
-99.27006666666666 147.63966666666667 2183.94 0.0 0.0 1.0
-100.24336666666666 149.97566666666668 2183.94 0.0 0.0 1.0
-99.6594 150.75433333333334 2183.94 0.0 0.0 1.0
-99.27006666666666 -153.869 2183.94 0.0 0.0 1.0
-100.63266666666668 -152.117 2183.94 0.0 0.0 1.0
-97.44563333333333 -130.05266666666665 1881.7733333333333 0.8093578154130735 0.5400658605653827 -0.23080033119896004
-93.70483333333334 -122.105 1852.63 0.0 0.0 1.0
-96.78089999999999 -117.383 1864.17 0.0 0.0 1.0
-96.56313333333333 -113.706 1858.39 0.0 0.0 1.0
-97.90753333333333 -134.01466666666667 2183.94 0.0 0.0 1.0
-96.8944 -107.57799999999999 1858.39 0.0 0.0 1.0
-100.0487 -124.67133333333334 2183.94 0.0 0.0 1.0
-100.0487 -120.77866666666667 2183.94 0.0 0.0 1.0
-99.85403333333333 -118.05333333333334 2183.94 0.0 0.0 1.0
-96.37286666666667 -65.73453333333333 1818.84 0.0 0.0 1.0
-97.50759999999998 -53.7386 1818.84 0.0 0.0 1.0
-96.85916666666667 -43.5258 1818.84 0.0 0.0 1.0
-96.37286666666667 -42.87736666666667 1818.84 0.0 0.0 1.0
-99.07543333333332 -46.423399999999994 2183.94 0.0 0.0 1.0
-96.22506666666668 -30.751233333333335 1820.6899999999998 -0.5017015353700035 0.752474935695793 0.42670486352629383
-95.8206 -17.5331 1829.97 0.0 0.0 1.0
-100.52226666666667 -10.192716666666668 1858.4166666666667 9.067022000363224e-16 0.9845781779474241 0.17494516715168326
-99.27006666666666 -7.883210000000001 2183.94 0.0 0.0 1.0
-94.63413333333334 -3.3333333333333335 1824.39 0.0 0.0 1.0
-96.39800000000001 5.970149999999999 1786.2699999999998 -3.027927527227989e-25 -8.654171427770333e-26 1.0
-100.0487 14.306566666666667 2183.94 0.0 0.0 1.0
-96.11276666666667 21.510566666666666 1807.8499999999997 -7.491484657267312e-27 -3.073305289057908e-27 1.0
-96.11276666666667 21.510566666666666 1807.8499999999997 -7.491484657267312e-27 -3.073305289057908e-27 1.0
-97.88623333333334 32.66063333333333 1791.6299999999999 0.8916494213309397 0.4458109822242621 -0.07882815213132147
-100.0487 43.114399999999996 2183.94 0.0 0.0 1.0
-100.0487 61.21653333333334 2183.94 0.0 0.0 1.0
-98.88076666666666 64.91486666666667 2183.94 0.0 0.0 1.0
-100.63266666666668 100.34073333333333 2183.94 0.0 0.0 1.0
-100.43803333333334 101.70333333333333 2183.94 0.0 0.0 1.0
-96.6375 98.1924 1744.61 0.0 0.0 1.0
-96.17103333333334 100.36926666666666 1744.61 0.0 0.0 1.0
-95.8601 102.54599999999999 1744.61 0.0 0.0 1.0
-96.17106666666666 104.101 1744.61 0.0 0.0 1.0
-98.29683333333332 138.29666666666665 2183.94 0.0 0.0 1.0
-99.85406666666665 143.55266666666668 2183.94 0.0 0.0 1.0
-99.27006666666666 147.63966666666667 2183.94 0.0 0.0 1.0
-97.24063333333334 -123.18233333333335 1807.8499999999997 -5.754361359002666e-28 -6.264472431987701e-26 1.0
-101.02199999999999 -149.39166666666668 2183.94 0.0 0.0 1.0
-96.78089999999999 -117.383 1864.17 0.0 0.0 1.0
-97.17789999999998 -86.29860000000001 1835.58 0.0 0.0 1.0
-101.02199999999999 -97.42093333333332 2183.94 0.0 0.0 1.0
-101.022 -96.64233333333334 2183.94 0.0 0.0 1.0
-100.43803333333334 -87.68856666666666 2183.94 0.0 0.0 1.0
-97.50759999999998 -47.092166666666664 1818.84 0.0 0.0 1.0
-100.4381 -32.79806666666667 2183.94 0.0 0.0 1.0
