ply
format ascii 1.0
comment VCGLIB generated
element vertex 748
property float x
property float y
property float z
property float nx
property float ny
property float nz
element face 0
property list uchar int vertex_indices
end_header
-14.628566666666666 86.17143333333333 1709.71 0.0 0.0 1.0
-13.4095 86.4762 1709.71 0.0 0.0 1.0
-14.359 101.57633333333335 1704.84 0.0 0.0 1.0
-10.392723333333333 125.438 1807.8499999999997 0.0 0.0 1.0
-11.5876 129.86933333333332 1793.4133333333332 -0.9773406810895443 3.869551083474735e-16 0.21167237204563488
-8.27586 -114.608 1875.86 0.0 0.0 1.0
-8.944619999999999 -105.747 1875.86 0.0 0.0 1.0
-8.380953333333332 -99.97853333333332 1899.68 0.0 0.0 1.0
-7.1957699999999996 -95.91536666666667 1899.68 0.0 0.0 1.0
-7.36508 -91.3439 1899.68 0.0 0.0 1.0
-11.084333333333333 -48.11246666666667 1802.41 0.0 0.0 1.0
-11.244966666666665 -43.7751 1802.41 0.0 0.0 1.0
-11.131133333333333 -37.3974 1797.0 0.0 0.0 1.0
-13.533566666666665 -28.108099999999997 1797.0 0.0 0.0 1.0
-10.698599999999999 -20.998033333333336 1791.62 0.0 0.0 1.0
-10.427866666666667 -13.930366666666666 1786.2699999999998 -8.851349166752916e-28 7.079782296681215e-27 1.0
-11.0647 -11.5423 1786.2699999999998 -1.967429816670709e-28 1.3772008716694929e-27 1.0
-12.380966666666668 0.23809633333333338 1780.95 0.0 0.0 1.0
-12.539666666666667 8.49206 1780.95 0.0 0.0 1.0
-13.056366666666667 15.113766666666669 1775.67 0.0 0.0 1.0
-11.7903 20.17803333333333 1775.67 0.0 0.0 1.0
-12.1499 22.011833333333332 1770.41 0.0 0.0 1.0
-11.203166666666666 30.059133333333335 1770.41 0.0 0.0 1.0
-12.507366666666664 32.95966666666667 1765.1899999999998 -1.540995121207718e-26 1.6316667488520602e-26 1.0
-12.822033333333335 38.46606666666667 1765.1899999999998 -9.215412304887327e-28 1.1762858002511828e-27 1.0
-14.0996 69.50193333333333 1719.54 0.0 0.0 1.0
-13.767633333333334 70.89966666666668 1716.2533333333333 0.6231229412965414 0.7789206665580026 -0.07071347282366872
-14.5941 78.93026666666667 1714.61 0.0 0.0 1.0
-12.991433333333333 91.39603333333334 1704.84 0.0 0.0 1.0
-14.538733333333333 104.81633333333332 1708.0866666666668 0.9984711846507335 -4.626438752352538e-16 0.05527470870263522
-13.627033333333335 106.94366666666667 1708.0866666666668 0.851051132950039 2.5011816121353e-16 0.5250828211858154
-14.380233333333331 110.209 1716.2533333333333 0.21173183252462502 0.845958622367989 0.4894115245241149
3.309003333333333 148.029 2183.94 0.0 0.0 1.0
-11.865366666666667 126.57599999999998 1798.8033333333333 0.8928675053376895 -0.055804219083605666 0.4468484161821766
3.309003333333333 148.029 2183.94 0.0 0.0 1.0
3.309003333333333 149.00233333333333 2183.94 0.0 0.0 1.0
-10.392723333333333 125.438 1807.8499999999997 0.0 0.0 1.0
-10.553856666666666 126.08233333333334 1807.8499999999997 -6.723390618221808e-28 -9.617773734083277e-29 1.0
-9.910993333333332 129.318 1779.1899999999998 -6.902869933794973e-18 -0.8862254439618357 0.46325420934369
-7.9414733333333345 -134.16933333333336 1875.86 0.0 0.0 1.0
-7.5 -131.25 1870.0 0.0 0.0 1.0
-9.0 -127.25 1870.0 0.0 0.0 1.0
-8.275863333333334 -125.80966666666667 1875.86 0.0 0.0 1.0
-8.10867 -120.29266666666666 1875.86 0.0 0.0 1.0
-8.61024 -118.45333333333333 1875.86 0.0 0.0 1.0
-8.27586 -114.608 1875.86 0.0 0.0 1.0
-6.373163333333333 -103.06066666666668 1881.76 0.0 0.0 1.0
-7.1957699999999996 -95.91536666666667 1899.68 0.0 0.0 1.0
-7.36508 -91.3439 1899.68 0.0 0.0 1.0
-7.703703333333334 -86.77246666666667 1899.68 0.0 0.0 1.0
-8.03419 -75.81196666666666 1917.95 0.0 0.0 1.0
-12.9293 -58.2626 1813.33 0.0 0.0 1.0
-11.198366666666667 -59.21450000000001 1807.8499999999997 -3.3186261510124306e-27 -1.548692203805786e-26 1.0
-11.887566666666666 -42.81123333333333 1802.41 0.0 0.0 1.0
-12.0921 -37.077099999999994 1797.0 0.0 0.0 1.0
-12.455066666666667 -24.510966666666665 1791.62 0.0 0.0 1.0
-11.656666666666666 -19.5609 1791.62 0.0 0.0 1.0
-11.2239 -7.721396666666667 1786.2699999999998 -1.3279873208230585e-27 -5.311838063902281e-27 1.0
-12.338299999999998 -4.855720000000001 1786.2699999999998 1.5072750600499506e-27 -1.6535651291258223e-27 1.0
-12.857166666666666 -0.07936499999999998 1780.95 0.0 0.0 1.0
-12.380966666666666 3.88889 1780.95 0.0 0.0 1.0
-12.222233333333334 11.8254 1780.95 0.0 0.0 1.0
-11.948566666666666 13.689433333333334 1775.67 0.0 0.0 1.0
-12.739866666666666 21.1276 1775.67 0.0 0.0 1.0
-12.1499 22.169633333333334 1770.41 0.0 0.0 1.0
-13.294033333333333 50.26546666666667 1765.1899999999998 0.0 0.0 1.0
-13.294033333333333 50.26546666666667 1765.1899999999998 0.0 0.0 1.0
-14.0996 69.50193333333333 1719.54 0.0 0.0 1.0
-14.865866666666667 72.4138 1719.54 0.0 0.0 1.0
-14.865866666666667 72.4138 1719.54 0.0 0.0 1.0
-14.746899999999998 77.09646666666667 1714.61 0.0 0.0 1.0
-14.207033333333333 97.62583333333333 1704.84 0.0 0.0 1.0
3.309003333333333 149.00233333333333 2183.94 0.0 0.0 1.0
-11.5876 129.86933333333332 1793.4133333333332 -0.9773406810895443 3.049462263794224e-16 0.21167237204563488
-11.5876 129.86933333333332 1793.4133333333332 -0.9773406810895439 7.652653452784033e-15 0.2116723720456365
-9.278996666666666 -124.63933333333334 1875.86 0.0 0.0 1.0
-8.61024 -118.955 1875.86 0.0 0.0 1.0
-7.547166666666667 -109.43400000000001 1881.76 0.0 0.0 1.0
-8.94462 -105.747 1875.86 0.0 0.0 1.0
-9.780566666666667 -105.41266666666667 1875.86 0.0 0.0 1.0
-8.380953333333332 -99.97853333333332 1899.68 0.0 0.0 1.0
-7.873016666666667 -90.83596666666666 1899.68 0.0 0.0 1.0
-7.534393333333334 -86.26453333333332 1899.68 0.0 0.0 1.0
-8.03419 -75.81196666666666 1917.95 0.0 0.0 1.0
-7.802790000000001 -71.94 1924.12 0.0 0.0 1.0
-11.198366666666667 -59.21450000000001 1807.8499999999997 -3.3186261510124306e-27 -1.548692203805786e-26 1.0
-11.887533333333332 -47.95183333333333 1802.41 0.0 0.0 1.0
-12.0482 -43.132533333333335 1802.41 0.0 0.0 1.0
-12.0482 -43.13253333333333 1802.41 0.0 0.0 1.0
-11.887566666666666 -42.81123333333333 1802.41 0.0 0.0 1.0
-12.934133333333333 -23.552900000000005 1791.62 0.0 0.0 1.0
-13.1746 1.9841286666666669 1780.95 0.0 0.0 1.0
-12.6984 7.22222 1780.95 0.0 0.0 1.0
-12.380966666666666 9.92064 1780.95 0.0 0.0 1.0
-12.698400000000001 12.460299999999998 1780.95 0.0 0.0 1.0
-13.333300000000001 12.777766666666666 1780.95 0.0 0.0 1.0
-13.056366666666667 15.113766666666669 1775.67 0.0 0.0 1.0
-12.507366666666668 32.959666666666664 1765.1899999999998 -4.532380942302164e-28 -4.8017596597010616e-32 1.0
-14.237966666666667 47.119 1765.1899999999998 0.0 0.0 1.0
-14.431400000000002 64.54903333333333 1760.0 0.0 0.0 1.0
-14.274533333333332 65.01960000000001 1760.0 0.0 0.0 1.0
-14.865866666666667 72.4138 1719.54 0.0 0.0 1.0
-14.5941 78.93026666666667 1714.61 0.0 0.0 1.0
-16.761933333333335 84.34286666666667 1709.71 0.0 0.0 1.0
-16.638166666666667 100.20909999999999 1704.84 0.0 0.0 1.0
-10.28212 -121.96433333333333 1875.86 0.0 0.0 1.0
-3.6983126666666664 -124.282 2183.94 0.0 0.0 1.0
-8.14577 -71.94 1924.12 0.0 0.0 1.0
-7.97428 -71.7685 1924.12 0.0 0.0 1.0
-8.205129999999999 -72.39313333333332 1917.95 0.0 0.0 1.0
-11.887533333333332 -44.73896666666666 1802.41 0.0 0.0 1.0
-12.455066666666667 -24.510966666666665 1791.62 0.0 0.0 1.0
-12.1357 -19.880266666666667 1791.62 0.0 0.0 1.0
-12.6567 -10.905483333333335 1786.2699999999998 -7.869745011642445e-28 -5.902057741332533e-28 1.0
-12.4975 -10.427866666666667 1786.2699999999998 -2.213358543754541e-28 1.106650308039644e-28 1.0
-12.380966666666666 3.88889 1780.95 0.0 0.0 1.0
-13.174566666666665 5.63492 1780.95 0.0 0.0 1.0
-13.531166666666666 21.444133333333337 1775.67 0.0 0.0 1.0
-14.3953 49.32153333333333 1765.1899999999998 -8.462578790887208e-27 -1.5112205199766924e-26 1.0
-15.969433333333333 76.79083333333334 1714.61 0.0 0.0 1.0
-16.275066666666664 80.7641 1714.61 0.0 0.0 1.0
-17.980966666666664 95.00953333333332 1709.71 0.0 0.0 1.0
-12.166666666666666 -136.41666666666666 1870.0 0.0 0.0 1.0
-10.114943333333335 -132.99900000000002 1875.86 0.0 0.0 1.0
-10.282119999999999 -121.96433333333333 1875.86 0.0 0.0 1.0
-9.058203333333333 -100.65566666666666 1899.68 0.0 0.0 1.0
-9.058203333333333 -100.65566666666666 1899.68 0.0 0.0 1.0
-9.904763333333333 -98.1164 1899.68 0.0 0.0 1.0
-8.54701 -74.7863 1917.95 0.0 0.0 1.0
-8.14577 -71.94 1924.12 0.0 0.0 1.0
-12.725433333333333 -61.84396666666667 1818.84 0.0 0.0 1.0
-12.563299999999998 -61.033433333333335 1818.84 0.0 0.0 1.0
-12.8929 -36.756766666666664 1797.0 0.0 0.0 1.0
-14.014000000000001 -32.2723 1797.0 0.0 0.0 1.0
-13.452733333333333 -6.76617 1786.2699999999998 2.336067180606678e-28 3.5656198529632117e-28 1.0
-13.847666666666669 14.9555 1775.67 0.0 0.0 1.0
-14.955466666666666 25.558866666666663 1775.67 0.0 0.0 1.0
-14.237966666666667 38.46606666666667 1765.1899999999998 2.188687951796598e-27 3.1756912427483903e-27 1.0
-14.237966666666665 45.54573333333334 1765.1899999999998 2.265203476687385e-28 7.303022942093015e-28 1.0
-14.3953 49.32153333333333 1765.1899999999998 -8.462578790887208e-27 -1.5112205199766924e-26 1.0
-14.797666666666666 67.28323333333333 1729.4800000000002 3.4624286981214506e-27 7.08226372542158e-27 1.0
-14.797666666666666 67.28323333333333 1729.4800000000002 3.462428698121444e-27 7.082263725421569e-27 1.0
-16.398466666666664 107.81633333333333 1719.54 0.0 0.0 1.0
-14.990133333333333 117.002 1770.41 0.0 0.0 1.0
2.530413333333333 149.39166666666668 2183.94 0.0 0.0 1.0
-10.566023333333334 -137.61 1881.76 0.0 0.0 1.0
-10.833333333333334 -127.41666666666667 1870.0 0.0 0.0 1.0
-10.282119999999999 -121.96433333333333 1875.86 0.0 0.0 1.0
-3.6983126666666664 -124.282 2183.94 0.0 0.0 1.0
-9.780566666666667 -105.41266666666667 1875.86 0.0 0.0 1.0
-9.566139999999999 -99.13213333333333 1899.68 0.0 0.0 1.0
-11.259253333333334 -82.20106666666665 1899.68 0.0 0.0 1.0
-8.54701 -74.7863 1917.95 0.0 0.0 1.0
-12.563299999999998 -61.033433333333335 1818.84 0.0 0.0 1.0
-12.530133333333334 -43.453833333333336 1802.41 0.0 0.0 1.0
-13.853866666666667 -39.159166666666664 1797.0 0.0 0.0 1.0
-13.853866666666667 -39.159166666666664 1797.0 0.0 0.0 1.0
-13.6937 -37.07706666666667 1797.0 0.0 0.0 1.0
-14.4945 -31.15116666666667 1797.0 0.0 0.0 1.0
-14.126966666666666 1.666668666666667 1780.95 0.0 0.0 1.0
-14.126966666666666 11.8254 1780.95 0.0 0.0 1.0
-13.847666666666669 14.9555 1775.67 0.0 0.0 1.0
-14.638966666666667 20.811066666666665 1775.67 0.0 0.0 1.0
-14.638966666666667 20.969333333333335 1775.67 0.0 0.0 1.0
-14.674566666666669 30.374733333333335 1770.41 0.0 0.0 1.0
-15.6539 40.196666666666665 1765.1899999999998 0.0 0.0 1.0
-14.237966666666665 45.54573333333334 1765.1899999999998 2.265203476687385e-28 7.303022942093015e-28 1.0
-14.395299999999999 49.32153333333334 1765.1899999999998 9.671299085886293e-27 1.57166934077576e-26 1.0
-14.8673 54.0413 1765.1899999999998 1.0 0.0 0.0
-14.8673 54.0413 1765.1899999999998 1.0 0.0 0.0
-14.8673 54.0413 1765.1899999999998 1.0 0.0 0.0
-16.031000000000002 72.48246666666667 1721.1933333333334 0.5376791072482368 0.8065478984529575 0.24572680995336452
-17.164733333333334 73.3333 1719.54 0.0 0.0 1.0
-17.039166666666667 78.01336666666667 1714.61 0.0 0.0 1.0
-16.761933333333335 84.34286666666667 1709.71 0.0 0.0 1.0
-16.914266666666666 88.60949999999998 1709.71 0.0 0.0 1.0
-17.3979 100.20909999999999 1704.84 0.0 0.0 1.0
-16.942066666666665 100.665 1704.84 0.0 0.0 1.0
-16.858233333333335 107.20333333333333 1719.54 0.0 0.0 1.0
-16.398466666666668 107.81633333333333 1719.54 0.0 0.0 1.0
-11.726966666666668 128.43166666666664 1802.42 0.47191785736620284 0.8647258221448161 0.17188015712950838
-11.954033333333333 -129.82233333333332 1875.86 0.0 0.0 1.0
-12.166666666666666 -115.08333333333333 1870.0 0.0 0.0 1.0
-10.449333333333334 -104.74399999999999 1875.86 0.0 0.0 1.0
-10.412709999999999 -97.77776666666666 1899.68 0.0 0.0 1.0
-10.920633333333333 -92.1905 1899.68 0.0 0.0 1.0
-10.581999999999999 -91.68256666666667 1899.68 0.0 0.0 1.0
-11.2102 -81.78343333333333 1905.7300000000002 6.2221799794243184e-27 -8.295968623053994e-27 1.0
-12.725433333333333 -61.84396666666667 1818.84 0.0 0.0 1.0
-14.060633333333334 -55.030300000000004 1813.33 0.0 0.0 1.0
-13.899000000000001 -53.57576666666666 1813.33 0.0 0.0 1.0
-13.293056666666667 -48.741166666666665 1807.8499999999997 1.693555758750549e-27 2.2756877584172053e-27 1.0
-14.939733333333335 -40.8835 1802.41 0.0 0.0 1.0
-13.853866666666667 -38.03803333333334 1797.0 0.0 0.0 1.0
-13.892233333333335 -23.07383333333333 1791.62 0.0 0.0 1.0
-15.01 -16.6866 1791.62 0.0 0.0 1.0
-14.089566666666665 -8.35821 1786.2699999999998 3.835965031533019e-27 1.967245830309094e-27 1.0
-14.248766666666667 -7.084576666666667 1786.2699999999998 3.4425319326410113e-28 -1.9673199703596203e-28 1.0
-14.726366666666665 -4.37811 1786.2699999999998 2.7946278888535442e-27 2.1721150774025686e-27 1.0
-15.203999999999999 -1.1940293333333332 1786.2699999999998 1.6600177492878712e-28 2.2132519577781114e-28 1.0
-15.203999999999999 -1.1940293333333332 1786.2699999999998 1.6600177492878712e-28 2.2132519577781114e-28 1.0
-15.681599999999998 3.5820900000000004 1786.2699999999998 7.046644921458929e-28 -6.1432143526787005e-28 1.0
-14.797233333333333 20.811066666666665 1775.67 0.0 0.0 1.0
-14.797233333333333 20.969333333333335 1775.67 0.0 0.0 1.0
-14.797233333333333 21.444133333333337 1775.67 0.0 0.0 1.0
-14.955466666666666 25.558866666666663 1775.67 0.0 0.0 1.0
-15.058833333333334 65.4902 1760.0 0.0 0.0 1.0
-17.164733333333334 73.3333 1719.54 0.0 0.0 1.0
-16.733533333333334 76.33236666666667 1714.61 0.0 0.0 1.0
-16.733533333333334 76.33236666666667 1714.61 0.0 0.0 1.0
-16.427899999999998 78.77746666666667 1714.61 0.0 0.0 1.0
-18.2617 102.46433333333334 1714.61 0.0 0.0 1.0
-20.14146666666667 108.83133333333335 1758.28 0.2951646551271261 0.4918505078247968 0.8191220326155159
-14.990133333333333 117.002 1770.41 0.0 0.0 1.0
-12.166666666666666 -136.41666666666666 1870.0 0.0 0.0 1.0
-11.954033333333333 -129.82233333333332 1875.86 0.0 0.0 1.0
-12.666666666666666 -116.75 1870.0 0.0 0.0 1.0
-12.166666666666666 -113.91666666666667 1870.0 0.0 0.0 1.0
-10.751310000000002 -101.33300000000001 1899.68 0.0 0.0 1.0
-10.920633333333333 -92.1905 1899.68 0.0 0.0 1.0
-10.07405 -85.58729999999998 1899.68 0.0 0.0 1.0
-11.089933333333335 -84.40213333333332 1899.68 0.0 0.0 1.0
-1.946474 -82.82236666666667 2183.94 0.0 0.0 1.0
-13.983699999999999 -62.1951 1824.39 0.0 0.0 1.0
-14.545466666666668 -57.45453333333333 1813.33 0.0 0.0 1.0
-13.899000000000001 -53.575766666666674 1813.33 0.0 0.0 1.0
-13.899000000000001 -53.575766666666674 1813.33 0.0 0.0 1.0
-14.939733333333331 -40.883500000000005 1802.41 0.0 0.0 1.0
-14.4945 -31.15116666666667 1797.0 0.0 0.0 1.0
-15.295333333333332 -28.4284 1797.0 0.0 0.0 1.0
-13.892233333333335 -23.07383333333333 1791.62 0.0 0.0 1.0
-15.01 -16.6866 1791.62 0.0 0.0 1.0
-14.2857 2.4603186666666668 1780.95 0.0 0.0 1.0
-14.126966666666668 10.873033333333334 1780.95 0.0 0.0 1.0
-15.113733333333334 17.012866666666667 1775.67 0.0 0.0 1.0
-16.094666666666665 27.376733333333334 1770.41 0.0 0.0 1.0
-16.094666666666665 27.376733333333334 1770.41 0.0 0.0 1.0
-15.6539 37.050133333333335 1765.1899999999998 -1.450484825444545e-28 1.208523939982484e-29 1.0
-15.6539 40.196666666666665 1765.1899999999998 0.0 0.0 1.0
-16.000000000000004 65.01959999999998 1760.0 0.0 0.0 1.0
-18.782600000000002 71.343 1734.49 0.0 0.0 1.0
-16.886333333333333 80.7641 1714.61 0.0 0.0 1.0
-16.761933333333335 84.34286666666667 1709.71 0.0 0.0 1.0
-17.3979 100.20909999999999 1704.84 0.0 0.0 1.0
-17.471266666666665 106.897 1719.54 0.0 0.0 1.0
-14.990133333333333 117.002 1770.41 0.0 0.0 1.0
-12.666666666666666 -127.91666666666667 1870.0 0.0 0.0 1.0
-10.920653333333334 -98.79363333333333 1899.68 0.0 0.0 1.0
-11.089966666666667 -98.11636666666668 1899.68 0.0 0.0 1.0
-11.428566666666667 -92.02116666666666 1899.68 0.0 0.0 1.0
-11.259253333333334 -82.20106666666666 1899.68 0.0 0.0 1.0
-11.2102 -81.78343333333333 1905.7300000000002 6.22217997942433e-27 -8.295968623054006e-27 1.0
-13.983699999999999 -62.1951 1824.39 0.0 0.0 1.0
-14.471533333333333 -61.5447 1824.39 0.0 0.0 1.0
-14.060633333333334 -55.030300000000004 1813.33 0.0 0.0 1.0
-14.4945 -31.15116666666667 1797.0 0.0 0.0 1.0
-15.169666666666666 -20.518966666666667 1791.62 0.0 0.0 1.0
-15.968033333333333 -14.770433333333335 1791.62 0.0 0.0 1.0
-15.968033333333333 -13.812366666666668 1791.62 0.0 0.0 1.0
-15.681599999999998 3.5820900000000004 1786.2699999999998 7.04664492145893e-28 -6.1432143526787005e-28 1.0
-16.666700000000002 15.634933333333334 1780.95 0.0 0.0 1.0
-16.3798 19.86153333333333 1775.67 0.0 0.0 1.0
-15.272 20.811066666666665 1775.67 0.0 0.0 1.0
-14.955466666666666 25.558866666666663 1775.67 0.0 0.0 1.0
-15.6539 40.196666666666665 1765.1899999999998 0.0 0.0 1.0
-17.0698 59.5477 1765.1899999999998 0.0 0.0 1.0
-16.94116666666667 64.39216666666665 1760.0 0.0 0.0 1.0
-17.164733333333334 73.3333 1719.54 0.0 0.0 1.0
-19.025766666666666 89.4747 1714.61 0.0 0.0 1.0
-11.954033333333333 -129.82233333333332 1875.86 0.0 0.0 1.0
-12.957166666666666 -121.29566666666666 1875.86 0.0 0.0 1.0
-12.79 -120.794 1875.86 0.0 0.0 1.0
-12.79 -120.794 1875.86 0.0 0.0 1.0
-12.666666666666666 -116.75 1870.0 0.0 0.0 1.0
-13.333333333333334 -116.08333333333333 1870.0 0.0 0.0 1.0
-12.666666666666666 -112.75 1870.0 0.0 0.0 1.0
-13.166666666666666 -111.75 1870.0 0.0 0.0 1.0
-10.751310000000002 -101.33300000000001 1899.68 0.0 0.0 1.0
-11.9365 -91.68253333333332 1899.68 0.0 0.0 1.0
-11.597866666666667 -90.49736666666666 1899.68 0.0 0.0 1.0
-3.1143533333333333 -79.70803333333333 2183.94 0.0 0.0 1.0
-14.014000000000001 -34.834833333333336 1797.0 0.0 0.0 1.0
-16.287433333333333 -17.804366666666667 1791.62 0.0 0.0 1.0
-15.6487 -16.047866666666668 1791.62 0.0 0.0 1.0
-15.681599999999998 -2.78607 1786.2699999999998 3.0499906579664763e-27 1.863589818132071e-27 1.0
-17.830333333333332 34.477333333333334 1770.41 0.0 0.0 1.0
-15.6539 38.623400000000004 1765.1899999999998 -7.253576586165536e-29 6.708636378101124e-28 1.0
-17.069799999999997 56.87316666666666 1765.1899999999998 1.0882367652586988e-26 -4.029494503230348e-28 1.0
-19.1786 91.00286666666666 1714.61 0.0 0.0 1.0
-19.504766666666665 97.1429 1709.71 0.0 0.0 1.0
-18.2617 102.46433333333334 1714.61 0.0 0.0 1.0
-17.471266666666665 106.897 1719.54 0.0 0.0 1.0
-17.5418 113.82466666666666 1765.1899999999998 8.281426106870284e-28 -7.1513383811443535e-28 1.0
-16.725833333333334 117.791 1770.41 0.0 0.0 1.0
-17.699099999999998 120.58999999999999 1765.1899999999998 9.430733476503595e-26 -1.4628555164914005e-25 1.0
-14.333333333333334 -129.75 1870.0 0.0 0.0 1.0
-13.793066666666666 -124.80666666666666 1875.86 0.0 0.0 1.0
-13.2915 -123.469 1875.86 0.0 0.0 1.0
-12.957166666666666 -121.29566666666666 1875.86 0.0 0.0 1.0
-13.5 -117.58333333333333 1870.0 0.0 0.0 1.0
-13.833333333333334 -110.41666666666667 1870.0 0.0 0.0 1.0
-13.833333333333334 -110.41666666666667 1870.0 0.0 0.0 1.0
-12.694333333333333 -97.89140000000002 1911.82 0.0 0.0 1.0
-12.444433333333334 -91.68253333333332 1899.68 0.0 0.0 1.0
-11.259253333333334 -82.20106666666666 1899.68 0.0 0.0 1.0
-11.2102 -81.78343333333333 1905.7300000000002 6.22217997942433e-27 -8.295968623054006e-27 1.0
-3.892943333333333 -89.24573333333335 2183.94 0.0 0.0 1.0
-1.9464740000000003 -82.82236666666667 2183.94 0.0 0.0 1.0
-14.959366666666668 -61.219500000000004 1824.39 0.0 0.0 1.0
-17.057066666666667 -22.342366666666663 1797.0 0.0 0.0 1.0
-15.968033333333333 -14.770433333333335 1791.62 0.0 0.0 1.0
-16.2874 -14.291400000000001 1791.62 0.0 0.0 1.0
-15.968033333333333 -13.812366666666668 1791.62 0.0 0.0 1.0
-15.681566666666663 -11.5423 1786.2699999999998 3.278942898148767e-28 3.4758003043343e-27 1.0
-17.08583333333333 -4.71058 1791.62 0.0 0.0 1.0
-16.9552 -0.39801 1786.2699999999998 -1.278829380835956e-27 2.9510705775041053e-28 1.0
-17.2736 0.716418 1786.2699999999998 8.36649863202974e-28 -3.629832380914224e-28 1.0
-16.568033333333332 28.323466666666665 1770.41 0.0 0.0 1.0
-17.0414 29.270233333333334 1770.41 0.0 0.0 1.0
-17.0414 29.270233333333334 1770.41 0.0 0.0 1.0
-17.988133333333334 36.5286 1770.41 0.0 0.0 1.0
-17.699099999999998 55.61456666666667 1765.1899999999998 -1.2325464492851925e-27 1.7401577649387528e-27 1.0
-17.384433333333334 58.603766666666665 1765.1899999999998 0.0 0.0 1.0
-17.384433333333334 58.603766666666665 1765.1899999999998 0.0 0.0 1.0
-19.616866666666667 82.83526666666667 1719.54 0.0 0.0 1.0
-19.504733333333334 93.02856666666666 1709.71 0.0 0.0 1.0
-18.2617 102.46433333333334 1714.61 0.0 0.0 1.0
-18.178833333333333 105.92366666666668 1721.1933333333334 -5.627806290441584e-16 0.8617555076345166 0.507323806913865
-16.883633333333332 117.002 1770.41 0.0 0.0 1.0
-17.699099999999998 120.58999999999999 1765.1899999999998 9.430733476503595e-26 -1.4628555164914005e-25 1.0
-12.648000000000001 -137.299 1879.7933333333333 2.3455935959102782e-17 0.9877262885703628 0.15619468258239916
-14.127466666666669 -135.674 1875.86 0.0 0.0 1.0
-13.5 -136.25 1870.0 0.0 0.0 1.0
-13.960266666666667 -125.81 1875.86 0.0 0.0 1.0
-14.0 -117.58333333333333 1870.0 0.0 0.0 1.0
-13.833333333333334 -115.58333333333333 1870.0 0.0 0.0 1.0
-15.666666666666666 -105.58333333333333 1870.0 0.0 0.0 1.0
-12.3733 -92.45819999999999 1901.6966666666667 -3.377008853247008e-16 0.9913042940169332 0.13158950058264537
-12.444433333333334 -91.68253333333332 1899.68 0.0 0.0 1.0
-11.9365 -87.61903333333333 1899.68 0.0 0.0 1.0
-12.275133333333335 -81.52383333333331 1899.68 0.0 0.0 1.0
-3.50365 -84.5742 2183.94 0.0 0.0 1.0
-2.7250633333333334 -83.60096666666668 2183.94 0.0 0.0 1.0
-15.6098 -61.3821 1824.39 0.0 0.0 1.0
-14.545466666666668 -57.45453333333333 1813.33 0.0 0.0 1.0
-16.646433333333334 -49.53536666666667 1813.33 0.0 0.0 1.0
-17.6435 -45.67973333333333 1807.8499999999997 -2.3055869170180559e-29 5.070622322058223e-28 1.0
-16.38553333333333 -41.204800000000006 1802.41 0.0 0.0 1.0
-15.295333333333332 -28.4284 1797.0 0.0 0.0 1.0
-16.6368 3.5820899999999996 1786.2699999999998 2.124690735941976e-28 -1.2040032814910597e-27 1.0
-18.069633333333332 10.427866666666667 1786.2699999999998 4.673314579700273e-28 1.5455951364071e-28 1.0
-16.666700000000002 15.634933333333331 1780.95 0.0 0.0 1.0
-16.666700000000002 15.634933333333331 1780.95 0.0 0.0 1.0
-16.3798 19.86153333333333 1775.67 0.0 0.0 1.0
-18.1711 49.1642 1765.1899999999998 7.251809528030073e-27 -2.7195726181711365e-27 1.0
-17.384433333333334 58.603766666666665 1765.1899999999998 0.0 0.0 1.0
-19.00293333333333 67.8006 1754.84 0.0 0.0 1.0
-20.6724 78.9241 1724.5 0.0 0.0 1.0
-19.484233333333336 83.66763333333334 1714.61 0.0 0.0 1.0
-18.895233333333334 90.2857 1709.71 0.0 0.0 1.0
-19.657133333333334 92.57143333333333 1709.71 0.0 0.0 1.0
-19.504733333333334 93.02856666666666 1709.71 0.0 0.0 1.0
-19.504766666666665 97.1429 1709.71 0.0 0.0 1.0
-19.8095 97.60003333333333 1709.71 0.0 0.0 1.0
-18.1711 111.93666666666667 1765.1899999999998 -3.6259047640150856e-26 7.614400004431747e-26 1.0
-15.166666666666666 -137.41666666666666 1870.0 0.0 0.0 1.0
-14.833333333333334 -134.58333333333334 1870.0 0.0 0.0 1.0
-14.333333333333334 -129.75 1870.0 0.0 0.0 1.0
-14.333333333333334 -116.58333333333333 1870.0 0.0 0.0 1.0
-14.333333333333334 -115.75 1870.0 0.0 0.0 1.0
-13.833333333333334 -110.41666666666667 1870.0 0.0 0.0 1.0
-12.694333333333333 -97.89140000000002 1911.82 0.0 0.0 1.0
-12.694333333333333 -97.89140000000002 1911.82 0.0 0.0 1.0
-15.6098 -61.3821 1824.39 0.0 0.0 1.0
-17.426533333333335 -52.27963333333333 1818.84 0.0 0.0 1.0
-16.646433333333334 -49.53536666666667 1813.33 0.0 0.0 1.0
-18.152633333333334 -37.67066666666667 1802.41 0.0 0.0 1.0
-17.6707 -31.726899999999997 1802.41 0.0 0.0 1.0
-17.377399999999998 -23.143166666666662 1797.0 0.0 0.0 1.0
-17.377399999999998 -23.143166666666662 1797.0 0.0 0.0 1.0
-17.2455 -18.4431 1791.62 0.0 0.0 1.0
-15.681566666666663 -11.5423 1786.2699999999998 3.2789428981487674e-28 3.4758003043343e-27 1.0
-17.405199999999997 -7.105786666666667 1791.62 0.0 0.0 1.0
-17.405199999999997 -5.9880233333333335 1791.62 0.0 0.0 1.0
-17.085833333333337 -4.71058 1791.62 0.0 0.0 1.0
-17.2736 0.716418 1786.2699999999998 8.36649863202974e-28 -3.629832380914224e-28 1.0
-16.6368 3.5820899999999996 1786.2699999999998 2.124690735941976e-28 -1.2040032814910597e-27 1.0
-18.228866666666665 7.721393333333334 1786.2699999999998 1.6320818640720178e-27 8.022363295609878e-28 1.0
-18.912000000000003 30.148366666666664 1775.67 0.0 0.0 1.0
-19.272366666666667 45.8604 1765.1899999999998 0.0 0.0 1.0
-18.1711 49.1642 1765.1899999999998 7.251809528030068e-27 -2.719572618171134e-27 1.0
-18.352933333333336 63.7647 1760.0 0.0 0.0 1.0
-19.00293333333333 67.8006 1754.84 0.0 0.0 1.0
-18.7826 71.343 1734.49 0.0 0.0 1.0
-19.616866666666667 80.5364 1719.54 0.0 0.0 1.0
-19.657133333333334 92.57143333333333 1709.71 0.0 0.0 1.0
-19.504766666666665 97.1429 1709.71 0.0 0.0 1.0
-18.328433333333333 110.04899999999999 1765.1899999999998 -2.9068824604926674e-26 -5.826108370923706e-26 1.0
-18.328433333333333 110.04899999999999 1765.1899999999998 -2.9068824604926685e-26 -5.826108370923705e-26 1.0
-18.1711 111.93666666666667 1765.1899999999998 -3.625904764015083e-26 7.614400004431742e-26 1.0
-18.1711 114.454 1765.1899999999998 1.6116270439202654e-27 -9.669079370706496e-27 1.0
-17.1992 117.633 1770.41 0.0 0.0 1.0
-18.777133333333335 123.78699999999999 1770.41 0.0 0.0 1.0
-15.166666666666666 -137.41666666666666 1870.0 0.0 0.0 1.0
-14.333333333333334 -129.75 1870.0 0.0 0.0 1.0
-14.9634 -125.97733333333333 1875.86 0.0 0.0 1.0
-15.632166666666668 -119.95833333333333 1875.86 0.0 0.0 1.0
-14.2279 -100.78803333333333 1911.82 0.0 0.0 1.0
-15.042699999999998 -95.81196666666666 1917.95 0.0 0.0 1.0
-4.476883333333333 -98.3942 2183.94 0.0 0.0 1.0
-17.426533333333335 -52.27963333333333 1818.84 0.0 0.0 1.0
-17.6435 -45.67973333333333 1807.8499999999997 -2.3055869170180559e-29 5.070622322058223e-28 1.0
-18.203599999999998 -7.744509999999999 1791.62 0.0 0.0 1.0
-17.4052 -5.189620000000001 1791.62 0.0 0.0 1.0
-17.884233333333334 -2.7944133333333334 1791.62 0.0 0.0 1.0
-17.4328 -0.557214 1786.2699999999998 -1.37720087166949e-27 -1.1804282310016412e-27 1.0
-17.7512 0.23880599999999996 1786.2699999999998 -2.1248242020043617e-26 5.31192703950738e-27 1.0
-18.2789 24.2928 1775.67 0.0 0.0 1.0
-18.2789 24.2928 1775.67 0.0 0.0 1.0
-18.7537 25.242366666666666 1775.67 0.0 0.0 1.0
-17.830333333333332 33.530566666666665 1770.41 0.0 0.0 1.0
-18.4615 34.003933333333336 1770.41 0.0 0.0 1.0
-17.988133333333334 35.26626666666667 1770.41 0.0 0.0 1.0
-17.988133333333334 36.528600000000004 1770.41 0.0 0.0 1.0
-18.957733333333334 47.43363333333334 1765.1899999999998 -3.2631990453813277e-26 4.351085716817968e-26 1.0
-18.957733333333334 47.43363333333334 1765.1899999999998 -3.263199045381324e-26 4.3510857168179643e-26 1.0
-19.45096666666667 65.17646666666667 1760.0 0.0 0.0 1.0
-19.78493333333333 74.5259 1754.84 0.0 0.0 1.0
-19.310333333333332 77.318 1719.54 0.0 0.0 1.0
-20.5364 84.21456666666667 1719.54 0.0 0.0 1.0
-21.470866666666666 86.26553333333334 1714.61 0.0 0.0 1.0
-18.485766666666667 109.26266666666668 1765.1899999999998 -3.486280663162489e-27 2.3225468920433274e-27 1.0
-18.328433333333333 110.04899999999999 1765.1899999999998 -2.906882460492669e-26 -5.826108370923706e-26 1.0
-18.8004 111.93666666666667 1765.1899999999998 1.611399396905149e-27 2.2560957583454416e-26 1.0
-18.777133333333335 123.78699999999999 1770.41 0.0 0.0 1.0
-15.666666666666666 -105.58333333333333 1870.0 0.0 0.0 1.0
-14.2279 -100.78803333333333 1911.82 0.0 0.0 1.0
-5.839416666666666 -101.70333333333333 2183.94 0.0 0.0 1.0
-5.060826666666666 -96.25303333333333 2183.94 0.0 0.0 1.0
-5.060823333333333 -91.5815 2183.94 0.0 0.0 1.0
-5.060823333333333 -87.49393333333335 2183.94 0.0 0.0 1.0
-4.866176666666667 -86.32603333333333 2183.94 0.0 0.0 1.0
-16.646433333333334 -49.53536666666667 1813.33 0.0 0.0 1.0
-17.6707 -31.726899999999997 1802.41 0.0 0.0 1.0
-18.15263333333333 -30.441766666666666 1802.41 0.0 0.0 1.0
-17.057066666666667 -22.342366666666663 1797.0 0.0 0.0 1.0
-17.910433333333334 1.0348253333333333 1786.2699999999998 -1.3281266843874053e-29 -2.656012457134397e-29 1.0
-18.8657 6.606963333333333 1786.2699999999998 1.0820802201845154e-27 -2.951045862032366e-27 1.0
-18.069666666666667 7.084576666666667 1786.2699999999998 1.0179299307899957e-26 -7.081783505384107e-27 1.0
-19.901666666666667 51.68143333333333 1765.1899999999998 -8.702355822509262e-28 -2.1758962666180586e-28 1.0
-19.587 54.19863333333333 1765.1899999999998 0.0 0.0 1.0
-18.800366666666665 58.446433333333324 1765.1899999999998 1.5953059121471497e-25 -5.909564132735639e-25 1.0
-18.7826 71.343 1734.49 0.0 0.0 1.0
-21.165266666666668 93.14230000000002 1714.61 0.0 0.0 1.0
-21.455933333333334 94.02296666666666 1719.54 0.0 0.0 1.0
-19.272333333333336 120.43266666666666 1765.1899999999998 1.096608721047812e-28 -3.194075504401841e-27 1.0
-15.166666666666666 -137.41666666666666 1870.0 0.0 0.0 1.0
-16.0 -133.91666666666666 1870.0 0.0 0.0 1.0
-15.632166666666665 -119.95833333333333 1875.86 0.0 0.0 1.0
-15.666666666666666 -116.91666666666667 1870.0 0.0 0.0 1.0
-5.450119999999999 -92.36009999999999 2183.94 0.0 0.0 1.0
-5.060823333333333 -91.5815 2183.94 0.0 0.0 1.0
-5.060823333333333 -87.49393333333335 2183.94 0.0 0.0 1.0
-5.060823333333333 -87.49393333333335 2183.94 0.0 0.0 1.0
-5.060823333333333 -86.32603333333333 2183.94 0.0 0.0 1.0
-6.423356666666666 -79.90266666666666 2183.94 0.0 0.0 1.0
-18.7234 -56.65656666666666 1818.84 0.0 0.0 1.0
-17.831333333333337 -40.4016 1802.41 0.0 0.0 1.0
-18.152633333333334 -30.441766666666666 1802.41 0.0 0.0 1.0
-18.15263333333333 -30.441766666666666 1802.41 0.0 0.0 1.0
-19.459433333333333 -18.97896666666667 1797.0 0.0 0.0 1.0
-17.2455 -18.4431 1791.62 0.0 0.0 1.0
-17.884233333333334 -2.7944133333333334 1791.62 0.0 0.0 1.0
-18.228866666666665 7.721393333333334 1786.2699999999998 1.6320818640720178e-27 8.022363295609878e-28 1.0
-18.753733333333333 31.256199999999996 1775.67 0.0 0.0 1.0
-18.753733333333333 31.256199999999996 1775.67 0.0 0.0 1.0
-19.4297 46.804333333333325 1765.1899999999998 3.1424337279822843e-26 -3.384143637518054e-26 1.0
-19.587 54.19863333333333 1765.1899999999998 0.0 0.0 1.0
-18.800366666666665 58.446433333333324 1765.1899999999998 1.5953059121471497e-25 -5.909564132735639e-25 1.0
-19.78493333333333 74.5259 1754.84 0.0 0.0 1.0
-19.9618 73.42703333333333 1736.17 6.741453717824727e-17 -0.6874381426254427 0.7262429346049994
-21.165233333333333 85.043 1714.61 0.0 0.0 1.0
-21.9157 91.57086666666667 1719.54 0.0 0.0 1.0
-21.165266666666668 93.14230000000002 1714.61 0.0 0.0 1.0
-21.165266666666668 93.14229999999999 1714.61 0.0 0.0 1.0
-19.587033333333334 111.622 1765.1899999999998 -6.044028252854628e-28 6.044028252854697e-28 1.0
-19.272366666666667 114.13933333333334 1765.1899999999998 -2.7567019509276166e-25 3.772108957442083e-25 1.0
-19.881666666666664 127.574 1770.41 0.0 0.0 1.0
-16.4681 -125.81 1875.86 0.0 0.0 1.0
-15.96653333333333 -121.46300000000001 1875.86 0.0 0.0 1.0
-15.632166666666665 -119.95833333333333 1875.86 0.0 0.0 1.0
-15.666666666666666 -116.91666666666667 1870.0 0.0 0.0 1.0
-16.833333333333332 -103.41666666666667 1870.0 0.0 0.0 1.0
-14.2279 -100.78803333333333 1911.82 0.0 0.0 1.0
-6.034063333333333 -102.87133333333334 2183.94 0.0 0.0 1.0
-5.839416666666666 -93.52796666666666 2183.94 0.0 0.0 1.0
-6.423356666666666 -79.90266666666666 2183.94 0.0 0.0 1.0
-16.5854 -61.5447 1824.39 0.0 0.0 1.0
-7.980526666666667 -49.343066666666665 2183.94 0.0 0.0 1.0
-17.992 -39.11646666666667 1802.41 0.0 0.0 1.0
-18.634566666666668 -36.064233333333334 1802.41 0.0 0.0 1.0
-20.119766666666667 -11.417133333333332 1791.62 0.0 0.0 1.0
-20.457700000000003 15.840800000000002 1786.2699999999998 -3.1970734520898856e-28 9.099362902102025e-28 1.0
-20.793666666666667 20.714299999999998 1780.95 0.0 0.0 1.0
-19.703266666666668 25.8754 1775.67 0.0 0.0 1.0
-17.988166666666668 28.79686666666667 1770.41 0.0 0.0 1.0
-20.494566666666667 29.040533333333332 1775.67 0.0 0.0 1.0
-20.216333333333335 46.64703333333333 1765.1899999999998 -8.057566142255536e-28 -2.0143915355638683e-28 1.0
-19.901666666666667 51.68143333333333 1765.1899999999998 -8.702355822509266e-28 -2.175896266618058e-28 1.0
-19.587 54.19863333333333 1765.1899999999998 0.0 0.0 1.0
-21.176466666666666 63.29409999999999 1760.0 0.0 0.0 1.0
-20.410566666666668 67.6442 1754.84 0.0 0.0 1.0
-20.723366666666667 73.58749999999999 1754.84 0.0 0.0 1.0
-20.09776666666667 77.18476666666668 1754.84 0.0 0.0 1.0
-21.4409 80.4611 1724.5 0.0 0.0 1.0
-21.4409 80.4611 1724.5 0.0 0.0 1.0
-21.4409 80.4611 1724.5 0.0 0.0 1.0
-22.068966666666668 91.11110000000001 1719.54 0.0 0.0 1.0
-22.117666666666665 104.86266666666667 1760.0 0.0 0.0 1.0
-7.591243333333334 126.61800000000001 2183.94 0.0 0.0 1.0
-19.744333333333334 113.19533333333334 1765.1899999999998 1.8129523820075127e-27 1.812952382007486e-27 1.0
-20.67063333333333 124.10233333333333 1770.41 0.0 0.0 1.0
-19.881666666666664 127.574 1770.41 0.0 0.0 1.0
-16.468099999999996 -121.12866666666666 1875.86 0.0 0.0 1.0
-17.666666666666668 -110.91666666666667 1870.0 0.0 0.0 1.0
-17.833333333333332 -107.75 1870.0 0.0 0.0 1.0
-5.64477 -94.69586666666667 2183.94 0.0 0.0 1.0
-18.561300000000003 -57.7913 1818.84 0.0 0.0 1.0
-7.980526666666667 -49.343066666666665 2183.94 0.0 0.0 1.0
-19.116466666666668 -33.493966666666665 1802.41 0.0 0.0 1.0
-20.080333333333332 -28.514066666666665 1802.41 0.0 0.0 1.0
-19.779766666666667 -16.8969 1797.0 0.0 0.0 1.0
-19.1617 -8.223549999999998 1791.62 0.0 0.0 1.0
-18.547233333333335 -0.238806 1786.2699999999998 -3.319690267772456e-28 2.7665591548735406e-29 1.0
-20.2985 6.44776 1786.2699999999998 0.0 1.0 0.0
-20.2985 12.1791 1786.2699999999998 0.0 1.0 0.0
-20.688333333333333 38.938066666666664 1765.1899999999998 0.0 0.0 1.0
-20.845633333333335 39.2527 1765.1899999999998 -3.6266730862597846e-27 -3.6270573491424404e-27 1.0
-21.002966666666666 52.7827 1765.1899999999998 1.813336543129893e-27 1.9213144131444543e-31 1.0
-21.317633333333333 60.64896666666667 1765.1899999999998 0.0 0.0 1.0
-21.505399999999998 72.17986666666667 1754.84 0.0 0.0 1.0
-21.036199999999997 77.02836666666667 1754.84 0.0 0.0 1.0
-19.587033333333334 111.622 1765.1899999999998 -6.044028252854627e-28 6.044028252854696e-28 1.0
-19.881666666666664 127.574 1770.41 0.0 0.0 1.0
-18.166666666666668 -133.75 1870.0 0.0 0.0 1.0
-18.833333333333332 -128.91666666666666 1870.0 0.0 0.0 1.0
-18.333333333333332 -112.75 1870.0 0.0 0.0 1.0
-17.666666666666668 -110.41666666666667 1870.0 0.0 0.0 1.0
-16.666666666666668 -106.41666666666667 1870.0 0.0 0.0 1.0
-16.410233333333334 -97.69233333333334 1917.95 0.0 0.0 1.0
-16.410233333333334 -97.69233333333334 1917.95 0.0 0.0 1.0
-5.839416666666666 -101.70333333333333 2183.94 0.0 0.0 1.0
-5.839413333333333 -87.68856666666666 2183.94 0.0 0.0 1.0
-6.423356666666667 -85.15816666666666 2183.94 0.0 0.0 1.0
-6.423356666666667 -85.15816666666666 2183.94 0.0 0.0 1.0
-7.980536666666667 -74.64723333333335 2183.94 0.0 0.0 1.0
-18.7234 -56.65656666666666 1818.84 0.0 0.0 1.0
-19.2097 -55.683899999999994 1818.84 0.0 0.0 1.0
-19.2097 -55.683899999999994 1818.84 0.0 0.0 1.0
-17.6435 -45.67973333333333 1807.8499999999997 -2.3055869170180559e-29 5.070622322058223e-28 1.0
-19.939933333333332 -19.459466666666668 1797.0 0.0 0.0 1.0
-19.779766666666667 -16.8969 1797.0 0.0 0.0 1.0
-19.779766666666667 -16.8969 1797.0 0.0 0.0 1.0
-19.640733333333333 -15.2495 1791.62 0.0 0.0 1.0
-20.119766666666667 -11.417133333333332 1791.62 0.0 0.0 1.0
-20.5988 -8.542913333333333 1791.62 0.0 0.0 1.0
-21.0945 5.014926666666667 1786.2699999999998 7.968350280293857e-27 1.2394807845025702e-26 1.0
-20.2985 6.44776 1786.2699999999998 0.0 1.0 0.0
-20.2985 12.1791 1786.2699999999998 0.0 1.0 0.0
-20.457700000000003 15.840800000000002 1786.2699999999998 -3.197073452089886e-28 9.099362902102025e-28 1.0
-20.494566666666667 29.040533333333332 1775.67 0.0 0.0 1.0
-20.811066666666665 34.579633333333334 1775.67 0.0 0.0 1.0
-21.002966666666666 38.938066666666664 1765.1899999999998 2.4174405899981518e-27 1.2084641740168117e-27 1.0
-21.002966666666666 46.961666666666666 1765.1899999999998 -3.148056991112298e-11 -3.148056991112293e-11 1.0
-21.00296666666667 52.7827 1765.1899999999998 -3.626673086259786e-27 -3.8426288262889126e-31 1.0
-21.1603 60.96359999999999 1765.1899999999998 -3.143816922408485e-26 -3.38557805252267e-26 1.0
-7.980536666666667 83.01703333333333 2183.94 0.0 0.0 1.0
-21.176466666666666 63.29410000000001 1760.0 0.0 0.0 1.0
-20.5364 84.21456666666667 1719.54 0.0 0.0 1.0
-21.470866666666666 86.26553333333334 1714.61 0.0 0.0 1.0
-22.2222 92.33713333333333 1719.54 0.0 0.0 1.0
-7.591243333333334 126.61800000000001 2183.94 0.0 0.0 1.0
-21.647066666666664 106.11766666666666 1760.0 0.0 0.0 1.0
-20.21636666666667 108.00433333333332 1765.1899999999998 -6.3818873870702146e-27 -5.946489958846091e-26 1.0
-20.21636666666667 108.00433333333332 1765.1899999999998 -6.3818873870702146e-27 -5.946489958846091e-26 1.0
-20.35503333333333 118.42199999999998 1770.41 0.0 0.0 1.0
-20.67063333333333 124.10233333333333 1770.41 0.0 0.0 1.0
-21.6323 125.62466666666667 1765.1899999999998 -4.532861118268142e-28 4.532621030285166e-28 1.0
-21.6323 125.62466666666667 1765.1899999999998 -4.532861118268142e-28 4.532621030285166e-28 1.0
-18.166666666666668 -133.75 1870.0 0.0 0.0 1.0
-17.606866666666665 -101.62393333333334 1917.95 0.0 0.0 1.0
-16.613433333333333 -99.42483333333332 1911.82 0.0 0.0 1.0
-7.591243333333334 -103.65000000000002 2183.94 0.0 0.0 1.0
-8.953773333333332 -90.02433333333333 2183.94 0.0 0.0 1.0
-7.980536666666667 -74.64723333333335 2183.94 0.0 0.0 1.0
-19.3771 -44.30386666666667 1804.2233333333334 -0.9123731034993676 0.36494545506935233 0.1854457733008633
-19.13416666666667 -41.57150000000001 1811.5033333333333 0.7616162657728146 -0.25385463433940497 0.5962369397602605
-20.56226666666667 -33.815266666666666 1802.41 0.0 0.0 1.0
-20.883533333333332 -29.7992 1802.41 0.0 0.0 1.0
-19.459433333333333 -21.38136666666667 1797.0 0.0 0.0 1.0
-20.2985 6.44776 1786.2699999999998 0.0 1.0 0.0
-20.7761 12.0199 1786.2699999999998 0.0 0.0 1.0
-19.703266666666668 25.8754 1775.67 0.0 0.0 1.0
-21.444100000000002 29.040533333333332 1775.67 0.0 0.0 1.0
-21.002966666666666 39.09536666666666 1765.1899999999998 1.8133365431298923e-27 -9.605554312554433e-32 1.0
-21.317600000000002 52.62536666666666 1765.1899999999998 4.351085684253299e-26 -3.2632374513184193e-26 1.0
-21.317600000000002 52.62536666666666 1765.1899999999998 4.351085684253307e-26 -3.263237451318422e-26 1.0
-7.980536666666667 83.01703333333333 2183.94 0.0 0.0 1.0
-21.505399999999998 72.17986666666667 1754.84 0.0 0.0 1.0
-21.349 73.11829999999999 1754.84 0.0 0.0 1.0
-21.6618 74.9951 1754.84 0.0 0.0 1.0
-21.902 82.30546666666667 1724.5 0.0 0.0 1.0
-22.988500000000002 92.03063333333334 1719.54 0.0 0.0 1.0
-19.272333333333332 120.43266666666666 1765.1899999999998 3.9756640908169274e-28 -3.4202739269688824e-27 1.0
-21.301766666666666 124.10233333333333 1770.41 0.0 0.0 1.0
-17.805633333333336 -135.33966666666666 1875.86 0.0 0.0 1.0
-18.80876666666667 -124.97366666666669 1875.86 0.0 0.0 1.0
-18.666666666666668 -112.25 1870.0 0.0 0.0 1.0
-18.166666666666668 -111.25 1870.0 0.0 0.0 1.0
-18.333333333333332 -109.75 1870.0 0.0 0.0 1.0
-18.333333333333332 -103.58333333333333 1870.0 0.0 0.0 1.0
-17.70253333333333 -102.382 1909.79 0.9846650851259244 0.16412154923911723 0.059150546990777646
-6.423356666666666 -79.90266666666666 2183.94 0.0 0.0 1.0
-19.8968 -49.45303333333334 1852.63 0.0 0.0 1.0
-19.13416666666667 -41.57150000000001 1811.5033333333333 0.7616162657728147 -0.25385463433940464 0.5962369397602605
-20.883533333333332 -27.71083333333333 1802.41 0.0 0.0 1.0
-20.240966666666665 -27.389566666666667 1802.41 0.0 0.0 1.0
-21.7017 -23.78376666666667 1797.0 0.0 0.0 1.0
-20.119766666666667 -11.417133333333332 1791.62 0.0 0.0 1.0
-21.890533333333334 1.034826 1786.2699999999998 -8.189491490955913e-27 2.0806916098171196e-26 1.0
-21.0945 5.014926666666667 1786.2699999999998 7.968350280293857e-27 1.2394807845025702e-26 1.0
-20.7761 12.0199 1786.2699999999998 0.0 0.0 1.0
-21.4286 21.031766666666666 1780.95 0.0 0.0 1.0
-21.587333333333333 21.507966666666665 1780.95 0.0 0.0 1.0
-21.587333333333333 21.507966666666665 1780.95 0.0 0.0 1.0
-22.418866666666663 43.972433333333335 1765.1899999999998 3.492200073722481e-27 -2.014733000058142e-27 1.0
-21.3176 44.9164 1765.1899999999998 -4.533181258187483e-28 9.065882306495957e-28 1.0
-20.845633333333335 47.27633333333333 1765.1899999999998 -1.6115132284511068e-27 -2.820276196714043e-27 1.0
-21.474933333333336 52.94 1765.1899999999998 -3.626673086259813e-27 -3.8426288261533317e-31 1.0
-21.789599999999997 61.12093333333333 1765.1899999999998 2.6109833222496126e-27 -1.3053994458502687e-27 1.0
-21.64703333333333 62.50976666666667 1760.0 0.0 0.0 1.0
-22.131 67.95700000000001 1754.84 0.0 0.0 1.0
-23.547733333333337 68.84993333333334 1749.71 0.0 0.0 1.0
-23.2407 91.1979 1721.1933333333334 0.9477640067295267 -0.31594424004512256 -0.04384774487135235
-22.682 91.26436666666666 1719.54 0.0 0.0 1.0
-21.301766666666666 124.10233333333333 1770.41 0.0 0.0 1.0
-18.73 -133.77733333333333 1868.0566666666666 1.725140422435551e-16 -0.9999011000280781 0.014063789056997724
-18.166666666666668 -133.75 1870.0 0.0 0.0 1.0
-18.975966666666668 -123.97066666666666 1875.86 0.0 0.0 1.0
-18.975966666666668 -123.46933333333334 1875.86 0.0 0.0 1.0
-20.0 -117.58333333333333 1870.0 0.0 0.0 1.0
-19.333333333333332 -116.91666666666667 1870.0 0.0 0.0 1.0
-18.333333333333332 -112.75 1870.0 0.0 0.0 1.0
-18.333333333333332 -109.75 1870.0 0.0 0.0 1.0
-18.658166666666666 -102.49166666666667 1911.82 0.0 0.0 1.0
-16.410233333333334 -97.69233333333334 1917.95 0.0 0.0 1.0
-8.759123333333333 -105.01233333333333 2183.94 0.0 0.0 1.0
-8.175183333333333 -94.69583333333333 2183.94 0.0 0.0 1.0
-21.267899999999997 -46.053200000000004 1835.58 0.0 0.0 1.0
-20.883533333333332 -29.7992 1802.41 0.0 0.0 1.0
-20.883533333333332 -29.7992 1802.41 0.0 0.0 1.0
-21.861866666666668 -18.4985 1797.0 0.0 0.0 1.0
-22.674666666666667 -6.307383333333334 1791.62 0.0 0.0 1.0
-21.890533333333334 1.034826 1786.2699999999998 -8.189491490955913e-27 2.0806916098171196e-26 1.0
-21.572100000000002 5.651743333333333 1786.2699999999998 -2.478961569005063e-26 -7.082599044389619e-27 1.0
-21.57213333333333 6.606963333333333 1786.2699999999998 4.426642939696627e-27 7.526067829122277e-27 1.0
-21.731333333333335 13.611933333333333 1786.2699999999998 -1.017890880885931e-17 -6.7860576067118304e-18 1.0
-21.572133333333337 15.5224 1786.2699999999998 -8.734607396132966e-28 -4.406607815337409e-28 1.0
-21.587333333333333 21.507966666666665 1780.95 0.0 0.0 1.0
-22.890866666666664 56.401166666666676 1765.1899999999998 3.6257511131316077e-26 2.1753892147601358e-26 1.0
-23.2055 57.97443333333333 1765.1899999999998 4.0284984922628425e-28 -2.8201196979317593e-27 1.0
-22.5762 61.12093333333333 1765.1899999999998 0.0 0.0 1.0
-22.901933333333332 62.50976666666667 1760.0 0.0 0.0 1.0
-23.0694 75.7771 1754.84 0.0 0.0 1.0
-23.695000000000004 81.8768 1754.84 0.0 0.0 1.0
-20.35503333333333 118.42199999999998 1770.41 0.0 0.0 1.0
-19.166666666666668 -130.08333333333334 1870.0 0.0 0.0 1.0
-19.833333333333332 -128.08333333333334 1870.0 0.0 0.0 1.0
-19.143133333333335 -123.97066666666666 1875.86 0.0 0.0 1.0
-19.310333333333336 -123.135 1875.86 0.0 0.0 1.0
-19.143133333333335 -122.46633333333334 1875.86 0.0 0.0 1.0
-17.4654 -100.61746666666666 1911.82 0.0 0.0 1.0
-8.953773333333332 -104.03933333333333 2183.94 0.0 0.0 1.0
-9.732363333333334 -93.7226 2183.94 0.0 0.0 1.0
-8.953773333333332 -90.02433333333333 2183.94 0.0 0.0 1.0
-8.759126666666667 -74.25793333333333 2183.94 0.0 0.0 1.0
-8.759126666666667 -74.25793333333333 2183.94 0.0 0.0 1.0
-20.820399999999996 -52.5438 1839.3466666666666 -7.496132434855222e-17 0.8099202832237705 0.5865399686489637
-19.896800000000002 -49.45303333333334 1852.63 0.0 0.0 1.0
-20.103466666666666 -48.396166666666666 1856.47 -1.2126219235624656e-16 -0.9740801686802758 0.22620306139353127
-20.4538 -48.41416666666667 1850.7233333333334 2.3183932645786535e-16 0.9090929133139976 0.4165934168494127
-22.168666666666667 -32.53013333333333 1802.41 0.0 0.0 1.0
-21.861866666666668 -18.4985 1797.0 0.0 0.0 1.0
-21.5569 -8.862276666666666 1791.62 0.0 0.0 1.0
-22.368166666666667 6.766166666666667 1786.2699999999998 8.854175653142536e-28 3.0989429546487666e-27 1.0
-22.551933333333334 29.51533333333333 1775.67 0.0 0.0 1.0
-20.811066666666665 34.579633333333334 1775.67 0.0 0.0 1.0
-22.890866666666664 56.401166666666676 1765.1899999999998 3.6257511131316134e-26 2.175389214760139e-26 1.0
-22.890866666666664 60.019666666666666 1765.1899999999998 1.450976661095795e-26 -1.0881556432444525e-26 1.0
-7.980536666666667 83.01703333333333 2183.94 0.0 0.0 1.0
-24.778766666666666 113.98199999999999 1765.1899999999998 2.1756965092924475e-26 -8.7021714336362e-26 1.0
-23.520166666666665 125.15266666666666 1765.1899999999998 -8.062119042366711e-28 -2.2158619940010916e-26 1.0
-20.14626666666667 -131.15966666666668 1875.86 0.0 0.0 1.0
-20.313466666666667 -130.65833333333333 1875.86 0.0 0.0 1.0
-19.310333333333336 -123.135 1875.86 0.0 0.0 1.0
-20.0 -117.58333333333333 1870.0 0.0 0.0 1.0
-19.166666666666668 -106.25 1870.0 0.0 0.0 1.0
-19.166666666666668 -106.25 1870.0 0.0 0.0 1.0
-10.316293333333334 -103.65000000000002 2183.94 0.0 0.0 1.0
-8.953773333333332 -90.02433333333333 2183.94 0.0 0.0 1.0
-21.1418 -55.202133333333336 1824.3999999999999 0.4363096077423122 -0.8706764219787504 0.22706055228073074
-20.557266666666667 -49.45303333333334 1852.63 0.0 0.0 1.0
-20.103466666666666 -48.396166666666666 1856.47 5.254695002103622e-16 -0.9740801686802756 0.22620306139353147
-20.90533333333333 -41.56379999999999 1846.91 0.0 0.0 1.0
-22.168666666666667 -33.1727 1802.41 0.0 0.0 1.0
-21.861866666666668 -18.4985 1797.0 0.0 0.0 1.0
-22.674666666666667 -8.542916666666668 1791.62 0.0 0.0 1.0
-23.164199999999997 0.8756219999999999 1786.2699999999998 1.3501503800090484e-26 1.9919759763690044e-26 1.0
-22.8458 6.2885566666666675 1786.2699999999998 -2.6560117155523285e-27 3.319935863068903e-27 1.0
-22.049733333333336 15.044766666666666 1786.2699999999998 -2.6554793690275468e-27 -9.83852189633891e-29 1.0
-22.0635 21.34923333333333 1780.95 0.0 0.0 1.0
-23.048166666666663 43.343133333333334 1765.1899999999998 2.175542858408973e-26 -7.613939084334267e-26 1.0
-23.8348 50.73746666666667 1765.1899999999998 -1.4538232082962939e-18 1.4539772294949398e-18 1.0
-23.2055 57.97443333333333 1765.1899999999998 4.0284984922628416e-28 -2.8201196979317593e-27 1.0
-22.890866666666664 60.019666666666666 1765.1899999999998 1.450976661095793e-26 -1.0881556432444507e-26 1.0
-23.048166666666663 60.49163333333333 1765.1899999999998 4.231203992386443e-27 -6.0459492280383365e-28 1.0
-24.164233333333332 67.6442 1754.84 0.0 0.0 1.0
-23.547733333333337 68.84993333333334 1749.71 0.0 0.0 1.0
-24.327466666666666 69.7856 1749.71 0.0 0.0 1.0
-24.327466666666666 71.65693333333333 1749.71 0.0 0.0 1.0
-24.156866666666662 90.11766666666666 1760.0 0.0 0.0 1.0
-23.84313333333333 91.21570000000001 1760.0 0.0 0.0 1.0
-25.259033333333335 94.85826666666667 1754.84 0.0 0.0 1.0
-7.591243333333334 126.61800000000001 2183.94 0.0 0.0 1.0
-24.15686666666667 107.84333333333332 1760.0 0.0 0.0 1.0
-23.2055 111.622 1765.1899999999998 -2.3503416081581038e-27 -8.684515495277937e-27 1.0
-23.520166666666665 125.15266666666666 1765.1899999999998 -8.062119042366711e-28 -2.2158619940010916e-26 1.0
-22.5 -136.08333333333334 1870.0 0.0 0.0 1.0
-20.833333333333332 -129.91666666666666 1870.0 0.0 0.0 1.0
-17.606866666666665 -101.62393333333334 1917.95 0.0 0.0 1.0
-10.9002 -84.37956666666666 2183.94 0.0 0.0 1.0
-11.289500000000002 -82.8224 2183.94 0.0 0.0 1.0
-10.70559 -75.62046666666667 2183.94 0.0 0.0 1.0
-20.557266666666667 -49.45303333333334 1852.63 0.0 0.0 1.0
-21.922299999999996 -43.4356 1835.58 0.0 0.0 1.0
-22.168666666666667 -33.1727 1802.41 0.0 0.0 1.0
-22.6506 -31.7269 1802.41 0.0 0.0 1.0
-23.303299999999997 -11.131116666666665 1797.0 0.0 0.0 1.0
