ply
format ascii 1.0
comment VCGLIB generated
element vertex 884
property float x
property float y
property float z
property float nx
property float ny
property float nz
element face 0
property list uchar int vertex_indices
end_header
-148.74066666666667 79.85183333333335 3324.44 0.0 0.0 1.0
-151.111 86.0741 3324.44 0.0 0.0 1.0
-138.66666666666666 79.39393333333332 2720.0 0.0 0.0 1.0
-138.42433333333332 81.57576666666667 2720.0 0.0 0.0 1.0
-138.42433333333335 81.57576666666667 2720.0 0.0 0.0 1.0
-137.43633333333332 88.68776666666668 2707.69 0.0 0.0 1.0
-138.643 91.10103333333332 2707.69 0.0 0.0 1.0
-139.81999999999996 91.65166666666666 2695.5 0.0 0.0 1.0
-151.111 124.29633333333334 3324.44 0.0 0.0 1.0
-150.22199999999998 136.44433333333333 3324.44 0.0 0.0 1.0
-135.918 118.76666666666667 2636.12 0.0 0.0 1.0
-150.51833333333332 161.92566666666667 3324.44 0.0 0.0 1.0
-150.51833333333332 161.92566666666667 3324.44 0.0 0.0 1.0
-152.0 -166.07433333333333 3324.44 0.0 0.0 1.0
-143.94733333333332 -140.23233333333334 2977.11 0.0 0.0 1.0
-144.47799999999998 -129.61833333333334 2977.11 0.0 0.0 1.0
-146.07 -103.61566666666666 2977.11 0.0 0.0 1.0
-143.682 -94.32836666666667 2977.11 0.0 0.0 1.0
-144.47799999999998 -86.36816666666668 2977.11 0.0 0.0 1.0
-144.21266666666668 -83.1841 2977.11 0.0 0.0 1.0
-150.81466666666665 -74.8148 3324.44 0.0 0.0 1.0
-152.0 -71.25930000000001 3324.44 0.0 0.0 1.0
-152.0 -66.5185 3324.44 0.0 0.0 1.0
-141.67466666666667 -49.162733333333335 2836.02 0.0 0.0 1.0
-141.67466666666667 -49.162733333333335 2836.02 0.0 0.0 1.0
-151.111 -50.518499999999996 3324.44 0.0 0.0 1.0
-151.111 -50.518499999999996 3324.44 0.0 0.0 1.0
-152.0 -40.148133333333334 3324.44 0.0 0.0 1.0
-152.59266666666667 -37.481500000000004 3324.44 0.0 0.0 1.0
-152.29633333333334 -28.296300000000002 3324.44 0.0 0.0 1.0
-152.59266666666667 -20.5926 3324.44 0.0 0.0 1.0
-152.0 -19.4074 3324.44 0.0 0.0 1.0
-151.70366666666666 -1.0370346666666668 3324.44 0.0 0.0 1.0
-151.70366666666666 -1.0370346666666668 3324.44 0.0 0.0 1.0
-151.40733333333333 2.5185166666666667 3324.44 0.0 0.0 1.0
-151.40733333333333 14.370366666666667 3324.44 0.0 0.0 1.0
-151.70366666666666 19.4074 3324.44 0.0 0.0 1.0
-151.70366666666666 19.4074 3324.44 0.0 0.0 1.0
-152.0 28.296300000000002 3324.44 0.0 0.0 1.0
-151.40733333333333 31.555566666666664 3324.44 0.0 0.0 1.0
-139.232 45.34563333333333 2757.6 0.0 0.0 1.0
-152.29633333333334 65.6296 3324.44 0.0 0.0 1.0
-151.111 86.0741 3324.44 0.0 0.0 1.0
-138.44733333333332 77.0776 2732.42 0.0 0.0 1.0
-138.42433333333335 81.57576666666667 2720.0 0.0 0.0 1.0
-138.643 91.10103333333332 2707.69 0.0 0.0 1.0
-139.15166666666667 96.84846666666665 2720.0 0.0 0.0 1.0
-151.70366666666666 124.29633333333334 3324.44 0.0 0.0 1.0
-151.70366666666666 124.29633333333334 3324.44 0.0 0.0 1.0
-152.59266666666667 132.59266666666667 3324.44 0.0 0.0 1.0
-152.889 140.59266666666667 3324.44 0.0 0.0 1.0
-153.18533333333335 143.55533333333332 3324.44 0.0 0.0 1.0
-137.56266666666667 118.29700000000001 2636.12 0.0 0.0 1.0
-152.0 158.963 3324.44 0.0 0.0 1.0
-152.59266666666667 -165.48166666666665 3324.44 0.0 0.0 1.0
-152.29633333333334 -165.18533333333335 3324.44 0.0 0.0 1.0
-145.53933333333336 -139.70166666666668 2977.11 0.0 0.0 1.0
-145.86666666666667 -136.13333333333333 2992.0 0.0 0.0 1.0
-145.86666666666667 -136.13333333333333 2992.0 0.0 0.0 1.0
-144.74333333333334 -134.65966666666665 2977.11 0.0 0.0 1.0
-145.53933333333333 -129.08766666666668 2977.11 0.0 0.0 1.0
-145.53933333333333 -129.08766666666665 2977.11 0.0 0.0 1.0
-145.274 -124.577 2977.11 0.0 0.0 1.0
-145.80466666666666 -123.51566666666668 2977.11 0.0 0.0 1.0
-151.40733333333333 -134.667 3324.44 0.0 0.0 1.0
-153.18533333333335 -129.62933333333334 3324.44 0.0 0.0 1.0
-152.29633333333334 -108.29633333333334 3324.44 0.0 0.0 1.0
-144.47799999999998 -85.57213333333334 2977.11 0.0 0.0 1.0
-144.47799999999998 -83.71476666666666 2977.11 0.0 0.0 1.0
-152.0 -71.25930000000001 3324.44 0.0 0.0 1.0
-141.67466666666667 -49.162733333333335 2836.02 0.0 0.0 1.0
-153.18533333333335 -38.3704 3324.44 0.0 0.0 1.0
-152.59266666666667 -37.481500000000004 3324.44 0.0 0.0 1.0
-153.18533333333335 -15.851866666666666 3324.44 0.0 0.0 1.0
-153.18533333333335 -15.851866666666666 3324.44 0.0 0.0 1.0
-153.77800000000002 -6.962963333333334 3324.44 0.0 0.0 1.0
-153.18533333333335 20.8889 3324.44 0.0 0.0 1.0
-152.29633333333334 29.1852 3324.44 0.0 0.0 1.0
-152.59266666666667 35.1111 3324.44 0.0 0.0 1.0
-152.59266666666667 36.0 3324.44 0.0 0.0 1.0
-153.18533333333335 39.55553333333334 3324.44 0.0 0.0 1.0
-140.215 41.658966666666664 2757.6 0.0 0.0 1.0
-140.70633333333333 46.082966666666664 2757.6 0.0 0.0 1.0
-152.59266666666667 62.96296666666667 3324.44 0.0 0.0 1.0
-138.20399999999998 66.11869999999999 2732.42 0.0 0.0 1.0
-140.84833333333333 70.1818 2720.0 0.0 0.0 1.0
-152.59266666666667 88.14813333333332 3324.44 0.0 0.0 1.0
-138.909 80.8485 2720.0 0.0 0.0 1.0
-156.74066666666667 108.88866666666667 3324.44 0.0 0.0 1.0
-139.60799999999998 90.37706666666668 2707.69 0.0 0.0 1.0
-138.40166666666667 93.27299999999998 2707.69 0.0 0.0 1.0
-152.889 125.778 3324.44 0.0 0.0 1.0
-152.59266666666667 132.59266666666667 3324.44 0.0 0.0 1.0
-152.59266666666667 132.59266666666667 3324.44 0.0 0.0 1.0
-153.48166666666668 134.37066666666666 3324.44 0.0 0.0 1.0
-153.77800000000002 140.0 3324.44 0.0 0.0 1.0
-138.03233333333333 117.122 2636.12 0.0 0.0 1.0
-153.77800000000002 155.40733333333333 3324.44 0.0 0.0 1.0
-135.68266666666668 122.291 2636.12 0.0 0.0 1.0
-152.59266666666667 156.59266666666667 3324.44 0.0 0.0 1.0
-145.86666666666667 -136.13333333333333 2992.0 0.0 0.0 1.0
-146.07000000000002 -129.353 2977.11 0.0 0.0 1.0
-155.25933333333333 -123.111 3324.44 0.0 0.0 1.0
-152.889 -121.03699999999999 3324.44 0.0 0.0 1.0
-146.60066666666665 -100.43149999999999 2977.11 0.0 0.0 1.0
-146.60066666666665 -99.37 2977.11 0.0 0.0 1.0
-154.07433333333336 -108.29633333333334 3324.44 0.0 0.0 1.0
-144.47799999999998 -88.49086666666666 2977.11 0.0 0.0 1.0
-154.66666666666666 -81.62963333333333 3324.44 0.0 0.0 1.0
-153.18533333333332 -65.9259 3324.44 0.0 0.0 1.0
-152.88899999999998 -64.74073333333334 3324.44 0.0 0.0 1.0
-153.778 -42.518499999999996 3324.44 0.0 0.0 1.0
-152.889 -39.555566666666664 3324.44 0.0 0.0 1.0
-154.667 -28.296300000000002 3324.44 0.0 0.0 1.0
-153.18533333333335 -22.370366666666666 3324.44 0.0 0.0 1.0
-152.59266666666667 -20.5926 3324.44 0.0 0.0 1.0
-153.18533333333335 -15.851866666666666 3324.44 0.0 0.0 1.0
-153.48166666666665 -4.88889 3324.44 0.0 0.0 1.0
-153.77800000000002 -1.6296266666666668 3324.44 0.0 0.0 1.0
-155.25933333333333 17.037000000000003 3324.44 0.0 0.0 1.0
-153.77800000000002 31.851866666666666 3324.44 0.0 0.0 1.0
-154.07433333333336 36.2963 3324.44 0.0 0.0 1.0
-154.66666666666666 40.740700000000004 3324.44 0.0 0.0 1.0
-141.68966666666668 39.201233333333334 2757.6 0.0 0.0 1.0
-141.68966666666668 39.201233333333334 2757.6 0.0 0.0 1.0
-141.61333333333334 61.73516666666666 2732.42 0.0 0.0 1.0
-153.48166666666668 89.9259 3324.44 0.0 0.0 1.0
-154.963 90.81479999999999 3324.44 0.0 0.0 1.0
-141.33333333333334 82.30306666666667 2720.0 0.0 0.0 1.0
-153.48166666666665 122.51833333333333 3324.44 0.0 0.0 1.0
-152.889 125.778 3324.44 0.0 0.0 1.0
-153.48166666666665 133.778 3324.44 0.0 0.0 1.0
-153.48166666666668 134.37066666666666 3324.44 0.0 0.0 1.0
-154.07433333333333 136.74066666666667 3324.44 0.0 0.0 1.0
-153.77800000000002 140.0 3324.44 0.0 0.0 1.0
-152.0 161.92566666666667 3324.44 0.0 0.0 1.0
-156.74066666666667 -157.4813333333333 3324.44 0.0 0.0 1.0
-145.53933333333333 -139.70166666666665 2977.11 0.0 0.0 1.0
-147.662 -134.129 2977.11 0.0 0.0 1.0
-122.45266666666667 -89.27536666666667 2001.34 0.0 0.0 1.0
-147.13133333333334 -129.353 2977.11 0.0 0.0 1.0
-146.33533333333332 -124.84233333333333 2977.11 0.0 0.0 1.0
-145.80466666666666 -123.51566666666668 2977.11 0.0 0.0 1.0
-155.25933333333333 -123.111 3324.44 0.0 0.0 1.0
-154.07399999999998 -114.81466666666665 3324.44 0.0 0.0 1.0
-142.66666666666666 -92.39999999999999 2992.0 0.0 0.0 1.0
-156.44433333333333 -95.55556666666666 3324.44 0.0 0.0 1.0
-148.53333333333333 -79.33333333333333 2992.0 0.0 0.0 1.0
-155.25966666666667 -36.8889 3324.44 0.0 0.0 1.0
-154.667 -28.296300000000002 3324.44 0.0 0.0 1.0
-154.96333333333334 -17.3333 3324.44 0.0 0.0 1.0
-154.37066666666666 -16.444433333333333 3324.44 0.0 0.0 1.0
-154.96333333333334 -9.037026666666668 3324.44 0.0 0.0 1.0
-154.96333333333334 -9.037026666666668 3324.44 0.0 0.0 1.0
-148.28666666666666 -0.3738326666666665 2796.26 0.0 0.0 1.0
-155.852 10.81481 3324.44 0.0 0.0 1.0
-154.07433333333333 20.8889 3324.44 0.0 0.0 1.0
-154.07433333333333 20.8889 3324.44 0.0 0.0 1.0
-142.181 46.082966666666664 2757.6 0.0 0.0 1.0
-154.963 62.3704 3324.44 0.0 0.0 1.0
-153.77800000000002 65.03703333333333 3324.44 0.0 0.0 1.0
-143.119 55.90213333333333 2744.9499999999994 0.0 0.0 1.0
-142.06066666666666 76.48483333333333 2720.0 0.0 0.0 1.0
-140.57299999999998 89.41176666666667 2707.69 0.0 0.0 1.0
-139.82000000000002 91.65166666666666 2695.5 0.0 0.0 1.0
-142.06033333333332 97.57576666666667 2720.0 0.0 0.0 1.0
-153.48166666666665 122.51833333333333 3324.44 0.0 0.0 1.0
-154.963 137.92566666666667 3324.44 0.0 0.0 1.0
-154.667 140.29633333333334 3324.44 0.0 0.0 1.0
-154.96333333333334 140.889 3324.44 0.0 0.0 1.0
-140.14699999999996 117.827 2636.12 0.0 0.0 1.0
-150.05 -117.67833333333334 2977.11 0.0 0.0 1.0
-153.77800000000002 -131.111 3324.44 0.0 0.0 1.0
-147.39666666666668 -105.20766666666668 2977.11 0.0 0.0 1.0
-147.92733333333334 -101.22766666666666 2977.11 0.0 0.0 1.0
-147.13133333333334 -99.37 2977.11 0.0 0.0 1.0
-155.25933333333333 -108.29633333333334 3324.44 0.0 0.0 1.0
-124.21433333333334 -76.20766666666667 1992.5333333333335 1.214706292835977e-16 0.564144895140447 0.8256758064076809
-155.25933333333333 -72.44443333333332 3324.44 0.0 0.0 1.0
-143.94933333333333 -50.67926666666667 2836.02 0.0 0.0 1.0
-155.25933333333333 -44.5926 3324.44 0.0 0.0 1.0
-155.25966666666667 -36.8889 3324.44 0.0 0.0 1.0
-155.25966666666667 -36.8889 3324.44 0.0 0.0 1.0
-156.74066666666667 -32.444433333333336 3324.44 0.0 0.0 1.0
-155.55566666666667 -28.888899999999996 3324.44 0.0 0.0 1.0
-154.96333333333334 -17.3333 3324.44 0.0 0.0 1.0
-155.25966666666667 -11.7037 3324.44 0.0 0.0 1.0
-155.25966666666667 -11.7037 3324.44 0.0 0.0 1.0
-154.96333333333334 -9.037026666666668 3324.44 0.0 0.0 1.0
-155.25933333333333 -1.6296266666666668 3324.44 0.0 0.0 1.0
-156.74066666666667 11.7037 3324.44 0.0 0.0 1.0
-155.25933333333333 17.037000000000003 3324.44 0.0 0.0 1.0
-156.44433333333333 24.14816666666667 3324.44 0.0 0.0 1.0
-155.55566666666667 32.444433333333336 3324.44 0.0 0.0 1.0
-155.25933333333333 36.2963 3324.44 0.0 0.0 1.0
-144.14733333333334 36.00613333333334 2757.6 0.0 0.0 1.0
-142.67266666666666 38.218133333333334 2757.6 0.0 0.0 1.0
-142.427 43.87096666666667 2757.6 0.0 0.0 1.0
-156.74066666666667 58.518499999999996 3324.44 0.0 0.0 1.0
-142.62966666666668 54.6789 2744.9499999999994 -2.056396348099088e-26 1.0282982416087634e-26 1.0
-157.62966666666668 77.77776666666666 3324.44 0.0 0.0 1.0
-142.303 68.48483333333333 2720.0 0.0 0.0 1.0
-138.44733333333332 77.0776 2732.42 0.0 0.0 1.0
-141.57566666666665 78.42423333333333 2720.0 0.0 0.0 1.0
-142.303 82.06063333333333 2720.0 0.0 0.0 1.0
-142.06033333333335 82.54546666666666 2720.0 0.0 0.0 1.0
-141.29666666666665 87.96383333333331 2707.69 0.0 0.0 1.0
-141.7793333333333 89.41176666666667 2707.69 0.0 0.0 1.0
-141.982 91.65166666666666 2695.5 0.0 0.0 1.0
-155.25933333333333 133.18533333333332 3324.44 0.0 0.0 1.0
-154.96333333333334 140.889 3324.44 0.0 0.0 1.0
-155.852 144.74066666666667 3324.44 0.0 0.0 1.0
-155.852 144.74066666666667 3324.44 0.0 0.0 1.0
-153.77800000000002 155.40733333333333 3324.44 0.0 0.0 1.0
-157.92566666666667 -162.22199999999998 3324.44 0.0 0.0 1.0
-150.9333333333333 -142.8 2992.0 0.0 0.0 1.0
-147.92733333333334 -129.08766666666665 2977.11 0.0 0.0 1.0
-147.92733333333334 -129.08766666666665 2977.11 0.0 0.0 1.0
-154.963 -116.59266666666666 3324.44 0.0 0.0 1.0
-156.74066666666667 -108.0 3324.44 0.0 0.0 1.0
-147.39666666666668 -94.3284 2977.11 0.0 0.0 1.0
-148.53333333333333 -80.66666666666667 2992.0 0.0 0.0 1.0
-149.254 -69.65173333333333 2977.11 0.0 0.0 1.0
-143.94933333333333 -50.67926666666667 2836.02 0.0 0.0 1.0
-156.148 -53.481500000000004 3324.44 0.0 0.0 1.0
-157.03666666666666 -46.96296666666666 3324.44 0.0 0.0 1.0
-157.03666666666666 -46.96296666666666 3324.44 0.0 0.0 1.0
-156.74066666666667 -32.444433333333336 3324.44 0.0 0.0 1.0
-156.74066666666667 -29.1852 3324.44 0.0 0.0 1.0
-155.25933333333333 -1.6296266666666668 3324.44 0.0 0.0 1.0
-156.44433333333333 16.740733333333335 3324.44 0.0 0.0 1.0
-156.74066666666667 25.03703333333333 3324.44 0.0 0.0 1.0
-157.333 31.555566666666664 3324.44 0.0 0.0 1.0
-155.25933333333333 36.2963 3324.44 0.0 0.0 1.0
-157.333 57.037000000000006 3324.44 0.0 0.0 1.0
-157.92566666666667 87.55556666666666 3324.44 0.0 0.0 1.0
-142.06033333333335 82.54546666666666 2720.0 0.0 0.0 1.0
-141.53833333333333 92.79033333333332 2707.69 0.0 0.0 1.0
-142.06033333333332 97.57576666666667 2720.0 0.0 0.0 1.0
-142.78766666666664 98.06063333333334 2720.0 0.0 0.0 1.0
-157.037 132.59266666666667 3324.44 0.0 0.0 1.0
-156.148 137.92566666666667 3324.44 0.0 0.0 1.0
-156.74066666666667 143.852 3324.44 0.0 0.0 1.0
-141.08666666666667 117.59199999999998 2636.12 0.0 0.0 1.0
-140.852 118.062 2636.12 0.0 0.0 1.0
-150.9333333333333 -142.8 2992.0 0.0 0.0 1.0
-157.62966666666668 -154.51833333333332 3324.44 0.0 0.0 1.0
-150.4 -132.13333333333333 2992.0 0.0 0.0 1.0
-150.13333333333333 -130.0 2992.0 0.0 0.0 1.0
-149.86666666666667 -126.26666666666667 2992.0 0.0 0.0 1.0
-150.04999999999998 -112.637 2977.11 0.0 0.0 1.0
-150.04999999999998 -112.637 2977.11 0.0 0.0 1.0
-157.037 -122.222 3324.44 0.0 0.0 1.0
-148.458 -95.6551 2977.11 0.0 0.0 1.0
-159.111 -100.00003333333332 3324.44 0.0 0.0 1.0
-157.037 -92.29629999999999 3324.44 0.0 0.0 1.0
-148.53333333333333 -80.66666666666667 2992.0 0.0 0.0 1.0
-150.13333333333335 -78.8 2992.0 0.0 0.0 1.0
-150.3153333333333 -76.01989999999999 2977.11 0.0 0.0 1.0
-149.51933333333332 -70.44776666666667 2977.11 0.0 0.0 1.0
-157.037 -72.14813333333332 3324.44 0.0 0.0 1.0
-157.037 -65.6296 3324.44 0.0 0.0 1.0
-157.92566666666667 -39.259299999999996 3324.44 0.0 0.0 1.0
-157.037 -18.5185 3324.44 0.0 0.0 1.0
-157.6293333333333 1.0370366666666666 3324.44 0.0 0.0 1.0
-158.81466666666665 4.296296666666667 3324.44 0.0 0.0 1.0
-157.62933333333334 11.7037 3324.44 0.0 0.0 1.0
-157.62933333333334 11.7037 3324.44 0.0 0.0 1.0
-157.333 16.14816666666667 3324.44 0.0 0.0 1.0
-157.03666666666666 18.8148 3324.44 0.0 0.0 1.0
-157.92566666666667 20.2963 3324.44 0.0 0.0 1.0
-157.33333333333334 22.666700000000002 3324.44 0.0 0.0 1.0
-157.037 32.444433333333336 3324.44 0.0 0.0 1.0
-158.81466666666665 40.148133333333334 3324.44 0.0 0.0 1.0
-144.14733333333334 37.23503333333333 2757.6 0.0 0.0 1.0
-143.90166666666667 45.099866666666664 2757.6 0.0 0.0 1.0
-157.333 57.037 3324.44 0.0 0.0 1.0
-157.037 59.407399999999996 3324.44 0.0 0.0 1.0
-156.74066666666667 61.77779999999999 3324.44 0.0 0.0 1.0
-144.09766666666667 53.45566666666667 2744.9499999999994 -1.3994102385555478e-26 7.596798437872965e-26 1.0
-157.62966666666668 77.77776666666666 3324.44 0.0 0.0 1.0
-157.03666666666666 88.74073333333335 3324.44 0.0 0.0 1.0
-156.148 90.5185 3324.44 0.0 0.0 1.0
-143.51533333333336 78.1818 2720.0 0.0 0.0 1.0
-143.27266666666665 81.57576666666667 2720.0 0.0 0.0 1.0
-141.7793333333333 89.41176666666667 2707.69 0.0 0.0 1.0
-142.78766666666664 98.06063333333334 2720.0 0.0 0.0 1.0
-157.03666666666666 137.333 3324.44 0.0 0.0 1.0
-157.03666666666666 137.333 3324.44 0.0 0.0 1.0
-141.3216666666667 118.76666666666667 2636.12 0.0 0.0 1.0
-141.55666666666667 119.70633333333335 2636.12 0.0 0.0 1.0
-159.111 159.55566666666667 3324.44 0.0 0.0 1.0
-158.51833333333335 -164.29633333333334 3324.44 0.0 0.0 1.0
-158.81466666666665 -161.62933333333334 3324.44 0.0 0.0 1.0
-150.4 -132.13333333333333 2992.0 0.0 0.0 1.0
-150.13333333333333 -130.0 2992.0 0.0 0.0 1.0
-150.13333333333333 -126.26666666666667 2992.0 0.0 0.0 1.0
-150.04999999999998 -105.73833333333334 2977.11 0.0 0.0 1.0
-150.58066666666667 -100.96233333333333 2977.11 0.0 0.0 1.0
-158.22199999999998 -108.0 3324.44 0.0 0.0 1.0
-150.3153333333333 -76.01989999999999 2977.11 0.0 0.0 1.0
-149.78466666666668 -68.8557 2977.11 0.0 0.0 1.0
-158.51833333333332 -71.85186666666668 3324.44 0.0 0.0 1.0
-156.74066666666667 -45.481500000000004 3324.44 0.0 0.0 1.0
-158.51833333333332 -40.444433333333336 3324.44 0.0 0.0 1.0
-157.92566666666667 -39.259299999999996 3324.44 0.0 0.0 1.0
-158.51833333333335 -38.962999999999994 3324.44 0.0 0.0 1.0
-157.92566666666664 -31.851866666666666 3324.44 0.0 0.0 1.0
-158.81466666666665 -29.1852 3324.44 0.0 0.0 1.0
-159.11100000000002 -25.037000000000003 3324.44 0.0 0.0 1.0
-159.11100000000002 -25.037000000000003 3324.44 0.0 0.0 1.0
-158.81466666666668 -17.037000000000003 3324.44 0.0 0.0 1.0
-158.81466666666668 -17.037000000000003 3324.44 0.0 0.0 1.0
-158.51833333333332 -9.037033333333333 3324.44 0.0 0.0 1.0
-159.11100000000002 -7.555556666666667 3324.44 0.0 0.0 1.0
-150.06133333333332 7.814527333333333 2787.5933333333337 0.5127410293908413 0.6666043335133596 0.5410501818874383
-157.62933333333334 11.7037 3324.44 0.0 0.0 1.0
-157.333 16.14816666666667 3324.44 0.0 0.0 1.0
-157.92566666666664 25.03703333333333 3324.44 0.0 0.0 1.0
-158.222 31.555566666666664 3324.44 0.0 0.0 1.0
-145.37633333333335 45.59139999999999 2757.6 0.0 0.0 1.0
-158.51833333333335 57.3333 3324.44 0.0 0.0 1.0
-158.22199999999998 59.7037 3324.44 0.0 0.0 1.0
-145.99699999999999 60.03046666666666 2732.42 0.0 0.0 1.0
-159.40733333333333 112.44433333333332 3324.44 0.0 0.0 1.0
-158.51833333333335 140.889 3324.44 0.0 0.0 1.0
-158.51833333333335 140.889 3324.44 0.0 0.0 1.0
-159.111 143.852 3324.44 0.0 0.0 1.0
-141.08666666666667 117.592 2636.12 0.0 0.0 1.0
-141.55666666666667 119.70633333333335 2636.12 0.0 0.0 1.0
-159.40733333333333 -161.92566666666667 3324.44 0.0 0.0 1.0
-158.81466666666665 -161.62933333333334 3324.44 0.0 0.0 1.0
-149.54933333333335 -137.9176666666667 2967.2900000000004 -0.6959904394771589 -0.695990439477157 0.17661997710560734
-150.04999999999998 -134.129 2977.11 0.0 0.0 1.0
-150.4 -132.13333333333333 2992.0 0.0 0.0 1.0
-152.1726666666667 -118.209 2977.11 0.0 0.0 1.0
-159.40733333333333 -121.33300000000001 3324.44 0.0 0.0 1.0
-150.58066666666667 -100.96233333333333 2977.11 0.0 0.0 1.0
-150.58066666666667 -100.96233333333333 2977.11 0.0 0.0 1.0
-159.111 -100.88900000000001 3324.44 0.0 0.0 1.0
-160.29633333333334 -89.9259 3324.44 0.0 0.0 1.0
-160.889 -86.37036666666667 3324.44 0.0 0.0 1.0
-151.37666666666667 -72.0398 2977.11 0.0 0.0 1.0
-151.37666666666667 -72.0398 2977.11 0.0 0.0 1.0
-150.58066666666667 -67.79436666666668 2977.11 0.0 0.0 1.0
-150.58066666666667 -67.79436666666668 2977.11 0.0 0.0 1.0
-148.24633333333335 -49.1627 2836.02 0.0 0.0 1.0
-158.51833333333332 -40.444433333333336 3324.44 0.0 0.0 1.0
-158.51833333333332 -38.963 3324.44 0.0 0.0 1.0
-158.81466666666665 -37.77779999999999 3324.44 0.0 0.0 1.0
-158.51833333333332 -30.3704 3324.44 0.0 0.0 1.0
-158.81466666666665 -29.1852 3324.44 0.0 0.0 1.0
-147.10466666666667 -17.652600000000003 2809.39 0.0 0.0 1.0
-147.10466666666667 -16.9014 2809.39 0.0 0.0 1.0
-157.92600000000002 -12.2963 3324.44 0.0 0.0 1.0
-158.81466666666665 -11.111110000000002 3324.44 0.0 0.0 1.0
-158.81466666666665 -1.9259233333333334 3324.44 0.0 0.0 1.0
-159.70366666666666 4.0 3324.44 0.0 0.0 1.0
-158.51833333333332 22.666700000000002 3324.44 0.0 0.0 1.0
-158.81466666666665 23.555566666666664 3324.44 0.0 0.0 1.0
-159.111 30.666700000000002 3324.44 0.0 0.0 1.0
-158.81466666666665 40.148133333333334 3324.44 0.0 0.0 1.0
-145.376 36.4977 2757.6 0.0 0.0 1.0
-147.34233333333336 41.41323333333333 2757.6 0.0 0.0 1.0
-159.111 59.7037 3324.44 0.0 0.0 1.0
-160.59266666666667 66.22223333333334 3324.44 0.0 0.0 1.0
-145.07633333333334 56.8807 2744.9499999999994 0.0 1.0 0.0
-145.212 80.60603333333334 2720.0 0.0 0.0 1.0
-145.212 80.84846666666667 2720.0 0.0 0.0 1.0
-160.59266666666667 108.0 3324.44 0.0 0.0 1.0
-159.40733333333333 112.44433333333332 3324.44 0.0 0.0 1.0
-141.982 91.65166666666666 2695.5 0.0 0.0 1.0
-160.59266666666667 126.37066666666668 3324.44 0.0 0.0 1.0
-158.81466666666665 132.59266666666667 3324.44 0.0 0.0 1.0
-159.111 141.18533333333335 3324.44 0.0 0.0 1.0
-159.111 144.148 3324.44 0.0 0.0 1.0
-143.906 124.875 2636.12 0.0 0.0 1.0
-160.29633333333334 164.0 3324.44 0.0 0.0 1.0
-160.0 -162.222 3324.44 0.0 0.0 1.0
-150.876 -136.591 2967.2900000000004 -0.6959904394771608 -0.695990439477155 0.1766199771056076
-160.29633333333334 -144.148 3324.44 0.0 0.0 1.0
-160.29633333333334 -144.148 3324.44 0.0 0.0 1.0
-152.438 -115.82099999999998 2977.11 0.0 0.0 1.0
-152.438 -114.75966666666666 2977.11 0.0 0.0 1.0
-161.18533333333335 -110.37066666666665 3324.44 0.0 0.0 1.0
-150.846 -100.16616666666668 2977.11 0.0 0.0 1.0
-159.70366666666666 -107.40733333333333 3324.44 0.0 0.0 1.0
-151.73333333333335 -78.0 2992.0 0.0 0.0 1.0
-151.642 -73.8972 2977.11 0.0 0.0 1.0
-160.0 -70.3704 3324.44 0.0 0.0 1.0
-160.889 -66.8148 3324.44 0.0 0.0 1.0
-149.00466666666668 -50.4265 2836.02 0.0 0.0 1.0
-159.70366666666666 -54.3704 3324.44 0.0 0.0 1.0
-147.1046666666667 -17.652599999999996 2809.39 0.0 0.0 1.0
-147.60566666666668 -16.4006 2809.39 0.0 0.0 1.0
-158.81466666666665 -17.037000000000003 3324.44 0.0 0.0 1.0
-159.70366666666666 4.0 3324.44 0.0 0.0 1.0
-160.0 4.88889 3324.44 0.0 0.0 1.0
-160.29633333333334 5.481483333333333 3324.44 0.0 0.0 1.0
-160.29633333333334 29.4815 3324.44 0.0 0.0 1.0
-147.40733333333333 28.765466666666665 2770.3700000000003 -4.2666522017788156e-26 -3.087776657084482e-26 1.0
-160.59266666666667 38.6667 3324.44 0.0 0.0 1.0
-159.70366666666666 39.25926666666667 3324.44 0.0 0.0 1.0
-146.605 36.251933333333334 2757.6 0.0 0.0 1.0
-160.29633333333334 56.740700000000004 3324.44 0.0 0.0 1.0
-160.29633333333334 56.740700000000004 3324.44 0.0 0.0 1.0
-159.70366666666666 58.8148 3324.44 0.0 0.0 1.0
-146.54433333333336 53.21099999999999 2744.9499999999994 4.0637655465419695e-43 -0.9998779520346954 0.015623093000541838
-146.971 64.414 2732.42 0.0 0.0 1.0
-159.70366666666666 80.44443333333334 3324.44 0.0 0.0 1.0
-146.42433333333335 69.2121 2720.0 0.0 0.0 1.0
-160.59266666666667 87.85186666666668 3324.44 0.0 0.0 1.0
-145.93966666666665 78.90910000000001 2720.0 0.0 0.0 1.0
-146.36466666666666 86.99849999999999 2707.69 0.0 0.0 1.0
-159.111 141.18533333333335 3324.44 0.0 0.0 1.0
-159.70366666666666 144.148 3324.44 0.0 0.0 1.0
-159.70366666666666 144.148 3324.44 0.0 0.0 1.0
-142.96633333333332 120.646 2636.12 0.0 0.0 1.0
-161.18533333333335 158.37066666666666 3324.44 0.0 0.0 1.0
-143.906 124.875 2636.12 0.0 0.0 1.0
-160.59266666666667 161.92566666666664 3324.44 0.0 0.0 1.0
-160.59266666666667 162.51833333333332 3324.44 0.0 0.0 1.0
-160.59266666666667 -162.51833333333332 3324.44 0.0 0.0 1.0
-160.59266666666667 -162.51833333333332 3324.44 0.0 0.0 1.0
-159.70366666666666 -152.74066666666667 3324.44 0.0 0.0 1.0
-159.70366666666666 -152.74066666666667 3324.44 0.0 0.0 1.0
-150.04999999999998 -134.129 2977.11 0.0 0.0 1.0
-151.46666666666667 -132.13333333333333 2992.0 0.0 0.0 1.0
-160.29633333333334 -144.148 3324.44 0.0 0.0 1.0
-160.59266666666667 -143.55566666666667 3324.44 0.0 0.0 1.0
-153.76466666666667 -121.92366666666665 2977.11 0.0 0.0 1.0
-152.438 -115.82099999999998 2977.11 0.0 0.0 1.0
-160.0 -122.51833333333333 3324.44 0.0 0.0 1.0
-151.90733333333336 -106.269 2977.11 0.0 0.0 1.0
-159.70366666666666 -107.40733333333333 3324.44 0.0 0.0 1.0
-161.48166666666668 -102.07433333333334 3324.44 0.0 0.0 1.0
-160.29633333333334 -100.5927 3324.44 0.0 0.0 1.0
-161.18533333333335 -89.6296 3324.44 0.0 0.0 1.0
-161.18533333333335 -89.6296 3324.44 0.0 0.0 1.0
-152.70333333333335 -74.16253333333333 2977.11 0.0 0.0 1.0
-151.37666666666667 -72.0398 2977.11 0.0 0.0 1.0
-161.48166666666668 -66.2222 3324.44 0.0 0.0 1.0
-149.00466666666668 -50.4265 2836.02 0.0 0.0 1.0
-150.18833333333336 -31.320766666666668 2822.64 0.0 0.0 1.0
-159.111 -25.037000000000003 3324.44 0.0 0.0 1.0
-148.60733333333334 -16.1502 2809.39 0.0 0.0 1.0
-161.48166666666668 -8.444436666666666 3324.44 0.0 0.0 1.0
-160.889 -6.666666666666667 3324.44 0.0 0.0 1.0
-161.48166666666668 -6.074076666666667 3324.44 0.0 0.0 1.0
-160.29633333333334 -1.3333320000000002 3324.44 0.0 0.0 1.0
-160.29633333333334 -1.3333320000000002 3324.44 0.0 0.0 1.0
-160.29633333333334 5.481483333333333 3324.44 0.0 0.0 1.0
-160.889 12.0 3324.44 0.0 0.0 1.0
-160.889 21.1852 3324.44 0.0 0.0 1.0
-147.40733333333333 28.76546666666667 2770.3700000000003 -5.589963825874711e-26 -4.410939678598257e-26 1.0
-146.851 45.5914 2757.6 0.0 0.0 1.0
-160.29633333333334 56.740700000000004 3324.44 0.0 0.0 1.0
-161.18533333333335 61.77779999999999 3324.44 0.0 0.0 1.0
-161.18533333333335 61.77779999999999 3324.44 0.0 0.0 1.0
-147.21433333333331 63.196366666666655 2732.42 0.0 0.0 1.0
-146.42433333333335 69.2121 2720.0 0.0 0.0 1.0
-160.889 86.66669999999999 3324.44 0.0 0.0 1.0
-161.18533333333335 88.44443333333334 3324.44 0.0 0.0 1.0
-145.93966666666665 77.93939999999999 2720.0 0.0 0.0 1.0
-145.93966666666665 77.93939999999999 2720.0 0.0 0.0 1.0
-145.93966666666665 79.63636666666666 2720.0 0.0 0.0 1.0
-146.182 80.36363333333334 2720.0 0.0 0.0 1.0
-146.182 81.09089999999999 2720.0 0.0 0.0 1.0
-146.182 81.09090000000002 2720.0 0.0 0.0 1.0
-146.182 82.30303333333333 2720.0 0.0 0.0 1.0
-146.12333333333333 86.03320000000001 2707.69 0.0 0.0 1.0
-160.59266666666667 110.37033333333333 3324.44 0.0 0.0 1.0
-147.394 98.78786666666667 2720.0 0.0 0.0 1.0
-160.59266666666667 126.37066666666665 3324.44 0.0 0.0 1.0
-160.29633333333334 134.07399999999998 3324.44 0.0 0.0 1.0
-160.889 136.148 3324.44 0.0 0.0 1.0
-161.48166666666668 138.222 3324.44 0.0 0.0 1.0
-145.081 117.122 2636.12 0.0 0.0 1.0
-144.611 118.53166666666668 2636.12 0.0 0.0 1.0
-161.18533333333335 158.37066666666666 3324.44 0.0 0.0 1.0
-151.9176666666667 -122.702 2924.0266666666666 2.4976638015057952e-15 0.9335679276589421 0.3584005084351696
-153.234 -115.82100000000001 2977.11 0.0 0.0 1.0
-161.48166666666665 -120.74033333333334 3324.44 0.0 0.0 1.0
-151.90733333333336 -106.269 2977.11 0.0 0.0 1.0
-161.48166666666665 -102.07433333333334 3324.44 0.0 0.0 1.0
-161.48166666666668 -102.07433333333334 3324.44 0.0 0.0 1.0
-161.18533333333335 -89.6296 3324.44 0.0 0.0 1.0
-153.6 -78.0 2992.0 0.0 0.0 1.0
-161.18533333333332 -67.7037 3324.44 0.0 0.0 1.0
-161.48166666666668 -66.2222 3324.44 0.0 0.0 1.0
-161.48166666666668 -66.2222 3324.44 0.0 0.0 1.0
-149.00466666666668 -50.4265 2836.02 0.0 0.0 1.0
-161.4813333333333 -47.851866666666666 3324.44 0.0 0.0 1.0
-149.434 -35.849066666666666 2822.64 0.0 0.0 1.0
-149.434 -35.849066666666666 2822.64 0.0 0.0 1.0
-149.434 -35.849066666666666 2822.64 0.0 0.0 1.0
-150.10933333333332 -13.896700000000001 2809.39 0.0 0.0 1.0
-163.25933333333333 15.555566666666666 3324.44 0.0 0.0 1.0
-163.25933333333333 23.259299999999996 3324.44 0.0 0.0 1.0
-162.37033333333332 28.5926 3324.44 0.0 0.0 1.0
-148.642 26.543233333333333 2770.3700000000003 0.0 0.0 1.0
-147.40733333333333 28.76546666666667 2770.3700000000003 -5.589963825874723e-26 -4.410939678598268e-26 1.0
-160.59266666666667 38.6667 3324.44 0.0 0.0 1.0
-161.18533333333335 39.851866666666666 3324.44 0.0 0.0 1.0
-148.07966666666667 36.00613333333334 2757.6 0.0 0.0 1.0
-148.07966666666667 36.00613333333334 2757.6 0.0 0.0 1.0
-148.5713333333333 42.150533333333335 2757.6 0.0 0.0 1.0
-162.07433333333333 53.48146666666667 3324.44 0.0 0.0 1.0
-161.18533333333332 59.407399999999996 3324.44 0.0 0.0 1.0
-162.37066666666666 59.7037 3324.44 0.0 0.0 1.0
-161.18533333333335 68.88889999999999 3324.44 0.0 0.0 1.0
-148.43233333333333 58.569266666666664 2732.42 0.0 0.0 1.0
-162.667 83.1111 3324.44 0.0 0.0 1.0
-162.07433333333336 86.0741 3324.44 0.0 0.0 1.0
-160.59266666666667 108.0 3324.44 0.0 0.0 1.0
-147.15166666666667 97.81816666666667 2720.0 0.0 0.0 1.0
-162.37066666666666 124.59266666666667 3324.44 0.0 0.0 1.0
-161.778 126.07433333333334 3324.44 0.0 0.0 1.0
-161.48166666666665 142.3706666666667 3324.44 0.0 0.0 1.0
-161.18533333333332 161.92566666666664 3324.44 0.0 0.0 1.0
-162.07433333333333 162.51833333333332 3324.44 0.0 0.0 1.0
-152.79999999999998 -140.4 2992.0 0.0 0.0 1.0
-153.86666666666667 -136.9333333333333 2992.0 0.0 0.0 1.0
-162.3706666666667 -142.963 3324.44 0.0 0.0 1.0
-153.76466666666667 -121.92366666666665 2977.11 0.0 0.0 1.0
-154.29533333333333 -119.005 2977.11 0.0 0.0 1.0
-153.234 -115.82099999999998 2977.11 0.0 0.0 1.0
-155.09133333333335 -100.43149999999999 2977.11 0.0 0.0 1.0
-163.25933333333333 -91.4074 3324.44 0.0 0.0 1.0
-163.25933333333333 -91.4074 3324.44 0.0 0.0 1.0
-161.77800000000002 -86.07406666666668 3324.44 0.0 0.0 1.0
-154.826 -73.36646666666667 2977.11 0.0 0.0 1.0
-154.29533333333333 -70.71313333333333 2977.11 0.0 0.0 1.0
-154.29533333333333 -70.71313333333333 2977.11 0.0 0.0 1.0
-164.148 -53.77779999999999 3324.44 0.0 0.0 1.0
-163.25966666666667 -33.6296 3324.44 0.0 0.0 1.0
-149.35833333333335 -18.904566666666668 2809.39 0.0 0.0 1.0
-148.60733333333334 -16.1502 2809.39 0.0 0.0 1.0
-162.37066666666666 -9.037026666666668 3324.44 0.0 0.0 1.0
-162.66666666666666 -6.9629666666666665 3324.44 0.0 0.0 1.0
-148.28666666666666 -0.3738326666666665 2796.26 0.0 0.0 1.0
-162.3706666666667 21.4815 3324.44 0.0 0.0 1.0
-148.5713333333333 36.251933333333334 2757.6 0.0 0.0 1.0
-148.5713333333333 42.150533333333335 2757.6 0.0 0.0 1.0
-148.32566666666665 44.85406666666666 2757.6 0.0 0.0 1.0
-148.01233333333332 56.14676666666666 2744.9499999999994 9.746233219697441e-27 -1.924447855686763e-26 1.0
-163.25933333333333 70.3704 3324.44 0.0 0.0 1.0
-162.667 83.1111 3324.44 0.0 0.0 1.0
-147.394 69.4545 2720.0 0.0 0.0 1.0
-162.37066666666666 89.03699999999999 3324.44 0.0 0.0 1.0
-165.62966666666668 96.14813333333332 3324.44 0.0 0.0 1.0
-147.57133333333334 85.0679 2707.69 0.0 0.0 1.0
-161.778 126.07433333333334 3324.44 0.0 0.0 1.0
-163.85166666666666 128.74066666666667 3324.44 0.0 0.0 1.0
-162.07433333333333 139.70366666666666 3324.44 0.0 0.0 1.0
-162.37066666666666 141.18533333333335 3324.44 0.0 0.0 1.0
-145.78599999999997 117.122 2636.12 0.0 0.0 1.0
-145.78599999999997 117.122 2636.12 0.0 0.0 1.0
-146.02066666666664 118.29699999999998 2636.12 0.0 0.0 1.0
-145.08100000000002 125.34499999999998 2636.12 0.0 0.0 1.0
-162.667 159.55566666666667 3324.44 0.0 0.0 1.0
-162.667 163.40733333333333 3324.44 0.0 0.0 1.0
-164.74066666666667 -165.48166666666668 3324.44 0.0 0.0 1.0
-164.44433333333333 -145.62933333333334 3324.44 0.0 0.0 1.0
-154.29533333333333 -120.86233333333332 2977.11 0.0 0.0 1.0
-151.9176666666667 -122.702 2924.0266666666666 2.4976638015057952e-15 0.9335679276589421 0.3584005084351696
-154.56066666666666 -113.43299999999999 2977.11 0.0 0.0 1.0
-163.852 -120.74033333333334 3324.44 0.0 0.0 1.0
-161.18533333333335 -110.37066666666665 3324.44 0.0 0.0 1.0
-154.826 -99.37 2977.11 0.0 0.0 1.0
-155.09133333333332 -97.51246666666667 2977.11 0.0 0.0 1.0
-163.852 -104.44433333333332 3324.44 0.0 0.0 1.0
-163.25933333333333 -88.7407 3324.44 0.0 0.0 1.0
-155.46666666666667 -78.0 2992.0 0.0 0.0 1.0
-154.826 -73.36646666666667 2977.11 0.0 0.0 1.0
-154.29533333333333 -70.71313333333333 2977.11 0.0 0.0 1.0
-162.96333333333334 -63.85186666666666 3324.44 0.0 0.0 1.0
-162.96333333333334 -63.85186666666666 3324.44 0.0 0.0 1.0
-151.44633333333334 -38.61633333333333 2822.64 0.0 0.0 1.0
-151.44633333333334 -38.36476666666667 2822.64 0.0 0.0 1.0
-151.44633333333334 -32.32706666666667 2822.64 0.0 0.0 1.0
-150.18833333333336 -31.320766666666668 2822.64 0.0 0.0 1.0
-163.25966666666667 -34.8148 3324.44 0.0 0.0 1.0
-163.25966666666667 -34.8148 3324.44 0.0 0.0 1.0
-163.25966666666667 -33.6296 3324.44 0.0 0.0 1.0
-164.74066666666667 -27.703699999999998 3324.44 0.0 0.0 1.0
-150.10933333333335 -18.153366666666667 2809.39 0.0 0.0 1.0
-163.55566666666667 -8.740733333333333 3324.44 0.0 0.0 1.0
-163.852 -5.185186666666667 3324.44 0.0 0.0 1.0
-164.74066666666667 7.25926 3324.44 0.0 0.0 1.0
-163.25933333333333 12.5926 3324.44 0.0 0.0 1.0
-164.44433333333333 15.851866666666666 3324.44 0.0 0.0 1.0
-164.148 22.962999999999997 3324.44 0.0 0.0 1.0
-150.61733333333333 31.234566666666666 2770.3700000000003 3.2775189267746425e-28 4.580046158391685e-27 1.0
-148.57133333333334 36.251933333333334 2757.6 0.0 0.0 1.0
-163.25933333333333 51.4074 3324.44 0.0 0.0 1.0
-149.063 42.88786666666667 2757.6 0.0 0.0 1.0
-149.063 44.116733333333336 2757.6 0.0 0.0 1.0
-163.25933333333333 59.407399999999996 3324.44 0.0 0.0 1.0
-148.43233333333333 58.569266666666664 2732.42 0.0 0.0 1.0
-146.971 64.414 2732.42 0.0 0.0 1.0
-148.60633333333334 68.72723333333333 2720.0 0.0 0.0 1.0
-162.667 83.1111 3324.44 0.0 0.0 1.0
-148.36366666666666 69.4545 2720.0 0.0 0.0 1.0
-162.96333333333334 84.88889999999999 3324.44 0.0 0.0 1.0
-162.37066666666666 89.03699999999999 3324.44 0.0 0.0 1.0
-146.84733333333335 86.99849999999999 2707.69 0.0 0.0 1.0
-148.12133333333335 97.81816666666667 2720.0 0.0 0.0 1.0
-164.44433333333333 123.70366666666666 3324.44 0.0 0.0 1.0
-164.44433333333333 145.333 3324.44 0.0 0.0 1.0
-145.786 117.122 2636.12 0.0 0.0 1.0
-162.37066666666666 158.37066666666666 3324.44 0.0 0.0 1.0
-145.08100000000002 125.34499999999998 2636.12 0.0 0.0 1.0
-163.55566666666667 164.0 3324.44 0.0 0.0 1.0
-163.852 164.889 3324.44 0.0 0.0 1.0
-165.03666666666666 -146.51833333333335 3324.44 0.0 0.0 1.0
-155.88733333333332 -113.43299999999999 2977.11 0.0 0.0 1.0
-155.09133333333335 -100.43149999999999 2977.11 0.0 0.0 1.0
-154.826 -99.37 2977.11 0.0 0.0 1.0
-164.74033333333333 -98.5185 3324.44 0.0 0.0 1.0
-164.74033333333333 -98.5185 3324.44 0.0 0.0 1.0
-163.25933333333333 -91.4074 3324.44 0.0 0.0 1.0
-164.74066666666667 -88.44440000000002 3324.44 0.0 0.0 1.0
-155.88733333333334 -74.6932 2977.11 0.0 0.0 1.0
-155.35666666666665 -72.8358 2977.11 0.0 0.0 1.0
-155.35666666666665 -72.8358 2977.11 0.0 0.0 1.0
-154.06 -48.90996666666666 2836.02 0.0 0.0 1.0
-164.148 -53.77779999999999 3324.44 0.0 0.0 1.0
-164.74033333333333 -52.8889 3324.44 0.0 0.0 1.0
-152.453 -39.8742 2822.64 0.0 0.0 1.0
-151.94966666666667 -36.85536666666667 2822.64 0.0 0.0 1.0
-150.94333333333336 -36.10066666666666 2822.64 0.0 0.0 1.0
-152.70466666666667 -26.037733333333335 2822.64 0.0 0.0 1.0
-164.74066666666667 -27.703699999999998 3324.44 0.0 0.0 1.0
-151.86233333333334 -12.895166666666666 2809.39 0.0 0.0 1.0
-163.55566666666667 -7.555556666666667 3324.44 0.0 0.0 1.0
-164.44433333333333 15.851866666666666 3324.44 0.0 0.0 1.0
-164.148 22.962999999999997 3324.44 0.0 0.0 1.0
-164.74033333333333 23.259299999999996 3324.44 0.0 0.0 1.0
-150.61733333333333 31.234566666666666 2770.3700000000003 3.2775189267746425e-28 4.580046158391685e-27 1.0
-163.25933333333333 51.4074 3324.44 0.0 0.0 1.0
-164.44433333333333 58.8148 3324.44 0.0 0.0 1.0
-148.74633333333333 53.7003 2744.9499999999994 1.919191184304754e-27 3.3588133745343126e-27 1.0
-148.43233333333333 58.569266666666664 2732.42 0.0 0.0 1.0
-149.89333333333335 61.0046 2732.42 0.0 0.0 1.0
-149.57600000000002 64.60606666666666 2720.0 0.0 0.0 1.0
-148.36366666666666 69.4545 2720.0 0.0 0.0 1.0
-149.81799999999998 99.2727 2720.0 0.0 0.0 1.0
-164.44433333333333 123.70366666666666 3324.44 0.0 0.0 1.0
-163.85166666666666 127.25933333333334 3324.44 0.0 0.0 1.0
-163.85166666666666 128.74066666666667 3324.44 0.0 0.0 1.0
-164.44433333333333 145.333 3324.44 0.0 0.0 1.0
-146.25566666666666 118.29699999999998 2636.12 0.0 0.0 1.0
-164.148 162.81466666666665 3324.44 0.0 0.0 1.0
-163.852 164.889 3324.44 0.0 0.0 1.0
-164.74066666666667 -165.48166666666668 3324.44 0.0 0.0 1.0
-164.74066666666667 -165.48166666666668 3324.44 0.0 0.0 1.0
-165.62933333333334 -146.81466666666665 3324.44 0.0 0.0 1.0
-165.03666666666666 -146.51833333333332 3324.44 0.0 0.0 1.0
-167.111 -136.44466666666668 3324.44 0.0 0.0 1.0
-166.81466666666665 -123.11099999999999 3324.44 0.0 0.0 1.0
-155.62199999999999 -106.00366666666667 2977.11 0.0 0.0 1.0
-165.03666666666666 -97.03703333333333 3324.44 0.0 0.0 1.0
-165.333 -95.85186666666668 3324.44 0.0 0.0 1.0
-165.62933333333334 -94.37040000000002 3324.44 0.0 0.0 1.0
-155.88733333333334 -74.6932 2977.11 0.0 0.0 1.0
-166.222 -71.55556666666666 3324.44 0.0 0.0 1.0
-153.302 -52.44863333333333 2836.02 0.0 0.0 1.0
-165.03666666666666 -54.666666666666664 3324.44 0.0 0.0 1.0
-165.62933333333334 -53.77779999999999 3324.44 0.0 0.0 1.0
-152.70466666666667 -38.8679 2822.64 0.0 0.0 1.0
-152.956 -38.36476666666667 2822.64 0.0 0.0 1.0
-153.20766666666665 -33.333333333333336 2822.64 0.0 0.0 1.0
-152.113 -13.646333333333333 2809.39 0.0 0.0 1.0
-152.113 -13.646333333333333 2809.39 0.0 0.0 1.0
-152.11266666666666 -12.144 2809.39 0.0 0.0 1.0
-165.33333333333334 -10.8148 3324.44 0.0 0.0 1.0
-165.62933333333334 -3.7037033333333333 3324.44 0.0 0.0 1.0
-165.62933333333334 -2.8148133333333334 3324.44 0.0 0.0 1.0
-165.62966666666668 5.77778 3324.44 0.0 0.0 1.0
-165.33333333333334 9.33333 3324.44 0.0 0.0 1.0
-165.92566666666667 14.370399999999998 3324.44 0.0 0.0 1.0
-165.03666666666666 14.963 3324.44 0.0 0.0 1.0
-164.74033333333333 23.259299999999996 3324.44 0.0 0.0 1.0
-165.333 25.333333333333332 3324.44 0.0 0.0 1.0
-165.333 26.8148 3324.44 0.0 0.0 1.0
-165.333 28.0 3324.44 0.0 0.0 1.0
-165.333 28.0 3324.44 0.0 0.0 1.0
-151.35799999999998 29.259266666666665 2770.3700000000003 -1.1475056131494512e-26 3.237734238210976e-27 1.0
-166.81466666666665 41.037000000000006 3324.44 0.0 0.0 1.0
-166.222 54.3704 3324.44 0.0 0.0 1.0
-164.44433333333333 58.8148 3324.44 0.0 0.0 1.0
-163.25933333333333 62.3704 3324.44 0.0 0.0 1.0
-151.19299999999998 53.944966666666666 2744.9499999999994 3.554111558936974e-27 1.7775400458311104e-27 1.0
-163.25933333333333 70.3704 3324.44 0.0 0.0 1.0
-150.30266666666668 83.75756666666666 2720.0 0.0 0.0 1.0
-148.29533333333333 86.03320000000001 2707.69 0.0 0.0 1.0
-150.30266666666668 91.27273333333333 2720.0 0.0 0.0 1.0
-150.70866666666666 94.2383 2707.69 0.0 0.0 1.0
-149.818 99.2727 2720.0 0.0 0.0 1.0
-165.03666666666666 123.11099999999999 3324.44 0.0 0.0 1.0
-165.333 124.0 3324.44 0.0 0.0 1.0
-164.44433333333333 145.333 3324.44 0.0 0.0 1.0
-146.49066666666667 116.887 2636.12 0.0 0.0 1.0
-164.44433333333333 163.111 3324.44 0.0 0.0 1.0
-166.22199999999998 -164.0 3324.44 0.0 0.0 1.0
-165.62933333333334 -146.81466666666665 3324.44 0.0 0.0 1.0
-167.40733333333333 -142.66666666666666 3324.44 0.0 0.0 1.0
-157.7446666666667 -116.35166666666667 2977.11 0.0 0.0 1.0
-157.7446666666667 -115.82099999999998 2977.11 0.0 0.0 1.0
-167.111 -121.03666666666668 3324.44 0.0 0.0 1.0
-158.01 -105.73833333333334 2977.11 0.0 0.0 1.0
-167.40733333333333 -105.92566666666666 3324.44 0.0 0.0 1.0
-165.333 -92.88889999999999 3324.44 0.0 0.0 1.0
-165.92566666666664 -88.74069999999999 3324.44 0.0 0.0 1.0
-157.86666666666665 -78.0 2992.0 0.0 0.0 1.0
-166.222 -71.55556666666666 3324.44 0.0 0.0 1.0
-167.70366666666666 -68.2963 3324.44 0.0 0.0 1.0
-153.302 -52.44863333333333 2836.02 0.0 0.0 1.0
-153.302 -52.44863333333333 2836.02 0.0 0.0 1.0
-153.20766666666665 -38.8679 2822.64 0.0 0.0 1.0
-163.852 -41.62963333333334 3324.44 0.0 0.0 1.0
-153.45933333333332 -32.8302 2822.64 0.0 0.0 1.0
-153.711 -32.0755 2822.64 0.0 0.0 1.0
-153.711 -31.069199999999995 2822.64 0.0 0.0 1.0
-152.70466666666667 -26.037733333333335 2822.64 0.0 0.0 1.0
-152.70466666666667 -26.037733333333335 2822.64 0.0 0.0 1.0
-164.74066666666667 -27.703699999999998 3324.44 0.0 0.0 1.0
-152.11266666666666 -12.143999999999998 2809.39 0.0 0.0 1.0
-165.037 -4.592593333333333 3324.44 0.0 0.0 1.0
-166.222 -1.9259233333333334 3324.44 0.0 0.0 1.0
-153.76933333333332 2.3676006666666667 2796.26 0.0 0.0 1.0
-167.40733333333333 20.0 3324.44 0.0 0.0 1.0
-150.61733333333333 31.234566666666666 2770.3700000000003 3.2775189267746425e-28 4.580046158391685e-27 1.0
-152.01233333333334 41.16743333333333 2757.6 0.0 0.0 1.0
-166.222 54.3704 3324.44 0.0 0.0 1.0
-164.14833333333334 88.74069999999999 3324.44 0.0 0.0 1.0
-167.111 90.5185 3324.44 0.0 0.0 1.0
-151.27266666666665 78.1818 2720.0 0.0 0.0 1.0
-151.03 82.7879 2720.0 0.0 0.0 1.0
-151.27266666666665 84.96966666666667 2720.0 0.0 0.0 1.0
-150.30266666666668 91.27273333333333 2720.0 0.0 0.0 1.0
-150.30266666666668 91.27273333333333 2720.0 0.0 0.0 1.0
-150.30266666666668 99.0303 2720.0 0.0 0.0 1.0
-150.30266666666668 99.03030000000001 2720.0 0.0 0.0 1.0
-165.333 124.0 3324.44 0.0 0.0 1.0
-149.545 122.76066666666667 2636.12 0.0 0.0 1.0
-165.92566666666664 -165.48166666666668 3324.44 0.0 0.0 1.0
-169.48166666666668 -158.37033333333332 3324.44 0.0 0.0 1.0
-168.29633333333334 -144.148 3324.44 0.0 0.0 1.0
-167.40733333333333 -140.889 3324.44 0.0 0.0 1.0
-167.111 -121.92566666666666 3324.44 0.0 0.0 1.0
-167.40733333333333 -89.62959999999998 3324.44 0.0 0.0 1.0
-158.54066666666668 -69.38636666666667 2977.11 0.0 0.0 1.0
-167.111 -70.66666666666667 3324.44 0.0 0.0 1.0
-167.70366666666666 -64.74073333333332 3324.44 0.0 0.0 1.0
-167.70366666666666 -64.74073333333332 3324.44 0.0 0.0 1.0
-153.80766666666668 -51.690333333333335 2836.02 0.0 0.0 1.0
-165.6293333333333 -53.77779999999999 3324.44 0.0 0.0 1.0
-153.71066666666664 -38.1132 2822.64 0.0 0.0 1.0
-153.9623333333333 -33.333333333333336 2822.64 0.0 0.0 1.0
-165.62966666666668 -30.666666666666668 3324.44 0.0 0.0 1.0
-154.867 -17.6526 2809.39 0.0 0.0 1.0
-166.22199999999998 -1.9259233333333334 3324.44 0.0 0.0 1.0
-167.40733333333333 12.0 3324.44 0.0 0.0 1.0
-167.40733333333333 12.8889 3324.44 0.0 0.0 1.0
-166.51833333333332 13.481499999999999 3324.44 0.0 0.0 1.0
-166.51833333333332 24.444433333333336 3324.44 0.0 0.0 1.0
-166.51833333333332 25.037000000000003 3324.44 0.0 0.0 1.0
-152.59266666666667 29.259266666666665 2770.3700000000003 1.077070216613104e-19 1.0771065758667594e-19 1.0
-166.81466666666665 41.037000000000006 3324.44 0.0 0.0 1.0
-152.01233333333334 41.16743333333333 2757.6 0.0 0.0 1.0
-151.275 42.3963 2757.6 0.0 0.0 1.0
-167.40733333333333 54.07410000000001 3324.44 0.0 0.0 1.0
-152.32866666666666 59.78693333333333 2732.42 0.0 0.0 1.0
-150.86733333333333 61.0046 2732.42 0.0 0.0 1.0
-149.57600000000002 64.60606666666666 2720.0 0.0 0.0 1.0
-167.40733333333333 81.6296 3324.44 0.0 0.0 1.0
-167.40733333333333 81.6296 3324.44 0.0 0.0 1.0
-151.27266666666665 78.1818 2720.0 0.0 0.0 1.0
-151.43266666666668 94.47963333333333 2707.69 0.0 0.0 1.0
-166.81466666666665 128.14833333333334 3324.44 0.0 0.0 1.0
-168.889 133.48166666666668 3324.44 0.0 0.0 1.0
-168.29633333333334 138.81466666666665 3324.44 0.0 0.0 1.0
-165.6293333333333 162.51833333333332 3324.44 0.0 0.0 1.0
-167.111 165.18533333333335 3324.44 0.0 0.0 1.0
-168.0 -146.81466666666665 3324.44 0.0 0.0 1.0
-158.27533333333335 -116.617 2977.11 0.0 0.0 1.0
-158.27533333333335 -116.08633333333334 2977.11 0.0 0.0 1.0
-168.29633333333334 -122.222 3324.44 0.0 0.0 1.0
-168.0 -120.74033333333334 3324.44 0.0 0.0 1.0
-168.889 -114.81466666666665 3324.44 0.0 0.0 1.0
-168.29633333333334 -105.92566666666666 3324.44 0.0 0.0 1.0
-168.29633333333334 -105.92566666666666 3324.44 0.0 0.0 1.0
-169.18533333333335 -98.51849999999997 3324.44 0.0 0.0 1.0
-160.13266666666667 -76.01989999999999 2977.11 0.0 0.0 1.0
-158.54066666666668 -69.38636666666667 2977.11 0.0 0.0 1.0
-158.54066666666668 -69.38636666666667 2977.11 0.0 0.0 1.0
-168.0 -69.18520000000001 3324.44 0.0 0.0 1.0
-154.06033333333332 -52.7014 2836.02 0.0 0.0 1.0
-166.51833333333332 -52.0 3324.44 0.0 0.0 1.0
-154.71699999999998 -40.125766666666664 2822.64 0.0 0.0 1.0
-154.96833333333333 -38.61633333333333 2822.64 0.0 0.0 1.0
-154.96866666666668 -34.3396 2822.64 0.0 0.0 1.0
-154.71699999999998 -33.83646666666667 2822.64 0.0 0.0 1.0
-154.71699999999998 -31.572366666666664 2822.64 0.0 0.0 1.0
-168.59266666666667 -24.444433333333336 3324.44 0.0 0.0 1.0
-168.59266666666667 -24.444433333333336 3324.44 0.0 0.0 1.0
-154.867 -17.6526 2809.39 0.0 0.0 1.0
-155.11733333333333 -13.395933333333332 2809.39 0.0 0.0 1.0
-165.92566666666664 -9.92592 3324.44 0.0 0.0 1.0
-167.70366666666666 4.88889 3324.44 0.0 0.0 1.0
-167.40733333333333 12.0 3324.44 0.0 0.0 1.0
-168.889 19.1111 3324.44 0.0 0.0 1.0
-168.0 20.5926 3324.44 0.0 0.0 1.0
-168.29633333333334 29.7778 3324.44 0.0 0.0 1.0
-168.0 30.96296666666667 3324.44 0.0 0.0 1.0
-168.29633333333334 32.148133333333334 3324.44 0.0 0.0 1.0
-168.29633333333334 41.3333 3324.44 0.0 0.0 1.0
-168.59266666666667 42.8148 3324.44 0.0 0.0 1.0
-167.111 54.96296666666666 3324.44 0.0 0.0 1.0
-168.0 80.14813333333332 3324.44 0.0 0.0 1.0
-152.72733333333335 77.2121 2720.0 0.0 0.0 1.0
-167.11133333333336 99.11113333333333 3324.44 0.0 0.0 1.0
-153.21233333333336 89.57576666666667 2720.0 0.0 0.0 1.0
-151.02999999999997 91.03030000000001 2720.0 0.0 0.0 1.0
-169.77766666666665 111.259 3324.44 0.0 0.0 1.0
-151.43266666666668 94.47963333333333 2707.69 0.0 0.0 1.0
-151.43266666666668 94.47963333333333 2707.69 0.0 0.0 1.0
-168.29633333333334 138.81466666666665 3324.44 0.0 0.0 1.0
-150.48466666666667 120.88100000000001 2636.12 0.0 0.0 1.0
-149.31 121.586 2636.12 0.0 0.0 1.0
-168.889 -166.07433333333333 3324.44 0.0 0.0 1.0
-169.18533333333335 -144.44433333333333 3324.44 0.0 0.0 1.0
-168.889 -143.25933333333333 3324.44 0.0 0.0 1.0
-168.889 -143.25933333333333 3324.44 0.0 0.0 1.0
-170.66700000000003 -135.25966666666667 3324.44 0.0 0.0 1.0
-159.602 -112.637 2977.11 0.0 0.0 1.0
-159.602 -112.637 2977.11 0.0 0.0 1.0
-159.602 -112.637 2977.11 0.0 0.0 1.0
-168.889 -114.81466666666665 3324.44 0.0 0.0 1.0
-168.889 -106.51833333333333 3324.44 0.0 0.0 1.0
-168.889 -104.14833333333333 3324.44 0.0 0.0 1.0
-169.18533333333335 -97.9259 3324.44 0.0 0.0 1.0
-168.59266666666667 -90.5185 3324.44 0.0 0.0 1.0
-168.889 -68.0 3324.44 0.0 0.0 1.0
-169.18533333333335 -67.11110000000001 3324.44 0.0 0.0 1.0
-155.82933333333332 -49.921 2836.02 0.0 0.0 1.0
-155.47166666666666 -34.3396 2822.64 0.0 0.0 1.0
-155.472 -26.037733333333335 2822.64 0.0 0.0 1.0
-155.11733333333333 -13.395933333333332 2809.39 0.0 0.0 1.0
-154.61666666666667 -11.8936 2809.39 0.0 0.0 1.0
-169.77800000000002 -2.5185166666666667 3324.44 0.0 0.0 1.0
-170.07433333333336 7.851853333333334 3324.44 0.0 0.0 1.0
-168.889 19.1111 3324.44 0.0 0.0 1.0
-168.889 28.0 3324.44 0.0 0.0 1.0
-168.889 28.0 3324.44 0.0 0.0 1.0
-168.59266666666667 28.888899999999996 3324.44 0.0 0.0 1.0
-168.29633333333334 32.148133333333334 3324.44 0.0 0.0 1.0
-154.07433333333333 30.0 2770.3700000000003 -3.924895450170025e-27 -3.923835670110634e-27 1.0
-169.18533333333335 52.592600000000004 3324.44 0.0 0.0 1.0
-168.59266666666667 53.481500000000004 3324.44 0.0 0.0 1.0
-154.37333333333333 55.16819999999999 2744.9499999999994 3.00067778423052e-27 -2.9995535251202982e-27 1.0
-153.63933333333333 55.90213333333333 2744.9499999999994 4.811078235788161e-26 6.006268261117635e-27 1.0
-168.889 80.14813333333335 3324.44 0.0 0.0 1.0
-150.06066666666666 69.4545 2720.0 0.0 0.0 1.0
-168.29633333333334 92.0 3324.44 0.0 0.0 1.0
-152.72733333333335 77.2121 2720.0 0.0 0.0 1.0
-152.24233333333333 83.27273333333333 2720.0 0.0 0.0 1.0
-169.77800000000002 106.81466666666667 3324.44 0.0 0.0 1.0
-152.24233333333333 98.06063333333334 2720.0 0.0 0.0 1.0
-168.59266666666667 128.74066666666667 3324.44 0.0 0.0 1.0
-168.889 133.48166666666665 3324.44 0.0 0.0 1.0
-149.545 122.76066666666667 2636.12 0.0 0.0 1.0
-171.25933333333333 -163.111 3324.44 0.0 0.0 1.0
-170.07433333333333 -153.333 3324.44 0.0 0.0 1.0
-170.07433333333333 -153.333 3324.44 0.0 0.0 1.0
-170.37066666666666 -146.51833333333332 3324.44 0.0 0.0 1.0
-169.778 -145.03666666666666 3324.44 0.0 0.0 1.0
-148.672 -120.52033333333334 3058.7066666666665 -1.6639374983769658e-14 -0.9783221685070499 0.2070887119271921
-168.59266666666667 -121.62933333333332 3324.44 0.0 0.0 1.0
-160.66333333333333 -106.53433333333334 2977.11 0.0 0.0 1.0
-160.66333333333333 -106.53433333333334 2977.11 0.0 0.0 1.0
-169.778 -115.40733333333333 3324.44 0.0 0.0 1.0
