ply
format ascii 1.0
comment VCGLIB generated
element vertex 823
property float x
property float y
property float z
property float nx
property float ny
property float nz
element face 0
property list uchar int vertex_indices
end_header
-29.3501 -111.782 1881.76 0.0 0.0 1.0
-27.50786666666667 -103.38600000000001 1887.7 0.0 0.0 1.0
-30.265866666666668 -92.1881 1835.58 0.0 0.0 1.0
-30.2439 -77.80489999999999 1824.39 0.0 0.0 1.0
-30.233033333333335 -54.54913333333334 1818.84 0.0 0.0 1.0
-30.569100000000002 -12.7642 1824.39 0.0 0.0 1.0
-30.569100000000002 -12.7642 1824.39 0.0 0.0 1.0
-30.406499999999998 -10.9756 1824.39 0.0 0.0 1.0
-30.0813 -2.3577233333333334 1824.39 0.0 0.0 1.0
-30.406499999999998 3.3333333333333335 1824.39 0.0 0.0 1.0
-30.5 21.083333333333332 1870.0 0.0 0.0 1.0
-27.00963333333333 24.951766666666668 1924.12 0.0 0.0 1.0
-27.00963333333333 24.951766666666668 1924.12 0.0 0.0 1.0
-31.708700000000004 33.39983333333333 1806.0366666666666 -2.1346373785468475e-16 0.9876184341980606 0.1568752001820905
-32.33036666666666 50.58013333333334 1765.1899999999998 1.1240880979607057e-25 2.6109472270330093e-25 1.0
-32.3304 55.771899999999995 1765.1899999999998 1.036066866433178e-27 -1.5541002896846128e-27 1.0
-32.45356666666667 76.55913333333335 1754.84 0.0 0.0 1.0
-32.7664 88.75856666666668 1754.84 0.0 0.0 1.0
-32.7664 112.53166666666668 1754.84 0.0 0.0 1.0
-31.229133333333333 119.96066666666667 1765.1899999999998 0.0 0.0 1.0
-32.01573333333334 121.53399999999999 1765.1899999999998 -2.6858553807518463e-27 -1.9696272792180324e-27 1.0
-32.64503333333334 126.254 1765.1899999999998 -7.071782009324405e-26 1.486799584200165e-25 1.0
-29.9896 -135.65966666666668 1864.17 0.0 0.0 1.0
-29.49116666666667 -135.32733333333334 1864.17 0.0 0.0 1.0
-28.82656666666667 -129.512 1864.17 0.0 0.0 1.0
-29.843266666666665 -119.62399999999998 1875.86 0.0 0.0 1.0
-29.5089 -118.78800000000001 1875.86 0.0 0.0 1.0
-30.020966666666666 -111.44666666666667 1881.76 0.0 0.0 1.0
-29.938666666666666 -91.6973 1835.58 0.0 0.0 1.0
-30.9072 -87.6656 1829.97 0.0 0.0 1.0
-30.7441 -87.33943333333332 1829.97 0.0 0.0 1.0
-30.2439 -77.80489999999999 1824.39 0.0 0.0 1.0
-30.233033333333335 -54.54913333333334 1818.84 0.0 0.0 1.0
-30.406499999999998 -47.561 1824.39 0.0 0.0 1.0
-30.7317 -46.910599999999995 1824.39 0.0 0.0 1.0
-30.8943 -46.2602 1824.39 0.0 0.0 1.0
-31.692000000000004 -26.666666666666668 1818.84 0.0 0.0 1.0
-30.7317 -23.8211 1824.39 0.0 0.0 1.0
-30.8943 -9.837396666666667 1824.39 0.0 0.0 1.0
-30.569100000000002 -2.1951233333333335 1824.39 0.0 0.0 1.0
-30.569100000000002 -2.1951233333333335 1824.39 0.0 0.0 1.0
-31.544699999999995 8.04878 1824.39 0.0 0.0 1.0
-31.331866666666667 9.849093333333334 1826.25 5.464324416572139e-16 -0.9141693215405647 0.4053325197341853
-30.933333333333337 13.702566666666668 1841.2300000000002 3.1240136248761808e-27 2.4992146598199228e-27 1.0
-27.663533333333334 12.876399999999999 1864.17 0.0 0.0 1.0
-30.5 21.083333333333332 1870.0 0.0 0.0 1.0
-31.708700000000004 33.39983333333333 1806.0366666666666 -2.1346373785468475e-16 0.9876184341980606 0.1568752001820905
-32.0796 37.97013333333334 1786.2699999999998 -5.311689855203754e-27 3.540446958177156e-27 1.0
-32.01576666666667 40.196666666666665 1765.1899999999998 -4.029352168569762e-27 1.0072953583270925e-26 1.0
-32.64503333333333 44.75906666666666 1765.1899999999998 -3.989386496662173e-27 -6.890748021442309e-27 1.0
-32.01576666666667 56.5585 1765.1899999999998 -9.85808464230264e-27 9.177987412974337e-27 1.0
-32.802366666666664 60.019666666666666 1765.1899999999998 0.0 0.0 1.0
-32.802366666666664 60.8063 1765.1899999999998 0.0 0.0 1.0
-31.671566666666667 64.5161 1754.84 0.0 0.0 1.0
-32.7664 88.75856666666668 1754.84 0.0 0.0 1.0
-32.7664 92.66860000000001 1754.84 0.0 0.0 1.0
-32.7664 93.91983333333333 1754.84 0.0 0.0 1.0
-33.0792 96.7351 1754.84 0.0 0.0 1.0
-32.9228 104.55533333333334 1754.84 0.0 0.0 1.0
-32.64503333333334 126.254 1765.1899999999998 -7.071782009324405e-26 1.486799584200165e-25 1.0
-20.6326 160.09733333333335 2183.94 0.0 0.0 1.0
-29.843266666666665 -119.62399999999998 1875.86 0.0 0.0 1.0
-29.6761 -118.78800000000001 1875.86 0.0 0.0 1.0
-29.6761 -117.78466666666667 1875.86 0.0 0.0 1.0
-30.691833333333335 -114.96866666666666 1881.76 0.0 0.0 1.0
-28.180833333333336 -104.90000000000002 1887.7 0.0 0.0 1.0
-30.886066666666665 -100.50623333333334 1893.67 0.0 0.0 1.0
-30.9072 -87.6656 1829.97 0.0 0.0 1.0
-30.9072 -87.33943333333332 1829.97 0.0 0.0 1.0
-31.529899999999998 -72.21883333333334 1818.84 0.0 0.0 1.0
-31.529899999999998 -72.21883333333334 1818.84 0.0 0.0 1.0
-32.1783 -65.57246666666667 1818.84 0.0 0.0 1.0
-31.0569 -45.6098 1824.39 0.0 0.0 1.0
-31.0569 -45.6098 1824.39 0.0 0.0 1.0
-31.692000000000004 -34.12356666666667 1818.84 0.0 0.0 1.0
-31.691999999999997 -32.1783 1818.84 0.0 0.0 1.0
-31.691999999999997 -32.1783 1818.84 0.0 0.0 1.0
-31.8541 -29.0983 1818.84 0.0 0.0 1.0
-31.382099999999998 -21.8699 1824.39 0.0 0.0 1.0
-31.382099999999998 -20.2439 1824.39 0.0 0.0 1.0
-31.0569 -16.8293 1824.39 0.0 0.0 1.0
-30.569100000000002 -12.7642 1824.39 0.0 0.0 1.0
-31.2195 -0.7317083333333333 1824.39 0.0 0.0 1.0
-30.406499999999998 3.3333333333333335 1824.39 0.0 0.0 1.0
-31.8699 5.934959999999999 1824.39 0.0 0.0 1.0
-29.823466666666665 28.161999999999995 1864.17 0.0 0.0 1.0
-30.24596666666667 26.19926666666667 1854.5500000000002 -0.8982385210997217 0.1283222558237246 0.4203581304945763
-32.0796 37.97013333333334 1786.2699999999998 -5.311689855203754e-27 3.540446958177157e-27 1.0
-32.0796 37.97013333333334 1786.2699999999998 -5.311689855203754e-27 3.540446958177158e-27 1.0
-32.01576666666667 40.196666666666665 1765.1899999999998 -4.029352168569762e-27 1.0072953583270925e-26 1.0
-32.4877 43.343133333333334 1765.1899999999998 7.254883305479025e-27 -2.539132304340262e-26 1.0
-33.431666666666665 52.467999999999996 1765.1899999999998 9.066202463373708e-28 -9.06572223653632e-28 1.0
-32.3304 55.771899999999995 1765.1899999999998 1.0360668664331784e-27 -1.5541002896846125e-27 1.0
-32.802366666666664 60.8063 1765.1899999999998 0.0 0.0 1.0
-33.52826666666667 68.69396666666667 1749.71 0.0 0.0 1.0
-33.861200000000004 84.06646666666667 1754.84 0.0 0.0 1.0
-33.5484 92.3558 1754.84 0.0 0.0 1.0
-33.2356 96.10950000000001 1754.84 0.0 0.0 1.0
-33.2356 96.10950000000001 1754.84 0.0 0.0 1.0
-33.7048 98.7683 1754.84 0.0 0.0 1.0
-32.9228 104.55533333333334 1754.84 0.0 0.0 1.0
-32.9228 104.55533333333334 1754.84 0.0 0.0 1.0
-33.0792 111.28066666666666 1754.84 0.0 0.0 1.0
-33.0792 111.28066666666666 1754.84 0.0 0.0 1.0
-32.7664 112.53166666666668 1754.84 0.0 0.0 1.0
-33.392 112.68833333333333 1754.84 0.0 0.0 1.0
-33.392 113.31400000000001 1754.84 0.0 0.0 1.0
-32.01573333333334 120.58999999999999 1765.1899999999998 -4.2973686092029494e-27 -5.5507677868871694e-27 1.0
-32.9597 125.46733333333333 1765.1899999999998 1.1993388947758782e-28 -1.6781093029654643e-27 1.0
-29.989599999999996 -135.65966666666665 1864.17 0.0 0.0 1.0
-30.512 -123.46933333333334 1875.86 0.0 0.0 1.0
-30.512 -121.96466666666667 1875.86 0.0 0.0 1.0
-29.843266666666665 -119.62399999999998 1875.86 0.0 0.0 1.0
-30.691833333333335 -112.11766666666666 1881.76 0.0 0.0 1.0
-30.162633333333332 -93.0333 1839.3466666666666 -0.47728563414997144 0.83524985976245 0.2730496204005184
-30.593033333333334 -92.02449999999999 1835.58 0.0 0.0 1.0
-31.529899999999998 -72.21883333333334 1818.84 0.0 0.0 1.0
-32.0162 -70.27356666666667 1818.84 0.0 0.0 1.0
-32.50253333333333 -61.84396666666667 1818.84 0.0 0.0 1.0
-31.529866666666667 -58.763933333333334 1818.84 0.0 0.0 1.0
-31.8541 -29.0983 1818.84 0.0 0.0 1.0
-30.7317 -23.8211 1824.39 0.0 0.0 1.0
-32.3577 -17.8049 1824.39 0.0 0.0 1.0
-30.8943 -9.837396666666667 1824.39 0.0 0.0 1.0
-31.2195 -3.4959366666666667 1824.39 0.0 0.0 1.0
-31.2195 -3.4959366666666667 1824.39 0.0 0.0 1.0
-31.2195 -0.7317083333333333 1824.39 0.0 0.0 1.0
-31.8699 5.934959999999999 1824.39 0.0 0.0 1.0
-29.823466666666665 28.161999999999995 1864.17 0.0 0.0 1.0
-32.4877 43.343133333333334 1765.1899999999998 7.254883305479025e-27 -2.539132304340262e-26 1.0
-32.802366666666664 60.019666666666666 1765.1899999999998 0.0 0.0 1.0
-33.52826666666667 68.69396666666667 1749.71 0.0 0.0 1.0
-33.52826666666667 68.69396666666667 1749.71 0.0 0.0 1.0
-34.15203333333333 71.50096666666667 1749.71 0.0 0.0 1.0
-34.308 72.90446666666666 1749.71 0.0 0.0 1.0
-33.2356 78.5924 1754.84 0.0 0.0 1.0
-33.5484 88.75856666666668 1754.84 0.0 0.0 1.0
-33.2356 96.10950000000001 1754.84 0.0 0.0 1.0
-33.7048 98.7683 1754.84 0.0 0.0 1.0
-32.7664 102.99133333333333 1754.84 0.0 0.0 1.0
-34.0176 107.68299999999999 1754.84 0.0 0.0 1.0
-34.0176 107.68299999999999 1754.84 0.0 0.0 1.0
-34.50983333333333 120.23533333333334 1760.0 0.0 0.0 1.0
-34.35296666666667 121.17633333333333 1760.0 0.0 0.0 1.0
-31.515133333333335 -124.63966666666666 1875.86 0.0 0.0 1.0
-30.34483333333333 -119.95833333333333 1875.86 0.0 0.0 1.0
-30.5241 -111.11133333333333 1881.76 0.0 0.0 1.0
-30.188666666666666 -110.77566666666667 1881.76 0.0 0.0 1.0
-31.396500000000003 -87.6656 1829.97 0.0 0.0 1.0
-32.5203 -81.86989999999999 1824.39 0.0 0.0 1.0
-32.5203 -81.86989999999999 1824.39 0.0 0.0 1.0
-32.1783 -65.57246666666667 1818.84 0.0 0.0 1.0
-32.3404 -60.70923333333334 1818.84 0.0 0.0 1.0
-33.170700000000004 -51.3008 1824.39 0.0 0.0 1.0
-33.15096666666667 -42.877399999999994 1818.84 0.0 0.0 1.0
-32.50253333333333 -34.4478 1818.84 0.0 0.0 1.0
-31.692000000000004 -32.1783 1818.84 0.0 0.0 1.0
-31.854100000000003 -29.0983 1818.84 0.0 0.0 1.0
-33.31303333333333 -24.235066666666665 1818.84 0.0 0.0 1.0
-32.1951 -16.9919 1824.39 0.0 0.0 1.0
-32.13183333333333 11.927966666666668 1820.6899999999998 0.7460763965717351 0.621734591968139 0.23836129641522544
-32.2807 16.924666666666667 1852.63 0.0 0.0 1.0
-32.3513 37.36976666666667 1788.0533333333333 0.7071009603040188 -0.7071009603040133 -0.004057569996509534
-31.0869 52.535266666666665 2178.646666666667 0.42100598214009344 0.21050299107003198 0.8822938590701089
-33.58896666666667 49.47886666666667 1765.1899999999998 -8.184554897179577e-28 4.407304023589194e-28 1.0
-34.3756 51.99603333333334 1765.1899999999998 -4.532621017568028e-28 1.8131444473072633e-27 1.0
-33.431666666666665 52.467999999999996 1765.1899999999998 9.066202463373706e-28 -9.06572223653632e-28 1.0
-34.7758 66.19883333333333 1749.71 0.0 0.0 1.0
-33.5484 76.40273333333333 1754.84 0.0 0.0 1.0
-33.861200000000004 78.43596666666667 1754.84 0.0 0.0 1.0
-34.330400000000004 85.6305 1754.84 0.0 0.0 1.0
-34.0176 85.94330000000001 1754.84 0.0 0.0 1.0
-34.330400000000004 86.0997 1754.84 0.0 0.0 1.0
-33.392 112.68833333333333 1754.84 0.0 0.0 1.0
-33.431666666666665 125.93933333333332 1765.1899999999998 2.030383755822442e-25 -7.541021551010245e-25 1.0
-23.35766666666667 159.708 2183.94 0.0 0.0 1.0
-31.817233333333334 -135.3273333333333 1864.17 0.0 0.0 1.0
-32.166666666666664 -129.25 1870.0 0.0 0.0 1.0
-30.691833333333335 -114.96866666666666 1881.76 0.0 0.0 1.0
-30.691833333333335 -112.11766666666666 1881.76 0.0 0.0 1.0
-32.20126666666667 -107.25366666666666 1881.76 0.0 0.0 1.0
-32.98883333333333 -69.94936666666666 1818.84 0.0 0.0 1.0
-33.150933333333334 -65.41033333333333 1818.84 0.0 0.0 1.0
-32.3404 -59.574466666666666 1818.84 0.0 0.0 1.0
-33.47516666666667 -45.146899999999995 1818.84 0.0 0.0 1.0
-33.47516666666667 -40.121566666666666 1818.84 0.0 0.0 1.0
-33.31303333333334 -24.23506666666667 1818.84 0.0 0.0 1.0
-31.869899999999998 5.934959999999999 1824.39 0.0 0.0 1.0
-32.5203 8.536586666666667 1824.39 0.0 0.0 1.0
-32.44583333333333 18.410733333333337 1852.63 0.0 0.0 1.0
-36.836800000000004 24.74976666666667 1833.7333333333333 -0.7204479312654457 0.35463900187222686 0.5959747953449124
-33.89556666666667 34.939766666666664 1802.41 0.0 0.0 1.0
-33.89556666666667 34.939766666666664 1802.41 0.0 0.0 1.0
-31.0869 52.535266666666665 2178.646666666667 0.4210059821401019 0.21050299107005138 0.8822938590701004
-33.27433333333333 44.601733333333335 1765.1899999999998 1.3433545268547608e-28 5.372279852247259e-28 1.0
-34.218266666666665 59.705033333333326 1765.1899999999998 9.604197581227424e-32 -3.626416955104319e-27 1.0
-34.4868 75.3079 1754.84 0.0 0.0 1.0
-34.7996 83.44086666666665 1754.84 0.0 0.0 1.0
-34.7996 89.0714 1754.84 0.0 0.0 1.0
-34.7996 89.0714 1754.84 0.0 0.0 1.0
-33.861200000000004 97.67349999999999 1754.84 0.0 0.0 1.0
-33.5484 104.399 1754.84 0.0 0.0 1.0
-36.05083333333334 116.598 1754.84 0.0 0.0 1.0
-33.431666666666665 125.93933333333332 1765.1899999999998 2.030383755822442e-25 -7.541021551010245e-25 1.0
-32.166666666666664 -129.25 1870.0 0.0 0.0 1.0
-34.21346666666667 -109.25099999999999 1828.11 -0.8431826736196554 2.5906557518412946e-14 0.5376271746364851
-34.21346666666667 -109.25099999999999 1828.11 -0.8431826736196554 2.5906557518412946e-14 0.5376271746364851
-31.682333333333332 -113.772 1875.86 0.0 0.0 1.0
-32.03353333333334 -106.07966666666668 1881.76 0.0 0.0 1.0
-30.886066666666665 -100.50623333333334 1893.67 0.0 0.0 1.0
-31.5746 -91.6973 1835.58 0.0 0.0 1.0
-33.1707 -81.7073 1824.39 0.0 0.0 1.0
-34.28573333333333 -63.302933333333335 1818.84 0.0 0.0 1.0
-33.15096666666667 -42.877399999999994 1818.84 0.0 0.0 1.0
-32.3577 -17.8049 1824.39 0.0 0.0 1.0
-32.2807 16.924666666666667 1852.63 0.0 0.0 1.0
-31.814166666666665 23.5913 1883.7533333333333 -0.9976943899521407 -7.623361309950318e-16 0.06786681264083183
-32.14853333333333 24.427266666666668 1883.7533333333333 -0.9885347295256984 5.3464878360836026e-17 0.15099367046851367
-33.74633333333333 54.51326666666666 1765.1899999999998 4.0276448762437593e-28 -1.6115701381952981e-27 1.0
-35.55553333333334 64.17153333333333 1749.71 0.0 0.0 1.0
-34.7758 66.19883333333333 1749.71 0.0 0.0 1.0
-34.7758 66.19883333333333 1749.71 0.0 0.0 1.0
-35.087700000000005 70.72126666666666 1749.71 0.0 0.0 1.0
-34.4868 75.3079 1754.84 0.0 0.0 1.0
-34.799600000000005 85.7869 1754.84 0.0 0.0 1.0
-35.4252 92.98143333333333 1754.84 0.0 0.0 1.0
-34.6432 95.9531 1754.84 0.0 0.0 1.0
-35.5816 107.37033333333333 1754.84 0.0 0.0 1.0
-35.1124 109.40366666666667 1754.84 0.0 0.0 1.0
-34.330400000000004 110.49866666666668 1754.84 0.0 0.0 1.0
-33.833333333333336 -116.25 1870.0 0.0 0.0 1.0
-32.033566666666665 -108.42766666666667 1881.76 0.0 0.0 1.0
-30.886066666666665 -100.50623333333334 1893.67 0.0 0.0 1.0
-33.516799999999996 -88.6442 1829.97 0.0 0.0 1.0
-34.47153333333333 -77.80489999999999 1824.39 0.0 0.0 1.0
-34.308899999999994 -54.715399999999995 1824.39 0.0 0.0 1.0
-33.9837 -52.1138 1824.39 0.0 0.0 1.0
-33.1707 -51.3008 1824.39 0.0 0.0 1.0
-33.63726666666667 -46.44376666666667 1818.84 0.0 0.0 1.0
-33.15096666666667 -42.877399999999994 1818.84 0.0 0.0 1.0
-34.74746666666666 -36.12123333333333 1813.33 0.0 0.0 1.0
-33.47516666666667 -33.63726666666667 1818.84 0.0 0.0 1.0
-33.8211 -12.7642 1824.39 0.0 0.0 1.0
-33.821099999999994 -12.7642 1824.39 0.0 0.0 1.0
-33.821099999999994 -11.4634 1824.39 0.0 0.0 1.0
-33.98373333333333 4.471546666666667 1824.39 0.0 0.0 1.0
-32.2807 16.924666666666667 1852.63 0.0 0.0 1.0
-32.90176666666667 22.965766666666667 1873.9066666666665 -0.9196528330224717 -0.3678391310677604 0.1375973850371323
-56.2465 20.125556666666665 1244.9366666666665 0.13011563422322064 0.1755521696608686 0.9758336730498957
-39.199466666666666 29.101433333333333 1501.006666666667 0.693706040877087 1.14242537152099e-13 0.7202582376138696
-34.09133333333333 36.934799999999996 1514.9966666666667 0.16925469323060258 -0.9799609410751633 0.10502096355725996
-34.847566666666665 49.95083333333333 1765.1899999999998 -7.342577431707576e-27 -4.656266764963366e-27 1.0
-35.16223333333333 59.86236666666667 1765.1899999999998 0.0 0.0 1.0
-35.711533333333335 68.22613333333334 1749.71 0.0 0.0 1.0
-35.711533333333335 68.22613333333334 1749.71 0.0 0.0 1.0
-35.7115 73.6842 1749.71 0.0 0.0 1.0
-34.799600000000005 85.4741 1754.84 0.0 0.0 1.0
-35.5816 87.97653333333334 1754.84 0.0 0.0 1.0
-35.1124 88.60216666666668 1754.84 0.0 0.0 1.0
-35.738 90.479 1754.84 0.0 0.0 1.0
-35.738 90.479 1754.84 0.0 0.0 1.0
-35.5816 95.4839 1754.84 0.0 0.0 1.0
-35.5816 107.37033333333333 1754.84 0.0 0.0 1.0
-32.64796666666667 -134.8286666666667 1864.17 0.0 0.0 1.0
-32.64796666666667 -134.8286666666667 1864.17 0.0 0.0 1.0
-33.5 -133.25 1870.0 0.0 0.0 1.0
-33.5 -133.25 1870.0 0.0 0.0 1.0
-32.833333333333336 -130.25 1870.0 0.0 0.0 1.0
-31.86583333333333 -109.26633333333332 1881.76 0.0 0.0 1.0
-31.713966666666664 -102.71266666666666 1887.7 0.0 0.0 1.0
-33.516799999999996 -86.52396666666668 1829.97 0.0 0.0 1.0
-33.4959 -82.8455 1824.39 0.0 0.0 1.0
-33.821099999999994 -82.35770000000001 1824.39 0.0 0.0 1.0
-34.47153333333333 -77.80489999999999 1824.39 0.0 0.0 1.0
-34.95936666666667 -73.252 1824.39 0.0 0.0 1.0
-34.1236 -69.62513333333334 1818.84 0.0 0.0 1.0
-33.799366666666664 -64.76190000000001 1818.84 0.0 0.0 1.0
-34.28573333333333 -63.302933333333335 1818.84 0.0 0.0 1.0
-33.3333 -50.325199999999995 1824.39 0.0 0.0 1.0
-34.77203333333333 -47.0922 1818.84 0.0 0.0 1.0
-33.47516666666667 -40.121566666666666 1818.84 0.0 0.0 1.0
-34.74746666666666 -36.12123333333333 1813.33 0.0 0.0 1.0
-34.447833333333335 -32.34043333333334 1818.84 0.0 0.0 1.0
-33.1707 -16.9919 1824.39 0.0 0.0 1.0
-33.8211 -12.7642 1824.39 0.0 0.0 1.0
-34.63413333333333 -10.4878 1824.39 0.0 0.0 1.0
-35.12196666666667 2.3577266666666667 1824.39 0.0 0.0 1.0
-34.63413333333333 7.398376666666667 1824.39 0.0 0.0 1.0
-34.308899999999994 12.1138 1824.39 0.0 0.0 1.0
-34.308899999999994 12.1138 1824.39 0.0 0.0 1.0
-34.166666666666664 23.75 1870.0 0.0 0.0 1.0
-34.99496666666667 40.1201 1797.0 0.0 0.0 1.0
-34.99496666666667 40.1201 1797.0 0.0 0.0 1.0
-35.94883333333333 50.89476666666667 1765.1899999999998 5.578951453735554e-28 1.1157902907471081e-27 1.0
-36.0234 68.0702 1749.71 0.0 0.0 1.0
-35.5816 86.88170000000001 1754.84 0.0 0.0 1.0
-35.8944 95.0147 1754.84 0.0 0.0 1.0
-35.166666666666664 -137.25 1870.0 0.0 0.0 1.0
-33.166666666666664 -131.41666666666666 1870.0 0.0 0.0 1.0
-32.68546666666667 -125.64266666666667 1875.86 0.0 0.0 1.0
-34.0 -122.58333333333333 1870.0 0.0 0.0 1.0
-34.0 -122.58333333333333 1870.0 0.0 0.0 1.0
-31.013566666666666 -112.769 1875.86 0.0 0.0 1.0
-32.03353333333334 -106.07966666666668 1881.76 0.0 0.0 1.0
-34.9847 -86.36086666666667 1829.97 0.0 0.0 1.0
-35.09626666666667 -57.7913 1818.84 0.0 0.0 1.0
-34.308899999999994 -54.71540000000001 1824.39 0.0 0.0 1.0
-34.6341 -54.2276 1824.39 0.0 0.0 1.0
-34.6341 -54.227599999999995 1824.39 0.0 0.0 1.0
-34.2857 -25.53193333333333 1818.84 0.0 0.0 1.0
-34.63413333333333 -10.4878 1824.39 0.0 0.0 1.0
-34.30893333333333 -3.9837399999999996 1824.39 0.0 0.0 1.0
-34.959333333333326 6.74797 1824.39 0.0 0.0 1.0
-34.308899999999994 12.1138 1824.39 0.0 0.0 1.0
-37.50643333333334 15.484466666666668 1746.3266666666666 -0.0016174498400892353 0.996575607461311 0.08267068687953204
-30.933333333333334 13.702566666666668 1841.2300000000002 -2.7421936999832585e-27 -2.2215328903606714e-27 1.0
-33.40176666666667 23.965766666666667 1873.9066666666665 -0.9127523584014975 -0.3650791063090784 0.183304059881577
-34.934133333333335 29.908833333333334 1818.84 0.0 0.0 1.0
-34.934133333333335 29.908833333333334 1818.84 0.0 0.0 1.0
-35.020066666666665 35.58233333333333 1802.41 0.0 0.0 1.0
-34.99496666666667 40.1201 1797.0 0.0 0.0 1.0
-36.116099999999996 43.643633333333334 1797.0 0.0 0.0 1.0
-35.94886666666667 60.019666666666666 1765.1899999999998 0.0 0.0 1.0
-36.4912 63.391799999999996 1749.71 0.0 0.0 1.0
-36.0234 68.0702 1749.71 0.0 0.0 1.0
-36.4912 70.87723333333334 1749.71 0.0 0.0 1.0
-35.738 89.697 1754.84 0.0 0.0 1.0
-35.8944 95.0147 1754.84 0.0 0.0 1.0
-36.6764 100.33216666666668 1754.84 0.0 0.0 1.0
-35.5816 107.37033333333333 1754.84 0.0 0.0 1.0
-35.738 112.37566666666665 1754.84 0.0 0.0 1.0
-36.05083333333334 116.598 1754.84 0.0 0.0 1.0
-36.549033333333334 123.843 1760.0 0.0 0.0 1.0
-36.549033333333334 123.843 1760.0 0.0 0.0 1.0
-32.68546666666667 -125.64266666666667 1875.86 0.0 0.0 1.0
-33.833333333333336 -116.25 1870.0 0.0 0.0 1.0
-34.9847 -88.48110000000001 1829.97 0.0 0.0 1.0
-35.6098 -74.71543333333334 1824.39 0.0 0.0 1.0
-35.6098 -74.71543333333334 1824.39 0.0 0.0 1.0
-35.906800000000004 -68.49036666666666 1818.84 0.0 0.0 1.0
-34.28573333333333 -63.302933333333335 1818.84 0.0 0.0 1.0
-35.09626666666667 -57.7913 1818.84 0.0 0.0 1.0
-35.42046666666667 -57.305 1818.84 0.0 0.0 1.0
-35.25836666666667 -30.71936666666667 1818.84 0.0 0.0 1.0
-36.068900000000006 -28.125633333333337 1818.84 0.0 0.0 1.0
-36.068900000000006 -21.155033333333336 1818.84 0.0 0.0 1.0
-34.63413333333333 -10.4878 1824.39 0.0 0.0 1.0
-34.95936666666666 8.373986666666667 1824.39 0.0 0.0 1.0
-34.934133333333335 29.908833333333334 1818.84 0.0 0.0 1.0
-37.494933333333336 28.525233333333333 1813.33 0.0 0.0 1.0
-36.5966 42.84283333333334 1797.0 0.0 0.0 1.0
-36.7355 59.390366666666665 1765.1899999999998 0.0 0.0 1.0
-36.98923333333334 79.218 1754.84 0.0 0.0 1.0
-36.98923333333334 79.218 1754.84 0.0 0.0 1.0
-37.302033333333334 83.5973 1754.84 0.0 0.0 1.0
-37.302033333333334 83.5973 1754.84 0.0 0.0 1.0
-36.6764 100.33216666666665 1754.84 0.0 0.0 1.0
-36.6764 100.33216666666668 1754.84 0.0 0.0 1.0
-36.0508 111.75 1754.84 0.0 0.0 1.0
-36.70589999999999 122.43133333333333 1760.0 0.0 0.0 1.0
-26.277366666666666 159.51333333333332 2183.94 0.0 0.0 1.0
-34.0 -133.91666666666666 1870.0 0.0 0.0 1.0
-34.0 -133.91666666666666 1870.0 0.0 0.0 1.0
-39.005433333333336 -116.68866666666668 1789.8366666666668 0.8223105865774537 -1.6566505215904007e-14 0.5690389259116145
-33.35423333333333 -118.45366666666666 1875.86 0.0 0.0 1.0
-31.713966666666664 -102.71266666666666 1887.7 0.0 0.0 1.0
-35.9633 -83.58819999999999 1829.97 0.0 0.0 1.0
-34.95936666666667 -76.9919 1824.39 0.0 0.0 1.0
-34.95936666666666 -73.252 1824.39 0.0 0.0 1.0
-35.55553333333333 -36.92933333333334 1813.33 0.0 0.0 1.0
-36.231033333333336 -20.8308 1818.84 0.0 0.0 1.0
-35.44716666666667 -12.6016 1824.39 0.0 0.0 1.0
-35.7724 -8.69919 1824.39 0.0 0.0 1.0
-35.772400000000005 -8.69919 1824.39 0.0 0.0 1.0
-35.12196666666667 2.3577266666666667 1824.39 0.0 0.0 1.0
-35.935 3.8211399999999998 1824.39 0.0 0.0 1.0
-34.95936666666666 8.373986666666667 1824.39 0.0 0.0 1.0
-35.44716666666667 13.4146 1824.39 0.0 0.0 1.0
-37.50643333333333 15.484466666666668 1746.3266666666666 -0.0016174498400920762 0.996575607461311 0.08267068687953244
-34.166666666666664 23.75 1870.0 0.0 0.0 1.0
-37.20746666666667 51.20943333333333 1765.1899999999998 1.0858074800114796e-25 -3.836861303505054e-25 1.0
-37.679433333333336 55.2999 1765.1899999999998 -1.4503619056059904e-26 3.6266731269656077e-26 1.0
-36.98923333333334 79.218 1754.84 0.0 0.0 1.0
-37.30206666666666 95.7967 1754.84 0.0 0.0 1.0
-37.30206666666666 103.46033333333332 1754.84 0.0 0.0 1.0
-38.050666666666665 112.20299999999999 1749.71 0.0 0.0 1.0
-37.458466666666666 117.06733333333334 1754.84 0.0 0.0 1.0
-36.549033333333334 123.843 1760.0 0.0 0.0 1.0
-35.166666666666664 -119.91666666666667 1870.0 0.0 0.0 1.0
-35.166666666666664 -119.91666666666667 1870.0 0.0 0.0 1.0
-33.833333333333336 -116.25 1870.0 0.0 0.0 1.0
-34.666666666666664 -114.91666666666667 1870.0 0.0 0.0 1.0
-42.41773333333333 -68.7615 1313.2633333333333 -0.44360375742886765 0.8872180735837848 0.1267272516125401
-39.43236666666667 -91.81053333333334 1698.3999999999999 0.9677744190675227 0.2419702946295118 0.06973557424604429
-35.9633 -83.58819999999999 1829.97 0.0 0.0 1.0
-35.906800000000004 -68.49036666666666 1818.84 0.0 0.0 1.0
-36.231 -67.51773333333334 1818.84 0.0 0.0 1.0
-36.555200000000006 -66.54506666666667 1818.84 0.0 0.0 1.0
-36.068900000000006 -57.305 1818.84 0.0 0.0 1.0
-37.203633333333336 -50.820699999999995 1818.84 0.0 0.0 1.0
-36.7173 -47.2543 1818.84 0.0 0.0 1.0
-37.1717 -38.22226666666666 1813.33 0.0 0.0 1.0
-35.55553333333334 -35.47476666666667 1813.33 0.0 0.0 1.0
-36.87943333333333 -28.44983333333333 1818.84 0.0 0.0 1.0
-35.772400000000005 -8.69919 1824.39 0.0 0.0 1.0
-35.935 3.8211399999999998 1824.39 0.0 0.0 1.0
-35.935 3.82114 1824.39 0.0 0.0 1.0
-36.422799999999995 6.585366666666666 1824.39 0.0 0.0 1.0
-34.166666666666664 23.75 1870.0 0.0 0.0 1.0
-37.3011 29.566966666666662 1807.8499999999997 3.950978941067186e-27 -4.938315010742213e-27 1.0
-37.10843333333334 32.69076666666667 1802.41 0.0 0.0 1.0
-36.78713333333334 35.58233333333333 1802.41 0.0 0.0 1.0
-36.5966 42.84283333333334 1797.0 0.0 0.0 1.0
-37.679433333333336 55.2999 1765.1899999999998 -1.4503619056059924e-26 3.626673126965614e-26 1.0
-37.522133333333336 59.23303333333333 1765.1899999999998 -1.208848341923217e-27 -6.044882012066932e-28 1.0
-38.588233333333335 63.137233333333334 1760.0 0.0 0.0 1.0
-36.4912 63.391799999999996 1749.71 0.0 0.0 1.0
-38.2066 72.12476666666667 1749.71 0.0 0.0 1.0
-38.518499999999996 74.15203333333334 1749.71 0.0 0.0 1.0
-37.14566666666666 105.49366666666667 1754.84 0.0 0.0 1.0
-38.050666666666665 112.20299999999999 1749.71 0.0 0.0 1.0
-37.73876666666667 113.29466666666667 1749.71 0.0 0.0 1.0
-36.2733 -123.478 1858.39 0.0 0.0 1.0
-35.166666666666664 -119.91666666666667 1870.0 0.0 0.0 1.0
-33.521433333333334 -118.788 1875.86 0.0 0.0 1.0
-35.48713333333333 -107.781 1822.5633333333335 -0.9140912281411095 -0.38780182148925385 0.118519930328594
-34.21346666666667 -109.25100000000002 1828.11 -0.8431826736196554 2.5906557518412946e-14 0.5376271746364851
-39.43236666666667 -91.81053333333334 1698.3999999999999 0.9677744190675224 0.241970294629514 0.06973557424604472
-39.43236666666667 -91.81053333333334 1698.3999999999999 0.9677744190675227 0.24197029462951253 0.06973557424604426
-37.105 -87.17633333333333 1829.97 0.0 0.0 1.0
-35.9633 -83.58819999999999 1829.97 0.0 0.0 1.0
-35.772400000000005 -73.9024 1824.39 0.0 0.0 1.0
-35.44716666666667 -72.2764 1824.39 0.0 0.0 1.0
-36.87943333333333 -57.467099999999995 1818.84 0.0 0.0 1.0
-36.87943333333333 -45.957433333333334 1818.84 0.0 0.0 1.0
-37.041500000000006 -42.066833333333335 1818.84 0.0 0.0 1.0
-36.87943333333333 -28.44983333333333 1818.84 0.0 0.0 1.0
-36.5854 -12.2764 1824.39 0.0 0.0 1.0
-37.07320000000001 -2.84553 1824.39 0.0 0.0 1.0
-36.9106 6.0975633333333334 1824.39 0.0 0.0 1.0
-36.9106 6.91057 1824.39 0.0 0.0 1.0
-36.748 14.065 1824.39 0.0 0.0 1.0
-37.50643333333333 15.484466666666668 1746.3266666666666 -0.0016174498400859502 0.9965756074613112 0.08267068687953158
-37.10843333333333 31.887533333333334 1802.41 0.0 0.0 1.0
-37.429700000000004 33.1727 1802.41 0.0 0.0 1.0
-36.5966 42.84283333333334 1797.0 0.0 0.0 1.0
-38.8304 68.69393333333333 1749.71 0.0 0.0 1.0
-38.986333333333334 77.27093333333333 1749.71 0.0 0.0 1.0
-37.45846666666666 79.5308 1754.84 0.0 0.0 1.0
-38.084066666666665 83.4409 1754.84 0.0 0.0 1.0
-38.5533 91.5738 1754.84 0.0 0.0 1.0
-38.5533 91.5738 1754.84 0.0 0.0 1.0
-37.30206666666666 95.7967 1754.84 0.0 0.0 1.0
-39.766099999999994 96.92009999999999 1749.71 0.0 0.0 1.0
-38.8304 105.02933333333333 1749.71 0.0 0.0 1.0
-36.60456666666667 -122.31866666666666 1858.39 0.0 0.0 1.0
-36.4526 -85.54536666666667 1829.97 0.0 0.0 1.0
-37.7236 -81.0569 1824.39 0.0 0.0 1.0
-37.36573333333333 -68.9767 1818.84 0.0 0.0 1.0
-37.52786666666666 -65.41033333333333 1818.84 0.0 0.0 1.0
-37.68996666666666 -64.5998 1818.84 0.0 0.0 1.0
-37.68996666666666 -61.84396666666667 1818.84 0.0 0.0 1.0
-36.42276666666666 -54.227599999999995 1824.39 0.0 0.0 1.0
-36.7173 -47.2543 1818.84 0.0 0.0 1.0
-37.20363333333333 -43.201600000000006 1818.84 0.0 0.0 1.0
-37.041500000000006 -42.066833333333335 1818.84 0.0 0.0 1.0
-37.36573333333333 -21.96556666666667 1818.84 0.0 0.0 1.0
-37.36573333333333 -21.96556666666667 1818.84 0.0 0.0 1.0
-37.07320000000001 -12.7642 1824.39 0.0 0.0 1.0
-36.2602 -9.024393333333334 1824.39 0.0 0.0 1.0
-37.07320000000001 -2.84553 1824.39 0.0 0.0 1.0
-37.07320000000001 5.934959999999999 1824.39 0.0 0.0 1.0
-36.910599999999995 6.91057 1824.39 0.0 0.0 1.0
-36.9106 6.91057 1824.39 0.0 0.0 1.0
-37.3011 29.56696666666667 1807.8499999999997 9.87919888015689e-28 9.876279788453578e-28 1.0
-37.10843333333334 31.887533333333334 1802.41 0.0 0.0 1.0
-39.410066666666665 49.32153333333334 1765.1899999999998 3.5811967015925736e-28 1.6713094376786433e-27 1.0
-37.679433333333336 55.2999 1765.1899999999998 -1.4503619056059924e-26 3.626673126965614e-26 1.0
-37.52213333333333 59.23303333333333 1765.1899999999998 2.417696683846434e-27 1.2089764024133863e-27 1.0
-38.588233333333335 63.137233333333334 1760.0 0.0 0.0 1.0
-38.745066666666666 64.7059 1760.0 0.0 0.0 1.0
-39.1423 67.9142 1749.71 0.0 0.0 1.0
-38.67443333333333 70.8772 1749.71 0.0 0.0 1.0
-38.986333333333334 73.9961 1749.71 0.0 0.0 1.0
-38.518499999999996 74.15203333333334 1749.71 0.0 0.0 1.0
-39.45416666666667 79.4542 1749.71 0.0 0.0 1.0
-39.8045 87.9765 1754.84 0.0 0.0 1.0
-38.986333333333334 103.31400000000001 1749.71 0.0 0.0 1.0
-39.1423 104.09366666666666 1749.71 0.0 0.0 1.0
-38.8304 111.735 1749.71 0.0 0.0 1.0
-38.5533 118.63133333333333 1754.84 0.0 0.0 1.0
-38.5882 125.72533333333332 1760.0 0.0 0.0 1.0
-38.5882 125.72533333333335 1760.0 0.0 0.0 1.0
-38.5882 125.72533333333335 1760.0 0.0 0.0 1.0
-37.101466666666674 -124.472 1858.39 0.0 0.0 1.0
-24.45403333333333 -125.51233333333334 2178.646666666667 -0.47316458194632527 -1.859760719885545e-13 0.8809740509183906
-24.45403333333333 -125.51233333333334 2178.646666666667 -0.47316458194632527 -1.859760719885545e-13 0.8809740509183906
-37.2681 -83.4251 1829.97 0.0 0.0 1.0
-37.7236 -81.0569 1824.39 0.0 0.0 1.0
-37.52786666666666 -65.89666666666666 1818.84 0.0 0.0 1.0
-37.52786666666666 -65.89666666666666 1818.84 0.0 0.0 1.0
-37.68996666666666 -65.0861 1818.84 0.0 0.0 1.0
-37.852066666666666 -61.51976666666667 1818.84 0.0 0.0 1.0
-37.69 -59.412366666666664 1818.84 0.0 0.0 1.0
-37.8521 -57.467099999999995 1818.84 0.0 0.0 1.0
-37.8521 -57.467099999999995 1818.84 0.0 0.0 1.0
-36.42276666666666 -54.227599999999995 1824.39 0.0 0.0 1.0
-37.20363333333333 -44.66056666666666 1818.84 0.0 0.0 1.0
-36.39313333333333 -30.233066666666662 1818.84 0.0 0.0 1.0
-36.87943333333333 -28.449833333333334 1818.84 0.0 0.0 1.0
-38.01416666666666 -21.317133333333334 1818.84 0.0 0.0 1.0
-38.1763 -20.344466666666666 1818.84 0.0 0.0 1.0
-39.31106666666667 -15.481233333333334 1818.84 0.0 0.0 1.0
-37.3984 -11.9512 1824.39 0.0 0.0 1.0
-37.3984 -3.65854 1824.39 0.0 0.0 1.0
-37.2358 6.0975633333333334 1824.39 0.0 0.0 1.0
-38.68013333333334 17.397333333333336 1736.2133333333331 -0.8487133785936758 0.4827643764416707 0.21592627870408207
-37.3011 29.56696666666667 1807.8499999999997 9.87919888015689e-28 9.876279788453578e-28 1.0
-39.72469999999999 51.209466666666664 1765.1899999999998 2.7197166709608757e-27 -9.067322936133126e-28 1.0
-39.37253333333333 65.1765 1760.0 0.0 0.0 1.0
-39.02269999999999 66.39059999999999 1754.8500000000001 0.0002648596866210573 0.9733182289477625 0.22945926664080762
-39.45416666666667 70.40936666666667 1749.71 0.0 0.0 1.0
-39.61013333333333 73.52826666666667 1749.71 0.0 0.0 1.0
-38.986333333333334 77.27093333333333 1749.71 0.0 0.0 1.0
-38.986333333333334 77.27093333333333 1749.71 0.0 0.0 1.0
-39.4917 83.7537 1754.84 0.0 0.0 1.0
-39.1789 91.1046 1754.84 0.0 0.0 1.0
-39.922 93.64523333333334 1749.71 0.0 0.0 1.0
-39.142266666666664 102.37833333333333 1749.71 0.0 0.0 1.0
-39.14226666666667 102.37833333333333 1749.71 0.0 0.0 1.0
-39.61013333333333 105.497 1749.71 0.0 0.0 1.0
-39.298233333333336 110.955 1749.71 0.0 0.0 1.0
-39.922 117.03699999999999 1749.71 0.0 0.0 1.0
-39.9609 121.134 1754.84 0.0 0.0 1.0
-35.333333333333336 -134.25 1870.0 0.0 0.0 1.0
-37.0324 -130.99266666666668 1875.86 0.0 0.0 1.0
-37.19956666666667 -128.15033333333335 1875.86 0.0 0.0 1.0
-37.19956666666667 -128.15033333333335 1875.86 0.0 0.0 1.0
-36.5 -120.58333333333333 1870.0 0.0 0.0 1.0
-52.942433333333334 -68.54866666666668 1195.2066666666667 -0.9459062083116417 0.15764280744406758 0.2835669062825307
-39.2638 -92.6789 1835.58 0.0 0.0 1.0
-39.2638 -92.6789 1835.58 0.0 0.0 1.0
-38.2467 -87.99180000000001 1829.97 0.0 0.0 1.0
-37.2681 -83.4251 1829.97 0.0 0.0 1.0
-38.1763 -67.67983333333332 1818.84 0.0 0.0 1.0
-37.8521 -65.24823333333335 1818.84 0.0 0.0 1.0
-38.01416666666666 -62.0061 1818.84 0.0 0.0 1.0
-37.8521 -57.467099999999995 1818.84 0.0 0.0 1.0
-38.1763 -52.60386666666667 1818.84 0.0 0.0 1.0
-38.3384 -23.2624 1818.84 0.0 0.0 1.0
-37.3984 -11.9512 1824.39 0.0 0.0 1.0
-39.311033333333334 -6.727456666666666 1818.84 0.0 0.0 1.0
-37.3984 -3.65854 1824.39 0.0 0.0 1.0
-37.8862 14.5528 1824.39 0.0 0.0 1.0
-37.494933333333336 28.525233333333333 1813.33 0.0 0.0 1.0
-38.07226666666667 33.97593333333333 1802.41 0.0 0.0 1.0
-39.03613333333333 34.9398 1802.41 0.0 0.0 1.0
-39.19676666666667 40.88353333333333 1802.41 0.0 0.0 1.0
-38.875499999999995 42.16866666666667 1802.41 0.0 0.0 1.0
-39.882 51.68143333333333 1765.1899999999998 0.0 0.0 1.0
-39.724666666666664 56.55853333333334 1765.1899999999998 2.6186947687970234e-27 2.8201623772255123e-27 1.0
-38.588233333333335 63.137233333333334 1760.0 0.0 0.0 1.0
-39.0225 82.97166666666665 1754.84 0.0 0.0 1.0
-39.8045 87.9765 1754.84 0.0 0.0 1.0
-39.0225 91.8866 1754.84 0.0 0.0 1.0
-39.61013333333333 105.497 1749.71 0.0 0.0 1.0
-39.76606666666667 105.80900000000001 1749.71 0.0 0.0 1.0
-39.298233333333336 110.955 1749.71 0.0 0.0 1.0
-39.7661 112.51466666666666 1749.71 0.0 0.0 1.0
-39.9609 121.134 1754.84 0.0 0.0 1.0
-31.3382 159.51333333333332 2183.94 0.0 0.0 1.0
-37.666666666666664 -136.91666666666666 1870.0 0.0 0.0 1.0
-37.0324 -130.99266666666668 1875.86 0.0 0.0 1.0
-37.929633333333335 -121.98766666666666 1858.39 0.0 0.0 1.0
-36.666666666666664 -120.08333333333333 1870.0 0.0 0.0 1.0
-52.942433333333334 -68.54866666666668 1195.2066666666667 -0.945906208311642 0.15764280744406758 0.28356690628253056
-38.374 -81.3821 1824.39 0.0 0.0 1.0
-39.473166666666664 -70.27356666666667 1818.84 0.0 0.0 1.0
-38.6626 -68.65246666666667 1818.84 0.0 0.0 1.0
-38.1763 -61.68186666666667 1818.84 0.0 0.0 1.0
-39.43436666666667 -34.020199999999996 1813.33 0.0 0.0 1.0
-39.311033333333334 -6.727456666666666 1818.84 0.0 0.0 1.0
-38.0488 -1.3821123333333336 1824.39 0.0 0.0 1.0
-38.0488 -1.3821123333333336 1824.39 0.0 0.0 1.0
-37.494933333333336 28.525233333333333 1813.33 0.0 0.0 1.0
-39.03613333333333 34.9398 1802.41 0.0 0.0 1.0
-39.92203333333333 68.07016666666667 1749.71 0.0 0.0 1.0
-40.07796666666667 70.25343333333335 1749.71 0.0 0.0 1.0
-40.2339 80.23393333333333 1749.71 0.0 0.0 1.0
-40.7429 85.94330000000001 1754.84 0.0 0.0 1.0
-39.6481 91.4174 1754.84 0.0 0.0 1.0
-40.38986666666667 92.70956666666666 1749.71 0.0 0.0 1.0
-40.389833333333335 94.269 1749.71 0.0 0.0 1.0
-39.7661 96.92009999999999 1749.71 0.0 0.0 1.0
-39.76606666666667 105.80900000000001 1749.71 0.0 0.0 1.0
-40.389833333333335 108.616 1749.71 0.0 0.0 1.0
-40.389833333333335 115.94533333333334 1749.71 0.0 0.0 1.0
-40.5458 117.97266666666667 1749.71 0.0 0.0 1.0
-37.86833333333333 -127.81599999999999 1875.86 0.0 0.0 1.0
-40.70943333333334 -124.84500000000001 1891.6933333333334 -0.522829359017732 -0.7838299162620347 0.33505241936413316
-33.33083333333334 -115.426 1883.74 0.6798472497012477 5.829837850200563e-17 0.7333537462055058
-38.88543333333333 -99.97936666666668 1852.63 0.0 0.0 1.0
-39.05056666666667 -98.16306666666667 1852.63 0.0 0.0 1.0
-39.02440000000001 -81.2195 1824.39 0.0 0.0 1.0
-38.5366 -73.9024 1824.39 0.0 0.0 1.0
-39.14893333333333 -69.3009 1818.84 0.0 0.0 1.0
-39.14893333333333 -56.81863333333333 1818.84 0.0 0.0 1.0
-40.40403333333333 -39.03033333333334 1813.33 0.0 0.0 1.0
-38.1763 -20.344466666666666 1818.84 0.0 0.0 1.0
-40.162600000000005 8.69919 1824.39 0.0 0.0 1.0
-39.187 10.162596666666667 1824.39 0.0 0.0 1.0
-37.8862 14.5528 1824.39 0.0 0.0 1.0
-43.519866666666665 21.12836666666667 1663.7733333333333 -0.9563832201572178 -0.2732304519924769 0.1033259711093836
-37.2962 25.834566666666664 1864.1866666666667 -0.6999502024729268 -0.6990999413780467 0.14604446591131212
-39.51806666666667 34.9398 1802.41 0.0 0.0 1.0
-40.48193333333333 38.152633333333334 1802.41 0.0 0.0 1.0
-39.678733333333334 42.81123333333333 1802.41 0.0 0.0 1.0
-40.313733333333325 64.86276666666667 1760.0 0.0 0.0 1.0
-40.54583333333333 69.94156666666667 1749.71 0.0 0.0 1.0
-40.54583333333333 69.94156666666667 1749.71 0.0 0.0 1.0
-40.8577 73.37233333333333 1749.71 0.0 0.0 1.0
-40.38986666666667 76.3353 1749.71 0.0 0.0 1.0
-40.7429 85.94330000000001 1754.84 0.0 0.0 1.0
-41.169599999999996 92.24173333333333 1749.71 0.0 0.0 1.0
-40.38986666666667 95.82846666666667 1749.71 0.0 0.0 1.0
-40.54583333333333 112.82666666666667 1749.71 0.0 0.0 1.0
-31.3382 159.51333333333332 2183.94 0.0 0.0 1.0
-37.666666666666664 -136.91666666666666 1870.0 0.0 0.0 1.0
-38.42653333333334 -124.141 1858.39 0.0 0.0 1.0
-40.2395 -115.36933333333333 1791.62 0.0 0.0 1.0
-40.2395 -115.36933333333333 1791.62 0.0 0.0 1.0
-40.2395 -115.36933333333333 1791.62 0.0 0.0 1.0
-52.942433333333334 -68.54866666666668 1195.2066666666667 -0.9459062083116417 0.15764280744406758 0.2835669062825307
-38.88543333333333 -99.97936666666668 1852.63 0.0 0.0 1.0
-39.0244 -81.2195 1824.39 0.0 0.0 1.0
-39.635266666666666 -69.78723333333333 1818.84 0.0 0.0 1.0
-39.9595 -43.85006666666666 1818.84 0.0 0.0 1.0
-39.43436666666667 -34.020199999999996 1813.33 0.0 0.0 1.0
-39.43436666666667 -34.020199999999996 1813.33 0.0 0.0 1.0
-40.0808 -30.141400000000004 1813.33 0.0 0.0 1.0
-39.31106666666667 -23.7487 1818.84 0.0 0.0 1.0
-40.1216 -16.616033333333334 1818.84 0.0 0.0 1.0
-38.211400000000005 -10.3252 1824.39 0.0 0.0 1.0
-40.0 11.1382 1824.39 0.0 0.0 1.0
-42.90443333333334 21.23313333333333 1671.5333333333335 -0.9595509633488702 -0.2741354489495638 0.06412257297922322
-35.8476 26.639599999999998 1862.2433333333336 0.06622878389391017 -0.9935114880842871 0.09245902459186518
-39.51806666666667 34.9398 1802.41 0.0 0.0 1.0
-41.29793333333333 49.164199999999994 1765.1899999999998 -1.1527886479277822e-30 -3.264697499679916e-26 1.0
-40.9833 50.73746666666667 1765.1899999999998 1.450600951857319e-26 3.2230264569022338e-27 1.0
-41.1406 58.60373333333334 1765.1899999999998 -1.015407006514352e-25 2.900723811212068e-26 1.0
-40.38986666666667 76.3353 1749.71 0.0 0.0 1.0
-41.48146666666667 79.29823333333333 1749.71 0.0 0.0 1.0
-41.36853333333334 84.6921 1754.84 0.0 0.0 1.0
-41.6813 87.6637 1754.84 0.0 0.0 1.0
-41.169599999999996 104.09366666666666 1749.71 0.0 0.0 1.0
-41.32556666666667 112.82666666666667 1749.71 0.0 0.0 1.0
-40.4301 122.22866666666668 1754.84 0.0 0.0 1.0
-41.2121 123.32366666666667 1754.84 0.0 0.0 1.0
-40.041799999999995 -138.18166666666667 1875.86 0.0 0.0 1.0
-37.86833333333333 -127.81599999999999 1875.86 0.0 0.0 1.0
-39.8354 -104.93833333333333 1846.91 0.0 0.0 1.0
-39.05056666666667 -98.98863333333334 1852.63 0.0 0.0 1.0
-39.05056666666667 -98.16306666666667 1852.63 0.0 0.0 1.0
-40.367 -86.52396666666668 1829.97 0.0 0.0 1.0
-38.5366 -73.9024 1824.39 0.0 0.0 1.0
-39.635266666666666 -69.78723333333333 1818.84 0.0 0.0 1.0
-40.6079 -64.924 1818.84 0.0 0.0 1.0
-40.4458 -56.494400000000006 1818.84 0.0 0.0 1.0
-39.959466666666664 -53.5765 1818.84 0.0 0.0 1.0
-40.9321 -48.38906666666666 1818.84 0.0 0.0 1.0
-39.9595 -43.85006666666666 1818.84 0.0 0.0 1.0
-39.9595 -43.85006666666666 1818.84 0.0 0.0 1.0
-40.0808 -30.141400000000004 1813.33 0.0 0.0 1.0
-40.40403333333334 -29.656533333333332 1813.33 0.0 0.0 1.0
-39.635266666666666 -28.44983333333333 1818.84 0.0 0.0 1.0
-39.31106666666667 -23.7487 1818.84 0.0 0.0 1.0
-40.4458 -17.264466666666667 1818.84 0.0 0.0 1.0
-40.6504 1.8699200000000002 1824.39 0.0 0.0 1.0
-39.837399999999995 17.479666666666667 1824.39 0.0 0.0 1.0
-43.519866666666665 21.12836666666667 1663.7733333333333 -0.9563832201572179 -0.2732304519924767 0.10332597110938374
-39.51806666666667 39.43776666666667 1802.41 0.0 0.0 1.0
-41.22156666666667 47.368 1768.67 -0.9997595176044636 3.0290771615368498e-15 0.02192959095128674
-41.22156666666667 47.368 1768.67 -0.9997595176044632 5.245572207761423e-15 0.021929590951288026
-41.29793333333333 49.164199999999994 1765.1899999999998 -1.1527886479273648e-30 -3.264697499679916e-26 1.0
-41.61259999999999 51.68143333333333 1765.1899999999998 4.8345396853532985e-27 4.028726163393146e-27 1.0
-41.45523333333333 57.97443333333334 1765.1899999999998 -7.251809528030051e-27 1.4503619056060323e-26 1.0
-41.45523333333333 57.97443333333334 1765.1899999999998 -7.251809528030051e-27 1.4503619056060323e-26 1.0
-41.568666666666665 63.137233333333334 1760.0 0.0 0.0 1.0
-41.411766666666665 64.7059 1760.0 0.0 0.0 1.0
-41.1696 78.20663333333333 1749.71 0.0 0.0 1.0
-41.637433333333334 80.38983333333334 1749.71 0.0 0.0 1.0
-41.5249 86.2561 1754.84 0.0 0.0 1.0
-41.5249 88.44573333333334 1754.84 0.0 0.0 1.0
-41.48146666666666 93.80116666666667 1749.71 0.0 0.0 1.0
-41.48146666666667 106.277 1749.71 0.0 0.0 1.0
-41.32553333333333 115.32166666666666 1749.71 0.0 0.0 1.0
-41.2121 123.32366666666667 1754.84 0.0 0.0 1.0
-40.041799999999995 -138.18166666666667 1875.86 0.0 0.0 1.0
-39.91613333333333 -130.063 1881.76 0.0 0.0 1.0
-37.929633333333335 -121.98766666666666 1858.39 0.0 0.0 1.0
-40.86686666666666 -122.76566666666666 1852.63 0.0 0.0 1.0
-41.64606666666666 -111.52266666666667 1846.91 0.0 0.0 1.0
-40.493833333333335 -105.926 1846.91 0.0 0.0 1.0
-40.493833333333335 -105.926 1846.91 0.0 0.0 1.0
-41.1825 -87.99183333333333 1829.97 0.0 0.0 1.0
-40.813 -78.29270000000001 1824.39 0.0 0.0 1.0
-40.6079 -64.924 1818.84 0.0 0.0 1.0
-40.1216 -44.4985 1818.84 0.0 0.0 1.0
-40.40403333333333 -39.03033333333334 1813.33 0.0 0.0 1.0
-40.40403333333334 -29.656533333333332 1813.33 0.0 0.0 1.0
-40.2837 -15.643366666666665 1818.84 0.0 0.0 1.0
-40.6079 -14.994933333333334 1818.84 0.0 0.0 1.0
-40.6079 -14.994933333333334 1818.84 0.0 0.0 1.0
-38.6992 -12.2764 1824.39 0.0 0.0 1.0
-41.0194 -9.867496666666666 1829.97 0.0 0.0 1.0
-41.0942 -2.5126666666666666 1818.84 0.0 0.0 1.0
-40.6504 1.8699200000000002 1824.39 0.0 0.0 1.0
-40.97560000000001 8.536586666666667 1824.39 0.0 0.0 1.0
-41.1382 19.430899999999998 1824.39 0.0 0.0 1.0
-42.84846666666667 20.4516 1680.9766666666667 0.9974105381130197 -0.06653952235624884 0.027289383021585362
-41.812666666666665 31.661633333333338 1807.8499999999997 2.560403408365789e-28 1.6646065857430407e-27 1.0
-41.12453333333334 43.45383333333333 1802.41 0.0 0.0 1.0
-41.12453333333334 43.453833333333336 1802.41 0.0 0.0 1.0
-41.29793333333333 49.164199999999994 1765.1899999999998 -1.152788647927996e-30 -3.264697499679916e-26 1.0
-41.45523333333333 57.97443333333334 1765.1899999999998 -7.251809528030051e-27 1.4503619056060323e-26 1.0
-41.568666666666665 63.137233333333334 1760.0 0.0 0.0 1.0
-41.949333333333335 66.97853333333335 1749.71 0.0 0.0 1.0
-42.26123333333333 70.72126666666668 1749.71 0.0 0.0 1.0
-42.105266666666665 81.6374 1749.71 0.0 0.0 1.0
-42.306900000000006 86.88170000000001 1754.84 0.0 0.0 1.0
-41.6813 87.6637 1754.84 0.0 0.0 1.0
-41.32556666666667 112.82666666666667 1749.71 0.0 0.0 1.0
-41.32553333333333 115.32166666666666 1749.71 0.0 0.0 1.0
-42.105266666666665 118.59633333333333 1749.71 0.0 0.0 1.0
-39.91613333333333 -130.063 1881.76 0.0 0.0 1.0
-40.86686666666667 -122.76566666666668 1852.63 0.0 0.0 1.0
-40.98766666666666 -119.58833333333332 1846.91 0.0 0.0 1.0
-41.15226666666666 -116.13166666666666 1846.91 0.0 0.0 1.0
-41.15226666666667 -107.40733333333333 1846.91 0.0 0.0 1.0
-41.15226666666666 -97.36626666666666 1846.91 0.0 0.0 1.0
-40.8563 -86.19779999999999 1829.97 0.0 0.0 1.0
-40.813 -78.2927 1824.39 0.0 0.0 1.0
-40.813 -78.29270000000001 1824.39 0.0 0.0 1.0
-40.6079 -64.924 1818.84 0.0 0.0 1.0
-40.9321 -53.09016666666667 1818.84 0.0 0.0 1.0
-40.9321 -48.38906666666666 1818.84 0.0 0.0 1.0
-42.020199999999996 -44.0404 1813.33 0.0 0.0 1.0
-41.212133333333334 -37.899 1813.33 0.0 0.0 1.0
-41.580533333333335 -28.44983333333333 1818.84 0.0 0.0 1.0
-41.74263333333334 -21.965533333333337 1818.84 0.0 0.0 1.0
-41.4184 -18.885500000000004 1818.84 0.0 0.0 1.0
-41.580533333333335 -5.106386666666666 1818.84 0.0 0.0 1.0
-41.4184 -1.7021299999999997 1818.84 0.0 0.0 1.0
-40.97560000000001 8.536586666666667 1824.39 0.0 0.0 1.0
-44.538900000000005 22.674966666666666 1657.6499999999999 -0.9931053642869991 0.0015580101075348984 0.11721479441133618
-42.8774 28.611966666666664 1818.84 0.0 0.0 1.0
-41.812666666666665 31.661633333333338 1807.8499999999997 2.560403408365789e-28 1.6646065857430407e-27 1.0
-40.3213 36.70686666666666 1802.41 0.0 0.0 1.0
-41.12453333333334 43.453833333333336 1802.41 0.0 0.0 1.0
-42.55656666666667 53.25466666666667 1765.1899999999998 -1.208754429992506e-26 4.835222602283688e-27 1.0
-42.666666666666664 60.47056666666666 1760.0 0.0 0.0 1.0
-41.411766666666665 64.7059 1760.0 0.0 0.0 1.0
-43.1969 74.15203333333334 1749.71 0.0 0.0 1.0
-43.04093333333333 81.9493 1749.71 0.0 0.0 1.0
-42.3069 86.88170000000001 1754.84 0.0 0.0 1.0
-42.306900000000006 86.88170000000001 1754.84 0.0 0.0 1.0
-42.573100000000004 93.95710000000001 1749.71 0.0 0.0 1.0
-42.41716666666667 102.69033333333334 1749.71 0.0 0.0 1.0
-41.793366666666664 105.65333333333332 1749.71 0.0 0.0 1.0
-43.35283333333333 120.31200000000001 1749.71 0.0 0.0 1.0
-31.3382 159.51333333333332 2183.94 0.0 0.0 1.0
-41.3169 -118.93 1846.91 0.0 0.0 1.0
-41.6461 -117.44866666666667 1846.91 0.0 0.0 1.0
-41.15226666666666 -97.36626666666666 1846.91 0.0 0.0 1.0
-41.3456 -88.31799999999998 1829.97 0.0 0.0 1.0
-41.1382 -82.0325 1824.39 0.0 0.0 1.0
-42.06686666666667 -74.81256666666667 1818.84 0.0 0.0 1.0
-41.580533333333335 -69.78723333333333 1818.84 0.0 0.0 1.0
-41.41843333333333 -65.89666666666666 1818.84 0.0 0.0 1.0
-40.9321 -64.27556666666668 1818.84 0.0 0.0 1.0
-40.9321 -53.09016666666667 1818.84 0.0 0.0 1.0
-41.580533333333335 -48.87539999999999 1818.84 0.0 0.0 1.0
-42.18183333333334 -42.74746666666667 1813.33 0.0 0.0 1.0
-41.53536666666667 -36.121199999999995 1813.33 0.0 0.0 1.0
-42.34346666666667 -34.666666666666664 1813.33 0.0 0.0 1.0
-41.74263333333334 -21.965533333333337 1818.84 0.0 0.0 1.0
-41.4184 -18.885500000000004 1818.84 0.0 0.0 1.0
-41.580533333333335 -17.7508 1818.84 0.0 0.0 1.0
-41.0194 -9.867496666666666 1829.97 0.0 0.0 1.0
-41.3456 -9.215093333333334 1829.97 0.0 0.0 1.0
-41.4184 -1.7021300000000001 1818.84 0.0 0.0 1.0
-41.4184 -1.7021299999999997 1818.84 0.0 0.0 1.0
-40.6504 1.8699199999999998 1824.39 0.0 0.0 1.0
-40.9756 2.5203266666666666 1824.39 0.0 0.0 1.0
-40.9756 8.536586666666667 1824.39 0.0 0.0 1.0
-42.113800000000005 11.9512 1824.39 0.0 0.0 1.0
-41.9512 13.4146 1824.39 0.0 0.0 1.0
-42.871199999999995 52.62536666666667 1765.1899999999998 3.6275441300798284e-26 -2.4186359297925097e-27 1.0
-42.55656666666667 53.25466666666667 1765.1899999999998 -1.208754429992506e-26 4.835222602283688e-27 1.0
-41.927233333333334 57.8171 1765.1899999999998 0.0 1.0 0.0
-41.83773333333334 84.8485 1754.84 0.0 0.0 1.0
-41.090133333333334 -130.73366666666666 1881.76 0.0 0.0 1.0
-41.090133333333334 -130.73366666666666 1881.76 0.0 0.0 1.0
-41.3169 -118.93 1846.91 0.0 0.0 1.0
-41.3169 -118.93 1846.91 0.0 0.0 1.0
-41.15226666666667 -107.40733333333333 1846.91 0.0 0.0 1.0
-40.98766666666666 -106.74900000000001 1846.91 0.0 0.0 1.0
-41.6718 -86.85016666666667 1829.97 0.0 0.0 1.0
-41.3008 -78.29270000000001 1824.39 0.0 0.0 1.0
-42.391099999999994 -73.5157 1818.84 0.0 0.0 1.0
-41.580533333333335 -65.73456666666667 1818.84 0.0 0.0 1.0
-41.90476666666667 -56.1702 1818.84 0.0 0.0 1.0
-42.18183333333334 -41.9394 1813.33 0.0 0.0 1.0
-41.58056666666666 -23.4245 1818.84 0.0 0.0 1.0
-42.391099999999994 -15.481266666666668 1818.84 0.0 0.0 1.0
-42.391099999999994 -15.481266666666668 1818.84 0.0 0.0 1.0
-42.228966666666665 -0.5673773333333333 1818.84 0.0 0.0 1.0
-42.113800000000005 11.9512 1824.39 0.0 0.0 1.0
-44.538900000000005 22.674966666666666 1657.6499999999999 -0.993105364286999 0.001558010107535459 0.11721479441133628
-42.08453333333333 49.32153333333334 1765.1899999999998 6.531240243105336e-26 1.4151404948435154e-25 1.0
-42.871199999999995 52.62536666666667 1765.1899999999998 3.6275441300798284e-26 -2.4186359297925097e-27 1.0
-43.34316666666667 57.030466666666676 1765.1899999999998 -1.7968609428544236e-28 2.5174340891457878e-27 1.0
-43.1969 67.1345 1749.71 0.0 0.0 1.0
