ply
format ascii 1.0
comment VCGLIB generated
element vertex 550
property float x
property float y
property float z
property float nx
property float ny
property float nz
element face 0
property list uchar int vertex_indices
end_header
-49.09803333333334 26.588233333333335 1760.0 0.0 0.0 1.0
-51.36676666666667 30.5998 1765.1899999999998 -1.0676696730622044e-27 -3.0345176595136727e-28 1.0
-55.6062 38.5931 1403.596666666667 0.9491280695625757 -0.23726622350872034 0.20702813033577966
-49.72546666666667 56.235299999999995 1760.0 0.0 0.0 1.0
-59.506033333333335 60.72496666666667 1298.9966666666667 -0.8400786184341154 0.5346404093635516 0.09180167495967688
-48.81093333333333 86.15986666666667 1749.71 0.0 0.0 1.0
-51.79193333333333 94.10403333333333 1729.4800000000002 0.0 0.0 1.0
-50.09633333333334 96.72446666666667 1729.4800000000002 4.53166880507505e-26 1.5862310866034166e-25 1.0
-49.94223333333334 98.5742 1729.4800000000002 1.364110023757112e-27 -1.2591749924025241e-27 1.0
-51.567933333333336 105.63433333333332 1696.7866666666669 -0.9405428969613757 0.21704958876415115 0.2612824812206429
-50.90846666666667 111.64033333333333 1682.4766666666667 -0.9713647321259752 0.14943689161527346 0.18471375857309036
-48.59813333333333 -136.15800000000002 1864.17 0.0 0.0 1.0
-51.221900000000005 -107.05733333333335 1754.84 0.0 0.0 1.0
-50.21443333333334 -77.7388 1749.71 0.0 0.0 1.0
-51.434 -68.75593333333333 1704.84 0.0 0.0 1.0
-51.66173333333334 -64.5572 1786.2699999999998 6.639959774396991e-28 6.6400872167986e-27 1.0
-51.66173333333334 -64.5572 1786.2699999999998 6.639959774396991e-28 6.6400872167986e-27 1.0
-51.2498 -55.702 1753.1299999999999 -0.9798240552943303 -0.16329820862575944 0.1152324421601448
-52.1534 -51.05213333333334 1765.1899999999998 7.158196296508353e-28 -1.2030805681204484e-27 1.0
-51.691966666666666 -34.0795 1726.1599999999999 -0.994092977998437 -5.204965222111582e-16 0.10853179761802019
-51.63903333333334 -24.3413 1701.6133333333335 -0.9622568527632183 0.12026887569598665 0.24412526876390586
-50.722033333333336 -22.868433333333332 1775.67 0.0 0.0 1.0
-53.884800000000006 -13.888933333333334 1550.2666666666667 0.00027574998545079534 0.9215400464396305 0.3882832300911142
-54.504266666666666 -12.749099999999999 1546.26 -0.9632273999323715 0.2415279611172593 0.11771669388010784
-54.1324 -9.375083333333334 1535.6733333333332 0.7832069590150632 -0.5221294879399573 0.3375909613332903
-54.102133333333335 -0.34185266666666686 1521.36 0.9055450500298532 0.16465477504756318 0.3909948432146735
-54.59376666666666 3.5806316666666667 1516.22 -0.9270303619569751 0.05793032365957734 0.37048452816631444
-56.090900000000005 11.757666666666665 1473.8966666666668 -0.88913708603675 0.4448683396247814 0.10736574236490544
-55.8811 16.656733333333335 1454.8166666666666 -0.9870423985381588 0.1409038368958334 0.07676856281102722
-51.6814 39.41003333333333 1765.1899999999998 5.372596046522945e-28 -2.686867234592905e-28 1.0
-56.97906666666666 39.33733333333333 1380.9433333333334 -0.9580630410254407 0.2794326458935422 0.06350280174936292
-50.8235 55.60783333333333 1760.0 0.0 0.0 1.0
-58.97389999999999 40.54013333333334 1355.8966666666668 0.9536111203428618 -0.17340339022095663 0.24608351309730359
-50.23256666666666 62.55813333333333 1739.53 0.0 0.0 1.0
-51.627900000000004 62.8682 1739.53 0.0 0.0 1.0
-50.43986666666666 65.92376666666667 1754.84 0.0 0.0 1.0
-50.404633333333344 72.21583333333332 1729.4800000000002 -1.1334435802630067e-26 1.133434503274359e-26 1.0
-50.404633333333344 72.21583333333332 1729.4800000000002 -1.1334435802630067e-26 1.133434503274359e-26 1.0
-56.65616666666667 61.995599999999996 1316.1266666666668 -0.9303274191788174 0.3488727821920573 0.11304280149418905
-51.187733333333334 78.54403333333333 1719.54 0.0 0.0 1.0
-56.4923 75.00106666666667 1457.1433333333334 -0.5792178078924929 0.8109049310494897 -0.08330620517006912
-52.026900000000005 100.44193333333334 1724.5 0.0 0.0 1.0
-53.3128 104.09833333333334 1711.3433333333332 0.55940217760908 -0.24863074422902393 0.790728750400756
-53.184333333333335 110.76366666666667 1671.51 0.0 0.0 1.0
-54.503433333333334 116.82800000000002 1673.07 0.9099725657579948 -0.3249839692253186 0.25755649732509006
-51.14176666666666 -123.84833333333334 1798.8033333333333 -0.9639998800159972 0.19275985948717633 0.1831607706350532
-51.221900000000005 -107.05733333333335 1754.84 0.0 0.0 1.0
-51.221900000000005 -107.05733333333335 1754.84 0.0 0.0 1.0
-51.2498 -106.32833333333333 1753.13 -0.9773261721465476 0.1954652344293094 0.081405745294002
-52.206500000000005 -74.8566 1722.8533333333332 -0.8918864744216597 0.44596748511671996 0.07517658520024999
-52.440133333333335 -74.33566666666667 1717.8966666666665 -0.8883651021490088 0.4442067032441036 0.1161372036721468
-51.2498 -55.702 1753.13 -0.9798240552943301 -0.16329820862575944 0.1152324421601447
-51.19383333333334 -53.93110000000001 1756.5600000000002 0.9827653196058284 0.16378840193196284 -0.08570697738590528
-52.078399999999995 -51.843133333333334 1760.0 0.0 0.0 1.0
-51.691966666666666 -34.079499999999996 1726.1599999999999 -0.9940929779984349 2.3779227058748366e-14 0.10853179761803984
-51.691966666666666 -34.079499999999996 1726.1599999999999 -0.9940929779984334 3.937702459736922e-14 0.10853179761805232
-52.1474 -25.201733333333333 1698.3933333333334 -0.992265949111318 0.12401960011855058 -0.0052368903606908775
-52.147400000000005 -25.201733333333333 1698.3933333333334 -0.992265949111318 0.12401960011855064 -0.005236890360691217
-55.084300000000006 -21.37946666666667 1552.9466666666667 -0.8980424118726555 0.23947125369051178 0.3690167274444862
-54.707433333333334 -11.068163333333333 1542.2733333333333 -0.9851253650343746 0.12356330780443543 0.1194157616494427
-53.28796666666667 -8.424673333333333 1536.9866666666667 0.2745700621060915 -0.9610052306239303 0.03286681774227691
-52.07103333333333 -2.9191333333333334 1770.41 0.0 0.0 1.0
-54.863800000000005 1.1502510000000001 1516.22 -0.8891476053001651 0.4446138628969286 0.10832843075044116
-55.5702 2.752133333333333 1506.04 -0.9925564910696137 9.214173398068746e-17 0.1217851059677485
-55.5702 3.2881466666666666 1506.04 -0.9925564910696139 -4.109392320964431e-17 0.12178510596774836
-56.090900000000005 11.757666666666665 1473.8966666666668 -0.8891370860367482 0.4448683396247852 0.10736574236490445
-56.7571 18.554433333333332 1440.7766666666666 -0.9225813274435574 0.3690133415160846 0.11257374487693328
-56.7571 18.554433333333336 1440.7766666666666 -0.9225813274435576 0.3690133415160842 0.11257374487693322
-50.4228 27.92526666666667 1765.1899999999998 1.0729924400918434e-28 1.5019939187594126e-28 1.0
-51.6814 39.41003333333333 1765.1899999999998 5.372596046522944e-28 -2.6868672345929046e-28 1.0
-50.8235 55.60783333333333 1760.0 0.0 0.0 1.0
-51.92156666666667 60.784333333333336 1760.0 0.0 0.0 1.0
-51.187733333333334 78.54403333333333 1719.54 0.0 0.0 1.0
-55.1337 62.8821 1347.7666666666667 -0.747065073647635 -0.664075348036936 0.029961773403390624
-52.69423333333333 97.94869999999999 1721.1933333333334 0.7983019087423928 0.5987155797555229 -0.06522052634148726
-51.1047 102.13266666666668 1724.5 0.0 0.0 1.0
-53.16056666666666 106.83800000000001 1673.07 0.8922073310982591 -0.4460038660713854 -0.07103963530240721
-54.3939 115.22733333333333 1700.0 0.0 0.0 1.0
-53.79046666666667 121.37133333333333 1709.71 0.0 0.0 1.0
-52.932966666666665 -122.122 1797.0 0.0 0.0 1.0
-52.647400000000005 -118.49833333333333 1773.9166666666667 -0.8291583531013702 0.4974600852242147 0.2550095862726352
-51.812666666666665 -84.80379999999998 1766.9300000000003 0.9003859026859095 -0.1588883293799506 0.4050428681403102
-52.440133333333335 -74.33566666666667 1717.8966666666665 -0.8883651021490087 0.4442067032441039 0.1161372036721468
-51.434 -68.75593333333333 1704.84 0.0 0.0 1.0
-50.547266666666665 -58.34826666666667 1786.2699999999998 0.0 0.0 1.0
-51.820899999999995 -47.6816 1786.2699999999998 7.082747340014542e-27 -3.3619647019334605e-41 1.0
-49.779666666666664 -42.0699 1784.4966666666667 -0.35092537107484834 0.7018507421496948 0.6198846019057923
-51.540533333333336 -17.3165 1773.9166666666667 -0.9837972922430214 -0.15136078623385393 0.09608746102363941
-54.863800000000005 1.1502510000000001 1516.22 -0.8891476053001668 0.4446138628969235 0.10832843075044621
-55.724799999999995 2.748926666666667 1504.78 -0.9925564910696139 -7.414952471461957e-18 0.12178510596774855
-55.724799999999995 3.2862933333333335 1504.78 -0.9925564910696137 -1.3869906021356551e-16 0.12178510596774843
-53.832766666666664 5.595759999999999 1768.67 -3.1109969053990096e-17 0.9962076252754454 0.08700785793856798
-57.60433333333333 33.449533333333335 1388.4433333333334 0.9974484077253895 -0.0712301782261648 0.004789116406465714
-53.10013333333333 64.29543333333334 1744.61 0.0 0.0 1.0
-52.47816666666666 66.4723 1744.61 0.0 0.0 1.0
-52.3167 69.9902 1754.84 0.0 0.0 1.0
-52.235800000000005 71.5585 1721.1933333333334 0.9228389410911753 -0.3845273765088275 0.022516338977658312
-50.59629999999999 80.4692 1754.84 0.0 0.0 1.0
-60.36166666666666 59.782199999999996 1296.1766666666665 0.8680557302819477 -0.49602673066847586 -0.020898124007134457
-53.67543333333333 68.59613333333334 1361.0333333333333 -0.4069844525684398 0.45485955470658035 0.7921277932629929
-52.52753333333334 104.831 1693.5866666666668 -0.9553742955514117 0.22047223857115558 0.19660098529526035
-48.59813333333333 -136.15800000000002 1864.17 0.0 0.0 1.0
-51.65166666666667 -125.005 1797.0 0.0 0.0 1.0
-52.29229999999999 -105.145 1797.0 0.0 0.0 1.0
-51.08316666666667 -86.51363333333332 1782.7233333333334 0.3684057901735807 0.9210144754339554 -0.1265286916382837
-50.38803333333334 -85.0945 1786.2699999999998 -3.394875478939359e-27 6.673032821676695e-27 1.0
-51.17693333333333 -78.59693333333333 1748.01 -0.8208596569376099 0.547259266830439 0.16339130478847305
-52.440133333333335 -74.33566666666667 1717.8966666666665 -0.8883651021490087 0.44420670324410383 0.11613720367214672
-55.833333333333336 -74.96820000000001 1684.0533333333333 -0.9421534583872261 0.3140478346997156 0.11713589701457587
-51.3551 -61.16713333333334 1775.67 0.0 0.0 1.0
-53.41293333333334 -55.96020000000001 1786.2699999999998 4.249470452984745e-27 -1.4873591463006587e-26 1.0
-51.820899999999995 -47.6816 1786.2699999999998 7.082747340014542e-27 -3.3619647019334605e-41 1.0
-54.059266666666666 -46.6809 1742.9166666666667 0.7428137523327457 -0.6685435240033809 -0.03573913623029324
-52.025200000000005 -41.25513333333333 1763.46 0.9037578200440711 0.3873208721473457 0.18222059353489084
-53.55873333333333 -26.366200000000003 1685.63 0.0 0.0 1.0
-53.55873333333333 -26.366200000000003 1685.63 0.0 0.0 1.0
-51.98813333333334 -23.50146666666667 1775.67 0.0 0.0 1.0
-56.03323333333333 3.8145633333333335 1502.2633333333333 -0.9925906015493714 -1.5354298928305824e-15 0.12150678053449179
-56.1215 8.938720000000002 1488.6133333333335 0.6885439921076841 0.6873713097970147 0.2311446590348781
-56.090900000000005 11.757666666666667 1473.8966666666665 -0.8891370860367492 0.4448683396247831 0.10736574236490497
-56.7571 18.554433333333336 1440.7766666666666 -0.9225813274435576 0.3690133415160842 0.11257374487693322
-57.61533333333333 20.2855 1427.0266666666666 0.945580906066252 -0.31513860853360126 -0.08102103118593075
-57.6504 21.015066666666666 1424.7666666666667 -0.6975188190200012 0.699010526669575 0.1576444756979024
-56.517066666666665 34.6661 1401.4099999999999 -0.9264958053030294 0.3433779614054146 -0.15393861886139037
-53.490199999999994 46.352900000000005 1760.0 0.0 0.0 1.0
-52.39216666666667 61.568666666666665 1760.0 0.0 0.0 1.0
-52.39216666666667 61.568666666666665 1760.0 0.0 0.0 1.0
-52.092999999999996 65.03873333333333 1739.53 0.0 0.0 1.0
-52.739200000000004 66.67923333333333 1737.8500000000001 -0.9942399882462836 -6.924093118456771e-17 0.10717670349488195
-52.3167 69.9902 1754.84 0.0 0.0 1.0
-53.1783 84.26360000000001 1739.53 0.0 0.0 1.0
-52.488 98.13639999999998 1724.5 0.0 0.0 1.0
-52.52753333333334 104.831 1693.5866666666668 -0.9553742955514115 0.22047223857115572 0.19660098529526052
-54.58286666666667 106.73633333333333 1648.493333333333 0.9253811828615149 -0.37043942539626595 -0.08027638829635841
-52.7448 -130.7413333333333 1798.8033333333333 -0.9230712982976124 0.3356940464196802 0.18774686537341137
-52.61263333333333 -128.68866666666668 1797.0 0.0 0.0 1.0
-54.68836666666667 -91.17386666666668 1753.13 0.8439665832638278 -0.5274763040909247 -0.09741229366234219
-52.935300000000005 -75.70153333333333 1786.2699999999998 -6.972085205518439e-27 1.106644515423714e-27 1.0
-53.72666666666667 -68.2006 1765.1899999999998 -7.770266256189703e-28 1.8131444473072504e-27 1.0
-52.7827 -66.1554 1765.1899999999998 0.0 0.0 1.0
-51.820899999999995 -47.6816 1786.2699999999998 7.082747340014542e-27 -3.3619647019334605e-41 1.0
-53.4617 -43.376933333333334 1741.2233333333334 -0.9416341896074707 -0.31386681591459836 0.12170733268753144
-55.51136666666667 -35.207600000000006 1706.4633333333334 -0.8524956347181027 0.4038157939030695 0.331939749624857
-53.55873333333333 -26.366200000000003 1685.63 0.0 0.0 1.0
-54.280100000000004 -11.755433333333334 1770.41 0.0 0.0 1.0
-52.07103333333333 -2.9191333333333334 1770.41 0.0 0.0 1.0
-52.07103333333333 -2.9191333333333334 1770.41 0.0 0.0 1.0
-53.09733333333333 15.8112 1765.1899999999998 -2.0143915054185167e-28 -1.3430225366007297e-28 1.0
-53.17553333333334 20.7495 1770.41 0.0 0.0 1.0
-57.61533333333333 20.2855 1427.0266666666666 0.9455809060662521 -0.31513860853360093 -0.08102103118593078
-57.6504 21.015066666666666 1424.7666666666667 -0.6975188190200012 0.699010526669575 0.1576444756979024
-53.25466666666667 35.4769 1765.1899999999998 -3.372552415334405e-25 -1.1966292416874396e-25 1.0
-58.46653333333333 36.51886666666667 1372.5100000000002 -0.9606662270120686 0.2636818624731212 0.08713366560120528
-52.39216666666667 61.568666666666665 1760.0 0.0 0.0 1.0
-52.739200000000004 66.67923333333333 1737.8500000000001 -0.9942399882462836 -1.1864587272617472e-20 0.10717670349488195
-52.3167 69.9902 1754.84 0.0 0.0 1.0
-46.9449 72.868 1496.006666666667 0.022557435761153717 -0.9693977234316786 0.24445698169076757
-52.69423333333333 97.94869999999999 1721.1933333333334 0.7983019087423927 0.5987155797555227 -0.06522052634148724
-54.55936666666667 110.575 1719.54 0.0 0.0 1.0
-54.55936666666667 110.575 1719.54 0.0 0.0 1.0
-55.1933 105.46533333333333 1646.9733333333334 0.9289226305713963 -0.36124248605558185 -0.08128107209368894
-51.85606666666667 112.65766666666667 1716.2533333333333 0.09892920718568424 0.9881066456269427 0.11772114862455064
-54.390899999999995 -126.99733333333332 1784.4966666666667 -0.791976147327443 0.2639552044407456 0.5505464849701834
-52.80519999999999 -119.60266666666666 1773.9166666666667 -0.8573869038418787 0.5143960265973005 0.016864902648592486
-54.18853333333333 -111.25366666666667 1744.61 0.0 0.0 1.0
-54.18853333333333 -111.25366666666667 1744.61 0.0 0.0 1.0
-52.772766666666676 -106.266 1797.0 0.0 0.0 1.0
-52.292300000000004 -105.145 1797.0 0.0 0.0 1.0
-52.292300000000004 -105.145 1797.0 0.0 0.0 1.0
-53.51793333333333 -101.72433333333333 1779.1899999999998 -0.89165818134969 0.4457822844710981 0.07889133338898797
-52.0559 -98.4431 1791.62 0.0 0.0 1.0
-52.08306666666667 -97.38849999999998 1789.8366666666668 -0.6357806150649952 0.726598291567584 0.2604571600064866
-54.0413 -60.96363333333333 1765.1899999999998 6.284696737582634e-26 2.9007238112119177e-26 1.0
-53.41293333333334 -55.96020000000001 1786.2699999999998 4.24947045298475e-27 -1.4873591463006595e-26 1.0
-51.42853333333334 -49.2857 1780.95 0.0 0.0 1.0
-53.097333333333324 15.8112 1765.1899999999998 1.430422865630921e-26 2.2829675528421468e-27 1.0
-55.265366666666665 28.72956666666667 1756.5600000000002 0.611280012828932 -0.6113017263843747 0.502639975763313
-53.254633333333324 38.15143333333333 1765.1899999999998 3.22731261998933e-25 -5.802331174691686e-26 1.0
-52.467999999999996 38.938066666666664 1765.1899999999998 6.799291702840678e-28 -9.60504551719465e-32 1.0
-58.97389999999999 40.54013333333334 1355.8966666666668 0.9536111203428619 -0.17340339022095708 0.2460835130973028
-53.540666666666674 57.9769 1746.3100000000002 -0.977808799814417 -0.19557852982610735 0.07509320659385782
-52.70953333333333 60.74073333333333 1749.71 0.0 0.0 1.0
-52.47816666666666 66.4723 1744.61 0.0 0.0 1.0
-53.333333333333336 82.55816666666668 1739.53 0.0 0.0 1.0
-53.1783 84.2636 1739.53 0.0 0.0 1.0
-53.333333333333336 91.7919 1729.4800000000002 1.2177323886563782e-27 -1.5924060322323432e-27 1.0
-53.160566666666675 106.83800000000001 1673.07 0.8922073310982581 -0.4460038660713872 -0.07103963530240964
-54.503433333333334 116.82800000000002 1673.07 0.9099725657579948 -0.324983969225318 0.2575564973250909
-54.390899999999995 -126.99733333333332 1784.4966666666667 -0.791976147327443 0.2639552044407445 0.5505464849701839
-53.46443333333334 -119.80266666666667 1772.1633333333332 -0.9787238419639377 0.13985145390453535 0.1501373105265197
-54.8434 -117.11166666666668 1753.13 -0.9166767797514201 0.28209717132569917 0.28306336286175443
-53.25326666666666 -111.55166666666666 1797.0 0.0 0.0 1.0
-53.0931 -110.911 1797.0 0.0 0.0 1.0
-53.0931 -110.911 1797.0 0.0 0.0 1.0
-52.772766666666676 -106.266 1797.0 0.0 0.0 1.0
-54.26566666666667 -89.58793333333334 1749.72 -0.706345266972599 0.7063340500123826 0.04656794625612213
-51.59556666666666 -86.70383333333332 1770.4233333333334 -0.5324986232716756 -0.7980814196469664 0.28197741723062264
-53.412933333333335 -77.29356666666666 1786.2699999999998 -6.468808284903164e-27 3.4550018908864e-27 1.0
-52.935300000000005 -75.70153333333333 1786.2699999999998 -6.972085205518439e-27 1.106644515423714e-27 1.0
-54.7705 -67.14573333333333 1791.62 0.0 0.0 1.0
-53.8124 -64.27146666666665 1791.62 0.0 0.0 1.0
-51.3551 -61.16713333333334 1775.67 0.0 0.0 1.0
-52.829633333333334 -48.38 1782.7233333333334 -0.9575421416674358 -0.19150842833348616 0.21549377904751327
-54.922266666666665 -42.84786666666667 1726.1599999999999 -0.8088282511027743 -0.5777094061072372 -0.10976658104018094
-54.922266666666665 -42.84786666666667 1726.1599999999999 -0.8088282511027742 -0.5777094061072375 -0.10976658104018129
-51.2409 -39.52963333333333 1763.46 0.6515902055318525 0.2792501277355018 0.7053010493503211
-54.436366666666665 -31.656033333333337 1687.22 0.9626400385147159 -0.256700213211007 -0.0861925564408562
-53.41043333333334 -30.47243333333333 1704.8500000000001 -0.6959478101361906 0.608715055129651 0.3809496386993257
-51.98813333333334 -23.50146666666667 1775.67 0.0 0.0 1.0
-57.2408 -18.577566666666666 1538.3 0.0 0.0 1.0
-57.2408 -18.577566666666666 1538.3 0.0 0.0 1.0
-59.37356666666667 -0.08345999999999994 1753.1299999999999 -0.07358401086898723 0.5150912126116982 0.8539709807918786
-53.0694 6.84901 1766.93 -0.9309629681012275 -0.13300115046242583 0.34002741948234744
-53.097333333333324 15.8112 1765.1899999999998 1.430422865630921e-26 2.2829675528421468e-27 1.0
-53.17553333333334 20.7495 1770.41 0.0 0.0 1.0
-53.17553333333334 20.749499999999998 1770.41 0.0 0.0 1.0
-53.411966666666665 37.05016666666667 1765.1899999999998 -6.526321295162254e-26 1.4503619056060073e-26 1.0
-53.411966666666665 37.05016666666667 1765.1899999999998 -6.526321295162133e-26 1.4503619056059812e-26 1.0
-59.651700000000005 37.24193333333333 1358.98 -0.9800064002693837 0.17820307316031275 0.08849361642098467
-53.019600000000004 52.47056666666666 1760.0 0.0 0.0 1.0
-54.77723333333333 57.640933333333344 1736.17 -0.9490863688803716 -0.2711737987139358 0.160311681721967
-54.18856666666667 59.164233333333335 1744.61 0.0 0.0 1.0
-54.1787 66.01343333333334 1724.5 0.0 0.0 1.0
-54.1787 66.01343333333334 1724.5 0.0 0.0 1.0
-54.1787 66.01343333333334 1724.5 0.0 0.0 1.0
-60.36166666666666 59.782199999999996 1296.1766666666665 0.8680557302819477 -0.49602673066847586 -0.020898124007134457
-54.26356666666667 80.85273333333333 1739.53 0.0 0.0 1.0
-52.488 98.13639999999998 1724.5 0.0 0.0 1.0
-55.441 104.19066666666667 1650.0 -0.9296512549129436 0.36152583588459775 0.07104656379256816
-54.85713333333334 114.66666666666667 1709.71 0.0 0.0 1.0
-55.46666666666667 120.15233333333333 1709.71 0.0 0.0 1.0
-55.46983333333333 -127.63600000000001 1775.67 0.0 0.0 1.0
-53.46443333333334 -119.80266666666667 1772.1633333333332 -0.9787238419639377 0.13985145390453538 0.1501373105265197
-53.41343333333333 -112.51266666666668 1797.0 0.0 0.0 1.0
-53.41343333333333 -112.51266666666668 1797.0 0.0 0.0 1.0
-53.51793333333333 -101.72433333333333 1779.1899999999998 -0.8916581813496901 0.4457822844710979 0.078891333388988
-55.443900000000006 -101.46656666666668 1777.43 0.3682498742332703 0.9205374363632512 0.13039500903391055
-54.61076666666667 -100.67846666666668 1791.62 0.0 0.0 1.0
-54.770466666666664 -86.78643333333333 1791.62 0.0 0.0 1.0
-54.770466666666664 -86.78643333333333 1791.62 0.0 0.0 1.0
-54.61076666666667 -77.0459 1791.62 0.0 0.0 1.0
-52.70216666666667 -50.256400000000006 1770.41 0.0 0.0 1.0
-52.70216666666667 -50.256400000000006 1770.41 0.0 0.0 1.0
-50.72370000000001 -39.22143333333334 1756.5600000000002 -0.3616380293851024 0.5625518518152789 0.7434738392987748
-54.436366666666665 -31.656033333333337 1687.22 0.9626400385147156 -0.25670021321100733 -0.08619255644085642
-57.31836666666666 -13.1845 1533.05 0.5515945220780968 -0.7967443232129324 0.2468642676480387
-54.280100000000004 -11.755433333333334 1770.41 0.0 0.0 1.0
-59.26306666666667 -9.963453333333334 1501.006666666667 -0.8774905305663191 -1.286319954345452e-15 0.47959396239573326
-53.412 9.832846666666667 1765.1899999999998 5.488663088284605e-29 -1.2393683979699374e-29 1.0
-52.88833333333334 25.456000000000003 1768.67 0.8749278323985028 0.08749647975357018 0.47628316590573566
-54.6706 45.3884 1765.1899999999998 -1.2696333997018689e-26 -1.4509766610957726e-26 1.0
-54.6706 45.3884 1765.1899999999998 -1.2696333997018689e-26 -1.4509766610957726e-26 1.0
-59.651700000000005 37.24193333333333 1358.98 -0.9800064002693837 0.17820307316031275 0.08849361642098467
-56.8513 48.234 1742.9166666666667 -0.6430072316628632 -0.32151223130469575 0.6951054489433505
-54.48063333333334 51.27133333333333 1756.5600000000002 -0.909698297013867 -0.38987069872022745 0.14300296042205604
-53.019600000000004 52.47056666666666 1760.0 0.0 0.0 1.0
-52.248066666666666 60.542633333333335 1739.53 0.0 0.0 1.0
-51.53473333333333 63.42133333333334 1754.84 0.0 0.0 1.0
-56.406733333333335 66.3156 1696.8066666666666 -0.9185833994890573 0.393716733599103 0.03452060062020293
-58.935233333333336 70.18993333333333 1467.8733333333332 -0.974055619403468 -1.1695696944137849e-15 0.22630874996015124
-58.935233333333336 70.18993333333333 1467.8733333333332 -0.974055619403468 -1.1695696944137849e-15 0.22630874996015124
-56.4923 75.00106666666667 1457.1433333333334 -0.5792178078924929 0.8109049310494897 -0.08330620517006912
-54.62733333333333 95.13166666666666 1714.62 -0.8780223186379255 0.2921537541097902 0.37910815334576725
-55.303 113.40899999999999 1700.0 0.0 0.0 1.0
-55.711800000000004 114.38233333333335 1703.2266666666667 0.9132848554517676 -0.4059464351402263 -0.03344046350435178
-55.46666666666667 120.15233333333333 1709.71 0.0 0.0 1.0
-52.7448 -130.7413333333333 1798.8033333333333 -0.9230712982976124 0.33569404641968 0.18774686537341148
-55.249500000000005 -82.95406666666666 1791.62 0.0 0.0 1.0
-53.25376666666667 -64.0796 1786.2699999999998 -2.2132426899201053e-28 -1.3279687844157469e-27 1.0
-54.0413 -60.96363333333333 1765.1899999999998 6.284696737582548e-26 2.9007238112118786e-26 1.0
-54.513299999999994 -58.76106666666667 1765.1899999999998 0.9995120760870788 1.1980202916654465e-18 0.031234752377721
-54.513299999999994 -58.761066666666665 1765.1899999999998 0.9995120760870789 9.013265577310123e-19 0.0312347523777213
-53.82783333333333 -49.598533333333336 1758.28 -0.7059542890733063 -0.6177076589466293 0.34650510792436745
-52.7132 -40.5426 1739.53 0.0 0.0 1.0
-55.08429999999999 -21.37946666666667 1552.9466666666667 -0.8980424118726555 0.23947125369051167 0.3690167274444863
-57.2408 -18.577566666666666 1538.3 0.0 0.0 1.0
-54.595666666666666 -2.60355 1770.41 0.0 0.0 1.0
-54.595666666666666 -2.60355 1770.41 0.0 0.0 1.0
-54.819199999999995 17.908133333333335 1754.84 0.0 0.0 1.0
-54.819199999999995 17.908133333333335 1754.84 0.0 0.0 1.0
-56.0 23.13723333333333 1760.0 0.0 0.0 1.0
-53.6216 44.357433333333326 1761.7300000000002 0.8656784484571989 -0.48092338709771315 0.1389730895504596
-54.58086666666667 61.20856666666666 1749.71 0.0 0.0 1.0
-60.36166666666666 59.782199999999996 1296.1766666666665 0.8680557302819477 -0.49602673066847586 -0.020898124007134915
-51.8647 92.21256666666666 1734.49 0.0 0.0 1.0
-55.488800000000005 112.27433333333333 1708.0866666666668 -0.9094469222408136 0.2598460378139935 0.3246326112070069
-55.303 113.40899999999999 1700.0 0.0 0.0 1.0
-55.303 113.409 1700.0 0.0 0.0 1.0
-56.577666666666666 -129.37666666666664 1775.67 0.0 0.0 1.0
-55.69616666666667 -116.30166666666666 1748.01 -0.9739938657302968 0.19481959387854528 0.11567746263102067
-55.01500000000001 -116.19666666666666 1797.0 0.0 0.0 1.0
-55.01500000000001 -116.19666666666666 1797.0 0.0 0.0 1.0
-53.573566666666665 -110.27033333333334 1797.0 0.0 0.0 1.0
-53.409166666666664 -78.30886666666667 1724.506666666667 -0.9349459658982971 0.34449678994557353 0.08484104294323262
-53.412933333333335 -77.29356666666666 1786.2699999999998 -6.468808284903164e-27 3.4550018908864e-27 1.0
-55.21253333333333 -63.7939 1782.7233333333334 -0.9075209180387281 -0.3630159903988265 0.21124671367124995
-55.63073333333333 -42.68136666666666 1719.55 -0.8596412320039618 -0.48351206693651766 0.16502434173626482
-57.52333333333333 -31.72113333333333 1659.1533333333334 0.9695496446619826 -0.228123272643108 -0.08906884424096678
-81.78383333333333 -35.51133333333333 2246.8566666666666 0.45394492103098705 -0.808744928776263 0.3739861613066026
-54.59566666666666 -2.60355 1770.41 0.0 0.0 1.0
-55.2268 11.755433333333334 1770.41 0.0 0.0 1.0
-55.2268 13.017766666666667 1770.41 0.0 0.0 1.0
-54.97559999999999 20.254166666666666 1754.84 0.0 0.0 1.0
-55.444799999999994 23.382233333333335 1754.84 0.0 0.0 1.0
-56.330466666666666 58.02113333333333 1724.5 0.0 0.0 1.0
-53.722100000000005 61.65206666666666 1744.61 0.0 0.0 1.0
-56.72913333333333 62.5871 1706.4633333333334 -0.9610322524855242 0.21356792838382294 0.17551566781470554
-55.6012 74.05669999999999 1754.84 0.0 0.0 1.0
-55.6012 74.05669999999999 1754.84 0.0 0.0 1.0
-55.1938 79.45736666666666 1739.53 0.0 0.0 1.0
-56.657033333333324 83.55553333333334 1734.49 0.0 0.0 1.0
-55.33716666666667 90.86703333333332 1729.4800000000002 -2.888204935911548e-27 5.253231435677318e-27 1.0
-55.47726666666667 112.545 1698.3933333333334 -0.8875284400486265 -0.4432765670352792 0.12569468255367525
-46.15383333333333 169.74333333333334 2301.54 0.0 0.0 1.0
-56.7158 -126.56866666666667 1765.1899999999998 9.31680091382646e-28 -2.5179520744134203e-27 1.0
-56.7158 -126.56866666666667 1765.1899999999998 9.316800913826464e-28 -2.5179520744134213e-27 1.0
-55.155300000000004 -118.671 1753.13 -0.9369798195245694 0.28834520794649326 0.19729637314963164
-56.05440000000001 -117.00666666666666 1744.61 0.0 0.0 1.0
-55.56383333333334 -115.097 1746.3100000000002 -0.9944676717924791 2.248400679742494e-16 0.10504308525384168
-57.078133333333334 -77.67916666666667 1680.9066666666668 -0.9309490213654368 0.34929405620497656 0.10643111348947785
-53.25376666666667 -64.0796 1786.2699999999998 -2.213242689920104e-28 -1.3279687844157464e-27 1.0
-54.6351 -61.49803333333333 1789.8366666666668 -0.913454213197507 -0.40596317157019535 -0.02820112977155043
-53.56933333333333 -53.56933333333333 1765.1899999999998 0.0 0.0 1.0
-53.8559 -50.33016666666666 1756.5600000000002 -0.6616793863567983 -0.6616950555664775 0.35261883544326866
-59.7098 -21.990700000000004 1527.83 -0.8630201564411702 0.4794478114237483 0.15914146441840948
-59.033566666666665 1.9000700000000001 1470.2699999999998 1.2525087198017976e-28 -2.7295912434867036e-29 1.0
-55.2268 11.755433333333334 1770.41 0.0 0.0 1.0
-55.2268 11.755433333333334 1770.41 0.0 0.0 1.0
-55.5294 26.43133333333334 1760.0 0.0 0.0 1.0
-54.637466666666676 51.898799999999994 1756.5600000000002 -0.9005289044474232 -0.38594095904889447 0.20024302330703844
-57.05316666666667 54.9281 1763.46 -0.7642287399393178 0.4863407619634243 0.42358835713886006
-56.330466666666666 58.02113333333333 1724.5 0.0 0.0 1.0
-54.77723333333333 57.64093333333333 1736.17 -0.9490863688803716 -0.2711737987139358 0.16031168172196672
-54.58086666666667 61.20856666666666 1749.71 0.0 0.0 1.0
-56.72913333333333 62.5871 1706.4633333333334 -0.9610322524855242 0.21356792838382294 0.17551566781470554
-56.672066666666666 70.52776666666666 1756.5600000000002 -0.8012177981844054 0.4807101882802842 0.3563253495838699
-55.49133333333333 92.2543 1729.4800000000002 -3.1478996629464786e-28 7.869323696526191e-29 1.0
-55.373 96.61956666666667 1695.18 0.0 0.0 1.0
-56.57033333333334 101.50266666666668 1729.4800000000002 -1.4136376757813365e-26 -3.678146376326543e-26 1.0
-55.441 104.19066666666667 1650.0 -0.9296512549129441 0.3615258358845976 0.07104656379256818
-54.00209999999999 114.35933333333334 1676.2 -0.39191116277605237 0.8813462144248204 0.26388347960901426
-56.00716666666667 -118.323 1748.01 -0.9786586784551761 0.1957526561416221 0.06251470785237669
-55.873 -107.53966666666668 1780.95 0.0 0.0 1.0
-54.26566666666667 -89.58793333333334 1749.72 -0.7063452669725983 0.7063340500123831 0.046567946256121776
-57.44153333333333 -77.31299999999999 1676.2 -0.9450232355531551 0.31510411547415595 0.08740984312934173
-56.64156666666667 -78.25303333333333 1782.7233333333334 -0.24168859333091885 -0.9668305117023426 -0.08261589129887902
-54.98526666666667 -67.88593333333333 1765.1899999999998 2.785219514173918e-28 6.614538297733172e-28 1.0
-55.64180000000001 -58.02986666666667 1786.2699999999998 -0.9995120760870789 -2.5291467422309694e-18 0.031234752377720977
-55.64180000000001 -58.02986666666667 1786.2699999999998 -0.9995120760870789 -2.5291467422309694e-18 0.031234752377720977
-55.64180000000001 -58.02986666666667 1786.2699999999998 -0.9995120760870789 -2.5291467422309694e-18 0.031234752377720977
-55.89143333333334 -41.383066666666664 1722.8466666666666 -0.8115890555056168 -0.5796813237173978 0.07275141178524508
-59.3186 -21.155866666666668 1526.5366666666669 -0.9602800992820132 0.24001937761439657 0.14231243548096598
-55.3116 -22.2354 1775.67 0.0 0.0 1.0
-55.22683333333333 19.645 1770.41 0.0 0.0 1.0
-56.721133333333334 23.665766666666666 1741.2233333333334 -0.979255590875151 -0.16320341681873068 0.12009634664905797
-54.81916666666667 26.04106666666667 1754.84 0.0 0.0 1.0
-54.0413 34.53293333333333 1765.1899999999998 0.0 0.0 1.0
-59.67003333333333 39.02773333333334 1741.2233333333334 0.21380034651519986 0.8017311892139747 0.5581366428317768
-56.401166666666676 47.43363333333334 1765.1899999999998 -3.626801173884808e-27 -3.8420860439394795e-31 1.0
-56.401166666666676 47.43363333333334 1765.1899999999998 -3.626801173884809e-27 -3.8420860439454757e-31 1.0
-54.655 51.389700000000005 1744.61 0.0 0.0 1.0
-45.227666666666664 76.02946666666666 2289.9166666666665 0.6580903906935486 -0.23561262531308708 0.7151249740219449
-55.1938 79.45736666666666 1739.53 0.0 0.0 1.0
-59.62246666666667 69.03046666666667 1465.4766666666667 -0.9351236169486122 0.31170787231620106 0.1684696511572696
-56.347833333333334 84.94686666666666 1734.49 0.0 0.0 1.0
-56.5965 91.39479999999999 1716.253333333333 -0.8176427097618743 0.5450951398412489 0.18528812075982845
-55.373 96.61956666666667 1695.18 0.0 0.0 1.0
-56.72446666666667 100.26943333333334 1729.4800000000002 3.778024234484815e-27 7.557029052324143e-28 1.0
-56.57033333333334 101.19433333333335 1729.4800000000002 3.3963050688494407e-26 -1.1305694087520796e-25 1.0
-57.274699999999996 110.01866666666666 1722.8466666666666 0.868107012571722 -0.49616875549652406 -0.014379874576317607
-57.51186666666667 112.51666666666667 1704.84 0.0 0.0 1.0
-57.383 122.78899999999999 1714.61 0.0 0.0 1.0
-55.542966666666665 -131.47033333333331 1793.4133333333332 -0.7657668401512944 0.3828834200756442 0.5167218140894382
-56.186733333333336 -118.67766666666667 1746.3100000000002 -0.9786624223245531 0.19573248446491104 0.06251925827320222
-56.2963 -118.75833333333333 1797.0 0.0 0.0 1.0
-56.2963 -118.75833333333333 1797.0 0.0 0.0 1.0
-55.01500000000001 -116.19666666666666 1797.0 0.0 0.0 1.0
-57.2105 -106.01333333333334 1763.46 0.9107385479670572 -0.4047512487540028 -0.08204708330545339
-57.078133333333334 -77.67916666666667 1680.9066666666668 -0.9309490213654366 0.34929405620497683 0.10643111348947783
-57.9498 -76.94473333333333 1671.5166666666664 -0.7066506882721973 0.7063216592320826 0.04188697248629005
-57.48503333333334 -70.6587 1791.62 0.0 0.0 1.0
-56.5585 -65.8407 1765.1899999999998 0.0 0.0 1.0
-55.58793333333333 -48.2799 1744.61 0.0 0.0 1.0
-56.3992 -41.605466666666665 1719.55 0.9103248375334155 0.40457397941914 -0.08734177320573464
-58.40976666666666 -34.67589999999999 1659.1533333333334 -0.8310353190296967 0.554044378671748 0.0491439211647482
-60.69386666666667 -29.03526666666666 1640.9533333333336 0.03949815008026921 0.5529200434366132 0.832297616064284
-57.36893333333333 -27.299733333333336 1775.67 0.0 0.0 1.0
-59.626133333333335 -19.898733333333336 1523.9433333333334 -0.9774254525764219 0.08885090696317019 0.19168985624596566
-61.541133333333335 -11.8395 1501.006666666667 0.6197748714337413 -1.1914505073218216e-18 0.7847796561706282
-61.541133333333335 -11.8395 1501.006666666667 0.6197748714337413 -1.1914505073218216e-18 0.7847796561706282
-54.280100000000004 -11.755433333333334 1770.41 0.0 0.0 1.0
-61.16923333333333 -3.444940666666666 1457.1433333333334 -0.7662516118884015 0.38313121879213624 0.5158187050362548
-54.28006666666667 7.179493333333333 1770.41 0.0 0.0 1.0
-55.457233333333335 16.59783333333333 1765.1899999999998 -6.045693390515118e-27 -1.4509766610957915e-26 1.0
-55.457233333333335 16.59783333333333 1765.1899999999998 -6.0456933905151594e-27 -1.450976661095801e-26 1.0
-56.646966666666664 20.433933333333332 1770.41 0.0 0.0 1.0
-58.29456666666666 23.023233333333334 1739.53 0.0 0.0 1.0
-55.085033333333335 28.755533333333336 1758.28 0.8478021782278157 0.21195617450208926 0.4861132035674521
-56.5396 72.17986666666667 1754.84 0.0 0.0 1.0
-60.600966666666665 68.02423333333333 1460.7066666666667 -0.9453170614760608 0.3151056871586848 0.08416685334808988
-63.438199999999995 81.85043333333333 1601.4366666666665 -0.803052072604079 -0.584040191788023 0.11834028503642356
-57.649300000000004 90.40463333333332 1729.4800000000002 4.172431998990317e-26 2.445850693201075e-25 1.0
-56.79356666666666 92.59416666666668 1712.9766666666665 -0.7929234305905164 0.5286156203936773 0.30304778351998257
-58.544033333333324 110.11500000000001 1719.54 0.0 0.0 1.0
-57.14286666666667 119.543 1709.71 0.0 0.0 1.0
-57.07736666666667 123.70566666666666 1714.61 0.0 0.0 1.0
-55.542966666666665 -131.47033333333331 1793.4133333333332 -0.7657668401512944 0.3828834200756442 0.5167218140894382
-57.12029999999999 -107.219 1770.41 0.0 0.0 1.0
-57.12029999999999 -107.219 1770.41 0.0 0.0 1.0
-57.210499999999996 -106.01333333333334 1763.46 0.910738547967057 -0.40475124875400315 -0.0820470833054535
-61.32206666666667 -82.8156 1703.2366666666667 0.26876505884992674 0.8830864000712059 0.384608571343221
-55.690133333333335 -62.04266666666666 1782.7233333333334 -0.8809598576418005 -0.3523913431269246 0.31580068162203295
-58.1539 -43.616499999999995 1690.4033333333334 -0.9453323165375122 0.3161252772252253 0.08007259461947754
-58.40976666666666 -34.6759 1659.1533333333334 -0.8310353190296969 0.5540443786717477 0.049143921164748534
-57.36893333333333 -27.299733333333336 1775.67 0.0 0.0 1.0
-59.626133333333335 -19.898733333333336 1523.9433333333334 -0.9774254525764219 0.08885090696317016 0.19168985624596563
-61.1464 -22.701533333333334 1511.1166666666668 0.9501330799902256 -0.28918821315028836 -0.11669322038246761
-57.68546666666666 -20.178033333333335 1775.67 0.0 0.0 1.0
-58.1192 -14.839066666666668 1534.3633333333335 0.14931849212168277 0.9680780765004817 0.20131772328743
-62.04723333333334 -11.865123333333335 1470.2933333333333 -0.9412254508720418 0.324557176670356 0.0935803916559951
-58.476733333333335 -7.042533333333332 1775.67 0.0 0.0 1.0
-57.562099999999994 24.215 1736.17 -0.9460269540759816 -0.31534231802532703 0.07478117827457807
-57.54006666666666 25.012433333333334 1737.8500000000001 -0.9618976256759939 -0.16031052628441064 0.22148023135553466
-58.4562 26.4586 1751.42 -0.33345854546317955 0.9170332745485033 0.21875870686313253
-58.36916666666667 47.17343333333334 1721.1933333333334 -0.8563775116904113 0.5138227817711404 -0.05102652647306501
-58.042766666666665 46.908233333333335 1722.8466666666666 0.9555226483384544 -0.29401187357703223 0.02309733118758897
-59.29413333333333 58.588233333333335 1760.0 0.0 0.0 1.0
-55.86936666666667 60.94140000000001 1724.5 0.0 0.0 1.0
-57.67896666666667 63.718999999999994 1691.9933333333336 -0.9219830620871752 0.3841638589912435 0.04863499428715883
-56.657033333333324 83.55553333333334 1734.49 0.0 0.0 1.0
-56.347833333333334 84.94686666666666 1734.49 0.0 0.0 1.0
-57.03273333333334 101.34833333333334 1729.4800000000002 3.778841104589568e-27 -3.7755739774116885e-27 1.0
-57.03273333333334 101.34833333333334 1729.4800000000002 3.778841104589568e-27 -3.7755739774116885e-27 1.0
-57.07736666666667 123.70566666666666 1714.61 0.0 0.0 1.0
-56.577666666666666 -129.37666666666664 1775.67 0.0 0.0 1.0
-56.555066666666654 -128.39533333333333 1777.43 -0.16323412070318896 -0.9789579782045907 0.12245774270268285
-56.69806666666667 -119.84133333333334 1742.9166666666667 -0.9758634113048993 0.19517268226098033 0.09797053932391776
-56.2963 -118.75833333333333 1797.0 0.0 0.0 1.0
-58.18226666666666 -110.12 1773.9166666666667 0.8420419016806407 -0.5261709056066513 -0.11878389582399822
-54.68836666666667 -91.17386666666665 1753.1299999999999 0.8439665832638278 -0.5274763040909247 -0.09741229366234219
-60.9948 -82.6619 1706.4733333333334 0.6120558322485459 0.7200624420852129 0.32695219483713395
-58.12376666666666 -88.38323333333334 1791.62 0.0 0.0 1.0
-57.030466666666676 -63.48083333333333 1765.1899999999998 -5.1130942614776415e-25 -1.3416654322478779e-25 1.0
-56.401166666666676 -61.59293333333333 1765.1899999999998 -5.801652492077187e-26 7.614476829873186e-26 1.0
-55.58793333333333 -48.2799 1744.61 0.0 0.0 1.0
-58.30413333333333 -43.76673333333333 1690.4033333333334 -0.9942653469097775 0.0020085763549981804 0.10692233422165037
-58.49606666666667 -43.53436666666667 1687.22 -0.6981081732568714 0.6981081732568604 0.15902816374442477
-61.860166666666665 -17.000633333333333 1507.3100000000002 -0.8990287876402115 -0.42600042555219 0.1013453325196794
-55.54240000000001 -3.865876666666667 1770.41 0.0 0.0 1.0
-61.16923333333333 -3.444940666666666 1457.1433333333334 -0.7662516118884015 0.38313121879213624 0.5158187050362548
-59.27516666666667 12.640633333333332 1761.7300000000002 0.6456969051843292 -0.6456694637518942 0.4076597235608649
-58.40636666666666 33.81286666666667 1768.67 0.35744078995849243 -0.8935925362696133 0.2715298524970852
-56.401166666666676 47.43363333333334 1765.1899999999998 -3.626801173884808e-27 -3.8420860439394795e-31 1.0
-59.63916666666666 52.953466666666664 1704.84 0.0 0.0 1.0
-57.120133333333335 59.806533333333334 1722.8466666666666 -0.9454981254033842 -0.315143258164766 0.08196353879611334
-63.22313333333333 53.9421 1288.7466666666667 -0.9165088632640784 0.3984972336187651 0.03480601035134814
-60.55009999999999 69.30463333333334 1454.7833333333335 -0.907536508575187 0.39705359698143083 0.13684270797988146
-62.04906666666667 68.12033333333333 1448.9166666666667 -0.961479351237008 0.2404160062843576 0.13325764918811256
-58.564666666666675 104.80566666666668 1717.8966666666665 -0.9581421513377925 -0.26128222011471347 0.11702657510887676
-59.46356666666666 123.14166666666667 1719.54 0.0 0.0 1.0
-56.577666666666666 -129.37666666666664 1775.67 0.0 0.0 1.0
-58.17333333333334 -123.48966666666666 1800.6066666666666 -0.9305922348179492 -0.15512016532644943 0.3315657201907792
-57.90926666666667 -108.95466666666668 1770.41 0.0 0.0 1.0
-56.92006666666666 -106.589 1749.71 0.0 0.0 1.0
-58.283433333333335 -101.47673333333334 1791.62 0.0 0.0 1.0
-58.283433333333335 -96.68663333333335 1791.62 0.0 0.0 1.0
-57.9498 -76.94473333333333 1671.5166666666664 -0.7066506882721973 0.7063216592320826 0.04188697248629005
-54.36813333333333 -74.10946666666666 1786.2699999999998 3.003633029881955e-26 1.167381986363189e-25 1.0
-58.34826666666667 -50.38806666666667 1786.2699999999998 -8.672492494878403e-28 4.337759201095289e-28 1.0
-58.49606666666667 -43.53436666666667 1687.22 -0.6981081732568714 0.6981081732568604 0.15902816374442477
-55.51136666666667 -35.207600000000006 1706.4633333333331 -0.8524956347181027 0.4038157939030695 0.3319397496248569
-58.40976666666666 -34.6759 1659.1533333333334 -0.8310353190296969 0.5540443786717477 0.049143921164748534
-60.477666666666664 -36.332766666666664 1646.9733333333334 0.9264368888150044 -0.3602803635979546 -0.10914554800128762
-60.931933333333326 -15.7954 1496.006666666667 -0.9812834564431112 0.16351194247087153 0.10171835026416398
-61.82346666666666 -16.783166666666666 1488.5633333333335 -0.9314692476630578 0.33847353452940526 0.13341929051373536
-62.06053333333333 -14.046533333333334 1479.97 -0.9793580138630389 0.16322977018009713 0.11922215737519767
-62.5551 -10.48122 1460.7 0.933470729917419 -0.33945260012511885 -0.11577706446329185
-58.16023333333334 -2.4530166666666666 1775.67 0.0 0.0 1.0
-58.344500000000004 17.060366666666667 1748.01 -0.9810899361964277 -0.16350333885026463 0.10358182890307001
-55.867533333333334 21.390833333333333 1758.28 0.4927784199777645 -0.8624080492433459 0.11585242942858134
-56.646966666666664 20.433933333333332 1770.41 0.0 0.0 1.0
-60.53639999999999 40.68963333333333 1719.54 0.0 0.0 1.0
-58.656666666666666 41.5372 1722.8466666666666 0.8109611963062239 0.540640797537486 -0.22371738002133207
-56.29153333333333 49.067033333333335 1761.7300000000002 0.48546795033292445 -0.8738588167984336 -0.02629900194286314
-57.6344 70.14663333333334 1754.84 0.0 0.0 1.0
-62.1552 73.22240000000001 1615.8833333333332 0.7701174786375757 0.5311174031963827 0.3533176660157744
-61.48863333333333 68.41136666666667 1452.4333333333334 -0.9613932151781082 0.24063893859867927 0.1334765411583665
-58.64613333333333 87.6278 1711.3433333333332 -0.6788053103076889 0.678805310307694 -0.2800833829347207
-57.83956666666666 88.86653333333334 1714.62 -0.417575386929319 -0.8342941865522259 0.35997778614240805
-58.604099999999995 104.29466666666667 1714.62 -0.9877221860483956 -0.1098314085277537 0.11109430628339381
-58.04096666666667 109.25233333333334 1722.8466666666666 -0.8534405568325591 0.48778610567770975 0.18358630412181026
-59.34983333333333 115.86833333333334 1716.2533333333333 0.9151208302628843 0.3660882588429478 0.16891788761498236
-57.99426666666667 121.872 1714.61 0.0 0.0 1.0
-57.65976666666666 -128.14166666666668 1765.1899999999998 1.3717571552624794e-27 -2.5191232632801794e-27 1.0
-58.013200000000005 -121.88799999999999 1800.6066666666666 -0.9796141134389464 -0.16329160887797442 0.11701298740426012
-58.28346666666667 -116.32766666666667 1791.62 0.0 0.0 1.0
-58.28346666666667 -116.32766666666667 1791.62 0.0 0.0 1.0
-57.798033333333336 -110.92 1779.1899999999998 -0.858836018476511 0.47708881856993085 0.18651260698130187
-57.4806 -107.32433333333334 1766.93 0.9107413376109589 -0.4047524885300681 -0.08200999326495714
-58.283433333333335 -101.47673333333334 1791.62 0.0 0.0 1.0
-58.283433333333335 -96.68663333333335 1791.62 0.0 0.0 1.0
-58.123766666666675 -81.996 1791.62 0.0 0.0 1.0
-58.123766666666675 -81.996 1791.62 0.0 0.0 1.0
-58.76246666666666 -70.17963333333333 1791.62 0.0 0.0 1.0
-59.0161 -51.30133333333333 1731.1500000000003 -0.9945727962227536 -1.0628511864036558e-15 0.10404303443120788
-58.18906666666667 -50.86566666666667 1786.2699999999998 -1.0624862503671343e-26 7.083488833664096e-27 1.0
-61.95926666666667 -40.6293 1673.0766666666666 -0.6721943715473563 -0.7239042933377762 0.15529745956450752
-61.132200000000005 -37.51016666666666 1640.9533333333331 0.7722216232664005 -0.5346076733484131 0.3433196763321346
-59.63316666666666 -34.649366666666666 1643.9633333333334 -0.9843796671631402 -0.14114421905650776 0.10523773231457229
-60.15873333333334 -33.730133333333335 1780.95 0.0 0.0 1.0
-60.153033333333326 -22.226366666666667 1525.2366666666667 0.8731104292540028 -0.4850534269828688 -0.049003584563428355
-61.379799999999996 -16.826333333333334 1492.2766666666666 -0.9577643506961714 0.2736261929597111 0.08840902138309434
-58.16023333333333 -2.4530166666666666 1775.67 0.0 0.0 1.0
-58.85603333333333 11.913233333333332 1770.41 0.0 0.0 1.0
-58.85603333333333 11.913233333333332 1770.41 0.0 0.0 1.0
-58.52089999999999 15.642533333333333 1746.3100000000002 -0.9443748445200781 0.3147466253281158 0.09534524048027146
-58.344500000000004 17.060366666666667 1748.01 -0.9810899361964277 -0.16350333885026463 0.10358182890307001
-58.6667 27.439600000000002 1734.49 0.0 0.0 1.0
-58.7292 68.1134 1754.84 0.0 0.0 1.0
-62.496933333333324 58.38453333333333 1354.8733333333332 0.23290303797227033 -0.5016331247955842 0.83313887378462
-59.428566666666676 85.10476666666666 1709.71 0.0 0.0 1.0
-57.82386666666667 101.40500000000002 1727.82 -0.9602018781418603 8.096466129574285e-17 0.27930691579845235
-59.2168 120.64933333333335 1714.61 0.0 0.0 1.0
-58.53426666666667 121.557 1708.0866666666668 -0.1313222881203541 0.6568125907148766 0.7425305901585784
-60.01976666666667 -103.38999999999999 1737.8500000000001 0.9382205768402551 -0.335099362838582 -0.08631666246279233
-55.443900000000006 -101.46656666666668 1777.43 0.36824987423327027 0.9205374363632514 0.13039500903391066
-58.12376666666666 -88.38323333333334 1791.62 0.0 0.0 1.0
-58.123766666666675 -81.996 1791.62 0.0 0.0 1.0
-58.283433333333335 -81.51696666666666 1791.62 0.0 0.0 1.0
-58.76246666666666 -70.17963333333333 1791.62 0.0 0.0 1.0
-55.929233333333336 -57.6598 1765.1899999999998 -7.491844578867095e-29 2.138011430366721e-28 1.0
-59.0161 -51.30133333333333 1731.1499999999999 -0.9945727962227536 -1.1461179132505425e-15 0.10404303443120788
-59.0161 -51.30133333333333 1731.1499999999999 -0.9945727962227536 -1.1737228537013507e-15 0.10404303443120788
-62.44216666666667 -16.173 1481.1933333333334 -0.8890760608447374 0.44400763712850927 0.11135967045731981
-58.95153333333334 -12.898133333333334 1775.67 0.0 0.0 1.0
-58.16023333333333 -2.4530166666666666 1775.67 0.0 0.0 1.0
-56.01576666666667 -1.8145953333333333 1770.41 0.0 0.0 1.0
-58.52089999999999 15.642533333333333 1746.3100000000002 -0.9443748445200781 0.3147466253281158 0.09534524048027146
-59.25913333333333 37.195033333333335 1749.72 -0.9459824365856898 -0.31528175485946996 0.07559526919149416
-59.2697 42.916500000000006 1722.8466666666666 -0.829702177908357 -0.5531347852722415 0.07507466480751272
-59.705033333333326 50.8948 1765.1899999999998 2.719812726504813e-27 -1.088261313502763e-26 1.0
-59.92156666666667 61.56863333333334 1760.0 0.0 0.0 1.0
-60.50286666666667 59.161233333333335 1669.9566666666667 0.9692173515111175 -0.24230433787777966 0.043661577793126634
-60.50286666666667 59.161233333333335 1669.9566666666667 0.9692173515111177 -0.2423043378777797 0.04366157779312644
-65.10699999999999 59.014700000000005 1380.9266666666665 -0.6500330427326205 -0.7583669966768292 -0.04833778756974373
-59.5349 76.97673333333334 1739.53 0.0 0.0 1.0
-63.176899999999996 66.70933333333333 1440.7833333333335 -0.8108921302626733 0.5789099487417821 0.08554077580809526
-60.114399999999996 82.80863333333333 1703.2266666666667 0.5997501926614065 0.7996523044091741 0.029255742268882053
-59.67756666666667 82.2749 1701.6133333333335 -0.7065196801929834 0.7065196801929938 0.0407416617235253
-61.114133333333335 88.55113333333334 1668.403333333333 -0.8920371379110006 0.3964646566722352 0.2169919827950275
