ply
format ascii 1.0
comment VCGLIB generated
element vertex 774
property float x
property float y
property float z
property float nx
property float ny
property float nz
element face 0
property list uchar int vertex_indices
end_header
-75.9506 -83.85186666666667 2216.3 0.0 0.0 1.0
-76.34563333333334 -82.46916666666667 2216.3 0.0 0.0 1.0
-76.34566666666666 -63.30863333333334 2216.3 0.0 0.0 1.0
-75.35803333333332 -51.259299999999996 2216.3 0.0 0.0 1.0
-76.54486666666668 -31.4507 1988.04 0.0 0.0 1.0
-76.54486666666668 -30.919133333333335 1988.04 0.0 0.0 1.0
-76.73289999999999 -23.9294 1981.46 0.0 0.0 1.0
-77.26270000000001 -12.980106666666666 1981.46 0.0 0.0 1.0
-76.39166666666667 -11.001100000000001 1974.92 0.0 0.0 1.0
-76.39166666666667 -11.001100000000001 1974.92 0.0 0.0 1.0
-76.0526 1.8421066666666668 1968.42 0.0 0.0 1.0
-76.0526 1.8421066666666668 1968.42 0.0 0.0 1.0
-76.52910000000001 28.02116666666667 1899.68 0.0 0.0 1.0
-76.0587 32.62056666666667 1881.76 0.0 0.0 1.0
-76.10766666666667 36.35606666666666 1858.39 0.0 0.0 1.0
-75.358 57.77779999999999 2216.3 0.0 0.0 1.0
-76.54316666666666 58.3704 2216.3 0.0 0.0 1.0
-74.35396666666666 73.3985 1949.1899999999998 0.0 0.0 1.0
-76.84846666666668 79.91916666666667 1813.33 0.0 0.0 1.0
-77.6707 87.63053333333333 1802.41 0.0 0.0 1.0
-76.38870000000001 92.35789999999999 1800.6066666666666 -8.103084837447185e-17 -0.9747398369784113 0.22334334601080041
-75.4217 93.25303333333333 1802.41 0.0 0.0 1.0
-76.59016666666666 106.40433333333334 1961.97 0.0 0.0 1.0
-76.78613333333332 118.91433333333333 1949.1899999999998 1.783968785165971e-26 2.283918108643202e-30 1.0
-76.78613333333332 118.91433333333333 1949.1899999999998 1.783968785165971e-26 2.283918108643202e-30 1.0
-77.22396666666667 127.61333333333333 1887.7 0.0 0.0 1.0
-76.8254 -139.95466666666667 2035.37 0.0 0.0 1.0
-80.80366666666667 -123.01033333333334 1970.6466666666668 0.8640450531337576 0.5025454423780596 0.02956728766936089
-76.7407 -81.4815 2216.3 0.0 0.0 1.0
-76.93823333333334 -79.90123333333334 2216.3 0.0 0.0 1.0
-76.54320000000001 -70.41973333333334 2216.3 0.0 0.0 1.0
-77.33330000000001 -61.72836666666666 2216.3 0.0 0.0 1.0
-76.93826666666668 -53.234566666666666 2216.3 0.0 0.0 1.0
-76.14813333333333 -50.074099999999994 2216.3 0.0 0.0 1.0
-78.12343333333334 -45.72836666666666 2216.3 0.0 0.0 1.0
-76.54486666666668 -30.919133333333335 1988.04 0.0 0.0 1.0
-76.73290000000001 -17.3951 1981.46 0.0 0.0 1.0
-76.91969999999999 -3.9603933333333337 1974.92 0.0 0.0 1.0
-77.9758 3.0803066666666665 1974.92 0.0 0.0 1.0
-77.45616666666666 8.157896666666666 1968.42 0.0 0.0 1.0
-77.33330000000001 14.320966666666669 2216.3 0.0 0.0 1.0
-76.14813333333333 16.098766666666666 2216.3 0.0 0.0 1.0
-76.52910000000001 28.02116666666667 1899.68 0.0 0.0 1.0
-77.3073 67.14443333333334 1949.1899999999998 1.9170996407199902e-26 1.3219233666389823e-27 1.0
-78.1759 68.5342 1949.1899999999998 1.9828216260522053e-27 1.9829167436587543e-27 1.0
-77.81156666666666 77.8926 1818.84 0.0 0.0 1.0
-76.84846666666668 79.91916666666667 1813.33 0.0 0.0 1.0
-78.6304 86.44513333333333 1807.8499999999997 1.7286299148177998e-27 -1.72854051525665e-27 1.0
-77.13356666666665 118.74066666666666 1949.1899999999998 3.567480961991721e-26 3.567023740166208e-26 1.0
-77.22396666666667 127.61333333333333 1887.7 0.0 0.0 1.0
-80.2417 131.4 1807.8499999999997 1.6365075923501972e-28 -2.4567943172113924e-28 1.0
-78.09523333333334 -144.85233333333335 2035.37 0.0 0.0 1.0
-79.92183333333334 -106.211 1804.2233333333334 -7.267711611607468e-17 -0.9995568880139273 0.029766216150416764
-78.65076666666667 -99.44440000000002 1780.95 0.0 0.0 1.0
-78.72013333333332 -102.303 1917.9633333333331 -0.00013856582869084245 -0.9397941257274159 0.3417411038311796
-76.93826666666666 -111.30866666666667 2216.3 0.0 0.0 1.0
-76.7407 -81.4815 2216.3 0.0 0.0 1.0
-78.40666666666665 -67.33753333333334 1881.76 0.0 0.0 1.0
-77.3333 -61.728366666666666 2216.3 0.0 0.0 1.0
-77.7925 -21.6336 1981.46 0.0 0.0 1.0
-77.7925 -20.573966666666667 1981.46 0.0 0.0 1.0
-77.7925 -19.161133333333336 1981.46 0.0 0.0 1.0
-76.91969999999999 -4.840483333333334 1974.92 0.0 0.0 1.0
-78.50386666666667 2.0242033333333334 1974.92 0.0 0.0 1.0
-78.73816666666667 30.368033333333333 1887.7 0.0 0.0 1.0
-76.54316666666666 58.3704 2216.3 0.0 0.0 1.0
-82.62676666666665 54.94673333333333 1905.7433333333336 -0.6705132040839212 0.6705421860272602 0.317466880015691
-77.3073 67.14443333333332 1949.1899999999998 1.7187921115943356e-26 -6.607714420214129e-28 1.0
-76.93826666666666 89.38273333333332 2216.3 0.0 0.0 1.0
-77.81156666666666 77.8926 1818.84 0.0 0.0 1.0
-78.31326666666666 87.30926666666666 1802.41 0.0 0.0 1.0
-78.68420000000002 103.42133333333334 1968.42 0.0 0.0 1.0
-77.46446666666667 106.754 1961.97 0.0 0.0 1.0
-78.52333333333333 112.48666666666668 1949.1899999999998 1.9829104815926656e-26 2.7770794667269266e-26 1.0
-77.65473333333334 118.91433333333333 1949.1899999999998 1.190377942904518e-26 3.571591050538999e-26 1.0
-77.1521 125.04833333333333 1936.57 0.0 0.0 1.0
-77.22396666666667 127.61333333333333 1887.7 0.0 0.0 1.0
-78.42653333333334 129.27533333333335 1858.39 0.0 0.0 1.0
-78.45803333333335 -146.12233333333333 2035.37 0.0 0.0 1.0
-75.95063333333333 -125.13600000000001 2216.3 0.0 0.0 1.0
-78.65076666666667 -98.8095 1780.95 0.0 0.0 1.0
-78.72013333333332 -102.303 1917.9633333333331 -0.00013856582869070208 -0.9397941257274158 0.34174110383117967
-78.12343333333332 -114.66666666666667 2216.3 0.0 0.0 1.0
-78.32096666666666 -110.91366666666666 2216.3 0.0 0.0 1.0
-76.7407 -105.97533333333332 2216.3 0.0 0.0 1.0
-77.33333333333333 -86.81479999999999 2216.3 0.0 0.0 1.0
-77.3333 -61.728366666666666 2216.3 0.0 0.0 1.0
-76.89923333333333 -29.501666666666665 1988.04 0.0 0.0 1.0
-77.7925 -21.6336 1981.46 0.0 0.0 1.0
-77.61590000000001 -17.924899999999997 1981.46 0.0 0.0 1.0
-77.62376666666667 -11.705133333333334 1974.92 0.0 0.0 1.0
-77.62376666666667 -11.705133333333334 1974.92 0.0 0.0 1.0
-78.4989 -11.743906666666668 1981.46 0.0 0.0 1.0
-78.1518 3.43234 1974.92 0.0 0.0 1.0
-77.53083333333333 18.666666666666668 2216.3 0.0 0.0 1.0
-77.1358 20.2469 2216.3 0.0 0.0 1.0
-73.438 16.68296666666667 1961.9833333333333 0.5265597770047341 0.631971023723111 0.5686364624389542
-75.35866666666666 30.464100000000002 1893.67 0.0 0.0 1.0
-77.7658 36.1538 1856.4700000000003 -0.5403807972939298 -0.8105711959408972 0.2257497070361782
-79.25466666666667 36.5217 1858.39 0.0 0.0 1.0
-79.06283333333333 42.1725 1911.82 0.0 0.0 1.0
-79.74523333333333 44.4161 1905.7300000000002 0.0 0.0 1.0
-78.55816666666668 45.216033333333336 1903.7133333333331 0.6980039001952578 -0.698003900195252 -0.15994095980837744
-78.32096666666666 89.38273333333332 2216.3 0.0 0.0 1.0
-78.2979 78.0547 1818.84 0.0 0.0 1.0
-79.11380000000001 82.9003 1807.8499999999997 -1.0371779488906798e-26 1.0370706694172701e-26 1.0
-78.31326666666666 87.30926666666666 1802.41 0.0 0.0 1.0
-77.46446666666667 106.754 1961.97 0.0 0.0 1.0
-78.69706666666667 111.79166666666667 1949.1899999999998 -2.783826287462512e-26 7.550674893572695e-26 1.0
-77.65473333333334 118.91433333333333 1949.1899999999998 1.190377942904518e-26 3.571591050538999e-26 1.0
-80.25290000000001 128.25066666666666 1879.7933333333333 -2.6401972375143164e-17 0.9948348375453526 0.10150687664445224
-78.42653333333334 129.27533333333335 1858.39 0.0 0.0 1.0
-77.91386666666666 -149.7506666666667 2035.37 0.0 0.0 1.0
-77.91386666666666 -149.7506666666667 2035.37 0.0 0.0 1.0
-78.09523333333333 -144.85233333333335 2035.37 0.0 0.0 1.0
-78.63946666666666 -139.04766666666666 2035.37 0.0 0.0 1.0
-77.91386666666666 -134.875 2035.37 0.0 0.0 1.0
-79.1837 -134.33066666666664 2035.37 0.0 0.0 1.0
-80.80366666666667 -123.01033333333334 1970.6466666666668 0.8640450531337576 0.5025454423780596 0.02956728766936089
-79.7561 -111.95133333333332 1824.39 0.0 0.0 1.0
-78.54093333333334 -99.31269999999999 1926.1866666666665 0.2726321433436915 -0.9545305637017668 0.12059484804506422
-78.5185 -88.19753333333334 2216.3 0.0 0.0 1.0
-78.40666666666665 -67.33753333333334 1881.76 0.0 0.0 1.0
-78.40666666666665 -67.33753333333334 1881.76 0.0 0.0 1.0
-79.11110000000001 -69.82713333333334 2216.3 0.0 0.0 1.0
-78.91356666666667 -59.555566666666664 2216.3 0.0 0.0 1.0
-78.91356666666667 -59.555566666666664 2216.3 0.0 0.0 1.0
-78.71603333333334 -54.02466666666667 2216.3 0.0 0.0 1.0
-78.12343333333332 -45.728366666666666 2216.3 0.0 0.0 1.0
-79.50616666666666 -41.58026666666667 2216.3 0.0 0.0 1.0
-79.55996666666668 -8.18482 1974.92 0.0 0.0 1.0
-78.8559 -2.90429 1974.92 0.0 0.0 1.0
-78.8559 -2.90429 1974.92 0.0 0.0 1.0
-79.0319 2.7282733333333336 1974.92 0.0 0.0 1.0
-78.32096666666666 12.938233333333335 2216.3 0.0 0.0 1.0
-78.73816666666667 30.368033333333333 1887.7 0.0 0.0 1.0
-74.10099999999998 33.2121 1813.33 0.0 0.0 1.0
-78.41666666666667 39.416666666666664 1870.0 0.0 0.0 1.0
-79.06283333333333 42.1725 1911.82 0.0 0.0 1.0
-79.42413333333333 54.95340000000001 1848.8166666666668 4.712197878644441e-16 0.9983907332406925 0.056709291823409023
-80.29629999999999 70.02466666666668 2216.3 0.0 0.0 1.0
-77.9259 90.56790000000001 2216.3 0.0 0.0 1.0
-78.2979 78.0547 1818.84 0.0 0.0 1.0
-78.31326666666666 87.30926666666666 1802.41 0.0 0.0 1.0
-78.68419999999999 103.42133333333334 1968.42 0.0 0.0 1.0
-79.04763333333334 123.89633333333332 1942.86 0.0 0.0 1.0
-79.04763333333334 123.89633333333332 1942.86 0.0 0.0 1.0
-77.57653333333333 128.51733333333334 1873.9066666666665 -0.12413603919971167 -0.9922475515792437 -0.0059194726795296585
-80.74146666666667 130.09233333333333 1848.8166666666668 1.4230149018826778e-19 0.9998706789119448 0.01608183609438499
-80.81909999999999 -149.53366666666668 2042.32 0.0 0.0 1.0
-79.59276666666666 -108.85666666666667 1818.8533333333335 -0.974259852024824 0.12193381366172085 0.18960455115443942
-79.70369999999998 -116.04933333333334 2216.3 0.0 0.0 1.0
-75.38866666666667 -96.25676666666668 1879.7933333333333 1.730652470542773e-16 0.6016270250760025 0.7987771420729307
-80.49383333333333 -103.80266666666667 2216.3 0.0 0.0 1.0
-79.70369999999998 -88.98766666666667 2216.3 0.0 0.0 1.0
-78.91063333333334 -67.76893333333334 1879.7933333333333 -0.996348291054547 8.007466330570501e-16 0.08538198236562214
-78.57439999999998 -65.99579999999999 1881.76 0.0 0.0 1.0
-79.1111 -61.925900000000006 2216.3 0.0 0.0 1.0
-79.1111 -45.135799999999996 2216.3 0.0 0.0 1.0
-78.8559 -2.9042899999999996 1974.92 0.0 0.0 1.0
-79.0319 2.7282733333333336 1974.92 0.0 0.0 1.0
-78.85586666666666 3.0803066666666665 1974.92 0.0 0.0 1.0
-79.74523333333333 44.4161 1905.7300000000002 0.0 0.0 1.0
-79.42413333333333 54.95340000000001 1848.8166666666668 2.398937101855352e-16 0.9983907332406925 0.05670929182340898
-78.87166666666667 64.99006666666666 1947.08 7.968229053179284e-17 -0.9810133937875946 0.1939399938366144
-80.2963 81.87653333333334 2216.3 0.0 0.0 1.0
-79.11380000000001 82.9003 1807.8499999999997 -1.0371779488906798e-26 1.0370706694172701e-26 1.0
-79.2749 85.96173333333333 1807.8499999999997 1.0 0.0 0.0
-79.2749 85.96173333333333 1807.8499999999997 1.0 0.0 0.0
-79.2749 85.96173333333333 1807.8499999999997 1.0 0.0 0.0
-80.25026666666666 128.78233333333333 1868.0566666666666 1.6720977836188344e-16 0.999861615895763 0.01663577645658659
-78.42653333333334 129.27533333333335 1858.39 0.0 0.0 1.0
-76.6768 131.064 1818.84 0.0 0.0 1.0
-80.6349 -146.66666666666666 2035.37 0.0 0.0 1.0
-79.92183333333334 -106.211 1804.2233333333334 -6.988184241930258e-17 -0.9995568880139273 0.029766216150416764
-80.07936666666667 -99.12693333333334 1780.95 0.0 0.0 1.0
-77.139 -109.85500000000002 1835.5933333333332 0.9319146072822401 0.34678397498992364 0.10618869725246864
-80.39683333333333 -98.33330000000001 1780.95 0.0 0.0 1.0
-79.50616666666667 -110.51866666666666 2216.3 0.0 0.0 1.0
-78.88556666666666 -93.63143333333333 1922.0633333333333 -0.09166608764425331 0.3209382475532267 0.9426536848882838
-79.50616666666667 -80.49383333333334 2216.3 0.0 0.0 1.0
-79.50616666666666 -60.345666666666666 2216.3 0.0 0.0 1.0
-80.09876666666666 -51.65433333333334 2216.3 0.0 0.0 1.0
-80.09876666666666 -49.67903333333334 2216.3 0.0 0.0 1.0
-80.49383333333333 -43.358066666666666 2216.3 0.0 0.0 1.0
-79.90123333333334 -42.567933333333336 2216.3 0.0 0.0 1.0
-80.88889999999999 -31.7037 2216.3 0.0 0.0 1.0
-79.55996666666667 -8.18482 1974.92 0.0 0.0 1.0
-79.91199999999999 -5.0165 1974.92 0.0 0.0 1.0
-79.91199999999999 -5.0165 1974.92 0.0 0.0 1.0
-78.32096666666666 12.938233333333335 2216.3 0.0 0.0 1.0
-82.3722 21.022499999999997 1835.58 0.0 0.0 1.0
-79.5794 30.368033333333333 1887.7 0.0 0.0 1.0
-78.1759 54.4625 1949.1899999999998 0.0 1.0 0.0
-80.2606 69.05533333333334 1949.1899999999998 1.1893886491709417e-26 -3.964628798131099e-27 1.0
-79.70370000000001 88.98766666666667 2216.3 0.0 0.0 1.0
-79.7583 83.06143333333334 1807.8499999999997 5.531043585020397e-26 4.1482826887653113e-26 1.0
-80.0877 102.895 1968.42 0.0 0.0 1.0
-80.43433333333334 113.18133333333333 1949.1899999999998 -3.30356134135557e-27 -4.6295020060687215e-27 1.0
-80.4329 121.99133333333334 1942.86 0.0 0.0 1.0
-79.04763333333334 123.89633333333335 1942.86 0.0 0.0 1.0
-78.25623333333334 129.045 1862.2433333333336 -1.6064525340466273e-16 0.994760815123432 0.10222974466839398
-80.2417 131.4 1807.8499999999997 1.6365075923501972e-28 -2.4567943172113915e-28 1.0
-80.81909999999999 -149.53366666666668 2042.32 0.0 0.0 1.0
-80.45353333333333 -138.50333333333333 2035.37 0.0 0.0 1.0
-80.0907 -134.14933333333332 2035.37 0.0 0.0 1.0
-79.7561 -111.95133333333332 1824.39 0.0 0.0 1.0
-79.7561 -111.95133333333332 1824.39 0.0 0.0 1.0
-76.99889999999999 -99.72113333333334 1924.12 0.0 0.0 1.0
-81.67903333333334 -98.0741 2216.3 0.0 0.0 1.0
-81.28396666666667 -84.2469 2216.3 0.0 0.0 1.0
-80.587 -60.29346666666667 1881.76 0.0 0.0 1.0
-81.58436666666667 -53.86913333333333 1873.9066666666665 -0.8359001441299752 0.0491642533109551 0.5466752465951452
-80.2963 -60.938233333333336 2216.3 0.0 0.0 1.0
-79.50616666666667 -41.58026666666667 2216.3 0.0 0.0 1.0
-81.08643333333333 -35.06173333333333 2216.3 0.0 0.0 1.0
-80.69136666666667 -32.2963 2216.3 0.0 0.0 1.0
-83.45676666666667 -20.049366666666668 2216.3 0.0 0.0 1.0
-79.55996666666667 -8.18482 1974.92 0.0 0.0 1.0
-79.91199999999999 -5.016500000000001 1974.92 0.0 0.0 1.0
-80.44003333333332 -1.4961486666666666 1974.92 0.0 0.0 1.0
-81.49123333333333 7.280703333333332 1968.42 0.0 0.0 1.0
-81.08643333333333 20.4444 2216.3 0.0 0.0 1.0
-79.5794 30.368033333333333 1887.7 0.0 0.0 1.0
-77.73586666666667 33.79456666666667 1881.76 0.0 0.0 1.0
-80.76676666666667 42.3429 1911.82 0.0 0.0 1.0
-80.76676666666667 42.3429 1911.82 0.0 0.0 1.0
-80.29629999999999 58.3704 2216.3 0.0 0.0 1.0
-78.1759 54.4625 1949.1899999999998 0.0 1.0 0.0
-80.90893333333334 55.17536666666667 1850.7233333333334 0.3144101121794385 0.9431351376751239 0.10789992327076937
-81.12919999999998 65.5809 1949.1899999999998 7.930779234641501e-27 3.9653896173207505e-27 1.0
-80.2606 69.05533333333334 1949.1899999999998 1.1893886491709417e-26 -3.964628798131099e-27 1.0
-80.2417 83.70596666666667 1807.8499999999997 3.180350061386794e-25 2.0741413443826825e-25 1.0
-80.60803333333332 110.92266666666666 1949.1899999999998 2.9733761341534683e-27 -2.976801846926788e-27 1.0
-80.60803333333332 110.92266666666666 1949.1899999999998 2.9733761341534683e-27 -2.976801846926788e-27 1.0
-83.65183333333333 126.79399999999998 1905.7300000000002 1.95222664895401e-27 6.272952902630782e-26 1.0
-82.52083333333333 131.03466666666665 1820.6899999999998 1.0019611889035442e-16 0.999874319614849 0.015853863085783515
-80.6349 -146.66666666666666 2035.37 0.0 0.0 1.0
-81.90476666666666 -140.86133333333333 2035.37 0.0 0.0 1.0
-78.11356666666667 -115.40066666666667 1843.1233333333337 0.8216236467048468 -5.589038467905279e-17 0.5700303353115772
-80.72433333333333 -107.23233333333333 1813.3400000000001 -0.9668007551086438 0.00014893459457642017 0.2555313635150157
-83.11380000000001 -102.75433333333335 1791.62 0.0 0.0 1.0
-80.39683333333333 -98.33330000000001 1780.95 0.0 0.0 1.0
-81.03176666666667 -98.17456666666668 1780.95 0.0 0.0 1.0
-80.69136666666667 -110.12366666666667 2216.3 0.0 0.0 1.0
-81.28396666666667 -107.55566666666665 2216.3 0.0 0.0 1.0
-81.4815 -102.61733333333332 2216.3 0.0 0.0 1.0
-81.4815 -102.61733333333332 2216.3 0.0 0.0 1.0
-81.67903333333334 -91.95063333333333 2216.3 0.0 0.0 1.0
-80.919 -61.27363333333333 1875.8733333333332 -0.7034398153038606 -0.7041385856721035 0.09675369973783984
-80.587 -60.29346666666667 1881.76 0.0 0.0 1.0
-80.587 -60.29346666666667 1881.76 0.0 0.0 1.0
-80.2963 -60.938233333333336 2216.3 0.0 0.0 1.0
-80.09876666666668 -54.02466666666667 2216.3 0.0 0.0 1.0
-80.49383333333334 -53.234566666666666 2216.3 0.0 0.0 1.0
-79.90123333333334 -47.7037 2216.3 0.0 0.0 1.0
-79.5591 -28.03976666666667 1972.7533333333333 -0.9038575066010958 0.4142715898780998 -0.10686747672103925
-81.08643333333333 -35.06173333333333 2216.3 0.0 0.0 1.0
-80.0883 -18.2781 1981.46 0.0 0.0 1.0
-78.4989 -11.743906666666668 1981.46 0.0 0.0 1.0
-84.04936666666667 -13.3333 2216.3 0.0 0.0 1.0
-81.08643333333333 20.4444 2216.3 0.0 0.0 1.0
-79.74603333333333 28.1905 1899.68 0.0 0.0 1.0
-81.5784 38.7954 1864.17 0.0 0.0 1.0
-81.28396666666667 69.6296 2216.3 0.0 0.0 1.0
-80.2606 69.05533333333334 1949.1899999999998 1.1893886491709417e-26 -3.964628798131099e-27 1.0
-81.67903333333334 78.32096666666666 2216.3 0.0 0.0 1.0
-80.49383333333334 84.44443333333334 2216.3 0.0 0.0 1.0
-80.08056666666666 84.5116 1807.8499999999997 9.401835854743076e-27 -4.424056742758779e-27 1.0
-82.88523333333333 101.85806666666666 1961.97 0.0 0.0 1.0
-80.78176666666667 111.61766666666666 1949.1899999999998 -5.94846487815667e-27 -2.8516130772770195e-31 1.0
-80.43433333333334 113.18133333333333 1949.1899999999998 -3.30356134135557e-27 -4.629502006068721e-27 1.0
-80.4329 121.99133333333334 1942.86 0.0 0.0 1.0
-80.77923333333332 122.51066666666667 1942.86 0.0 0.0 1.0
-81.23963333333333 129.83433333333335 1854.5500000000002 3.902233599973317e-18 0.9947949139145966 0.10189739569611388
-80.6349 -146.66666666666666 2035.37 0.0 0.0 1.0
-81.54193333333333 -134.875 2035.37 0.0 0.0 1.0
-81.28396666666667 -107.55566666666668 2216.3 0.0 0.0 1.0
-81.28396666666667 -107.55566666666665 2216.3 0.0 0.0 1.0
-81.67903333333334 -103.605 2216.3 0.0 0.0 1.0
-81.67903333333334 -91.95063333333333 2216.3 0.0 0.0 1.0
-82.46916666666667 -89.1852 2216.3 0.0 0.0 1.0
-81.28396666666667 -84.2469 2216.3 0.0 0.0 1.0
-82.27163333333334 -80.49383333333334 2216.3 0.0 0.0 1.0
-81.67903333333334 -79.11110000000001 2216.3 0.0 0.0 1.0
-81.87656666666668 -74.96300000000001 2216.3 0.0 0.0 1.0
-80.41666666666667 -63.885333333333335 1873.9066666666665 -0.9735088191079773 -0.20859318844059696 0.09364539954091292
-82.4662 -34.5377 1913.9166666666667 -0.9844931753957741 0.13134035021809112 0.11628800455650913
-80.0883 -18.2781 1981.46 0.0 0.0 1.0
-81.31579999999998 8.508773333333332 1968.42 0.0 0.0 1.0
-82.2857 28.02116666666667 1899.68 0.0 0.0 1.0
-81.91666666666667 39.916666666666664 1870.0 0.0 0.0 1.0
-81.28396666666667 69.6296 2216.3 0.0 0.0 1.0
-81.28396666666667 69.6296 2216.3 0.0 0.0 1.0
-81.12920000000001 65.5809 1949.1899999999998 -7.930779234641502e-27 -3.965389617320751e-27 1.0
-82.46916666666667 77.53083333333332 2216.3 0.0 0.0 1.0
-80.88889999999999 88.19753333333334 2216.3 0.0 0.0 1.0
-80.88889999999999 88.19753333333334 2216.3 0.0 0.0 1.0
-80.7229 86.98796666666665 1802.41 0.0 0.0 1.0
-81.66666666666667 101.14033333333333 1968.42 0.0 0.0 1.0
-80.78176666666666 111.61766666666666 1949.1899999999998 1.189692975631334e-26 5.703226154554039e-31 1.0
-81.9849 124.87600000000002 1936.57 0.0 0.0 1.0
-81.24223333333333 129.27533333333335 1858.39 0.0 0.0 1.0
-81.90476666666666 -140.86133333333333 2035.37 0.0 0.0 1.0
-82.80223333333333 -125.921 2028.47 0.0 0.0 1.0
-81.03176666666667 -98.17456666666668 1780.95 0.0 0.0 1.0
-82.46916666666665 -118.61733333333335 2216.3 0.0 0.0 1.0
-82.66669999999999 -117.23433333333332 2216.3 0.0 0.0 1.0
-81.67903333333334 -98.0741 2216.3 0.0 0.0 1.0
-81.28396666666667 -84.2469 2216.3 0.0 0.0 1.0
-82.46916666666667 -78.71603333333333 2216.3 0.0 0.0 1.0
-81.87656666666668 -74.96300000000001 2216.3 0.0 0.0 1.0
-81.87656666666668 -74.963 2216.3 0.0 0.0 1.0
-82.66669999999999 -71.20986666666667 2216.3 0.0 0.0 1.0
-82.27163333333333 -63.1111 2216.3 0.0 0.0 1.0
-81.87656666666668 -56.79013333333334 2216.3 0.0 0.0 1.0
-81.67903333333332 -43.753099999999996 2216.3 0.0 0.0 1.0
-82.4662 -34.5377 1913.9166666666667 -0.9844931753957739 0.13134035021809262 0.11628800455650899
-79.73133333333332 -29.827633333333335 1974.9333333333334 -0.7791637709045599 0.6233151597752827 -0.06619690101583456
-81.67903333333334 -32.493833333333335 2216.3 0.0 0.0 1.0
-81.84816666666667 1.1441113333333333 1974.92 0.0 0.0 1.0
-81.08643333333335 20.4444 2216.3 0.0 0.0 1.0
-81.5784 38.7954 1864.17 0.0 0.0 1.0
-81.44833333333334 42.1725 1911.82 0.0 0.0 1.0
-81.6136 44.4161 1905.7300000000002 9.956204377505873e-28 3.235839694726339e-27 1.0
-81.95953333333334 43.706066666666665 1911.82 0.0 0.0 1.0
-81.8241 65.5809 1949.1899999999998 -2.3789294524482354e-26 3.569078959746836e-26 1.0
-83.15153333333332 80.40403333333332 1813.33 0.0 0.0 1.0
-81.66666666666667 101.14033333333333 1968.42 0.0 0.0 1.0
-81.31576666666666 103.59666666666665 1968.42 0.0 0.0 1.0
-81.64503333333333 123.03033333333333 1942.86 0.0 0.0 1.0
-81.26183333333334 127.445 1887.7 0.0 0.0 1.0
-80.25026666666666 128.78233333333333 1868.0566666666666 2.7612623949668826e-17 0.9998616158957631 0.016635776456586416
-81.7309 130.06166666666667 1850.7233333333334 1.4496509434395116e-16 0.9998706789119448 0.016081836094385096
-82.6304 -137.959 2035.37 0.0 0.0 1.0
-82.6304 -137.959 2035.37 0.0 0.0 1.0
-83.1746 -129.43300000000002 2035.37 0.0 0.0 1.0
-80.88716666666666 -107.23366666666668 1807.8633333333335 0.6353922188994344 0.7268990855693203 0.26056563004460026
-82.3085 -101.81099999999999 1786.2699999999998 1.4147676447726394e-26 1.4218994202676407e-26 1.0
-82.3085 -101.81099999999999 1786.2699999999998 1.4147676447726394e-26 1.4218994202676407e-26 1.0
-81.50796666666666 -96.58726666666666 1780.95 0.0 0.0 1.0
-82.62689999999999 -90.02986666666668 1786.2699999999998 2.361657127048051e-27 -2.1244040869499457e-26 1.0
-82.62689999999999 -89.71143333333333 1786.2699999999998 5.50847397706557e-27 4.721090169849409e-27 1.0
-81.67903333333334 -103.605 2216.3 0.0 0.0 1.0
-81.67903333333334 -98.0741 2216.3 0.0 0.0 1.0
-83.2593 -92.14813333333332 2216.3 0.0 0.0 1.0
-82.46916666666665 -89.1852 2216.3 0.0 0.0 1.0
-82.86423333333333 -88.0 2216.3 0.0 0.0 1.0
-82.6667 -81.08643333333335 2216.3 0.0 0.0 1.0
-82.6667 -81.08643333333333 2216.3 0.0 0.0 1.0
-82.27163333333334 -80.49383333333334 2216.3 0.0 0.0 1.0
-82.66669999999999 -71.20986666666666 2216.3 0.0 0.0 1.0
-82.66669999999999 -70.41973333333334 2216.3 0.0 0.0 1.0
-83.25926666666668 -58.567933333333336 2216.3 0.0 0.0 1.0
-83.25926666666668 -51.851866666666666 2216.3 0.0 0.0 1.0
-82.6667 -51.25926666666667 2216.3 0.0 0.0 1.0
-82.6667 -51.25926666666667 2216.3 0.0 0.0 1.0
-82.86423333333333 -32.09876666666667 2216.3 0.0 0.0 1.0
-82.02156666666667 -8.702160000000001 1972.7533333333333 -9.293626812574348e-17 -0.9726576277646656 0.23224370637589514
-82.3762 -1.144112 1974.92 0.0 0.0 1.0
-82.19296666666666 8.333333333333334 1968.42 0.0 0.0 1.0
-83.06173333333334 21.037000000000003 2216.3 0.0 0.0 1.0
-82.3722 21.022499999999997 1835.58 0.0 0.0 1.0
-80.7571 30.7045 1887.7 0.0 0.0 1.0
-81.5784 38.7954 1864.17 0.0 0.0 1.0
-81.44833333333334 42.1725 1911.82 0.0 0.0 1.0
-82.64110000000001 46.94356666666667 1911.82 0.0 0.0 1.0
-83.85186666666665 62.123466666666666 2216.3 0.0 0.0 1.0
-85.38536666666666 57.28476666666666 1860.3166666666668 -0.7311353290822753 -0.36556766454113426 0.5760220596554384
-83.4568 72.19753333333334 2216.3 0.0 0.0 1.0
-81.8241 65.5809 1949.1899999999998 -2.3789294524482354e-26 3.569078959746836e-26 1.0
-83.06176666666666 77.72836666666666 2216.3 0.0 0.0 1.0
-81.84740000000001 87.63053333333333 1802.41 0.0 0.0 1.0
-81.84740000000001 87.63053333333335 1802.41 0.0 0.0 1.0
-81.31576666666666 103.59666666666665 1968.42 0.0 0.0 1.0
-82.519 108.49066666666666 1949.1899999999998 -2.976172263819357e-26 -5.931363128353994e-27 1.0
-82.51899999999999 108.49066666666666 1949.1899999999998 4.1633554806439984e-26 -2.376649211991613e-26 1.0
-82.17153333333333 112.139 1949.1899999999998 -7.071972443169689e-20 -7.069453249666327e-20 1.0
-81.64503333333333 123.03033333333333 1942.86 0.0 0.0 1.0
-82.63933333333333 -149.716 2042.32 0.0 0.0 1.0
-83.53739999999999 -140.49866666666668 2035.37 0.0 0.0 1.0
-82.63040000000001 -137.95899999999997 2035.37 0.0 0.0 1.0
-82.63036666666666 -135.96366666666668 2035.37 0.0 0.0 1.0
-83.1746 -129.433 2035.37 0.0 0.0 1.0
-83.16383333333334 -124.65566666666666 2028.47 0.0 0.0 1.0
-82.3085 -101.81099999999999 1786.2699999999998 1.4147676447726397e-26 1.4218994202676404e-26 1.0
-84.04939999999999 -119.40766666666667 2216.3 0.0 0.0 1.0
-83.74130000000001 -86.04976666666668 1786.2699999999998 2.675012634806119e-26 -1.5732388367498583e-25 1.0
-83.45683333333334 -93.13576666666667 2216.3 0.0 0.0 1.0
-83.2593 -92.14813333333332 2216.3 0.0 0.0 1.0
-82.46916666666665 -89.1852 2216.3 0.0 0.0 1.0
-83.65433333333333 -87.4074 2216.3 0.0 0.0 1.0
-83.06176666666666 -70.8148 2216.3 0.0 0.0 1.0
-83.4568 -44.345666666666666 2216.3 0.0 0.0 1.0
-84.04939999999999 -38.41973333333333 2216.3 0.0 0.0 1.0
-84.04939999999999 -38.41973333333333 2216.3 0.0 0.0 1.0
-83.77193333333334 5.526316666666666 1968.42 0.0 0.0 1.0
-82.70543333333335 21.558099999999996 1839.3466666666666 6.817424756933529e-16 -0.9832039065084553 0.18251048799045166
-84.05796666666667 36.35606666666667 1858.39 0.0 0.0 1.0
-83.06173333333332 58.172866666666664 2216.3 0.0 0.0 1.0
-83.85186666666665 62.123466666666666 2216.3 0.0 0.0 1.0
-83.4568 72.19753333333334 2216.3 0.0 0.0 1.0
-83.45683333333334 77.3333 2216.3 0.0 0.0 1.0
-83.2593 77.9259 2216.3 0.0 0.0 1.0
-83.3232 77.56836666666666 1818.84 0.0 0.0 1.0
-82.17523333333334 84.5116 1807.8499999999997 3.458154010224662e-27 3.112624843198865e-26 1.0
-83.75953333333332 106.57933333333334 1961.97 0.0 0.0 1.0
-82.519 108.49066666666666 1949.1899999999998 -2.976172263819357e-26 -5.931363128353994e-27 1.0
-81.99783333333333 112.48666666666666 1949.1899999999998 -6.610758621786849e-27 -3.438700933592812e-26 1.0
-83.20343333333334 120.08666666666666 1942.86 0.0 0.0 1.0
-84.00426666666667 126.17666666666666 1911.82 0.0 0.0 1.0
-83.04523333333334 130.123 1846.91 0.0 0.0 1.0
-84.0816 -145.21533333333335 2035.37 0.0 0.0 1.0
-83.5374 -140.49866666666668 2035.37 0.0 0.0 1.0
-83.5374 -136.871 2035.37 0.0 0.0 1.0
-82.80223333333333 -125.921 2028.47 0.0 0.0 1.0
-84.24693333333333 -116.444 2216.3 0.0 0.0 1.0
-83.2593 -92.14813333333332 2216.3 0.0 0.0 1.0
-84.2469 -78.91356666666667 2216.3 0.0 0.0 1.0
-83.85186666666667 -71.01233333333333 2216.3 0.0 0.0 1.0
-82.27163333333333 -63.1111 2216.3 0.0 0.0 1.0
-84.44443333333334 -46.32096666666666 2216.3 0.0 0.0 1.0
-84.0494 -42.37036666666666 2216.3 0.0 0.0 1.0
-83.85186666666668 -31.308633333333333 2216.3 0.0 0.0 1.0
-82.72823333333334 -7.656766666666667 1974.92 0.0 0.0 1.0
-83.25630000000001 0.7920766666666665 1974.92 0.0 0.0 1.0
-83.94736666666667 4.1228066666666665 1968.42 0.0 0.0 1.0
-82.70543333333335 21.558099999999996 1839.3466666666666 6.817424756933529e-16 -0.9832039065084553 0.18251048799045166
-84.44443333333334 29.9259 2216.3 0.0 0.0 1.0
-83.38493333333334 56.2229 1852.63 0.0 0.0 1.0
-83.65436666666666 77.33330000000001 2216.3 0.0 0.0 1.0
-83.45683333333334 77.72836666666666 2216.3 0.0 0.0 1.0
-83.3232 77.56836666666666 1818.84 0.0 0.0 1.0
-83.46423333333333 84.6727 1807.8499999999997 2.151512421745273e-26 9.529670912287662e-26 1.0
-84.99983333333334 127.20333333333333 1901.6966666666667 4.312396725775906e-18 0.9998522832661333 0.017187543381764907
-83.39543333333332 129.441 1858.39 0.0 0.0 1.0
-84.0816 -145.21533333333335 2035.37 0.0 0.0 1.0
-83.9002 -140.67999999999998 2035.37 0.0 0.0 1.0
-83.9002 -140.67999999999998 2035.37 0.0 0.0 1.0
-83.5374 -139.22899999999998 2035.37 0.0 0.0 1.0
-84.08163333333333 -128.70733333333334 2035.37 0.0 0.0 1.0
-83.10449999999999 -89.87066666666665 1786.2699999999998 2.5180218463679364e-26 3.068597409639168e-26 1.0
-83.90050000000001 -89.23383333333334 1786.2699999999998 -3.186976815156942e-26 -2.1244535095112655e-26 1.0
-83.74130000000001 -86.04976666666668 1786.2699999999998 2.675012634806119e-26 -1.5732388367498583e-25 1.0
-84.2469 -78.91356666666667 2216.3 0.0 0.0 1.0
-84.4444 -78.5185 2216.3 0.0 0.0 1.0
-84.4444 -78.5185 2216.3 0.0 0.0 1.0
-84.2469 -71.4074 2216.3 0.0 0.0 1.0
-84.2469 -71.4074 2216.3 0.0 0.0 1.0
-83.25626666666666 -46.84720000000001 1873.9066666666665 -0.9042115617730143 -0.3978496258624217 0.15529689873637995
-85.44156666666667 -40.9711 1879.8066666666666 -0.9282705799462069 -0.37132303752224083 0.020807023131366894
-84.04936666666667 -51.654333333333334 2216.3 0.0 0.0 1.0
-84.44443333333334 -46.32096666666666 2216.3 0.0 0.0 1.0
-84.04936666666667 -36.0494 2216.3 0.0 0.0 1.0
-83.65429999999999 -34.469166666666666 2216.3 0.0 0.0 1.0
-85.2855 -9.840946666666666 1951.3933333333334 -0.9573003756040254 -0.23706370744535551 0.16545932878098732
-85.037 19.654333333333334 2216.3 0.0 0.0 1.0
-84.44443333333334 29.925900000000002 2216.3 0.0 0.0 1.0
-84.05796666666667 36.35606666666667 1858.39 0.0 0.0 1.0
-83.49306666666666 43.024499999999996 1911.82 0.0 0.0 1.0
-84.16136666666667 44.925666666666665 1905.7300000000002 1.5559202881760393e-27 6.2233376641882814e-27 1.0
-84.44443333333334 71.40740000000001 2216.3 0.0 0.0 1.0
-84.83946666666667 86.61726666666668 2216.3 0.0 0.0 1.0
-85.23453333333333 87.20986666666666 2216.3 0.0 0.0 1.0
-83.95963333333333 81.37373333333333 1813.33 0.0 0.0 1.0
-88.77306666666668 97.71986666666668 1949.1899999999998 -3.964755625658358e-27 -8.755507285060219e-27 1.0
-83.75953333333332 106.57933333333334 1961.97 0.0 0.0 1.0
-86.92310000000002 125.897 1917.95 0.0 0.0 1.0
-84.00426666666667 126.17666666666666 1911.82 0.0 0.0 1.0
-85.28303333333332 128.05 1881.76 0.0 0.0 1.0
-86.27929999999999 130.398 1829.97 0.0 0.0 1.0
-84.9144 131.239 1807.8499999999997 0.0 1.0 0.0
-84.87383333333332 131.948 1793.4133333333332 1.9250673185808147e-16 0.999878133418031 0.015611480150021298
-84.87383333333334 131.948 1793.4133333333332 6.6272809328192e-17 0.9998781334180309 0.015611480150021478
-84.82363333333332 -149.352 2042.32 0.0 0.0 1.0
-84.0816 -145.21533333333332 2035.37 0.0 0.0 1.0
-84.44443333333334 -137.05233333333334 2035.37 0.0 0.0 1.0
-84.61016666666667 -123.02833333333335 2028.47 0.0 0.0 1.0
-84.87026666666667 -99.56066666666668 1791.62 0.0 0.0 1.0
-83.06173333333334 -104.395 2216.3 0.0 0.0 1.0
-84.44443333333334 -87.01233333333333 2216.3 0.0 0.0 1.0
-85.43206666666667 -86.2222 2216.3 0.0 0.0 1.0
-84.64193333333334 -77.53083333333335 2216.3 0.0 0.0 1.0
-85.6296 -67.65433333333333 2216.3 0.0 0.0 1.0
-86.41973333333334 -59.5556 2216.3 0.0 0.0 1.0
-84.04936666666667 -50.864233333333324 2216.3 0.0 0.0 1.0
-85.23453333333333 -44.938266666666664 2216.3 0.0 0.0 1.0
-83.2993 -37.85173333333333 1901.7766666666666 -0.9408625273468535 -0.2910283548847106 0.17343644740247016
-85.03703333333334 -42.172866666666664 2216.3 0.0 0.0 1.0
-84.8395 -30.5185 2216.3 0.0 0.0 1.0
-85.82713333333334 -24.5926 2216.3 0.0 0.0 1.0
-85.82713333333334 -23.01233333333333 2216.3 0.0 0.0 1.0
-85.82713333333334 -16.8889 2216.3 0.0 0.0 1.0
-83.6203 -10.507713333333333 1981.46 0.0 0.0 1.0
-82.72823333333334 -7.656766666666667 1974.92 0.0 0.0 1.0
-85.54453333333333 -1.4961466666666665 1974.92 0.0 0.0 1.0
-85.6296 19.2593 2216.3 0.0 0.0 1.0
-85.23456666666668 30.913566666666668 2216.3 0.0 0.0 1.0
-84.85623333333332 43.1949 1911.82 0.0 0.0 1.0
-85.82713333333334 80.49383333333334 2216.3 0.0 0.0 1.0
-84.29583333333333 77.08206666666666 1818.84 0.0 0.0 1.0
-83.47476666666667 79.27273333333333 1813.33 0.0 0.0 1.0
-84.63386666666666 107.45366666666666 1961.97 0.0 0.0 1.0
-84.96320000000001 127.445 1887.7 0.0 0.0 1.0
-84.98866666666667 -146.485 2035.37 0.0 0.0 1.0
-84.62583333333333 -137.778 2035.37 0.0 0.0 1.0
-87.16556666666668 -132.69833333333332 2035.37 0.0 0.0 1.0
-84.98866666666667 -128.526 2035.37 0.0 0.0 1.0
-84.87026666666667 -99.56066666666668 1791.62 0.0 0.0 1.0
-83.9005 -89.23383333333334 1786.2699999999998 5.312431193623438e-27 3.706692098945809e-31 1.0
-84.8395 -82.27163333333334 2216.3 0.0 0.0 1.0
-85.23456666666667 -70.61726666666665 2216.3 0.0 0.0 1.0
-84.04939999999999 -38.41973333333333 2216.3 0.0 0.0 1.0
-85.82713333333334 -29.925900000000002 2216.3 0.0 0.0 1.0
-85.82713333333334 -23.012333333333334 2216.3 0.0 0.0 1.0
-86.02466666666668 -15.901233333333332 2216.3 0.0 0.0 1.0
-85.82713333333334 -15.308633333333333 2216.3 0.0 0.0 1.0
-86.41973333333333 -13.3333 2216.3 0.0 0.0 1.0
-84.64909999999999 6.40351 1968.42 0.0 0.0 1.0
-85.43206666666667 19.851866666666666 2216.3 0.0 0.0 1.0
-84.8254 28.19046666666667 1899.68 0.0 0.0 1.0
-83.83283333333333 34.0061 1829.97 0.0 0.0 1.0
-86.26959999999998 48.73563333333333 1875.86 0.0 0.0 1.0
-84.04939999999999 59.950633333333336 2216.3 0.0 0.0 1.0
-85.43206666666667 71.20986666666667 2216.3 0.0 0.0 1.0
-85.43206666666667 85.6296 2216.3 0.0 0.0 1.0
-85.1064 74.48836666666666 1818.84 0.0 0.0 1.0
-86.91056666666668 74.55283333333334 1824.39 0.0 0.0 1.0
-83.47476666666667 79.27273333333333 1813.33 0.0 0.0 1.0
-84.26986666666667 84.35043333333333 1807.8499999999997 -5.121336579728331e-28 -1.8781295381791364e-27 1.0
-84.63386666666666 100.45906666666666 1961.97 0.0 0.0 1.0
-86.02973333333334 126.79399999999998 1905.7300000000002 -2.348228995401735e-26 1.3801701390261558e-25 1.0
-85.28303333333332 128.05 1881.76 0.0 0.0 1.0
-84.9144 131.239 1807.8499999999997 0.0 1.0 0.0
-84.98866666666667 -146.485 2035.37 0.0 0.0 1.0
-86.07710000000002 -128.163 2035.37 0.0 0.0 1.0
-87.20986666666666 -124.543 2216.3 0.0 0.0 1.0
-84.3781 -87.005 1786.2699999999998 -3.462676477340441e-27 1.196197328535802e-27 1.0
-85.52550000000001 -73.4334 1797.0 0.0 0.0 1.0
-85.84583333333332 -71.51146666666666 1797.0 0.0 0.0 1.0
-85.82713333333334 -84.64196666666668 2216.3 0.0 0.0 1.0
-86.02466666666668 -83.25926666666668 2216.3 0.0 0.0 1.0
-85.6296 -71.80246666666666 2216.3 0.0 0.0 1.0
-85.6296 -71.60493333333334 2216.3 0.0 0.0 1.0
-86.2222 -65.67903333333332 2216.3 0.0 0.0 1.0
-85.43206666666667 -43.35803333333334 2216.3 0.0 0.0 1.0
-86.41973333333333 -14.320966666666665 2216.3 0.0 0.0 1.0
-83.6203 -10.507713333333333 1981.46 0.0 0.0 1.0
-85.52633333333334 2.8947366666666667 1968.42 0.0 0.0 1.0
-86.61726666666668 12.543199999999999 2216.3 0.0 0.0 1.0
-85.6296 19.2593 2216.3 0.0 0.0 1.0
-82.3722 21.022499999999997 1835.58 0.0 0.0 1.0
-87.35366666666668 35.7859 1854.5500000000002 -2.6565820664601862e-17 -0.9821324675529641 0.18819090354830076
-85.43206666666667 71.20986666666666 2216.3 0.0 0.0 1.0
-86.61726666666668 79.70370000000001 2216.3 0.0 0.0 1.0
-86.2222 80.8889 2216.3 0.0 0.0 1.0
-86.2222 85.6296 2216.3 0.0 0.0 1.0
-85.1064 74.48836666666666 1818.84 0.0 0.0 1.0
-85.07549999999999 83.70593333333333 1807.8499999999997 1.79776081672878e-25 -8.297852775606003e-26 1.0
-85.33333333333333 107.80333333333333 1961.97 0.0 0.0 1.0
-84.60366666666668 113.18166666666667 1949.1899999999998 -2.0883452323529414e-27 2.641158363379208e-28 1.0
-85.99346666666668 114.745 1949.1899999999998 -1.159903154474398e-26 -2.8631879941288297e-27 1.0
-85.99346666666668 117.00333333333333 1949.1899999999998 -4.20772510119273e-27 -4.851364008114238e-28 1.0
-84.00426666666667 126.17666666666666 1911.82 0.0 0.0 1.0
-86.59890000000001 -121.94333333333333 2028.47 0.0 0.0 1.0
-87.60493333333334 -121.97533333333332 2216.3 0.0 0.0 1.0
-87.01233333333333 -118.61733333333335 2216.3 0.0 0.0 1.0
-85.82716666666666 -117.23433333333334 2216.3 0.0 0.0 1.0
-87.4074 -114.46866666666666 2216.3 0.0 0.0 1.0
-86.30736666666667 -80.07983333333334 1791.62 0.0 0.0 1.0
-86.1477 -76.2475 1791.62 0.0 0.0 1.0
-85.82836666666667 -75.6088 1791.62 0.0 0.0 1.0
-85.84583333333332 -71.51146666666666 1797.0 0.0 0.0 1.0
-86.41973333333333 -59.5556 2216.3 0.0 0.0 1.0
-87.20986666666666 -58.172866666666664 2216.3 0.0 0.0 1.0
-86.26960000000001 -38.537099999999995 1875.86 0.0 0.0 1.0
-88.0 -32.69136666666667 2216.3 0.0 0.0 1.0
-86.81479999999999 -29.530833333333334 2216.3 0.0 0.0 1.0
-86.41973333333334 -23.802466666666664 2216.3 0.0 0.0 1.0
-86.41973333333334 -23.802466666666664 2216.3 0.0 0.0 1.0
-87.4074 -21.432066666666667 2216.3 0.0 0.0 1.0
-86.41973333333334 -16.49383333333333 2216.3 0.0 0.0 1.0
-86.41973333333334 -16.49383333333333 2216.3 0.0 0.0 1.0
-86.24863333333333 -1.8481833333333333 1974.92 0.0 0.0 1.0
-86.42463333333332 -1.4961466666666665 1974.92 0.0 0.0 1.0
-84.64909999999999 6.40351 1968.42 0.0 0.0 1.0
-86.61726666666668 12.5432 2216.3 0.0 0.0 1.0
-87.20986666666666 13.9259 2216.3 0.0 0.0 1.0
-86.2222 31.308633333333336 2216.3 0.0 0.0 1.0
-86.2222 31.308633333333336 2216.3 0.0 0.0 1.0
-87.79873333333335 32.620533333333334 1881.76 0.0 0.0 1.0
-84.05796666666666 36.35606666666667 1858.39 0.0 0.0 1.0
-85.39979999999998 38.1308 1864.17 0.0 0.0 1.0
-85.41666666666667 39.75 1870.0 0.0 0.0 1.0
-86.26959999999998 48.73563333333333 1875.86 0.0 0.0 1.0
-87.40740000000001 76.14813333333333 2216.3 0.0 0.0 1.0
-87.40740000000001 76.14813333333333 2216.3 0.0 0.0 1.0
-86.2222 85.62960000000002 2216.3 0.0 0.0 1.0
-85.43059999999998 75.78523333333332 1818.84 0.0 0.0 1.0
-85.10636666666666 76.59576666666666 1818.84 0.0 0.0 1.0
-85.07549999999999 83.70593333333333 1807.8499999999997 1.7977608167287764e-25 -8.297852775605984e-26 1.0
-89.3827 114.074 2216.3 0.0 0.0 1.0
-86.0328 107.80333333333333 1961.97 0.0 0.0 1.0
-86.14716666666668 120.25999999999999 1942.86 0.0 0.0 1.0
-86.14716666666668 120.25999999999999 1942.86 0.0 0.0 1.0
-86.02973333333334 126.79399999999998 1905.7300000000002 -2.348228995401735e-26 1.3801701390261558e-25 1.0
-85.7143 129.441 1858.39 0.0 0.0 1.0
-86.46186666666667 -149.716 2042.32 0.0 0.0 1.0
-87.34693333333333 -142.49433333333334 2035.37 0.0 0.0 1.0
-87.34693333333333 -138.50333333333333 2035.37 0.0 0.0 1.0
-73.93466666666667 -117.61666666666667 1977.1000000000001 0.24892665785971949 -0.2358253201060242 0.9393731619562491
-87.60493333333334 -120.19766666666668 2216.3 0.0 0.0 1.0
-85.66866666666668 -98.28333333333335 1791.62 0.0 0.0 1.0
-86.46706666666667 -82.79443333333333 1791.62 0.0 0.0 1.0
-86.30736666666667 -80.07983333333334 1791.62 0.0 0.0 1.0
-87.12713333333333 -69.2693 1797.0 0.0 0.0 1.0
-87.60493333333334 -63.90123333333333 2216.3 0.0 0.0 1.0
-87.01233333333333 -58.963 2216.3 0.0 0.0 1.0
-87.40740000000001 -51.456799999999994 2216.3 0.0 0.0 1.0
-86.26960000000001 -38.537099999999995 1875.86 0.0 0.0 1.0
-87.4074 -21.432066666666667 2216.3 0.0 0.0 1.0
-87.4074 -13.925899999999999 2216.3 0.0 0.0 1.0
-86.60066666666665 -1.8481833333333333 1974.92 0.0 0.0 1.0
-88.69196666666666 29.789 1893.67 0.0 0.0 1.0
-86.38976666666667 42.683699999999995 1911.82 0.0 0.0 1.0
-87.20986666666666 79.30863333333333 2216.3 0.0 0.0 1.0
-87.20986666666666 80.49383333333334 2216.3 0.0 0.0 1.0
-88.0 82.27163333333334 2216.3 0.0 0.0 1.0
-90.76543333333332 110.91366666666666 2216.3 0.0 0.0 1.0
-86.38253333333334 106.92899999999999 1961.97 0.0 0.0 1.0
-86.0328 107.80333333333333 1961.97 0.0 0.0 1.0
-86.14716666666668 120.26 1942.86 0.0 0.0 1.0
-88.255 130.3373333333333 1833.71 1.7135150868895697e-16 0.9998684649868667 0.016218900234191962
-87.60496666666666 -164.444 2216.3 0.0 0.0 1.0
-87.34693333333333 -142.49433333333334 2035.37 0.0 0.0 1.0
-87.52833333333335 -139.04766666666666 2035.37 0.0 0.0 1.0
-87.16553333333333 -127.98166666666668 2035.37 0.0 0.0 1.0
-85.66866666666668 -98.28333333333335 1791.62 0.0 0.0 1.0
-85.01493333333333 -84.93536666666667 1786.2699999999998 0.0 0.0 1.0
-86.62676666666668 -82.31536666666666 1791.62 0.0 0.0 1.0
-86.30739999999999 -81.35726666666666 1791.62 0.0 0.0 1.0
-86.46706666666667 -75.6088 1791.62 0.0 0.0 1.0
-86.48646666666666 -73.75373333333333 1797.0 0.0 0.0 1.0
-87.4074 -58.172866666666664 2216.3 0.0 0.0 1.0
-86.26960000000001 -38.537099999999995 1875.86 0.0 0.0 1.0
-88.0 -30.123433333333335 2216.3 0.0 0.0 1.0
-88.0 -22.222199999999997 2216.3 0.0 0.0 1.0
-89.97533333333335 -5.827159999999999 2216.3 0.0 0.0 1.0
-86.60066666666667 -1.6721666666666668 1974.92 0.0 0.0 1.0
-86.77666666666666 -0.6160603333333333 1974.92 0.0 0.0 1.0
-88.19753333333334 14.518499999999998 2216.3 0.0 0.0 1.0
-87.72826666666667 46.114666666666665 1905.7300000000002 -4.148038580364326e-28 1.3826614371756663e-27 1.0
-87.72826666666667 46.114666666666665 1905.7300000000002 -4.148038580364328e-28 1.3826614371756667e-27 1.0
-86.8668 57.662299999999995 1856.47 0.889543325812275 0.4447716629061338 0.10435918444750895
-88.17336666666667 58.8648 1852.63 0.0 0.0 1.0
-88.19753333333334 79.50616666666667 2216.3 0.0 0.0 1.0
-87.03033333333333 81.37373333333335 1813.33 0.0 0.0 1.0
-87.0358 117.177 1949.1899999999998 -1.722909482501167e-26 1.7889993094565134e-26 1.0
-89.06150000000001 124.531 1936.57 0.0 0.0 1.0
-85.84906666666666 127.03333333333335 1901.6966666666667 2.8739459679604585e-16 0.9948895764781928 0.10096895867068117
-86.27929999999999 130.398 1829.97 0.0 0.0 1.0
-86.68679999999999 131.4 1807.8499999999997 3.456902240637903e-27 2.4217639982704693e-26 1.0
-87.91806666666666 -150.08 2042.32 0.0 0.0 1.0
-87.34693333333333 -142.49433333333332 2035.37 0.0 0.0 1.0
-88.254 -137.77766666666665 2035.37 0.0 0.0 1.0
-88.07260000000001 -131.97266666666667 2035.37 0.0 0.0 1.0
-88.07260000000001 -131.97266666666664 2035.37 0.0 0.0 1.0
-83.90053333333333 -100.69663333333334 1786.2699999999998 -1.995142617869996e-27 -3.324479914029912e-27 1.0
-88.79013333333334 -120.59266666666667 2216.3 0.0 0.0 1.0
-87.4074 -114.46866666666666 2216.3 0.0 0.0 1.0
-86.46706666666667 -82.79443333333333 1791.62 0.0 0.0 1.0
-87.2873 -71.03099999999999 1797.0 0.0 0.0 1.0
-86.64666666666666 -70.07006666666666 1797.0 0.0 0.0 1.0
-87.01233333333333 -72.19753333333334 2216.3 0.0 0.0 1.0
-88.79013333333334 -32.69136666666667 2216.3 0.0 0.0 1.0
-88.79013333333334 -32.691366666666674 2216.3 0.0 0.0 1.0
-88.98766666666667 -24.0 2216.3 0.0 0.0 1.0
-88.39506666666666 -23.209866666666667 2216.3 0.0 0.0 1.0
-87.4074 -13.925899999999999 2216.3 0.0 0.0 1.0
-89.58026666666667 -1.2839500000000001 2216.3 0.0 0.0 1.0
-87.45613333333334 2.8947366666666667 1968.42 0.0 0.0 1.0
-89.38273333333335 30.5185 2216.3 0.0 0.0 1.0
-86.13163333333334 31.680366666666668 1885.72 -2.3459519057486275e-16 0.997695077646302 0.06785670225069097
-88.5315 53.30440000000001 1895.6733333333334 -0.85520808575916 0.4664673663688141 0.22589228885709203
-88.19876666666666 58.716366666666666 1858.39 0.0 0.0 1.0
-88.5926 76.7407 2216.3 0.0 0.0 1.0
-87.03033333333333 81.37373333333333 1813.33 0.0 0.0 1.0
-87.38326666666667 109.88066666666668 1949.1899999999998 -1.9196666905924884e-26 2.1848288961543752e-26 1.0
-87.3593 116.79633333333334 1942.86 0.0 0.0 1.0
-87.3593 123.20366666666666 1942.86 0.0 0.0 1.0
-89.31623333333334 125.897 1917.95 0.0 0.0 1.0
-87.38853333333333 126.794 1905.7300000000002 0.0 0.0 1.0
-87.1279 128.05 1881.76 0.0 0.0 1.0
-88.07256666666667 -139.0476666666667 2035.37 0.0 0.0 1.0
-88.4354 -138.322 2035.37 0.0 0.0 1.0
-88.254 -137.77766666666665 2035.37 0.0 0.0 1.0
-88.79820000000001 -135.78233333333333 2035.37 0.0 0.0 1.0
-88.07260000000001 -131.97266666666667 2035.37 0.0 0.0 1.0
-88.43536666666667 -127.98166666666668 2035.37 0.0 0.0 1.0
-89.31073333333332 -114.71199999999999 2028.47 0.0 0.0 1.0
-86.62673333333333 -80.71853333333333 1791.62 0.0 0.0 1.0
-87.26546666666667 -77.36526666666667 1791.62 0.0 0.0 1.0
-89.97533333333332 -94.32096666666666 2216.3 0.0 0.0 1.0
-87.4699 -64.1767 1802.41 0.0 0.0 1.0
-87.4699 -64.1767 1802.41 0.0 0.0 1.0
-87.79116666666665 -63.21283333333333 1802.41 0.0 0.0 1.0
-89.58026666666666 -61.53083333333333 2216.3 0.0 0.0 1.0
-89.58026666666666 -61.53083333333333 2216.3 0.0 0.0 1.0
-88.79013333333334 -32.69136666666667 2216.3 0.0 0.0 1.0
-88.5926 -31.111100000000004 2216.3 0.0 0.0 1.0
-91.62870000000002 -3.2912966666666663 1903.7266666666667 0.8181722325463183 0.5259668775857165 -0.23227794034928384
-86.2759 3.991196333333333 1981.5033333333333 0.2522228535290916 -0.8827910926937234 0.3963124005355678
-90.17286666666666 18.469166666666666 2216.3 0.0 0.0 1.0
-89.97533333333332 23.802466666666664 2216.3 0.0 0.0 1.0
-89.97533333333332 23.802466666666664 2216.3 0.0 0.0 1.0
-89.73543333333333 52.91003333333333 1899.68 0.0 0.0 1.0
-88.98766666666666 79.90123333333334 2216.3 0.0 0.0 1.0
-88.0 82.27163333333333 2216.3 0.0 0.0 1.0
-89.5671 69.12010000000001 1835.5933333333332 -0.917147479695676 0.2747984867821853 0.28866293865006404
-86.91056666666667 74.55283333333334 1824.39 0.0 0.0 1.0
-86.88956666666667 77.4063 1818.84 0.0 0.0 1.0
-86.88956666666667 77.4063 1818.84 0.0 0.0 1.0
-87.67676666666667 81.37373333333333 1813.33 0.0 0.0 1.0
-87.2568 100.80873333333334 1961.97 0.0 0.0 1.0
-88.83056666666666 106.92933333333333 1961.97 0.0 0.0 1.0
-88.74459999999999 112.12133333333334 1942.86 0.0 0.0 1.0
-87.3593 123.20366666666666 1942.86 0.0 0.0 1.0
-89.2127 129.37766666666667 1862.2433333333336 7.063616903381014e-17 0.9998649565395183 0.016433766586722184
-84.03466666666667 130.09233333333333 1848.8166666666668 8.44475682170832e-17 0.9998706789119448 0.016081836094385016
-84.87383333333334 131.948 1793.4133333333332 6.469488529656838e-17 0.9998781334180309 0.015611480150021478
-87.91806666666666 -150.08 2042.32 0.0 0.0 1.0
-88.58760000000001 -121.94333333333333 2028.47 0.0 0.0 1.0
-88.38323333333334 -89.82036666666666 1791.62 0.0 0.0 1.0
-89.68970000000002 -86.24623333333334 1797.0 0.0 0.0 1.0
-89.97533333333332 -94.32096666666666 2216.3 0.0 0.0 1.0
-87.60759999999999 -71.99196666666666 1797.0 0.0 0.0 1.0
-88.08806666666665 -71.83183333333334 1797.0 0.0 0.0 1.0
-90.17286666666666 -53.4321 2216.3 0.0 0.0 1.0
-90.3704 -50.6667 2216.3 0.0 0.0 1.0
-90.3704 -50.6667 2216.3 0.0 0.0 1.0
-91.35803333333332 -47.90123333333333 2216.3 0.0 0.0 1.0
-88.98766666666667 -24.0 2216.3 0.0 0.0 1.0
-90.96296666666666 -10.963000000000001 2216.3 0.0 0.0 1.0
-90.17283333333334 -0.09876466666666668 2216.3 0.0 0.0 1.0
-89.58026666666667 15.308633333333333 2216.3 0.0 0.0 1.0
-89.38273333333332 30.5185 2216.3 0.0 0.0 1.0
-89.38273333333332 30.5185 2216.3 0.0 0.0 1.0
-87.52449999999999 28.498266666666666 1897.676666666667 -0.27466182176923065 -0.9613028580398444 -0.021393896018123262
-87.8384 33.2121 1813.33 0.0 0.0 1.0
-87.72586666666666 38.29696666666666 1864.17 0.0 0.0 1.0
-89.1161 42.1725 1911.82 0.0 0.0 1.0
-88.77746666666667 48.90283333333334 1875.86 0.0 0.0 1.0
-88.77746666666667 48.90283333333334 1875.86 0.0 0.0 1.0
-90.17286666666666 79.90123333333334 2216.3 0.0 0.0 1.0
-88.16163333333333 80.72726666666667 1813.33 0.0 0.0 1.0
-88.65570000000001 103.082 1961.97 0.0 0.0 1.0
-89.12049999999999 114.22366666666666 1949.1899999999998 1.692291883804255e-27 -1.7449134116294234e-27 1.0
-88.59933333333333 115.78699999999999 1949.1899999999998 1.722570060383603e-26 -1.7887192089477443e-26 1.0
-87.3593 116.79633333333334 1942.86 0.0 0.0 1.0
-87.70186666666666 129.60666666666665 1858.39 0.0 0.0 1.0
-90.00869999999999 130.62066666666666 1826.25 -0.09016815044760529 0.9914431591634454 0.094393679835386
-89.52380000000001 -135.23800000000003 2035.37 0.0 0.0 1.0
-89.8866 -129.433 2035.37 0.0 0.0 1.0
-89.161 -128.34466666666665 2035.37 0.0 0.0 1.0
-89.6723 -112.723 2028.47 0.0 0.0 1.0
-89.67229999999999 -112.723 2028.47 0.0 0.0 1.0
-88.79013333333334 -120.59266666666667 2216.3 0.0 0.0 1.0
-88.7026 -89.34133333333334 1791.62 0.0 0.0 1.0
-88.22353333333332 -79.12176666666669 1791.62 0.0 0.0 1.0
-88.56856666666665 -70.87086666666666 1797.0 0.0 0.0 1.0
-88.56856666666665 -70.87086666666666 1797.0 0.0 0.0 1.0
-88.72873333333332 -69.10913333333333 1797.0 0.0 0.0 1.0
-88.2731 -62.730933333333326 1802.41 0.0 0.0 1.0
-90.36143333333332 -57.42973333333333 1802.41 0.0 0.0 1.0
