ply
format ascii 1.0
comment VCGLIB generated
element vertex 781
property float x
property float y
property float z
property float nx
property float ny
property float nz
element face 0
property list uchar int vertex_indices
end_header
-67.00663333333334 -51.29366666666667 1695.18 0.0 0.0 1.0
-67.0028 -42.35293333333333 1676.1899999999998 0.0 0.0 1.0
-66.55336666666666 -11.407000000000002 1695.18 0.0 0.0 1.0
-65.98093333333334 -5.714290000000001 1709.71 0.0 0.0 1.0
-67.0476 7.695233333333334 1709.71 0.0 0.0 1.0
-64.1778 16.0889 1994.67 0.0 0.0 1.0
-64.1778 28.88886666666666 1994.67 0.0 0.0 1.0
-64.0 32.622233333333334 1994.67 0.0 0.0 1.0
-64.35556666666666 42.04443333333333 1994.67 0.0 0.0 1.0
-63.46666666666667 44.17776666666666 1994.67 0.0 0.0 1.0
-63.64443333333333 49.6889 1994.67 0.0 0.0 1.0
-63.64443333333333 50.57776666666667 1994.67 0.0 0.0 1.0
-63.64443333333333 50.57776666666667 1994.67 0.0 0.0 1.0
-64.71113333333334 55.199999999999996 1994.67 0.0 0.0 1.0
-66.8976 49.6393 1580.2933333333333 -5.552689638895738e-16 0.7507090474174037 0.6606329738407358
-63.288900000000005 67.8222 1994.67 0.0 0.0 1.0
-64.1778 87.37776666666667 1994.67 0.0 0.0 1.0
-64.1778 107.64466666666665 1994.67 0.0 0.0 1.0
-64.1778 126.13333333333333 1994.67 0.0 0.0 1.0
-63.46666666666667 132.533 1994.67 0.0 0.0 1.0
-64.7452 103.957 1614.3933333333334 -0.6455418599997463 -0.09683502127161447 0.7575610111689974
-63.288900000000005 136.9776666666667 1994.67 0.0 0.0 1.0
-64.71113333333334 146.4 1994.67 0.0 0.0 1.0
-65.5222 -113.47866666666665 1691.9933333333336 -0.5533833330973581 0.7378444441298165 0.38646146368922796
-64.53333333333333 -127.022 1994.67 0.0 0.0 1.0
-66.9663 -104.34466666666667 1680.9000000000003 0.0 0.0 1.0
-66.66666666666667 -97.30336666666666 1680.9000000000003 2.3982566046374037e-26 4.796157457430837e-26 1.0
-66.17843333333333 -94.4225 1685.63 0.0 0.0 1.0
-66.85553333333333 -84.53256666666665 1695.18 0.0 0.0 1.0
-66.25116666666668 -79.8489 1695.18 0.0 0.0 1.0
-66.2121 -67.04546666666667 1700.0 0.0 0.0 1.0
-66.66666666666667 -61.53256666666667 1719.54 0.0 0.0 1.0
-67.43293333333334 -57.0881 1719.54 0.0 0.0 1.0
-67.62246666666667 -41.97653333333333 1673.07 -0.8616732653719928 -0.47870498938424666 0.16840640392157116
-64.7111 -49.3333 1994.67 0.0 0.0 1.0
-67.61036666666666 -40.5233 1674.63 -0.8909036380592656 -0.11136916678143678 0.44032671550017655
-67.50476666666667 -36.95236666666667 1709.71 0.0 0.0 1.0
-67.3884 -27.4264 1704.84 0.0 0.0 1.0
-65.9408 -4.508116666666666 1714.61 0.0 0.0 1.0
-64.0 24.799966666666666 1994.67 0.0 0.0 1.0
-64.0 32.622233333333334 1994.67 0.0 0.0 1.0
-69.30443333333334 43.1436 1621.68 0.0 0.0 1.0
-65.42219999999999 77.60000000000001 1994.67 0.0 0.0 1.0
-63.466633333333334 82.57780000000001 1994.67 0.0 0.0 1.0
-64.0 107.11133333333333 1994.67 0.0 0.0 1.0
-65.42219999999999 115.289 1994.67 0.0 0.0 1.0
-64.35553333333334 119.37766666666668 1994.67 0.0 0.0 1.0
-64.53333333333333 124.71100000000001 1994.67 0.0 0.0 1.0
-63.82223333333334 130.04433333333336 1994.67 0.0 0.0 1.0
-64.0 144.80033333333333 1994.67 0.0 0.0 1.0
-65.95556666666666 -128.44433333333333 1994.67 0.0 0.0 1.0
-66.9663 -104.34466666666667 1680.9000000000003 0.0 0.0 1.0
-68.0468 -102.11266666666667 1676.2 -0.673463575630467 0.6741772510061345 0.30320264927080975
-66.66666666666667 -97.30336666666666 1680.9000000000003 2.398256604637396e-26 4.7961574574308204e-26 1.0
-66.1001 -87.10103333333335 1695.18 0.0 0.0 1.0
-66.85553333333333 -69.72616666666666 1695.18 0.0 0.0 1.0
-66.66666666666667 -61.53256666666667 1719.54 0.0 0.0 1.0
-67.43293333333334 -57.0881 1719.54 0.0 0.0 1.0
-67.3088 -51.595866666666666 1695.18 0.0 0.0 1.0
-67.3088 -50.9915 1695.18 0.0 0.0 1.0
-68.55966666666666 -46.58553333333333 1688.8100000000002 -3.0324193380981954e-16 0.9926260425102035 0.12121691189983075
-67.0149 -43.80616666666666 1674.63 -0.9279133964793073 0.37118192181893395 0.03465125609611773
-66.70486666666666 -33.6963 1714.61 0.0 0.0 1.0
-66.70486666666666 -33.6963 1714.61 0.0 0.0 1.0
-66.78063333333334 -25.603033333333332 1704.84 0.0 0.0 1.0
-66.55336666666666 -11.407000000000002 1695.18 0.0 0.0 1.0
-65.98093333333334 -5.714290000000001 1709.71 0.0 0.0 1.0
-67.0476 7.695233333333333 1709.71 0.0 0.0 1.0
-65.24446666666667 15.733333333333334 1994.67 0.0 0.0 1.0
-65.42223333333334 24.444433333333336 1994.67 0.0 0.0 1.0
-65.06666666666666 28.53333333333333 1994.67 0.0 0.0 1.0
-64.1778 44.53333333333333 1994.67 0.0 0.0 1.0
-64.71113333333334 55.20000000000001 1994.67 0.0 0.0 1.0
-64.71113333333334 55.20000000000001 1994.67 0.0 0.0 1.0
-64.88889999999999 56.97776666666667 1994.67 0.0 0.0 1.0
-65.24446666666667 87.0222 1994.67 0.0 0.0 1.0
-70.75436666666667 77.0099 1595.74 -0.48364131685235695 0.7663735876390744 0.42280326489105086
-65.95556666666666 100.35566666666666 1994.67 0.0 0.0 1.0
-64.1778 107.64466666666665 1994.67 0.0 0.0 1.0
-69.36026666666667 92.05386666666668 1511.11 0.0 0.0 1.0
-64.53333333333333 124.71100000000001 1994.67 0.0 0.0 1.0
-65.06666666666666 126.13333333333333 1994.67 0.0 0.0 1.0
-64.71113333333334 146.39999999999998 1994.67 0.0 0.0 1.0
-64.71113333333334 146.39999999999998 1994.67 0.0 0.0 1.0
-68.7324 -112.15033333333334 1685.63 0.0 0.0 1.0
-66.8555 -80.45326666666666 1695.18 0.0 0.0 1.0
-68.85119999999999 -78.4181 1690.4000000000003 -3.873678598410168e-27 -1.9368392992050836e-27 1.0
-67.8095 -55.0857 1709.71 0.0 0.0 1.0
-65.42219999999999 -50.22220000000001 1994.67 0.0 0.0 1.0
-71.26703333333334 -41.96243333333334 1660.6866666666667 -0.5688144532279995 0.7239414369030375 0.39033179954200176
-67.50476666666667 -36.95236666666667 1709.71 0.0 0.0 1.0
-68.11426666666667 -31.009533333333334 1709.71 0.0 0.0 1.0
-67.9962 -26.970566666666667 1704.84 0.0 0.0 1.0
-67.9962 -26.970566666666667 1704.84 0.0 0.0 1.0
-68.41903333333333 -22.78096666666666 1709.71 0.0 0.0 1.0
-68.11426666666667 -21.104733333333336 1709.71 0.0 0.0 1.0
-67.84426666666667 -17.701800000000002 1704.84 0.0 0.0 1.0
-67.84426666666667 1.7473866666666666 1704.84 0.0 0.0 1.0
-67.6571 4.342856666666666 1709.71 0.0 0.0 1.0
-67.6571 4.342856666666667 1709.71 0.0 0.0 1.0
-67.6571 4.342856666666667 1709.71 0.0 0.0 1.0
-65.06666666666666 42.22223333333333 1994.67 0.0 0.0 1.0
-65.95556666666666 42.5778 1994.67 0.0 0.0 1.0
-65.24446666666667 56.800000000000004 1994.67 0.0 0.0 1.0
-65.06666666666666 61.77776666666667 1994.67 0.0 0.0 1.0
-66.13333333333334 73.86666666666666 1994.67 0.0 0.0 1.0
-65.42219999999999 77.60000000000001 1994.67 0.0 0.0 1.0
-65.60000000000001 97.15556666666667 1994.67 0.0 0.0 1.0
-65.42219999999999 115.289 1994.67 0.0 0.0 1.0
-69.36026666666667 92.05386666666668 1511.11 0.0 0.0 1.0
-64.35556666666666 132.533 1994.67 0.0 0.0 1.0
-65.77776666666666 142.84466666666665 1994.67 0.0 0.0 1.0
-68.50676666666665 -119.092 1696.7866666666669 0.8869157054871326 -0.44326228147444097 0.12999646603787163
-68.452 -117.22699999999999 1704.84 0.0 0.0 1.0
-68.452 -117.22699999999999 1704.84 0.0 0.0 1.0
-68.91383333333333 -108.68900000000001 1680.9000000000003 2.2872505319947824e-27 4.5733380537094736e-27 1.0
-68.4644 -89.96256666666666 1680.9000000000003 -2.9084242843506154e-28 -9.888539027301641e-28 1.0
-68.5499 -77.51413333333333 1690.4000000000003 -1.9716541709595677e-27 1.270581077336409e-27 1.0
-66.85553333333333 -69.72616666666666 1695.18 0.0 0.0 1.0
-68.2153 -51.44476666666666 1695.18 0.0 0.0 1.0
-64.7111 -49.3333 1994.67 0.0 0.0 1.0
-68.26666666666667 -36.95236666666667 1709.71 0.0 0.0 1.0
-68.11426666666667 -31.009533333333337 1709.71 0.0 0.0 1.0
-68.11426666666667 -21.104733333333332 1709.71 0.0 0.0 1.0
-67.57576666666667 -9.16667 1700.0 0.0 0.0 1.0
-66.3111 28.711100000000002 1994.67 0.0 0.0 1.0
-66.3111 61.4222 1994.67 0.0 0.0 1.0
-67.9298 54.5263 1574.74 0.0 0.0 1.0
-65.4222 75.82220000000001 1994.67 0.0 0.0 1.0
-65.95556666666666 100.35566666666666 1994.67 0.0 0.0 1.0
-66.31110000000001 116.71133333333334 1994.67 0.0 0.0 1.0
-66.31110000000001 117.24466666666666 1994.67 0.0 0.0 1.0
-66.31110000000001 117.24466666666666 1994.67 0.0 0.0 1.0
-66.1333 117.778 1994.67 0.0 0.0 1.0
-66.13333333333334 126.48899999999999 1994.67 0.0 0.0 1.0
-68.08890000000001 -145.511 1994.67 0.0 0.0 1.0
-68.50676666666665 -119.092 1696.7866666666669 0.8869157054871326 -0.44326228147444097 0.12999646603787163
-69.24243333333334 -118.56066666666668 1700.0 0.0 0.0 1.0
-68.7324 -112.15033333333334 1685.63 0.0 0.0 1.0
-68.91383333333333 -108.68900000000001 1680.9000000000003 2.2872505319947824e-27 4.5733380537094736e-27 1.0
-66.84446666666668 -111.37766666666668 1994.67 0.0 0.0 1.0
-66.84446666666668 -111.37766666666668 1994.67 0.0 0.0 1.0
-67.73336666666667 -109.42233333333333 1994.67 0.0 0.0 1.0
-67.37776666666667 -73.15556666666667 1994.67 0.0 0.0 1.0
-67.43293333333334 -57.0881 1719.54 0.0 0.0 1.0
-67.57576666666667 -49.62120000000001 1700.0 0.0 0.0 1.0
-68.55966666666666 -46.58553333333333 1688.8100000000002 -3.436741916511288e-16 0.9926260425102036 0.12121691189983073
-68.41903333333333 -37.56186666666667 1709.71 0.0 0.0 1.0
-68.11426666666667 -31.009533333333337 1709.71 0.0 0.0 1.0
-67.9962 -28.338066666666666 1704.84 0.0 0.0 1.0
-67.9962 -26.970566666666667 1704.84 0.0 0.0 1.0
-69.33336666666666 -28.888899999999996 1994.67 0.0 0.0 1.0
-68.7238 -22.01903333333333 1709.71 0.0 0.0 1.0
-68.41903333333333 -21.561866666666663 1709.71 0.0 0.0 1.0
-67.57576666666667 -9.16667 1700.0 0.0 0.0 1.0
-69.51566666666666 10.864233333333333 1704.84 0.0 0.0 1.0
-69.51566666666666 10.864233333333333 1704.84 0.0 0.0 1.0
-65.24446666666667 15.733333333333334 1994.67 0.0 0.0 1.0
-70.13486666666667 18.728333333333335 1729.4800000000002 -6.373258937946255e-27 -8.7335030779412e-27 1.0
-65.42223333333334 24.444433333333336 1994.67 0.0 0.0 1.0
-67.55556666666666 36.0 1994.67 0.0 0.0 1.0
-67.3778 37.6 1994.67 0.0 0.0 1.0
-66.66666666666667 42.93333333333334 1994.67 0.0 0.0 1.0
-66.84446666666668 45.95556666666666 1994.67 0.0 0.0 1.0
-66.84446666666668 45.95556666666666 1994.67 0.0 0.0 1.0
-68.26666666666667 50.4 1994.67 0.0 0.0 1.0
-66.91033333333333 55.074000000000005 1562.4000000000003 -6.000157873051168e-28 -4.288538446452378e-29 1.0
-70.89226666666667 55.55076666666667 1571.9799999999998 -5.2479611244751906e-17 0.9375002189786052 0.34798468273052935
-66.13333333333334 73.86666666666666 1994.67 0.0 0.0 1.0
-66.13336666666667 87.7333 1994.67 0.0 0.0 1.0
-66.84446666666668 89.15553333333332 1994.67 0.0 0.0 1.0
-66.4889 101.06666666666666 1994.67 0.0 0.0 1.0
-66.4889 101.06666666666666 1994.67 0.0 0.0 1.0
-66.31110000000001 117.24466666666666 1994.67 0.0 0.0 1.0
-69.24243333333334 -118.56066666666668 1700.0 0.0 0.0 1.0
-68.452 -117.22699999999999 1704.84 0.0 0.0 1.0
-70.01863333333333 -102.71866666666666 1671.51 0.0 0.0 1.0
-68.08890000000001 -115.11133333333333 1994.67 0.0 0.0 1.0
-66.84446666666668 -111.37766666666668 1994.67 0.0 0.0 1.0
-69.45383333333334 -78.56876666666666 1690.4000000000003 0.0 0.0 1.0
-68.2153 -50.84040000000001 1695.18 0.0 0.0 1.0
-70.15153333333335 -49.16663333333333 1700.0 0.0 0.0 1.0
-68.67783333333334 -40.89386666666667 1671.51 0.0 0.0 1.0
-68.57143333333333 -37.257133333333336 1709.71 0.0 0.0 1.0
-68.57143333333333 -32.228566666666666 1709.71 0.0 0.0 1.0
-69.18096666666666 -22.323799999999995 1709.71 0.0 0.0 1.0
-70.21963333333333 -4.96657 1714.61 0.0 0.0 1.0
-67.37776666666667 1.8666653333333334 1994.67 0.0 0.0 1.0
-65.42223333333334 6.666663333333333 1994.67 0.0 0.0 1.0
-65.42223333333334 6.666663333333333 1994.67 0.0 0.0 1.0
-67.02223333333335 35.288900000000005 1994.67 0.0 0.0 1.0
-67.55556666666666 36.0 1994.67 0.0 0.0 1.0
-66.84443333333333 42.04443333333334 1994.67 0.0 0.0 1.0
-66.84446666666668 44.8889 1994.67 0.0 0.0 1.0
-67.55553333333334 60.711099999999995 1994.67 0.0 0.0 1.0
-69.48286666666667 55.03853333333333 1573.36 1.7813033559322166e-16 0.9375002189786055 0.34798468273052896
-66.84446666666668 89.15553333333332 1994.67 0.0 0.0 1.0
-68.7042 83.28866666666667 1604.29 0.0 0.0 1.0
-69.89896666666667 91.7845 1511.11 0.0 0.0 1.0
-69.89896666666667 91.7845 1511.11 0.0 0.0 1.0
-66.13333333333334 126.48899999999999 1994.67 0.0 0.0 1.0
-67.73333333333333 142.489 1994.67 0.0 0.0 1.0
-69.9441 -120.91966666666666 1709.72 -0.33878500010665313 0.8466089352901857 0.41046075864758796
-68.7324 -112.15033333333334 1685.63 0.0 0.0 1.0
-68.91383333333333 -108.68900000000001 1680.9000000000003 2.2872505319947824e-27 4.5733380537094736e-27 1.0
-70.746 -106.94200000000001 1674.63 -0.7765426320041193 0.5177047141665223 0.3591147025810477
-70.01863333333333 -102.71866666666666 1671.51 0.0 0.0 1.0
-70.04643333333333 -99.61009999999999 1666.8499999999997 1.9529895810781073e-25 1.1388241446779473e-25 1.0
-72.11303333333333 -92.49986666666666 1669.9566666666667 -0.16876700535016775 -0.7875709669421234 0.5926632010973731
-69.90583333333335 -88.81356666666666 1690.4000000000003 1.1659907912121468e-27 -1.3156296941513493e-26 1.0
-69.87723333333334 -87.10103333333335 1695.18 0.0 0.0 1.0
-69.45383333333334 -78.56876666666666 1690.4000000000003 0.0 0.0 1.0
-69.45383333333334 -78.56876666666666 1690.4000000000003 0.0 0.0 1.0
-68.66856666666668 -76.52503333333333 1695.18 0.0 0.0 1.0
-67.37776666666667 -73.15556666666667 1994.67 0.0 0.0 1.0
-68.08890000000001 -71.91113333333334 1994.67 0.0 0.0 1.0
-68.55966666666666 -46.58553333333333 1688.8100000000002 -3.0324193380981954e-16 0.9926260425102035 0.12121691189983075
-68.67783333333334 -40.89386666666667 1671.51 0.0 0.0 1.0
-69.03286666666666 -38.9859 1685.63 0.0 0.0 1.0
-68.08890000000001 -26.399999999999995 1994.67 0.0 0.0 1.0
-67.37776666666667 1.8666653333333334 1994.67 0.0 0.0 1.0
-67.37776666666667 28.355566666666665 1994.67 0.0 0.0 1.0
-68.6222 31.733333333333334 1994.67 0.0 0.0 1.0
-67.2 42.57776666666667 1994.67 0.0 0.0 1.0
-70.46069999999999 43.1436 1621.68 0.0 0.0 1.0
-68.26666666666667 66.93333333333334 1994.67 0.0 0.0 1.0
-67.19996666666667 99.46666666666665 1994.67 0.0 0.0 1.0
-67.37776666666667 99.82233333333333 1994.67 0.0 0.0 1.0
-68.7042 83.28866666666667 1604.29 0.0 0.0 1.0
-68.8 109.77799999999998 1994.67 0.0 0.0 1.0
-67.37776666666666 113.33333333333333 1994.67 0.0 0.0 1.0
-65.95553333333334 130.57766666666666 1994.67 0.0 0.0 1.0
-68.26666666666667 136.62233333333333 1994.67 0.0 0.0 1.0
-67.55553333333334 139.46666666666667 1994.67 0.0 0.0 1.0
-67.73333333333333 142.489 1994.67 0.0 0.0 1.0
-69.24243333333334 -118.56066666666668 1700.0 0.0 0.0 1.0
-67.55556666666666 -128.62233333333333 1994.67 0.0 0.0 1.0
-69.5111 -123.64466666666665 1994.67 0.0 0.0 1.0
-70.04643333333333 -99.61009999999999 1666.8499999999997 1.9529895810781148e-25 1.1388241446779512e-25 1.0
-70.04643333333333 -99.61009999999999 1666.8499999999997 1.952989581078112e-25 1.1388241446779498e-25 1.0
-68.08890000000001 -115.11133333333333 1994.67 0.0 0.0 1.0
-69.87723333333334 -87.10103333333332 1695.18 0.0 0.0 1.0
-69.87723333333334 -87.10103333333332 1695.18 0.0 0.0 1.0
-71.3881 -79.5467 1695.18 0.0 0.0 1.0
-70.90910000000001 -66.74243333333334 1700.0 0.0 0.0 1.0
-68.08890000000001 -45.77776666666667 1994.67 0.0 0.0 1.0
-69.18096666666666 -22.323799999999995 1709.71 0.0 0.0 1.0
-69.42396666666667 -10.953733333333334 1695.18 0.0 0.0 1.0
-70.70476666666666 1.14286 1709.71 0.0 0.0 1.0
-67.37776666666667 28.355566666666665 1994.67 0.0 0.0 1.0
-70.46070000000002 43.1436 1621.68 0.0 0.0 1.0
-68.26666666666667 66.93333333333334 1994.67 0.0 0.0 1.0
-68.08890000000001 83.11110000000001 1994.67 0.0 0.0 1.0
-67.02223333333335 116.35566666666666 1994.67 0.0 0.0 1.0
-71.77066666666666 103.15866666666666 1565.1266666666668 -1.815490302673421e-15 -0.7120510981663236 0.7021276476539949
-68.8 136.267 1994.67 0.0 0.0 1.0
-67.73333333333333 142.489 1994.67 0.0 0.0 1.0
-68.08890000000001 -145.511 1994.67 0.0 0.0 1.0
-68.08890000000001 -145.511 1994.67 0.0 0.0 1.0
-70.195 -100.35300000000001 1666.8499999999997 2.8616404969199814e-26 -1.365669527422187e-26 1.0
-68.08890000000001 -115.11133333333333 1994.67 0.0 0.0 1.0
-70.34356666666666 -97.97583333333334 1666.8499999999997 -6.18070756270857e-25 -6.506315286432832e-26 1.0
-68.62223333333333 -112.26666666666667 1994.67 0.0 0.0 1.0
-69.88503333333334 -58.46743333333333 1719.54 0.0 0.0 1.0
-70.09523333333334 -55.0857 1709.71 0.0 0.0 1.0
-73.968 -43.49673333333333 1651.5199999999998 6.291680842678299e-16 0.9533723068417701 0.3017966940627445
-71.64296666666667 -32.74453333333333 1704.84 0.0 0.0 1.0
-70.24763333333334 -20.647633333333335 1709.71 0.0 0.0 1.0
-69.79046666666666 -20.34286666666667 1709.71 0.0 0.0 1.0
-70.8832 -17.245966666666664 1704.84 0.0 0.0 1.0
-70.83093333333333 -3.74403 1714.61 0.0 0.0 1.0
-70.70476666666666 1.14286 1709.71 0.0 0.0 1.0
-69.66763333333334 1.7473866666666666 1704.84 0.0 0.0 1.0
-71.33903333333333 12.687566666666667 1704.84 0.0 0.0 1.0
-70.13486666666667 18.72833333333333 1729.4800000000002 3.1866294689731164e-27 4.366751538970586e-27 1.0
-68.6222 31.733333333333334 1994.67 0.0 0.0 1.0
-67.55556666666666 36.0 1994.67 0.0 0.0 1.0
-68.08890000000001 37.599999999999994 1994.67 0.0 0.0 1.0
-68.26666666666667 50.4 1994.67 0.0 0.0 1.0
-70.46070000000002 43.1436 1621.68 0.0 0.0 1.0
-69.33333333333333 55.3778 1994.67 0.0 0.0 1.0
-68.9778 67.64443333333334 1994.67 0.0 0.0 1.0
-71.93536666666667 55.53346666666667 1559.6866666666665 7.628224187052295e-17 0.9364463742136088 0.3508107584185325
-68.26666666666667 103.911 1994.67 0.0 0.0 1.0
-68.8 109.77799999999998 1994.67 0.0 0.0 1.0
-68.8 112.089 1994.67 0.0 0.0 1.0
-68.8 136.267 1994.67 0.0 0.0 1.0
-68.62223333333333 145.33333333333334 1994.67 0.0 0.0 1.0
-69.33333333333333 146.57766666666666 1994.67 0.0 0.0 1.0
-70.04443333333333 -135.91133333333332 1994.67 0.0 0.0 1.0
-69.6889 -128.97799999999998 1994.67 0.0 0.0 1.0
-70.01863333333334 -102.71866666666666 1671.51 0.0 0.0 1.0
-69.86663333333333 -125.778 1994.67 0.0 0.0 1.0
-71.85186666666667 -91.18520000000001 1662.22 0.0 0.0 1.0
-72.9588 -89.3633 1680.9000000000003 -6.528979902860578e-28 1.6324628989428733e-27 1.0
-71.38806666666666 -81.66193333333332 1695.18 0.0 0.0 1.0
-70.90910000000001 -66.74243333333334 1700.0 0.0 0.0 1.0
-69.88503333333334 -58.46743333333333 1719.54 0.0 0.0 1.0
-70.48156666666667 -51.44476666666666 1695.18 0.0 0.0 1.0
-72.35553333333333 -57.866666666666674 1994.67 0.0 0.0 1.0
-70.4 -34.755566666666674 1994.67 0.0 0.0 1.0
-70.8832 -17.24596666666667 1704.84 0.0 0.0 1.0
-71.84136666666666 -12.3135 1695.18 0.0 0.0 1.0
-71.4422 -5.11939 1714.61 0.0 0.0 1.0
-70.6781 -4.50812 1714.61 0.0 0.0 1.0
-70.83093333333333 -2.8271266666666666 1714.61 0.0 0.0 1.0
-71.64293333333335 2.2032266666666667 1704.84 0.0 0.0 1.0
-71.33903333333333 9.648636666666667 1704.84 0.0 0.0 1.0
-71.96133333333333 23.2657 1734.49 0.0 0.0 1.0
-68.6222 31.733333333333334 1994.67 0.0 0.0 1.0
-69.68886666666667 50.22223333333333 1994.67 0.0 0.0 1.0
-69.33333333333333 55.3778 1994.67 0.0 0.0 1.0
-68.6222 61.6 1994.67 0.0 0.0 1.0
-69.86663333333333 62.666666666666664 1994.67 0.0 0.0 1.0
-70.39996666666666 76.88889999999999 1994.67 0.0 0.0 1.0
-69.68889999999999 87.55556666666666 1994.67 0.0 0.0 1.0
-68.4472 75.50343333333332 1600.006666666667 -0.32936360223398087 0.7689178309199611 0.5479826519305133
-70.04443333333333 100.71133333333334 1994.67 0.0 0.0 1.0
-71.24943333333334 84.73700000000001 1610.0566666666666 2.364383615869141e-16 -0.9886477912217144 0.1502516053572314
-69.5111 106.22233333333334 1994.67 0.0 0.0 1.0
-69.5111 106.22233333333334 1994.67 0.0 0.0 1.0
-68.8 136.267 1994.67 0.0 0.0 1.0
-71.51513333333334 -118.258 1700.0 0.0 0.0 1.0
-70.04443333333334 -135.91133333333335 1994.67 0.0 0.0 1.0
-69.51563333333333 -116.771 1704.84 0.0 0.0 1.0
-70.27980000000001 -108.038 1677.7600000000002 -0.8068266620830472 0.5378944429588217 0.24433645979662402
-70.39999999999999 -112.44466666666666 1994.67 0.0 0.0 1.0
-69.51113333333332 -111.55566666666665 1994.67 0.0 0.0 1.0
-71.85186666666667 -91.18520000000001 1662.22 0.0 0.0 1.0
-70.20713333333335 -78.26743333333333 1690.4000000000003 3.954317742461449e-27 3.954099030196955e-27 1.0
-72.74786666666667 -71.38813333333333 1695.18 0.0 0.0 1.0
-71.51513333333334 -64.92423333333333 1700.0 0.0 0.0 1.0
-70.04443333333333 -71.2 1994.67 0.0 0.0 1.0
-70.48156666666667 -51.44476666666666 1695.18 0.0 0.0 1.0
-68.97776666666668 -51.1111 1994.67 0.0 0.0 1.0
-72.30653333333333 -40.59113333333333 1659.1533333333334 -0.07668809992040237 0.996979905508521 -0.012247585183173591
-72.1878 -38.9859 1685.63 0.0 0.0 1.0
-69.33336666666666 -46.13333333333333 1994.67 0.0 0.0 1.0
-70.5778 -30.3111 1994.67 0.0 0.0 1.0
-69.05983333333333 -25.451099999999997 1704.84 0.0 0.0 1.0
-70.8832 -17.24596666666667 1704.84 0.0 0.0 1.0
-71.2894 -3.28558 1714.61 0.0 0.0 1.0
-72.09876666666666 10.408366666666666 1704.84 0.0 0.0 1.0
-67.73336666666667 19.822233333333333 1994.67 0.0 0.0 1.0
-70.22223333333334 51.28886666666667 1994.67 0.0 0.0 1.0
-69.33333333333333 55.3778 1994.67 0.0 0.0 1.0
-69.51113333333335 66.04446666666666 1994.67 0.0 0.0 1.0
-69.6889 68.35553333333333 1994.67 0.0 0.0 1.0
-69.68889999999999 87.55556666666666 1994.67 0.0 0.0 1.0
-69.68889999999999 87.55556666666666 1994.67 0.0 0.0 1.0
-70.22223333333334 96.26666666666667 1994.67 0.0 0.0 1.0
-70.91853333333334 78.51063333333333 1591.4966666666667 -0.22360725112243293 0.9691779789258248 0.10341103621336879
-69.86666666666666 106.22233333333334 1994.67 0.0 0.0 1.0
-69.15556666666667 110.84466666666667 1994.67 0.0 0.0 1.0
-71.77066666666667 103.15866666666666 1565.1266666666668 4.608552306786376e-15 -0.7120510981663225 0.702127647653996
-69.68889999999999 135.378 1994.67 0.0 0.0 1.0
-69.68889999999999 135.378 1994.67 0.0 0.0 1.0
-72.76836666666667 -119.548 1690.4000000000003 -2.050361774997788e-27 -2.928440221623017e-28 1.0
-72.58393333333333 -101.64966666666665 1663.7633333333333 -0.13925570720240446 -0.9757622312553995 0.16880733416247848
-70.78923333333333 -99.46143333333333 1666.8499999999997 0.0 0.0 1.0
-73.80156666666666 -96.45786666666667 1656.0933333333332 0.2825865486654598 0.9419764157191437 0.18117746753462227
-71.3881 -79.5467 1695.18 0.0 0.0 1.0
-72.12123333333334 -66.74243333333334 1700.0 0.0 0.0 1.0
-72.85113333333332 -54.221366666666675 1706.4633333333331 -0.15770737109980767 0.9463134268494461 0.28216889138465595
-72.4027 -35.02373333333333 1704.84 0.0 0.0 1.0
-71.64296666666667 -32.74453333333333 1704.84 0.0 0.0 1.0
-70.75556666666667 -33.5111 1994.67 0.0 0.0 1.0
-70.22223333333334 -31.55553333333333 1994.67 0.0 0.0 1.0
-71.33906666666667 -19.373233333333335 1704.84 0.0 0.0 1.0
-71.33906666666667 -19.373233333333335 1704.84 0.0 0.0 1.0
-72.14356666666667 -13.068933333333334 1695.18 0.0 0.0 1.0
-71.84136666666666 -12.3135 1695.18 0.0 0.0 1.0
-70.70476666666667 1.14286 1709.71 0.0 0.0 1.0
-72.09876666666666 10.408366666666666 1704.84 0.0 0.0 1.0
-71.21386666666668 20.4239 1729.4800000000002 8.021260909311993e-27 2.238566937333776e-27 1.0
-72.44699999999999 21.348733333333332 1729.4800000000002 -1.9979897644008183e-27 -4.617324940576671e-28 1.0
-70.39999999999999 30.84443333333333 1994.67 0.0 0.0 1.0
-70.75553333333333 34.22220000000001 1994.67 0.0 0.0 1.0
-69.51113333333335 66.04446666666666 1994.67 0.0 0.0 1.0
-69.6889 68.35553333333333 1994.67 0.0 0.0 1.0
-71.28886666666666 94.66666666666667 1994.67 0.0 0.0 1.0
-70.22223333333334 96.26666666666667 1994.67 0.0 0.0 1.0
-70.04443333333334 100.71133333333334 1994.67 0.0 0.0 1.0
-70.04443333333333 100.71133333333334 1994.67 0.0 0.0 1.0
-69.86666666666667 106.04466666666667 1994.67 0.0 0.0 1.0
-71.8222 127.02233333333334 1994.67 0.0 0.0 1.0
-71.77066666666667 103.15866666666666 1565.1266666666668 1.096276836614335e-14 -0.7120510981663214 0.7021276476539973
-71.28886666666666 139.111 1994.67 0.0 0.0 1.0
-70.22223333333334 146.9333333333333 1994.67 0.0 0.0 1.0
-71.00773333333333 -120.46366666666665 1709.72 -0.6425697098603442 0.5708354497267513 0.51112724179528
-70.04443333333334 -135.91133333333335 1994.67 0.0 0.0 1.0
-69.5111 -123.64466666666668 1994.67 0.0 0.0 1.0
-72.59679999999999 -79.6978 1695.18 0.0 0.0 1.0
-72.72726666666667 -64.4697 1700.0 0.0 0.0 1.0
-72.6722 -55.496566666666666 1712.9766666666667 6.215413157645483e-17 0.9921828862070851 0.12479230872845697
-72.53333333333335 -55.2381 1709.71 0.0 0.0 1.0
-69.72066666666667 -42.830533333333335 1671.51 0.0 0.0 1.0
-71.64443333333334 -53.6 1994.67 0.0 0.0 1.0
-74.42563333333334 -38.6441 1690.4000000000003 0.0 1.0 0.0
-72.45296666666667 -38.2638 1693.5866666666668 0.7060748989613224 0.7060748989613211 -0.05400438976156074
-72.0535 -3.74403 1714.61 0.0 0.0 1.0
-71.94683333333334 13.1434 1704.84 0.0 0.0 1.0
-71.96133333333334 23.2657 1734.49 0.0 0.0 1.0
-70.93333333333334 33.5111 1994.67 0.0 0.0 1.0
-70.93333333333334 34.93333333333334 1994.67 0.0 0.0 1.0
-70.75553333333333 39.377766666666666 1994.67 0.0 0.0 1.0
-71.46666666666667 49.866666666666674 1994.67 0.0 0.0 1.0
-70.93329999999999 63.199999999999996 1994.67 0.0 0.0 1.0
-71.11110000000001 75.64446666666667 1994.67 0.0 0.0 1.0
-70.39996666666667 76.88889999999999 1994.67 0.0 0.0 1.0
-65.83556666666667 69.01536666666665 1621.68 0.0 0.0 1.0
-71.28886666666666 94.66666666666667 1994.67 0.0 0.0 1.0
-70.91853333333334 78.51063333333333 1591.4966666666667 -0.22360725112243307 0.9691779789258247 0.1034110362133689
-71.24943333333334 84.73700000000001 1610.0566666666666 0.0 -0.9886477912217144 0.15025160535723134
-71.24576666666667 91.51513333333332 1511.11 0.0 0.0 1.0
-72.84903333333334 102.57623333333333 1573.3733333333332 0.9968020930146441 -0.07118384472052389 0.03631043393336579
-71.28886666666666 138.22199999999998 1994.67 0.0 0.0 1.0
-71.11113333333333 -146.7553333333333 1994.67 0.0 0.0 1.0
-73.22036666666666 -120.0 1690.4000000000003 -6.590286550421194e-28 3.295143275210597e-28 1.0
-73.55806666666666 -113.783 1680.9000000000003 -1.918148107531662e-27 -1.9212828018992406e-27 1.0
-72.53333333333333 -128.978 1994.67 0.0 0.0 1.0
-74.25416666666668 -96.27993333333332 1653.04 0.0 0.0 1.0
-71.85186666666667 -91.18520000000001 1662.22 0.0 0.0 1.0
-70.78376666666668 -87.70536666666668 1695.18 0.0 0.0 1.0
-70.15153333333332 -49.16663333333333 1700.0 0.0 0.0 1.0
-71.08593333333333 -49.933899999999994 1695.18 0.0 0.0 1.0
-72.45296666666667 -38.2638 1693.5866666666668 0.7060748989613224 0.7060748989613211 -0.05400438976156074
-75.0 -37.196999999999996 1700.0 0.0 0.0 1.0
-72.55463333333334 -35.93543333333333 1704.84 0.0 0.0 1.0
-73.01046666666666 -33.65623333333333 1704.84 0.0 0.0 1.0
-73.01046666666666 -33.65623333333333 1704.84 0.0 0.0 1.0
-70.4 -34.755566666666674 1994.67 0.0 0.0 1.0
-70.5778 -30.3111 1994.67 0.0 0.0 1.0
-73.33893333333333 -22.02423333333333 1698.3933333333334 -0.959261087008488 -0.13702437741069656 0.24706777804178476
-71.84136666666666 -12.3135 1695.18 0.0 0.0 1.0
-72.53333333333335 -8.8 1994.67 0.0 0.0 1.0
-72.0535 -5.11939 1714.61 0.0 0.0 1.0
-72.51196666666667 -4.50812 1714.61 0.0 0.0 1.0
-71.64446666666667 30.666666666666668 1994.67 0.0 0.0 1.0
-70.93333333333334 33.5111 1994.67 0.0 0.0 1.0
-70.93333333333334 34.93333333333334 1994.67 0.0 0.0 1.0
-71.64446666666667 47.199999999999996 1994.67 0.0 0.0 1.0
-71.64446666666667 48.0889 1994.67 0.0 0.0 1.0
-71.64443333333334 51.1111 1994.67 0.0 0.0 1.0
-70.22223333333334 55.555566666666664 1994.67 0.0 0.0 1.0
-73.00086666666668 56.06300000000001 1570.5999999999997 -1.1210387714598537e-44 0.9995120760870788 0.03123475237772124
-72.0 74.39999999999999 1994.67 0.0 0.0 1.0
-71.28890000000001 82.75553333333333 1994.67 0.0 0.0 1.0
-71.2889 102.13333333333333 1994.67 0.0 0.0 1.0
-72.1778 112.089 1994.67 0.0 0.0 1.0
-71.64446666666667 119.19966666666666 1994.67 0.0 0.0 1.0
-71.64446666666667 119.19966666666666 1994.67 0.0 0.0 1.0
-72.84903333333334 102.57623333333333 1573.3733333333332 0.996802093014644 -0.071183844720524 0.0363104339333659
-72.7111 130.578 1994.67 0.0 0.0 1.0
-71.46666666666667 146.57766666666666 1994.67 0.0 0.0 1.0
-72.72726666666667 -118.258 1700.0 0.0 0.0 1.0
-71.97773333333333 -100.65000000000002 1666.8499999999997 -1.3285476461145936e-27 -7.966320818412064e-27 1.0
-74.25416666666668 -96.27993333333332 1653.04 0.0 0.0 1.0
-74.51853333333334 -95.48146666666666 1662.22 0.0 0.0 1.0
-73.05003333333333 -82.56846666666667 1695.18 0.0 0.0 1.0
-74.25873333333332 -73.6544 1695.18 0.0 0.0 1.0
-73.16239999999999 -36.3913 1704.84 0.0 0.0 1.0
-72.568 -21.3071 1701.6133333333335 -0.952794297153978 -0.13610063739282138 0.27140310206798446
-72.53333333333335 -8.8 1994.67 0.0 0.0 1.0
-73.61823333333334 10.104456666666666 1704.84 0.0 0.0 1.0
-73.4663 10.408356666666668 1704.84 0.0 0.0 1.0
-73.61823333333332 11.623933333333333 1704.84 0.0 0.0 1.0
-71.96133333333334 23.2657 1734.49 0.0 0.0 1.0
-72.1778 46.13333333333333 1994.67 0.0 0.0 1.0
-71.46666666666667 48.9778 1994.67 0.0 0.0 1.0
-71.82223333333333 103.19999999999999 1994.67 0.0 0.0 1.0
-72.53333333333333 104.089 1994.67 0.0 0.0 1.0
-72.1778 112.089 1994.67 0.0 0.0 1.0
-81.73673333333333 62.71536666666666 1081.4666666666665 0.49685953349710044 -0.641109972196378 0.5849005107908549
-71.64446666666667 119.19966666666666 1994.67 0.0 0.0 1.0
-74.5763 -118.79466666666667 1690.4000000000003 0.0 0.0 1.0
-74.24243333333332 -118.56099999999999 1700.0 0.0 0.0 1.0
-73.55806666666668 -113.783 1680.9000000000003 2.4976677122372957e-26 -2.3061663709208877e-26 1.0
-72.53333333333333 -128.97799999999998 1994.67 0.0 0.0 1.0
-70.39999999999999 -112.44466666666666 1994.67 0.0 0.0 1.0
-72.95880000000001 -89.3633 1680.9000000000003 1.3057959805721157e-27 -3.264925797885748e-27 1.0
-73.52163333333333 -88.81356666666666 1690.4000000000003 3.7975506768057595e-28 -9.618688316699659e-27 1.0
-72.5968 -79.69779999999999 1695.18 0.0 0.0 1.0
-75.01416666666667 -68.3664 1695.18 0.0 0.0 1.0
-73.33336666666666 -66.74243333333334 1700.0 0.0 0.0 1.0
-72.0 -70.66666666666667 1994.67 0.0 0.0 1.0
-72.79693333333333 -57.5479 1719.54 0.0 0.0 1.0
-73.11706666666667 -56.06186666666667 1716.2533333333333 -2.4709000446294225e-16 0.9768519061748306 0.21391669734408356
-73.16239999999999 -36.3913 1704.84 0.0 0.0 1.0
-73.01046666666666 -33.65623333333333 1704.84 0.0 0.0 1.0
-74.3172 -27.44026666666667 1677.7600000000002 -0.41521358038541883 0.8305198216903564 0.3712607014524159
-74.07406666666667 3.266853333333333 1704.84 0.0 0.0 1.0
-73.61823333333332 11.623933333333333 1704.84 0.0 0.0 1.0
-75.3448 25.0625 1741.2233333333334 -0.27260146068643504 0.9540318560710506 0.12454581981442846
-72.35553333333333 39.733333333333334 1994.67 0.0 0.0 1.0
-72.88889999999999 44.0 1994.67 0.0 0.0 1.0
-72.7111 51.466633333333334 1994.67 0.0 0.0 1.0
-72.88886666666666 60.8889 1994.67 0.0 0.0 1.0
-72.88886666666666 60.8889 1994.67 0.0 0.0 1.0
-71.99996666666667 62.4889 1994.67 0.0 0.0 1.0
-73.60000000000001 90.57776666666666 1994.67 0.0 0.0 1.0
-72.5333 94.48886666666668 1994.67 0.0 0.0 1.0
-73.06666666666666 124.35566666666666 1994.67 0.0 0.0 1.0
-72.35553333333334 128.62233333333333 1994.67 0.0 0.0 1.0
-72.5333 138.04433333333336 1994.67 0.0 0.0 1.0
-72.17776666666667 140.0 1994.67 0.0 0.0 1.0
-73.06666666666666 142.311 1994.67 0.0 0.0 1.0
-72.35556666666666 146.4 1994.67 0.0 0.0 1.0
-73.60003333333333 -147.28866666666667 1994.67 0.0 0.0 1.0
-72.53333333333333 -136.978 1994.67 0.0 0.0 1.0
-73.55806666666668 -113.783 1680.9000000000003 2.4976677122372937e-26 -2.3061663709208857e-26 1.0
-76.4706 -106.98700000000001 1650.0 -0.7095242687797324 0.5912970541691114 0.3833315871977123
-72.95880000000001 -89.3633 1680.9000000000003 1.3057959805721155e-27 -3.2649257978857466e-27 1.0
-74.25873333333332 -73.6544 1695.18 0.0 0.0 1.0
-72.79693333333333 -57.5479 1719.54 0.0 0.0 1.0
-76.74443333333333 -43.550399999999996 1659.1533333333334 -0.6792416625423737 0.25472759643585063 0.6882910833947267
-74.42563333333334 -38.6441 1690.4000000000003 0.0 1.0 0.0
-74.37796666666667 -32.896499999999996 1704.84 0.0 0.0 1.0
-74.62183333333333 -26.816066666666668 1676.1899999999998 2.4141617280440703e-26 -4.828682652887395e-26 1.0
-73.33893333333333 -22.02423333333333 1698.3933333333334 -0.9592610870084881 -0.1370243774106965 0.24706777804178465
-72.90453333333333 -12.3022 1693.5866666666668 5.874679463443193e-17 0.9948458034114374 0.10139934632260594
-75.1429 -8.272686666666667 1703.2266666666667 -5.062697845764651e-17 -0.9836391042142585 0.18015025023732634
-73.12323333333335 -5.577839999999999 1714.61 0.0 0.0 1.0
-74.07406666666667 3.266853333333333 1704.84 0.0 0.0 1.0
-74.24243333333334 7.651516666666667 1700.0 0.0 0.0 1.0
-74.24243333333334 7.651516666666667 1700.0 0.0 0.0 1.0
-74.07406666666667 11.016133333333334 1704.84 0.0 0.0 1.0
-74.45086666666667 21.657 1729.4800000000002 0.0 0.0 1.0
-72.00003333333333 31.555566666666664 1994.67 0.0 0.0 1.0
-72.88889999999999 44.0 1994.67 0.0 0.0 1.0
-72.71113333333334 45.06666666666666 1994.67 0.0 0.0 1.0
-73.06670000000001 56.800000000000004 1994.67 0.0 0.0 1.0
-73.95556666666666 67.2889 1994.67 0.0 0.0 1.0
-73.42223333333332 72.62223333333333 1994.67 0.0 0.0 1.0
-72.53336666666667 101.42199999999998 1994.67 0.0 0.0 1.0
-72.53336666666667 101.42199999999998 1994.67 0.0 0.0 1.0
-73.06666666666666 111.02233333333334 1994.67 0.0 0.0 1.0
-73.42223333333332 123.82233333333333 1994.67 0.0 0.0 1.0
-73.60000000000001 141.95533333333333 1994.67 0.0 0.0 1.0
-72.35556666666666 146.4 1994.67 0.0 0.0 1.0
-74.84446666666668 -142.48866666666666 1994.67 0.0 0.0 1.0
-72.53333333333333 -136.978 1994.67 0.0 0.0 1.0
-73.95553333333334 -128.62233333333333 1994.67 0.0 0.0 1.0
-74.51853333333334 -95.48146666666666 1662.22 0.0 0.0 1.0
-75.01416666666667 -68.3664 1695.18 0.0 0.0 1.0
-74.24246666666666 -66.2879 1700.0 0.0 0.0 1.0
-74.697 -65.68183333333333 1700.0 0.0 0.0 1.0
-74.48886666666665 -69.60000000000001 1994.67 0.0 0.0 1.0
-74.8338 -54.0171 1704.84 0.0 0.0 1.0
-72.35553333333333 -57.86666666666667 1994.67 0.0 0.0 1.0
-76.16696666666667 -42.98433333333333 1654.5666666666666 -8.284947841124291e-17 -0.8381340879413315 0.5454642523857566
-74.62183333333333 -26.816066666666668 1676.1899999999998 2.4141617280440666e-26 -4.828682652887389e-26 1.0
-74.13333333333333 -27.822233333333333 1994.67 0.0 0.0 1.0
-75.1429 -8.272686666666667 1703.2266666666667 -1.2656744614411627e-17 -0.9836391042142585 0.1801502502373263
-74.37796666666667 3.8746399999999994 1704.84 0.0 0.0 1.0
-74.24243333333334 7.651516666666667 1700.0 0.0 0.0 1.0
-73.92213333333332 10.5603 1704.84 0.0 0.0 1.0
-74.9133 22.273566666666667 1729.4800000000002 1.88880787211567e-27 5.6670363351636484e-27 1.0
-72.0 35.1111 1994.67 0.0 0.0 1.0
-73.60000000000001 39.3778 1994.67 0.0 0.0 1.0
-72.88886666666666 60.8889 1994.67 0.0 0.0 1.0
-71.93536666666667 55.53346666666667 1559.6866666666665 -1.2713706978420492e-16 0.9364463742136085 0.3508107584185327
-73.42223333333332 72.62223333333333 1994.67 0.0 0.0 1.0
-73.42223333333332 72.62223333333333 1994.67 0.0 0.0 1.0
-73.42219999999999 92.35553333333333 1994.67 0.0 0.0 1.0
-72.53333333333333 104.089 1994.67 0.0 0.0 1.0
-73.42223333333332 123.11133333333333 1994.67 0.0 0.0 1.0
-73.42223333333332 123.82233333333333 1994.67 0.0 0.0 1.0
-73.42223333333332 123.82233333333333 1994.67 0.0 0.0 1.0
-73.6 141.95533333333333 1994.67 0.0 0.0 1.0
-75.17893333333333 -120.0 1690.4000000000003 0.0 0.0 1.0
-75.0283 -119.24666666666667 1690.4000000000003 1.0 0.0 0.0
-75.0283 -119.24666666666667 1690.4000000000003 1.0 0.0 0.0
-77.6251 -110.843 1663.7633333333333 -0.2145910656910059 0.965539103221629 0.14725798679722282
-75.85883333333332 -101.95933333333333 1659.1533333333334 -1.523173549714977e-16 -0.9914616300925296 0.13039875787086244
-75.55556666666666 -101.40766666666666 1662.22 0.0 0.0 1.0
-76.37396666666667 -84.98583333333333 1695.18 0.0 0.0 1.0
-73.95656666666667 -81.81303333333334 1695.18 0.0 0.0 1.0
-75.30303333333335 -65.2273 1700.0 0.0 0.0 1.0
-74.48886666666665 -69.60000000000001 1994.67 0.0 0.0 1.0
-73.95553333333334 -67.99999999999999 1994.67 0.0 0.0 1.0
-74.3619 -55.2381 1709.71 0.0 0.0 1.0
-73.95656666666667 -52.04913333333334 1695.18 0.0 0.0 1.0
-77.28813333333333 -51.60073333333333 1690.4000000000003 0.0 0.0 1.0
-75.19999999999999 -56.9778 1994.67 0.0 0.0 1.0
-74.62183333333333 -26.81606666666666 1676.1899999999998 -4.8283234560881407e-26 9.65736530577479e-26 1.0
-74.13333333333333 -27.822233333333333 1994.67 0.0 0.0 1.0
-73.4222 -8.444443333333334 1994.67 0.0 0.0 1.0
-73.4222 -8.444443333333334 1994.67 0.0 0.0 1.0
-72.81756666666666 -2.6743066666666664 1714.61 0.0 0.0 1.0
-75.28966666666666 4.178533333333333 1704.84 0.0 0.0 1.0
-74.75913333333334 20.42386666666667 1729.4800000000002 5.408464316189036e-26 -2.2963591065554944e-26 1.0
-72.7111 51.466633333333334 1994.67 0.0 0.0 1.0
-73.95556666666667 68.53333333333333 1994.67 0.0 0.0 1.0
-74.31110000000001 77.6 1994.67 0.0 0.0 1.0
-74.31110000000001 77.6 1994.67 0.0 0.0 1.0
-75.02223333333335 81.86666666666666 1994.67 0.0 0.0 1.0
-74.4889 88.26666666666667 1994.67 0.0 0.0 1.0
-74.4889 94.48886666666668 1994.67 0.0 0.0 1.0
-74.84443333333333 108.17766666666667 1994.67 0.0 0.0 1.0
-73.77776666666666 109.42233333333333 1994.67 0.0 0.0 1.0
-75.2 116.35566666666666 1994.67 0.0 0.0 1.0
-74.66666666666667 129.86666666666667 1994.67 0.0 0.0 1.0
-74.31110000000001 130.578 1994.67 0.0 0.0 1.0
-74.1333 138.4 1994.67 0.0 0.0 1.0
-74.3111 142.133 1994.67 0.0 0.0 1.0
-75.6309 -120.30133333333333 1690.4000000000003 -3.5150787224317214e-27 -8.789640986788953e-28 1.0
-74.84446666666668 -142.48866666666666 1994.67 0.0 0.0 1.0
-74.46113333333334 -113.82666666666667 1679.33 -0.7040172863522527 -0.704644473244344 0.08852020584821921
-74.51853333333334 -95.48146666666666 1662.22 0.0 0.0 1.0
-75.46743333333333 -73.3522 1695.18 0.0 0.0 1.0
-73.95656666666667 -52.04913333333334 1695.18 0.0 0.0 1.0
-75.1925 -38.9859 1685.63 0.0 0.0 1.0
-75.0 -37.197 1700.0 0.0 0.0 1.0
-75.1377 -32.74453333333333 1704.84 0.0 0.0 1.0
-75.45193333333333 -30.381533333333334 1700.006666666667 -0.9617882713937521 -0.0010566243542971616 0.273792265329743
-77.58943333333333 -25.084766666666667 1690.4000000000003 0.0 0.0 1.0
-74.13333333333334 -27.822233333333333 1994.67 0.0 0.0 1.0
-75.2 -17.15556666666667 1994.67 0.0 0.0 1.0
-75.02223333333335 -15.022233333333332 1994.67 0.0 0.0 1.0
-74.4889 -4.355553333333334 1994.67 0.0 0.0 1.0
-75.55556666666666 0.4444456666666667 1994.67 0.0 0.0 1.0
-75.55556666666666 2.0444466666666665 1994.67 0.0 0.0 1.0
-75.55556666666666 2.2222233333333334 1994.67 0.0 0.0 1.0
-74.99693333333333 14.0118 1700.006666666667 -0.5511090889892971 -0.8256357848006469 -0.12084834665814383
-75.83813333333332 19.344866666666665 1729.4800000000002 -6.374713804105143e-27 5.489252146369368e-27 1.0
-74.31113333333333 38.4889 1994.67 0.0 0.0 1.0
-74.31113333333333 38.4889 1994.67 0.0 0.0 1.0
-75.02223333333335 57.6889 1994.67 0.0 0.0 1.0
-75.2 65.15556666666667 1994.67 0.0 0.0 1.0
-73.95556666666667 68.53333333333333 1994.67 0.0 0.0 1.0
-74.31110000000001 77.60000000000001 1994.67 0.0 0.0 1.0
-74.31110000000001 80.26666666666667 1994.67 0.0 0.0 1.0
-74.66666666666667 87.73333333333333 1994.67 0.0 0.0 1.0
-74.4889 88.26666666666667 1994.67 0.0 0.0 1.0
-74.4889 94.48886666666668 1994.67 0.0 0.0 1.0
-74.4889 94.48886666666668 1994.67 0.0 0.0 1.0
-75.73333333333333 119.02233333333334 1994.67 0.0 0.0 1.0
-74.66666666666667 129.86666666666667 1994.67 0.0 0.0 1.0
-75.2 133.422 1994.67 0.0 0.0 1.0
-75.02223333333335 134.84433333333334 1994.67 0.0 0.0 1.0
-74.6667 146.04433333333336 1994.67 0.0 0.0 1.0
-76.51516666666667 -118.40933333333334 1700.0 0.0 0.0 1.0
-76.51516666666667 -118.40933333333334 1700.0 0.0 0.0 1.0
-77.20073333333333 -93.03866666666666 1653.04 0.0 0.0 1.0
-75.68096666666666 -90.88483333333333 1673.07 0.20547800758110682 0.9588871520248989 0.19574018003996282
-77.7401 -76.76083333333334 1690.4000000000003 0.0 0.0 1.0
-74.3619 -55.2381 1709.71 0.0 0.0 1.0
-75.1377 -32.74453333333333 1704.84 0.0 0.0 1.0
-77.91103333333332 -30.046366666666668 1673.07 -3.01285152019473e-17 -0.9969939018166857 0.07748006027579603
-75.2194 -26.81606666666666 1676.1899999999998 1.787603004879502e-27 2.5032027081048638e-26 1.0
-73.50333333333333 -13.975433333333333 1695.18 0.0 0.0 1.0
-75.2 -15.911133333333332 1994.67 0.0 0.0 1.0
-75.55556666666666 -14.133333333333333 1994.67 0.0 0.0 1.0
-74.8338 10.25641 1704.84 0.0 0.0 1.0
-76.42373333333333 25.42273333333333 1744.61 0.0 0.0 1.0
-75.37776666666667 42.93333333333334 1994.67 0.0 0.0 1.0
-75.37776666666667 42.93333333333334 1994.67 0.0 0.0 1.0
-75.2 64.44443333333334 1994.67 0.0 0.0 1.0
-73.00086666666668 56.06300000000001 1570.5999999999997 -1.1210387714598537e-44 0.9995120760870788 0.03123475237772124
-75.02223333333335 86.84443333333333 1994.67 0.0 0.0 1.0
-74.66666666666667 87.73333333333333 1994.67 0.0 0.0 1.0
-75.55556666666666 96.44443333333334 1994.67 0.0 0.0 1.0
-75.73333333333333 119.02233333333334 1994.67 0.0 0.0 1.0
-75.02223333333333 123.11099999999999 1994.67 0.0 0.0 1.0
-75.2 129.511 1994.67 0.0 0.0 1.0
-75.02223333333335 134.311 1994.67 0.0 0.0 1.0
-75.02223333333335 134.84433333333334 1994.67 0.0 0.0 1.0
-74.3111 142.133 1994.67 0.0 0.0 1.0
-76.23353333333334 -120.0 1690.4000000000003 9.489312792069866e-26 7.116984594052474e-26 1.0
-78.23286666666667 -109.24633333333334 1653.0466666666664 -0.16300176426075424 0.9761566088197525 0.14334817719595105
-75.91109999999999 -128.622 1994.67 0.0 0.0 1.0
-75.91109999999999 -128.62199999999999 1994.67 0.0 0.0 1.0
-78.10923333333334 -102.48466666666666 1627.5733333333335 -0.8332024261651407 -0.41650566234563086 0.3637262023370747
-75.7333 -127.2 1994.67 0.0 0.0 1.0
-75.58013333333334 -96.27993333333332 1653.04 0.0 0.0 1.0
-76.60816666666666 -96.22096666666668 1654.5666666666666 -0.7037990871700188 -0.7037990871699954 0.09661102316676629
-76.06060000000001 -65.53033333333333 1700.0 0.0 0.0 1.0
-76.96966666666667 -63.4091 1700.0 0.0 0.0 1.0
-74.48886666666667 -69.6 1994.67 0.0 0.0 1.0
-76.6102 -44.16623333333333 1654.5666666666666 -2.2766659224230838e-17 0.9924766152568305 0.122434342275136
-77.46033333333334 -28.907533333333333 1676.1899999999998 -1.2600844123188439e-27 -6.252848333625037e-29 1.0
-75.2 -17.155566666666665 1994.67 0.0 0.0 1.0
-74.66663333333334 -8.977776666666667 1994.67 0.0 0.0 1.0
-77.56193333333333 -2.9714266666666664 1709.71 0.0 0.0 1.0
-75.28966666666666 4.178533333333333 1704.84 0.0 0.0 1.0
-76.44443333333334 14.311100000000001 1994.67 0.0 0.0 1.0
-76.44443333333334 14.311100000000001 1994.67 0.0 0.0 1.0
-75.30643333333333 12.636716666666665 1698.3933333333334 -0.9697473093051074 -0.20779700815859373 0.12810370601915305
-75.83816666666667 22.119433333333333 1729.4800000000002 -2.5971363541097393e-27 5.312604035205515e-27 1.0
-76.42373333333335 25.42273333333333 1744.61 0.0 0.0 1.0
-75.37776666666667 42.93333333333334 1994.67 0.0 0.0 1.0
-75.91109999999999 56.9778 1994.67 0.0 0.0 1.0
-75.55553333333334 64.44443333333334 1994.67 0.0 0.0 1.0
-75.37776666666667 65.15556666666667 1994.67 0.0 0.0 1.0
-74.84443333333333 88.9778 1994.67 0.0 0.0 1.0
-75.55556666666666 93.77776666666666 1994.67 0.0 0.0 1.0
-75.2 129.511 1994.67 0.0 0.0 1.0
-75.2 133.422 1994.67 0.0 0.0 1.0
-75.55553333333334 139.82233333333332 1994.67 0.0 0.0 1.0
-77.86666666666666 -146.7553333333333 1994.67 0.0 0.0 1.0
-76.62223333333334 -142.8443333333333 1994.67 0.0 0.0 1.0
-76.08290000000001 -119.39733333333334 1690.4000000000003 1.9771588712307246e-27 -9.884700794831153e-28 1.0
-76.0889 -136.9776666666667 1994.67 0.0 0.0 1.0
-77.6251 -110.843 1663.7633333333333 -0.21459106569100583 0.9655391032216292 0.14725798679722274
-75.91109999999999 -128.622 1994.67 0.0 0.0 1.0
-78.10923333333334 -102.48466666666666 1627.5733333333335 -0.8332024261651407 -0.41650566234563086 0.3637262023370747
-75.98886666666668 -99.75853333333333 1666.8499999999997 -1.6265788216085767e-26 -3.6598251592270936e-26 1.0
-75.58013333333334 -96.27993333333332 1653.04 0.0 0.0 1.0
-77.12940000000002 -85.13693333333333 1695.18 0.0 0.0 1.0
-75.16526666666668 -80.60433333333333 1695.18 0.0 0.0 1.0
-76.37393333333334 -73.5033 1695.18 0.0 0.0 1.0
-76.37393333333334 -73.5033 1695.18 0.0 0.0 1.0
-76.6761 -68.66856666666666 1695.18 0.0 0.0 1.0
-77.27273333333333 -66.1364 1700.0 0.0 0.0 1.0
-74.42563333333334 -38.6441 1690.4000000000003 0.0 1.0 0.0
-75.0 -37.197 1700.0 0.0 0.0 1.0
-77.26496666666667 -34.8718 1704.84 0.0 0.0 1.0
-77.7294 -29.414299999999997 1696.7866666666669 -3.798250982053666e-17 0.9938373803460374 0.11084792026432327
-75.1429 -8.272686666666667 1703.2266666666667 -5.062697845764651e-17 -0.9836391042142585 0.18015025023732634
-77.22543333333334 21.657033333333334 1729.4800000000002 4.317208450158961e-27 -6.476079433051723e-27 1.0
-75.3448 25.0625 1741.2233333333334 -0.27260146068643504 0.9540318560710506 0.12454581981442847
-75.55556666666666 35.1111 1994.67 0.0 0.0 1.0
-76.8 47.20000000000001 1994.67 0.0 0.0 1.0
-75.73333333333333 72.8 1994.67 0.0 0.0 1.0
-76.8 83.11110000000001 1994.67 0.0 0.0 1.0
-76.26666666666667 93.95556666666668 1994.67 0.0 0.0 1.0
-76.9778 107.64433333333334 1994.67 0.0 0.0 1.0
-76.26666666666667 115.111 1994.67 0.0 0.0 1.0
-76.97776666666665 123.82233333333333 1994.67 0.0 0.0 1.0
-77.15556666666667 145.689 1994.67 0.0 0.0 1.0
-75.85883333333332 -101.95933333333333 1659.1533333333334 -1.4060063535830557e-16 -0.9914616300925296 0.13039875787086244
-78.825 -91.87873333333333 1645.4833333333333 -0.11685186305563935 -0.9928556947745437 0.024149771307076122
-76.38416666666667 -88.96423333333333 1690.4000000000003 -6.327433452247345e-26 -5.933008061047057e-25 1.0
-77.12940000000002 -85.13693333333333 1695.18 0.0 0.0 1.0
-77.43156666666667 -84.23039999999999 1695.18 0.0 0.0 1.0
-77.43156666666668 -84.2304 1695.18 0.0 0.0 1.0
-80.44776666666667 -49.72 1677.7600000000002 -3.448137900406402e-17 0.9922817656202997 0.1240036193724213
-79.26133333333333 -42.1791 1657.62 0.0 0.0 1.0
-77.26496666666667 -34.8718 1704.84 0.0 0.0 1.0
-76.11576666666666 -26.965433333333333 1676.1899999999998 1.4477645772982741e-27 -6.758388817116238e-27 1.0
-76.44443333333334 -13.6 1994.67 0.0 0.0 1.0
-77.33333333333333 5.955556666666666 1994.67 0.0 0.0 1.0
-76.91713333333333 18.7283 1729.4800000000002 0.0 -1.0 0.0
-76.42373333333335 25.42273333333333 1744.61 0.0 0.0 1.0
-75.91113333333334 36.0 1994.67 0.0 0.0 1.0
-76.8 47.199999999999996 1994.67 0.0 0.0 1.0
-78.22223333333334 52.35556666666667 1994.67 0.0 0.0 1.0
-76.8 82.39996666666666 1994.67 0.0 0.0 1.0
-76.8 83.11110000000001 1994.67 0.0 0.0 1.0
-76.8 94.84443333333333 1994.67 0.0 0.0 1.0
-76.44443333333334 96.6222 1994.67 0.0 0.0 1.0
-76.97776666666665 100.53333333333335 1994.67 0.0 0.0 1.0
-76.97776666666665 100.53333333333335 1994.67 0.0 0.0 1.0
-76.9778 107.64433333333334 1994.67 0.0 0.0 1.0
-77.33333333333333 141.6 1994.67 0.0 0.0 1.0
-76.51516666666666 -118.40933333333334 1700.0 0.0 0.0 1.0
-75.98886666666668 -99.75853333333333 1666.8499999999997 -1.6265788216085635e-26 -3.659825159227063e-26 1.0
-77.43156666666668 -84.2304 1695.18 0.0 0.0 1.0
-78.18696666666666 -75.16526666666665 1695.18 0.0 0.0 1.0
-78.79469999999999 -51.60073333333333 1690.4000000000003 -3.9543177424614485e-27 -3.9538803179324635e-27 1.0
-77.26496666666667 -34.8718 1704.84 0.0 0.0 1.0
-79.10366666666667 -15.760966666666667 1676.1899999999998 4.707528688770692e-28 -1.6319687989752256e-28 1.0
-76.44443333333334 -13.6 1994.67 0.0 0.0 1.0
-77.56193333333333 -2.9714266666666664 1709.71 0.0 0.0 1.0
-77.3333 1.5111123333333332 1994.67 0.0 0.0 1.0
-77.3333 2.4 1994.67 0.0 0.0 1.0
-77.3333 2.4 1994.67 0.0 0.0 1.0
-77.3333 2.4 1994.67 0.0 0.0 1.0
-77.33333333333333 5.955556666666666 1994.67 0.0 0.0 1.0
-76.04936666666667 10.408343333333333 1704.84 0.0 0.0 1.0
-78.9241 13.9097 1724.5 0.0 0.0 1.0
-76.8 47.199999999999996 1994.67 0.0 0.0 1.0
-77.86666666666666 57.8667 1994.67 0.0 0.0 1.0
-77.6889 71.91113333333334 1994.67 0.0 0.0 1.0
-77.68886666666667 77.42223333333334 1994.67 0.0 0.0 1.0
-77.68886666666667 77.42223333333334 1994.67 0.0 0.0 1.0
-76.8 83.11110000000001 1994.67 0.0 0.0 1.0
-76.44443333333334 93.24443333333333 1994.67 0.0 0.0 1.0
-76.97776666666665 95.73333333333333 1994.67 0.0 0.0 1.0
-77.5111 98.93333333333334 1994.67 0.0 0.0 1.0
