ply
format ascii 1.0
comment VCGLIB generated
element vertex 892
property float x
property float y
property float z
property float nx
property float ny
property float nz
element face 0
property list uchar int vertex_indices
end_header
61.866666666666674 123.60000000000001 2992.0 0.0 0.0 1.0
61.866666666666674 127.06666666666666 2992.0 0.0 0.0 1.0
61.86666666666667 134.0 2992.0 0.0 0.0 1.0
61.333333333333336 134.53333333333333 2992.0 0.0 0.0 1.0
62.13333333333333 139.33333333333334 2992.0 0.0 0.0 1.0
62.13333333333333 139.33333333333334 2992.0 0.0 0.0 1.0
61.06666666666666 142.53333333333333 2992.0 0.0 0.0 1.0
61.06666666666666 -148.9333333333333 2992.0 0.0 0.0 1.0
60.26666666666667 -147.33333333333334 2992.0 0.0 0.0 1.0
60.26666666666667 -147.33333333333334 2992.0 0.0 0.0 1.0
59.46666666666667 -125.73333333333333 2992.0 0.0 0.0 1.0
48.34096666666667 -95.58603333333333 2732.42 0.0 0.0 1.0
47.27273333333333 -76.9697 2720.0 0.0 0.0 1.0
60.53333333333333 -62.53333333333333 2992.0 0.0 0.0 1.0
60.53333333333333 -62.53333333333333 2992.0 0.0 0.0 1.0
60.800000000000004 -41.46666666666667 2992.0 0.0 0.0 1.0
60.0 -37.46666666666667 2992.0 0.0 0.0 1.0
60.53333333333333 -34.0 2992.0 0.0 0.0 1.0
44.21053333333333 -21.63743333333333 2624.56 0.0 0.0 1.0
44.91226666666666 -8.77193 2624.56 0.0 0.0 1.0
59.46666666666667 -0.13333333333333333 2992.0 0.0 0.0 1.0
61.6 16.13333333333333 2992.0 0.0 0.0 1.0
35.6653 18.326466666666665 2462.55 0.0 0.0 1.0
35.44583333333333 27.764033333333334 2462.55 0.0 0.0 1.0
34.28573333333333 44.73473333333334 2442.45 0.0 0.0 1.0
29.473699999999997 52.1457 2422.67 0.0 0.0 1.0
35.6284 57.8142 2452.46 0.0 0.0 1.0
61.06666666666666 76.13333333333334 2992.0 0.0 0.0 1.0
61.06666666666666 76.13333333333334 2992.0 0.0 0.0 1.0
61.06666666666666 76.93333333333334 2992.0 0.0 0.0 1.0
35.40983333333333 73.33333333333333 2452.46 0.0 0.0 1.0
35.6284 74.64479999999999 2452.46 0.0 0.0 1.0
33.333333333333336 83.76346666666667 2412.9 0.0 0.0 1.0
33.333333333333336 83.76346666666667 2412.9 0.0 0.0 1.0
32.90323333333333 89.3548 2412.9 0.0 0.0 1.0
61.333333333333336 124.93333333333334 2992.0 0.0 0.0 1.0
61.6 127.86666666666666 2992.0 0.0 0.0 1.0
59.46666666666667 147.6 2992.0 0.0 0.0 1.0
48.9297 -122.93599999999999 2744.9499999999994 5.794111156870571e-41 1.1994944901904568e-26 1.0
48.9297 -122.93599999999999 2744.9499999999994 5.794111156870571e-41 1.1994944901904568e-26 1.0
59.73333333333333 -121.73333333333333 2992.0 0.0 0.0 1.0
59.199999999999996 -118.8 2992.0 0.0 0.0 1.0
47.27273333333333 -76.9697 2720.0 0.0 0.0 1.0
47.999966666666666 -67.51516666666667 2720.0 0.0 0.0 1.0
47.75756666666666 -65.0909 2720.0 0.0 0.0 1.0
47.75756666666666 -65.0909 2720.0 0.0 0.0 1.0
47.75756666666666 -60.96966666666666 2720.0 0.0 0.0 1.0
47.030300000000004 -60.0 2720.0 0.0 0.0 1.0
60.53333333333333 -62.53333333333333 2992.0 0.0 0.0 1.0
59.199999999999996 -58.26666666666667 2992.0 0.0 0.0 1.0
59.199999999999996 -55.333333333333336 2992.0 0.0 0.0 1.0
59.73333333333333 -47.06666666666666 2992.0 0.0 0.0 1.0
59.199999999999996 -46.26666666666667 2992.0 0.0 0.0 1.0
60.800000000000004 -41.46666666666667 2992.0 0.0 0.0 1.0
59.73333333333333 -38.266666666666666 2992.0 0.0 0.0 1.0
59.73333333333333 -38.266666666666666 2992.0 0.0 0.0 1.0
59.73333333333333 -32.13333333333333 2992.0 0.0 0.0 1.0
59.73333333333333 -29.733333333333334 2992.0 0.0 0.0 1.0
59.73333333333333 -29.733333333333334 2992.0 0.0 0.0 1.0
42.4082 -20.08813333333333 2636.12 0.0 0.0 1.0
43.74266666666667 -15.555566666666666 2624.56 0.0 0.0 1.0
43.582966666666664 -6.22614 2636.12 0.0 0.0 1.0
59.199999999999996 1.7333333333333334 2992.0 0.0 0.0 1.0
60.26666666666667 6.0 2992.0 0.0 0.0 1.0
59.20000000000001 10.533333333333333 2992.0 0.0 0.0 1.0
34.787366666666664 21.39916666666667 2462.55 0.0 0.0 1.0
60.26666666666667 42.0 2992.0 0.0 0.0 1.0
61.866666666666674 52.13333333333333 2992.0 0.0 0.0 1.0
33.414966666666665 45.3878 2442.45 0.0 0.0 1.0
34.754099999999994 57.5956 2452.46 0.0 0.0 1.0
35.6284 58.90713333333333 2452.46 0.0 0.0 1.0
35.37413333333333 77.1701 2442.45 0.0 0.0 1.0
33.32556666666667 77.61166666666666 2435.83 -2.7596947873402495e-16 0.9994287047655741 0.03379739768985825
31.378866666666667 80.2142 2403.21 0.0 0.0 1.0
33.333333333333336 83.76346666666667 2412.9 0.0 0.0 1.0
31.827933333333334 86.55913333333332 2412.9 0.0 0.0 1.0
32.90323333333333 89.3548 2412.9 0.0 0.0 1.0
32.68816666666667 89.78493333333334 2412.9 0.0 0.0 1.0
60.0 121.2 2992.0 0.0 0.0 1.0
60.0 121.2 2992.0 0.0 0.0 1.0
60.0 121.2 2992.0 0.0 0.0 1.0
61.06666666666666 134.26666666666668 2992.0 0.0 0.0 1.0
60.26666666666667 138.26666666666668 2992.0 0.0 0.0 1.0
60.53333333333333 144.4 2992.0 0.0 0.0 1.0
60.26666666666667 146.26666666666665 2992.0 0.0 0.0 1.0
58.93333333333334 -148.4 2992.0 0.0 0.0 1.0
59.73333333333333 -147.86666666666667 2992.0 0.0 0.0 1.0
47.21713333333333 -125.38266666666668 2744.9499999999994 1.1994944679202605e-26 -4.1981489950991586e-26 1.0
59.46666666666666 -125.73333333333333 2992.0 0.0 0.0 1.0
59.199999999999996 -118.8 2992.0 0.0 0.0 1.0
45.905633333333334 -98.75186666666667 2732.42 0.0 0.0 1.0
47.1233 -96.3166 2732.42 0.0 0.0 1.0
46.3927 -90.71536666666667 2732.42 0.0 0.0 1.0
47.12329999999999 -86.08826666666666 2732.42 0.0 0.0 1.0
47.27273333333333 -76.9697 2720.0 0.0 0.0 1.0
46.30303333333333 -59.515166666666666 2720.0 0.0 0.0 1.0
60.0 -62.0 2992.0 0.0 0.0 1.0
59.199999999999996 -58.26666666666667 2992.0 0.0 0.0 1.0
59.20000000000001 -53.199999999999996 2992.0 0.0 0.0 1.0
59.20000000000001 -53.199999999999996 2992.0 0.0 0.0 1.0
59.20000000000001 -53.199999999999996 2992.0 0.0 0.0 1.0
59.199999999999996 -46.26666666666667 2992.0 0.0 0.0 1.0
59.73333333333333 -38.266666666666666 2992.0 0.0 0.0 1.0
59.73333333333333 -29.733333333333334 2992.0 0.0 0.0 1.0
59.199999999999996 -27.86666666666667 2992.0 0.0 0.0 1.0
41.93833333333333 -14.919233333333333 2636.12 0.0 0.0 1.0
41.93833333333333 -14.919233333333333 2636.12 0.0 0.0 1.0
42.408233333333335 -7.400883333333333 2636.12 0.0 0.0 1.0
42.87813333333333 -6.696036666666667 2636.12 0.0 0.0 1.0
59.199999999999996 1.7333333333333334 2992.0 0.0 0.0 1.0
60.26666666666667 6.0 2992.0 0.0 0.0 1.0
59.46666666666667 11.6 2992.0 0.0 0.0 1.0
58.93333333333334 12.933333333333332 2992.0 0.0 0.0 1.0
34.787366666666664 21.399166666666662 2462.55 0.0 0.0 1.0
34.787366666666664 22.057599999999997 2462.55 0.0 0.0 1.0
34.34843333333333 22.716033333333332 2462.55 0.0 0.0 1.0
34.12896666666666 24.691366666666667 2462.55 0.0 0.0 1.0
33.22403333333333 29.8361 2452.46 0.0 0.0 1.0
59.199999999999996 42.800000000000004 2992.0 0.0 0.0 1.0
33.414966666666665 45.3878 2442.45 0.0 0.0 1.0
32.0867 47.5881 2432.52 0.0 0.0 1.0
13.616876666666665 62.721833333333336 2220.77 0.996503445461905 -0.03406130240588653 0.0762935833538233
34.754099999999994 57.5956 2452.46 0.0 0.0 1.0
33.87976666666666 74.42623333333333 2452.46 0.0 0.0 1.0
32.90323333333333 89.3548 2412.9 0.0 0.0 1.0
30.293333333333333 96.32 2393.6 0.0 0.0 1.0
59.199999999999996 138.53333333333333 2992.0 0.0 0.0 1.0
58.4 142.0 2992.0 0.0 0.0 1.0
58.4 -149.20000000000002 2992.0 0.0 0.0 1.0
46.48316666666667 -129.54099999999997 2744.9499999999994 -8.9962086764286e-27 0.0 -1.0
47.21713333333333 -125.38266666666668 2744.9499999999994 1.1994944679202605e-26 -4.1981489950991586e-26 1.0
47.21713333333333 -125.38266666666668 2744.9499999999994 1.1994944679202605e-26 -4.1981489950991586e-26 1.0
45.905633333333334 -115.55533333333334 2732.42 0.0 0.0 1.0
45.90563333333333 -115.55533333333334 2732.42 0.0 0.0 1.0
58.133333333333326 -124.93333333333334 2992.0 0.0 0.0 1.0
59.199999999999996 -118.8 2992.0 0.0 0.0 1.0
46.3927 -90.71536666666667 2732.42 0.0 0.0 1.0
45.8182 -82.06060000000001 2720.0 0.0 0.0 1.0
57.06666666666666 -80.13333333333333 2992.0 0.0 0.0 1.0
58.4 -59.06666666666666 2992.0 0.0 0.0 1.0
58.666666666666664 -56.13333333333333 2992.0 0.0 0.0 1.0
59.199999999999996 -46.26666666666667 2992.0 0.0 0.0 1.0
58.133333333333326 -30.53333333333333 2992.0 0.0 0.0 1.0
59.199999999999996 -27.86666666666667 2992.0 0.0 0.0 1.0
42.4082 -20.08813333333333 2636.12 0.0 0.0 1.0
41.9383 -19.148333333333333 2636.12 0.0 0.0 1.0
41.9383 -19.148333333333333 2636.12 0.0 0.0 1.0
42.408233333333335 -7.400883333333333 2636.12 0.0 0.0 1.0
57.333333333333336 -4.933333333333334 2992.0 0.0 0.0 1.0
59.199999999999996 1.7333333333333334 2992.0 0.0 0.0 1.0
58.666666666666664 9.466666666666667 2992.0 0.0 0.0 1.0
58.93333333333334 12.933333333333332 2992.0 0.0 0.0 1.0
34.12896666666666 18.326466666666665 2462.55 0.0 0.0 1.0
34.34843333333333 22.716033333333332 2462.55 0.0 0.0 1.0
34.12896666666666 24.691366666666667 2462.55 0.0 0.0 1.0
33.22403333333333 29.8361 2452.46 0.0 0.0 1.0
59.199999999999996 42.800000000000004 2992.0 0.0 0.0 1.0
58.4 46.0 2992.0 0.0 0.0 1.0
58.93333333333334 48.93333333333334 2992.0 0.0 0.0 1.0
28.799999999999997 62.18666666666667 2393.6 0.0 0.0 1.0
31.378866666666667 80.2142 2403.21 0.0 0.0 1.0
31.18276666666667 86.7742 2412.9 0.0 0.0 1.0
30.093733333333333 94.56493333333333 2403.21 0.0 0.0 1.0
28.799999999999997 100.37333333333333 2393.6 0.0 0.0 1.0
29.428966666666668 104.43566666666668 2384.06 0.0 0.0 1.0
59.199999999999996 138.53333333333333 2992.0 0.0 0.0 1.0
58.4 142.0 2992.0 0.0 0.0 1.0
57.333333333333336 -149.73333333333332 2992.0 0.0 0.0 1.0
58.400000000000006 -148.13333333333333 2992.0 0.0 0.0 1.0
46.23853333333333 -130.03033333333335 2744.9499999999994 4.798958652112537e-26 -1.0796594544199645e-25 1.0
46.48316666666667 -128.56233333333333 2744.9499999999994 2.0991153578333614e-26 5.997472450952449e-27 1.0
46.23850000000001 -127.58399999999999 2744.9499999999994 0.9998779520346952 1.5003463466671403e-18 0.015623093000542121
46.48316666666667 -126.60566666666666 2744.9499999999994 3.603394957459118e-26 -1.803335013107792e-26 1.0
46.97246666666666 -121.95733333333334 2744.9499999999994 -6.66428198212161e-27 -2.7988386355877397e-26 1.0
46.97246666666666 -121.95733333333334 2744.9499999999994 -6.66428198212161e-27 -2.7988386355877397e-26 1.0
56.800000000000004 -123.06666666666666 2992.0 0.0 0.0 1.0
57.333333333333336 -117.46666666666665 2992.0 0.0 0.0 1.0
45.41856666666667 -98.02126666666668 2732.42 0.0 0.0 1.0
46.149166666666666 -97.04716666666667 2732.42 0.0 0.0 1.0
46.3927 -90.71536666666667 2732.42 0.0 0.0 1.0
57.06666666666666 -80.13333333333333 2992.0 0.0 0.0 1.0
45.575733333333325 -66.06063333333333 2720.0 0.0 0.0 1.0
45.09093333333333 -59.7576 2720.0 0.0 0.0 1.0
58.4 -60.133333333333326 2992.0 0.0 0.0 1.0
58.4 -56.93333333333334 2992.0 0.0 0.0 1.0
57.06666666666666 -43.06666666666666 2992.0 0.0 0.0 1.0
57.333333333333336 -41.46666666666667 2992.0 0.0 0.0 1.0
57.333333333333336 -41.46666666666667 2992.0 0.0 0.0 1.0
56.800000000000004 -35.06666666666666 2992.0 0.0 0.0 1.0
57.333333333333336 -4.933333333333334 2992.0 0.0 0.0 1.0
57.06666666666667 0.1333333333333333 2992.0 0.0 0.0 1.0
57.6 8.666666666666666 2992.0 0.0 0.0 1.0
56.26666666666667 18.8 2992.0 0.0 0.0 1.0
34.12893333333333 22.277066666666666 2462.55 0.0 0.0 1.0
60.0 30.0 2992.0 0.0 0.0 1.0
58.4 40.666666666666664 2992.0 0.0 0.0 1.0
58.13333333333333 40.93333333333333 2992.0 0.0 0.0 1.0
33.414966666666665 45.3878 2442.45 0.0 0.0 1.0
32.0867 47.5881 2432.52 0.0 0.0 1.0
33.00546666666667 57.37703333333334 2452.46 0.0 0.0 1.0
28.366533333333336 60.239 2384.06 0.0 0.0 1.0
29.1191 63.54409999999999 2429.2366666666667 0.7397996538745734 -0.6725357395765212 0.01980280584471211
32.1534 77.83463333333334 2429.2366666666667 -6.924283727084978e-17 0.9994286864727502 0.033797938625794735
30.3079 80.0 2403.21 0.0 0.0 1.0
31.612866666666665 84.62366666666668 2412.9 0.0 0.0 1.0
31.18276666666667 86.7742 2412.9 0.0 0.0 1.0
31.182766666666666 87.41936666666668 2412.9 0.0 0.0 1.0
31.182766666666666 87.41936666666668 2412.9 0.0 0.0 1.0
30.537599999999998 90.64516666666667 2412.9 0.0 0.0 1.0
30.537599999999998 90.64516666666667 2412.9 0.0 0.0 1.0
30.0937 92.42303333333332 2403.21 0.0 0.0 1.0
30.3079 93.49396666666667 2403.21 0.0 0.0 1.0
30.293333333333333 96.32 2393.6 0.0 0.0 1.0
28.994666666666664 110.582 2374.6 0.0 0.0 1.0
28.359766666666662 111.42833333333334 2374.6 0.0 0.0 1.0
58.4 142.0 2992.0 0.0 0.0 1.0
59.46666666666667 147.6 2992.0 0.0 0.0 1.0
44.0367 -133.70033333333333 2744.9499999999994 4.798762467519243e-28 -7.197163027750279e-28 1.0
45.50456666666667 -130.03033333333335 2744.9499999999994 -7.198601441574183e-26 -1.4395895264986844e-25 1.0
44.9315 -115.068 2732.42 0.0 0.0 1.0
56.53333333333333 -124.39999999999999 2992.0 0.0 0.0 1.0
56.53333333333333 -123.60000000000001 2992.0 0.0 0.0 1.0
56.0 -121.46666666666668 2992.0 0.0 0.0 1.0
44.687966666666675 -98.50833333333333 2732.42 0.0 0.0 1.0
44.3636 -77.93939999999999 2720.0 0.0 0.0 1.0
44.3636 -77.93939999999999 2720.0 0.0 0.0 1.0
44.3636 -77.93939999999999 2720.0 0.0 0.0 1.0
45.575733333333325 -66.06063333333333 2720.0 0.0 0.0 1.0
58.4 -53.46666666666667 2992.0 0.0 0.0 1.0
57.06666666666666 -40.93333333333333 2992.0 0.0 0.0 1.0
57.06666666666666 -40.93333333333333 2992.0 0.0 0.0 1.0
56.800000000000004 -35.06666666666666 2992.0 0.0 0.0 1.0
57.06666666666666 -30.0 2992.0 0.0 0.0 1.0
39.823766666666664 -14.6843 2636.12 0.0 0.0 1.0
55.46666666666667 -8.133333333333333 2992.0 0.0 0.0 1.0
56.26666666666667 7.6000000000000005 2992.0 0.0 0.0 1.0
32.5926 18.107 2462.55 0.0 0.0 1.0
60.0 29.733333333333334 2992.0 0.0 0.0 1.0
31.91253333333334 30.054666666666666 2452.46 0.0 0.0 1.0
31.91253333333334 30.054666666666666 2452.46 0.0 0.0 1.0
32.1311 30.710400000000003 2452.46 0.0 0.0 1.0
31.4558 41.4694 2442.45 0.0 0.0 1.0
31.4558 41.4694 2442.45 0.0 0.0 1.0
32.0867 47.5881 2432.52 0.0 0.0 1.0
32.13113333333334 57.8142 2452.46 0.0 0.0 1.0
28.366533333333336 60.239 2384.06 0.0 0.0 1.0
31.91253333333334 66.3388 2452.46 0.0 0.0 1.0
31.91253333333334 66.3388 2452.46 0.0 0.0 1.0
31.475399999999997 68.5246 2452.46 0.0 0.0 1.0
31.475400000000004 72.6776 2452.46 0.0 0.0 1.0
31.91253333333334 73.11476666666667 2452.46 0.0 0.0 1.0
30.802733333333332 77.38776666666666 2442.45 0.0 0.0 1.0
32.431666666666665 78.59343333333334 2425.9533333333334 0.44577234063769233 -0.8915676202112515 -0.0799637349880493
30.293333333333333 96.32 2393.6 0.0 0.0 1.0
28.15403333333333 102.31066666666668 2384.06 0.0 0.0 1.0
28.7915 104.86066666666666 2384.06 0.0 0.0 1.0
28.994666666666664 110.582 2374.6 0.0 0.0 1.0
56.26666666666667 -149.73333333333332 2992.0 0.0 0.0 1.0
44.0367 -133.70033333333333 2744.9499999999994 4.798762467519243e-28 -7.19716302775028e-28 1.0
54.93333333333334 -146.0 2992.0 0.0 0.0 1.0
45.504566666666676 -130.03033333333335 2744.9499999999994 -3.5991372573817744e-26 -8.996944183806206e-26 1.0
42.7397 -118.234 2732.42 0.0 0.0 1.0
55.73333333333333 -124.93333333333334 2992.0 0.0 0.0 1.0
56.0 -123.06666666666666 2992.0 0.0 0.0 1.0
55.199999999999996 -119.86666666666667 2992.0 0.0 0.0 1.0
43.713833333333326 -103.13533333333334 2732.42 0.0 0.0 1.0
44.444433333333336 -101.18713333333334 2732.42 0.0 0.0 1.0
43.4703 -85.84473333333334 2732.42 0.0 0.0 1.0
42.9091 -68.9697 2720.0 0.0 0.0 1.0
43.15153333333333 -60.969699999999996 2720.0 0.0 0.0 1.0
42.1818 -56.36366666666667 2720.0 0.0 0.0 1.0
43.39396666666667 -50.787866666666666 2720.0 0.0 0.0 1.0
43.39396666666667 -50.787866666666666 2720.0 0.0 0.0 1.0
42.9091 -45.9394 2720.0 0.0 0.0 1.0
57.866666666666674 -47.06666666666666 2992.0 0.0 0.0 1.0
57.06666666666666 -43.06666666666666 2992.0 0.0 0.0 1.0
56.800000000000004 -35.06666666666667 2992.0 0.0 0.0 1.0
55.46666666666667 -27.599999999999998 2992.0 0.0 0.0 1.0
54.93333333333334 -25.2 2992.0 0.0 0.0 1.0
55.199999999999996 -18.53333333333333 2992.0 0.0 0.0 1.0
39.823766666666664 -14.6843 2636.12 0.0 0.0 1.0
56.26666666666667 -7.066666666666666 2992.0 0.0 0.0 1.0
56.53333333333333 -5.466666666666666 2992.0 0.0 0.0 1.0
56.26666666666667 12.133333333333333 2992.0 0.0 0.0 1.0
55.199999999999996 18.8 2992.0 0.0 0.0 1.0
30.382500000000004 23.4973 2452.46 0.0 0.0 1.0
30.382500000000004 25.68303333333333 2452.46 0.0 0.0 1.0
31.91253333333334 30.054666666666666 2452.46 0.0 0.0 1.0
31.67346666666667 43.2109 2442.45 0.0 0.0 1.0
31.038233333333334 58.68853333333333 2452.46 0.0 0.0 1.0
30.272433333333336 65.19116666666667 2425.9533333333334 6.384821593056206e-16 -0.9756722948666059 0.21923405992165287
31.475400000000004 66.5574 2452.46 0.0 0.0 1.0
31.256833333333333 67.6503 2452.46 0.0 0.0 1.0
31.475400000000004 73.11476666666667 2452.46 0.0 0.0 1.0
30.802733333333332 77.38776666666666 2442.45 0.0 0.0 1.0
29.23693333333333 80.0 2403.21 0.0 0.0 1.0
30.107499999999998 88.92473333333334 2412.9 0.0 0.0 1.0
29.462366666666668 90.0 2412.9 0.0 0.0 1.0
28.594366666666662 92.20883333333335 2403.21 0.0 0.0 1.0
28.15403333333333 102.31066666666668 2384.06 0.0 0.0 1.0
26.034266666666667 114.15033333333334 2365.22 0.0 0.0 1.0
55.46666666666667 -149.20000000000002 2992.0 0.0 0.0 1.0
55.20000000000001 -148.4 2992.0 0.0 0.0 1.0
55.20000000000001 -148.4 2992.0 0.0 0.0 1.0
43.22676666666667 -115.068 2732.42 0.0 0.0 1.0
55.199999999999996 -122.8 2992.0 0.0 0.0 1.0
54.666666666666664 -120.66666666666667 2992.0 0.0 0.0 1.0
56.26666666666667 -118.0 2992.0 0.0 0.0 1.0
43.957366666666665 -98.02126666666668 2732.42 0.0 0.0 1.0
44.2009 -97.29066666666667 2732.42 0.0 0.0 1.0
43.22676666666666 -87.06236666666666 2732.42 0.0 0.0 1.0
43.22676666666666 -86.81883333333333 2732.42 0.0 0.0 1.0
41.93936666666667 -81.09093333333334 2720.0 0.0 0.0 1.0
54.4 -80.13333333333334 2992.0 0.0 0.0 1.0
42.9091 -68.9697 2720.0 0.0 0.0 1.0
43.15153333333333 -60.96970000000001 2720.0 0.0 0.0 1.0
43.15153333333333 -60.96970000000001 2720.0 0.0 0.0 1.0
42.18183333333334 -48.60606666666666 2720.0 0.0 0.0 1.0
43.15153333333333 -47.63636666666667 2720.0 0.0 0.0 1.0
54.93333333333334 -27.866666666666664 2992.0 0.0 0.0 1.0
54.93333333333334 -26.0 2992.0 0.0 0.0 1.0
55.199999999999996 -18.53333333333333 2992.0 0.0 0.0 1.0
39.823766666666664 -14.684299999999999 2636.12 0.0 0.0 1.0
54.4 -0.9333333333333332 2992.0 0.0 0.0 1.0
55.199999999999996 18.8 2992.0 0.0 0.0 1.0
32.5926 18.107 2462.55 0.0 0.0 1.0
54.666666666666664 42.266666666666666 2992.0 0.0 0.0 1.0
54.666666666666664 42.266666666666666 2992.0 0.0 0.0 1.0
55.199999999999996 53.199999999999996 2992.0 0.0 0.0 1.0
27.741933333333332 55.161300000000004 2412.9 0.0 0.0 1.0
27.94666666666667 60.053333333333335 2393.6 0.0 0.0 1.0
27.52 61.97333333333333 2393.6 0.0 0.0 1.0
28.091466666666665 62.484399999999994 2396.8033333333333 -0.6998107044662123 -0.6998107044662094 0.14328278273753364
30.819666666666667 66.5574 2452.46 0.0 0.0 1.0
30.819666666666667 68.30603333333333 2452.46 0.0 0.0 1.0
31.475400000000004 72.6776 2452.46 0.0 0.0 1.0
30.163933333333333 75.95626666666668 2452.46 0.0 0.0 1.0
28.8172 90.64516666666667 2412.9 0.0 0.0 1.0
28.594366666666662 92.6372 2403.21 0.0 0.0 1.0
27.7376 94.35073333333332 2403.21 0.0 0.0 1.0
27.093333333333334 100.8 2393.6 0.0 0.0 1.0
27.089933333333335 108.67733333333332 2374.6 0.0 0.0 1.0
43.79206666666666 -127.82866666666666 2744.9499999999994 -3.908018093948168e-26 -2.104723812614283e-26 1.0
44.28136666666666 -126.85033333333332 2744.9499999999994 -3.752971415601281e-27 2.5556958244218264e-26 1.0
54.93333333333334 -124.39999999999999 2992.0 0.0 0.0 1.0
54.666666666666664 -122.26666666666667 2992.0 0.0 0.0 1.0
54.666666666666664 -120.66666666666667 2992.0 0.0 0.0 1.0
54.666666666666664 -120.66666666666667 2992.0 0.0 0.0 1.0
54.666666666666664 -120.13333333333333 2992.0 0.0 0.0 1.0
42.7397 -104.10966666666667 2732.42 0.0 0.0 1.0
42.98323333333334 -87.54943333333334 2732.42 0.0 0.0 1.0
42.98323333333334 -87.06236666666666 2732.42 0.0 0.0 1.0
42.98323333333334 -86.81883333333333 2732.42 0.0 0.0 1.0
42.1818 -76.24243333333334 2720.0 0.0 0.0 1.0
54.4 -80.13333333333333 2992.0 0.0 0.0 1.0
42.1818 -70.90910000000001 2720.0 0.0 0.0 1.0
42.1818 -70.90909999999998 2720.0 0.0 0.0 1.0
42.1818 -69.93939999999999 2720.0 0.0 0.0 1.0
42.42423333333334 -69.21213333333333 2720.0 0.0 0.0 1.0
42.1818 -61.69696666666667 2720.0 0.0 0.0 1.0
42.42423333333334 -44.484833333333334 2720.0 0.0 0.0 1.0
54.4 -37.73333333333333 2992.0 0.0 0.0 1.0
54.666666666666664 -18.0 2992.0 0.0 0.0 1.0
54.4 -17.2 2992.0 0.0 0.0 1.0
54.4 -0.9333333333333332 2992.0 0.0 0.0 1.0
54.13333333333333 7.866666666666666 2992.0 0.0 0.0 1.0
54.13333333333333 8.933333333333332 2992.0 0.0 0.0 1.0
53.6 9.466666666666667 2992.0 0.0 0.0 1.0
55.199999999999996 18.8 2992.0 0.0 0.0 1.0
29.5082 25.68303333333333 2452.46 0.0 0.0 1.0
29.726766666666666 28.306033333333335 2452.46 0.0 0.0 1.0
29.726766666666666 28.306033333333335 2452.46 0.0 0.0 1.0
30.163933333333336 30.4918 2452.46 0.0 0.0 1.0
54.133333333333326 43.333333333333336 2992.0 0.0 0.0 1.0
28.834699999999998 44.98646666666667 2432.52 0.0 0.0 1.0
28.617900000000002 49.5393 2432.52 0.0 0.0 1.0
29.945333333333338 57.8142 2452.46 0.0 0.0 1.0
27.52 60.053333333333335 2393.6 0.0 0.0 1.0
27.52 61.97333333333333 2393.6 0.0 0.0 1.0
30.272433333333336 65.19116666666667 2425.9533333333334 6.384821593056206e-16 -0.9756722948666059 0.21923405992165287
30.163933333333333 66.5574 2452.46 0.0 0.0 1.0
30.819666666666667 68.30603333333333 2452.46 0.0 0.0 1.0
30.163933333333333 75.95626666666668 2452.46 0.0 0.0 1.0
29.4966 77.60546666666667 2442.45 0.0 0.0 1.0
27.5234 80.0 2403.21 0.0 0.0 1.0
27.5269 82.47313333333334 2412.9 0.0 0.0 1.0
27.5269 82.47313333333334 2412.9 0.0 0.0 1.0
27.741933333333336 86.98926666666667 2412.9 0.0 0.0 1.0
28.380166666666668 92.20883333333332 2403.21 0.0 0.0 1.0
27.951800000000002 93.0656 2403.21 0.0 0.0 1.0
27.093333333333334 100.16000000000001 2393.6 0.0 0.0 1.0
27.304100000000002 101.88566666666668 2384.06 0.0 0.0 1.0
26.879133333333332 103.58566666666667 2384.06 0.0 0.0 1.0
27.089933333333335 111.85166666666667 2374.6 0.0 0.0 1.0
26.034266666666667 114.15033333333334 2365.22 0.0 0.0 1.0
53.6 -147.33333333333334 2992.0 0.0 0.0 1.0
41.035 -123.83566666666667 2732.42 0.0 0.0 1.0
41.52203333333333 -117.747 2732.42 0.0 0.0 1.0
41.52203333333333 -117.747 2732.42 0.0 0.0 1.0
41.52203333333333 -100.21300000000001 2732.42 0.0 0.0 1.0
41.93936666666667 -81.09093333333334 2720.0 0.0 0.0 1.0
41.45453333333333 -79.8788 2720.0 0.0 0.0 1.0
54.4 -80.13333333333333 2992.0 0.0 0.0 1.0
41.45453333333333 -60.72729999999999 2720.0 0.0 0.0 1.0
40.72723333333334 -56.8485 2720.0 0.0 0.0 1.0
42.1818 -56.36366666666667 2720.0 0.0 0.0 1.0
42.42423333333334 -44.484833333333334 2720.0 0.0 0.0 1.0
52.53333333333333 -44.13333333333333 2992.0 0.0 0.0 1.0
52.800000000000004 -41.46666666666667 2992.0 0.0 0.0 1.0
53.866666666666674 -27.066666666666666 2992.0 0.0 0.0 1.0
53.866666666666674 -24.933333333333334 2992.0 0.0 0.0 1.0
53.333333333333336 -16.666666666666664 2992.0 0.0 0.0 1.0
53.06666666666666 -13.466666666666667 2992.0 0.0 0.0 1.0
52.800000000000004 -8.133333333333333 2992.0 0.0 0.0 1.0
53.86666666666667 -4.3999999999999995 2992.0 0.0 0.0 1.0
53.6 -0.9333333333333332 2992.0 0.0 0.0 1.0
54.13333333333333 7.866666666666666 2992.0 0.0 0.0 1.0
53.333333333333336 16.933333333333334 2992.0 0.0 0.0 1.0
27.978133333333332 20.000033333333334 2452.46 0.0 0.0 1.0
29.5082 25.68303333333333 2452.46 0.0 0.0 1.0
53.866666666666674 42.266666666666666 2992.0 0.0 0.0 1.0
55.46666666666667 47.06666666666666 2992.0 0.0 0.0 1.0
27.7507 42.168 2432.52 0.0 0.0 1.0
28.834699999999998 43.25203333333334 2432.52 0.0 0.0 1.0
28.617900000000002 46.7209 2432.52 0.0 0.0 1.0
28.617900000000002 49.5393 2432.52 0.0 0.0 1.0
27.741933333333332 55.161300000000004 2412.9 0.0 0.0 1.0
28.4153 58.90713333333333 2452.46 0.0 0.0 1.0
27.304133333333336 60.02653333333333 2384.06 0.0 0.0 1.0
27.304133333333336 60.02653333333333 2384.06 0.0 0.0 1.0
27.52 61.97333333333333 2393.6 0.0 0.0 1.0
55.20000000000001 79.06666666666666 2992.0 0.0 0.0 1.0
30.163933333333333 66.5574 2452.46 0.0 0.0 1.0
27.093333333333334 63.25333333333333 2393.6 0.0 0.0 1.0
29.94536666666667 72.02183333333333 2452.46 0.0 0.0 1.0
29.94536666666667 72.02183333333333 2452.46 0.0 0.0 1.0
30.163933333333333 75.95626666666668 2452.46 0.0 0.0 1.0
27.096766666666667 79.24730000000001 2412.9 0.0 0.0 1.0
27.311833333333336 87.41936666666668 2412.9 0.0 0.0 1.0
27.3118 89.5699 2412.9 0.0 0.0 1.0
28.17203333333333 90.4301 2412.9 0.0 0.0 1.0
27.095033333333333 93.49396666666667 2403.21 0.0 0.0 1.0
27.095033333333333 93.49396666666667 2403.21 0.0 0.0 1.0
27.304100000000002 101.88566666666668 2384.06 0.0 0.0 1.0
26.879133333333332 103.58566666666667 2384.06 0.0 0.0 1.0
53.06666666666666 147.86666666666667 2992.0 0.0 0.0 1.0
53.06666666666666 147.86666666666667 2992.0 0.0 0.0 1.0
41.83486666666666 -133.70033333333333 2744.9499999999994 -7.4978620359872945e-28 4.4983086187567536e-27 1.0
43.30276666666666 -128.807 2744.9499999999994 -7.499053901547615e-28 3.9983319951260305e-27 1.0
41.765566666666665 -121.15666666666668 2732.42 0.0 0.0 1.0
42.252633333333335 -115.79866666666668 2732.42 0.0 0.0 1.0
54.133333333333326 -118.26666666666667 2992.0 0.0 0.0 1.0
40.79143333333334 -104.35333333333334 2732.42 0.0 0.0 1.0
41.52203333333333 -100.21300000000001 2732.42 0.0 0.0 1.0
41.2785 -99.48246666666667 2732.42 0.0 0.0 1.0
40.24243333333333 -68.24243333333334 2720.0 0.0 0.0 1.0
40.0 -48.84846666666667 2720.0 0.0 0.0 1.0
52.53333333333333 -40.13333333333333 2992.0 0.0 0.0 1.0
52.26666666666667 -28.666666666666668 2992.0 0.0 0.0 1.0
52.53333333333334 -24.133333333333336 2992.0 0.0 0.0 1.0
53.06666666666666 -17.2 2992.0 0.0 0.0 1.0
52.800000000000004 -8.133333333333333 2992.0 0.0 0.0 1.0
52.800000000000004 -1.4666666666666668 2992.0 0.0 0.0 1.0
51.46666666666667 1.4666666666666668 2992.0 0.0 0.0 1.0
52.53333333333333 11.333333333333334 2992.0 0.0 0.0 1.0
29.5082 25.68303333333333 2452.46 0.0 0.0 1.0
29.28963333333333 28.743166666666667 2452.46 0.0 0.0 1.0
28.852500000000003 29.398899999999998 2452.46 0.0 0.0 1.0
29.28963333333333 30.273200000000003 2452.46 0.0 0.0 1.0
53.6 43.06666666666666 2992.0 0.0 0.0 1.0
28.4011 48.238499999999995 2432.52 0.0 0.0 1.0
26.666666666666668 50.202400000000004 2422.67 0.0 0.0 1.0
23.492033333333335 61.26983333333333 2374.6 0.0 0.0 1.0
27.096766666666667 79.24730000000001 2412.9 0.0 0.0 1.0
26.666700000000002 85.69893333333334 2412.9 0.0 0.0 1.0
27.311833333333336 86.55916666666667 2412.9 0.0 0.0 1.0
27.096766666666667 88.06453333333333 2412.9 0.0 0.0 1.0
27.309233333333328 93.0656 2403.21 0.0 0.0 1.0
24.973533333333332 110.37066666666665 2374.6 0.0 0.0 1.0
25.396833333333333 111.217 2374.6 0.0 0.0 1.0
52.0 -147.33333333333334 2992.0 0.0 0.0 1.0
41.522033333333326 -117.747 2732.42 0.0 0.0 1.0
40.79143333333334 -104.35333333333334 2732.42 0.0 0.0 1.0
40.79143333333334 -104.35333333333334 2732.42 0.0 0.0 1.0
40.3044 -99.23893333333335 2732.42 0.0 0.0 1.0
40.5479 -97.77773333333334 2732.42 0.0 0.0 1.0
40.304399999999994 -96.56009999999999 2732.42 0.0 0.0 1.0
39.817366666666665 -94.6119 2732.42 0.0 0.0 1.0
40.304399999999994 -84.87063333333333 2732.42 0.0 0.0 1.0
40.304399999999994 -84.87063333333333 2732.42 0.0 0.0 1.0
40.484833333333334 -78.18183333333333 2720.0 0.0 0.0 1.0
40.72726666666667 -76.9697 2720.0 0.0 0.0 1.0
40.24243333333333 -68.24243333333334 2720.0 0.0 0.0 1.0
40.24243333333333 -68.24243333333334 2720.0 0.0 0.0 1.0
40.0 -60.48486666666667 2720.0 0.0 0.0 1.0
40.0 -50.787866666666666 2720.0 0.0 0.0 1.0
40.0 -48.84846666666667 2720.0 0.0 0.0 1.0
51.20000000000001 -49.199999999999996 2992.0 0.0 0.0 1.0
52.53333333333333 -44.13333333333333 2992.0 0.0 0.0 1.0
51.46666666666667 -43.86666666666667 2992.0 0.0 0.0 1.0
51.199999999999996 -34.00000000000001 2992.0 0.0 0.0 1.0
51.73333333333333 -28.933333333333334 2992.0 0.0 0.0 1.0
52.26666666666667 -28.666666666666668 2992.0 0.0 0.0 1.0
52.26666666666667 -16.4 2992.0 0.0 0.0 1.0
51.46666666666667 -10.0 2992.0 0.0 0.0 1.0
52.0 -8.133333333333333 2992.0 0.0 0.0 1.0
52.53333333333333 -3.3333333333333335 2992.0 0.0 0.0 1.0
52.26666666666667 -2.266666666666667 2992.0 0.0 0.0 1.0
52.0 8.933333333333332 2992.0 0.0 0.0 1.0
52.0 15.866666666666665 2992.0 0.0 0.0 1.0
28.196699999999996 18.469966666666668 2452.46 0.0 0.0 1.0
27.978133333333332 22.4044 2452.46 0.0 0.0 1.0
27.540966666666666 23.060133333333336 2452.46 0.0 0.0 1.0
28.633866666666666 26.557366666666667 2452.46 0.0 0.0 1.0
28.415300000000002 27.431699999999996 2452.46 0.0 0.0 1.0
49.86666666666667 63.86666666666667 2992.0 0.0 0.0 1.0
26.666666666666668 50.202400000000004 2422.67 0.0 0.0 1.0
26.666666666666668 54.94623333333334 2412.9 0.0 0.0 1.0
27.540966666666666 58.469966666666664 2452.46 0.0 0.0 1.0
27.540966666666666 74.8634 2452.46 0.0 0.0 1.0
26.448966666666667 77.60546666666666 2442.45 0.0 0.0 1.0
27.096766666666667 79.24730000000001 2412.9 0.0 0.0 1.0
27.096766666666667 88.70966666666668 2412.9 0.0 0.0 1.0
24.53333333333333 96.53333333333335 2393.6 0.0 0.0 1.0
25.173333333333336 99.51999999999998 2393.6 0.0 0.0 1.0
24.959999999999997 101.22666666666667 2393.6 0.0 0.0 1.0
25.391766666666665 105.498 2384.06 0.0 0.0 1.0
24.769433333333335 113.93966666666665 2365.22 0.0 0.0 1.0
51.46666666666667 147.33333333333334 2992.0 0.0 0.0 1.0
53.6 -144.13333333333335 2992.0 0.0 0.0 1.0
38.3562 -126.758 2732.42 0.0 0.0 1.0
47.46666666666667 -130.53333333333333 2992.0 0.0 0.0 1.0
39.0868 -101.431 2732.42 0.0 0.0 1.0
40.304399999999994 -95.58600000000001 2732.42 0.0 0.0 1.0
39.817366666666665 -84.3836 2732.42 0.0 0.0 1.0
50.666666666666664 -80.4 2992.0 0.0 0.0 1.0
50.666666666666664 -80.4 2992.0 0.0 0.0 1.0
39.75756666666666 -57.0909 2720.0 0.0 0.0 1.0
39.27273333333333 -52.2424 2720.0 0.0 0.0 1.0
40.0 -48.84846666666667 2720.0 0.0 0.0 1.0
50.13333333333333 -51.6 2992.0 0.0 0.0 1.0
51.46666666666667 -50.26666666666667 2992.0 0.0 0.0 1.0
52.53333333333333 -40.13333333333333 2992.0 0.0 0.0 1.0
50.93333333333334 -32.666666666666664 2992.0 0.0 0.0 1.0
50.93333333333334 -32.66666666666667 2992.0 0.0 0.0 1.0
51.73333333333333 -28.933333333333334 2992.0 0.0 0.0 1.0
51.46666666666666 -23.600000000000005 2992.0 0.0 0.0 1.0
51.199999999999996 -16.133333333333333 2992.0 0.0 0.0 1.0
51.46666666666667 -8.133333333333333 2992.0 0.0 0.0 1.0
51.46666666666667 -8.133333333333333 2992.0 0.0 0.0 1.0
50.666666666666664 1.2 2992.0 0.0 0.0 1.0
51.199999999999996 16.400000000000002 2992.0 0.0 0.0 1.0
27.978133333333336 22.4044 2452.46 0.0 0.0 1.0
25.591400000000004 54.516133333333336 2412.9 0.0 0.0 1.0
27.540966666666666 58.469966666666664 2452.46 0.0 0.0 1.0
49.06666666666667 78.26666666666667 2992.0 0.0 0.0 1.0
27.103800000000003 71.80326666666666 2452.46 0.0 0.0 1.0
27.540966666666666 74.8634 2452.46 0.0 0.0 1.0
24.738966666666666 80.2142 2403.21 0.0 0.0 1.0
26.021533333333334 82.47313333333334 2412.9 0.0 0.0 1.0
25.806466666666665 85.48386666666669 2412.9 0.0 0.0 1.0
24.31056666666667 94.56493333333333 2403.21 0.0 0.0 1.0
24.959999999999997 99.30666666666666 2393.6 0.0 0.0 1.0
24.959999999999997 99.73333333333333 2393.6 0.0 0.0 1.0
24.541833333333333 105.498 2384.06 0.0 0.0 1.0
24.973533333333332 110.37066666666665 2374.6 0.0 0.0 1.0
23.5046 113.72866666666665 2365.22 0.0 0.0 1.0
51.46666666666667 147.33333333333334 2992.0 0.0 0.0 1.0
51.46666666666667 147.33333333333334 2992.0 0.0 0.0 1.0
52.0 -147.33333333333334 2992.0 0.0 0.0 1.0
37.93223333333333 -120.24300000000001 2728.28 0.997268345959433 -2.918469341189505e-17 0.07386369979453102
48.53333333333334 -123.60000000000001 2992.0 0.0 0.0 1.0
39.08676666666667 -104.83999999999999 2732.42 0.0 0.0 1.0
38.843266666666665 -99.72613333333334 2732.42 0.0 0.0 1.0
38.59973333333333 -99.23893333333335 2732.42 0.0 0.0 1.0
39.3303 -93.8813 2732.42 0.0 0.0 1.0
39.3303 -86.81883333333333 2732.42 0.0 0.0 1.0
39.817366666666665 -84.3836 2732.42 0.0 0.0 1.0
37.8182 -82.54543333333334 2720.0 0.0 0.0 1.0
39.03033333333334 -60.969699999999996 2720.0 0.0 0.0 1.0
39.03033333333334 -60.969699999999996 2720.0 0.0 0.0 1.0
38.060599999999994 -56.60603333333333 2720.0 0.0 0.0 1.0
38.06063333333333 -53.2121 2720.0 0.0 0.0 1.0
50.4 -48.13333333333333 2992.0 0.0 0.0 1.0
50.93333333333334 -44.400000000000006 2992.0 0.0 0.0 1.0
50.93333333333334 -44.13333333333333 2992.0 0.0 0.0 1.0
50.133333333333326 -33.2 2992.0 0.0 0.0 1.0
51.199999999999996 -29.46666666666667 2992.0 0.0 0.0 1.0
50.4 -23.066666666666666 2992.0 0.0 0.0 1.0
51.199999999999996 -16.133333333333333 2992.0 0.0 0.0 1.0
51.20000000000001 -10.0 2992.0 0.0 0.0 1.0
50.133333333333326 -6.533333333333334 2992.0 0.0 0.0 1.0
50.666666666666664 1.2 2992.0 0.0 0.0 1.0
50.666666666666664 1.2 2992.0 0.0 0.0 1.0
50.93333333333334 10.266666666666667 2992.0 0.0 0.0 1.0
49.86666666666667 11.6 2992.0 0.0 0.0 1.0
51.20000000000001 16.400000000000002 2992.0 0.0 0.0 1.0
26.666666666666668 20.2186 2452.46 0.0 0.0 1.0
27.10383333333333 30.05463333333333 2452.46 0.0 0.0 1.0
27.7507 42.168000000000006 2432.52 0.0 0.0 1.0
50.13333333333333 54.26666666666667 2992.0 0.0 0.0 1.0
49.86666666666667 55.6 2992.0 0.0 0.0 1.0
26.666666666666668 50.202400000000004 2422.67 0.0 0.0 1.0
49.86666666666667 57.199999999999996 2992.0 0.0 0.0 1.0
24.731166666666667 53.01073333333333 2412.9 0.0 0.0 1.0
27.103799999999996 57.8142 2452.46 0.0 0.0 1.0
26.448066666666666 68.08746666666667 2452.46 0.0 0.0 1.0
26.8852 69.61749999999999 2452.46 0.0 0.0 1.0
27.103800000000003 70.92896666666667 2452.46 0.0 0.0 1.0
26.885233333333332 72.24043333333333 2452.46 0.0 0.0 1.0
27.540966666666666 74.8634 2452.46 0.0 0.0 1.0
24.738966666666666 80.2142 2403.21 0.0 0.0 1.0
24.53333333333333 96.53333333333335 2393.6 0.0 0.0 1.0
24.74666666666667 99.51999999999998 2393.6 0.0 0.0 1.0
24.959999999999997 101.22666666666665 2393.6 0.0 0.0 1.0
23.6919 104.64800000000001 2384.06 0.0 0.0 1.0
22.6455 108.04233333333333 2374.6 0.0 0.0 1.0
23.492066666666663 111.217 2374.6 0.0 0.0 1.0
50.93333333333334 146.79999999999998 2992.0 0.0 0.0 1.0
40.8563 -132.477 2744.9499999999994 9.996468376590141e-28 -1.3327716557671829e-27 1.0
37.6256 -128.94966666666667 2732.42 0.0 0.0 1.0
38.3562 -126.758 2732.42 0.0 0.0 1.0
38.3562 -105.327 2732.42 0.0 0.0 1.0
37.6256 -101.67433333333334 2732.42 0.0 0.0 1.0
38.59973333333333 -99.23893333333335 2732.42 0.0 0.0 1.0
38.59973333333333 -99.23893333333335 2732.42 0.0 0.0 1.0
39.57383333333333 -96.31656666666667 2732.42 0.0 0.0 1.0
39.3303 -93.8813 2732.42 0.0 0.0 1.0
38.11266666666666 -87.06236666666666 2732.42 0.0 0.0 1.0
37.8182 -82.54543333333334 2720.0 0.0 0.0 1.0
50.666666666666664 -80.39999999999999 2992.0 0.0 0.0 1.0
38.06063333333333 -53.696933333333334 2720.0 0.0 0.0 1.0
37.8182 -53.45453333333334 2720.0 0.0 0.0 1.0
38.06063333333333 -53.2121 2720.0 0.0 0.0 1.0
48.53333333333334 -25.46666666666667 2992.0 0.0 0.0 1.0
50.4 -23.066666666666666 2992.0 0.0 0.0 1.0
48.53333333333334 5.733333333333333 2992.0 0.0 0.0 1.0
26.666666666666668 23.060133333333336 2452.46 0.0 0.0 1.0
25.792366666666666 28.524599999999996 2452.46 0.0 0.0 1.0
48.26666666666667 40.66666666666667 2992.0 0.0 0.0 1.0
49.333333333333336 52.13333333333333 2992.0 0.0 0.0 1.0
50.666666666666664 61.46666666666666 2992.0 0.0 0.0 1.0
24.301066666666667 52.5806 2412.9 0.0 0.0 1.0
24.516100000000005 53.87096666666667 2412.9 0.0 0.0 1.0
24.086000000000002 54.51613333333333 2412.9 0.0 0.0 1.0
26.448066666666666 57.37703333333334 2452.46 0.0 0.0 1.0
26.448066666666666 57.37703333333334 2452.46 0.0 0.0 1.0
22.764233333333333 59.5122 2432.52 0.0 0.0 1.0
23.6919 59.6016 2384.06 0.0 0.0 1.0
22.2222 61.48146666666667 2374.6 0.0 0.0 1.0
26.885233333333332 72.24043333333333 2452.46 0.0 0.0 1.0
25.360533333333333 77.82313333333333 2442.45 0.0 0.0 1.0
25.360533333333333 77.82313333333333 2442.45 0.0 0.0 1.0
24.096400000000003 80.42840000000001 2403.21 0.0 0.0 1.0
24.086000000000002 86.12903333333334 2412.9 0.0 0.0 1.0
24.086000000000002 86.55913333333332 2412.9 0.0 0.0 1.0
23.440833333333334 90.43013333333333 2412.9 0.0 0.0 1.0
23.4538 93.49396666666667 2403.21 0.0 0.0 1.0
23.679999999999996 97.81333333333333 2393.6 0.0 0.0 1.0
23.492066666666663 111.217 2374.6 0.0 0.0 1.0
22.6614 113.30700000000002 2365.22 0.0 0.0 1.0
36.895 -132.359 2732.42 0.0 0.0 1.0
36.407933333333325 -122.13100000000001 2732.42 0.0 0.0 1.0
37.13853333333333 -117.74733333333332 2732.42 0.0 0.0 1.0
37.13853333333333 -117.74733333333334 2732.42 0.0 0.0 1.0
49.6 -119.06666666666666 2992.0 0.0 0.0 1.0
38.3562 -105.327 2732.42 0.0 0.0 1.0
37.6256 -101.67433333333334 2732.42 0.0 0.0 1.0
36.36363333333333 -80.60606666666666 2720.0 0.0 0.0 1.0
37.333333333333336 -51.27273333333333 2720.0 0.0 0.0 1.0
37.0909 -50.0606 2720.0 0.0 0.0 1.0
37.0909 -50.0606 2720.0 0.0 0.0 1.0
48.79999999999999 -48.4 2992.0 0.0 0.0 1.0
48.79999999999999 -38.0 2992.0 0.0 0.0 1.0
48.53333333333333 -34.266666666666666 2992.0 0.0 0.0 1.0
49.333333333333336 -33.733333333333334 2992.0 0.0 0.0 1.0
48.53333333333334 -25.46666666666667 2992.0 0.0 0.0 1.0
48.0 -19.599999999999998 2992.0 0.0 0.0 1.0
50.133333333333326 -15.6 2992.0 0.0 0.0 1.0
49.06666666666666 -6.0 2992.0 0.0 0.0 1.0
48.53333333333333 -2.0 2992.0 0.0 0.0 1.0
48.53333333333333 -2.0 2992.0 0.0 0.0 1.0
48.0 3.8666666666666667 2992.0 0.0 0.0 1.0
49.86666666666667 13.466666666666667 2992.0 0.0 0.0 1.0
25.136599999999998 12.131133333333333 2452.46 0.0 0.0 1.0
25.573766666666668 19.562866666666668 2452.46 0.0 0.0 1.0
25.136633333333332 23.060133333333336 2452.46 0.0 0.0 1.0
25.792366666666666 27.868866666666666 2452.46 0.0 0.0 1.0
25.792366666666666 27.868866666666666 2452.46 0.0 0.0 1.0
25.792366666666666 28.524599999999996 2452.46 0.0 0.0 1.0
48.26666666666667 48.666666666666664 2992.0 0.0 0.0 1.0
23.010766666666665 47.20430000000001 2412.9 0.0 0.0 1.0
49.06666666666666 55.86666666666667 2992.0 0.0 0.0 1.0
23.010766666666665 49.13976666666667 2412.9 0.0 0.0 1.0
24.086033333333333 50.64513333333333 2412.9 0.0 0.0 1.0
22.2222 61.48146666666667 2374.6 0.0 0.0 1.0
25.3552 66.99456666666667 2452.46 0.0 0.0 1.0
23.871 78.38710000000002 2412.9 0.0 0.0 1.0
23.871 78.38710000000002 2412.9 0.0 0.0 1.0
23.871 78.38709999999999 2412.9 0.0 0.0 1.0
24.096400000000003 80.42840000000001 2403.21 0.0 0.0 1.0
24.516166666666663 83.33333333333333 2412.9 0.0 0.0 1.0
23.870966666666664 85.48386666666669 2412.9 0.0 0.0 1.0
23.239633333333334 93.92233333333333 2403.21 0.0 0.0 1.0
23.025433333333336 94.56490000000001 2403.21 0.0 0.0 1.0
22.629500000000004 104.223 2384.06 0.0 0.0 1.0
22.6455 108.04233333333333 2374.6 0.0 0.0 1.0
22.6455 108.04233333333333 2374.6 0.0 0.0 1.0
21.8182 113.51766666666667 2365.22 0.0 0.0 1.0
36.651466666666664 -131.872 2732.42 0.0 0.0 1.0
36.895 -127.00166666666667 2732.42 0.0 0.0 1.0
48.53333333333333 -122.26666666666665 2992.0 0.0 0.0 1.0
37.6256 -101.67433333333334 2732.42 0.0 0.0 1.0
37.6256 -100.21300000000001 2732.42 0.0 0.0 1.0
47.46666666666667 -100.93333333333334 2992.0 0.0 0.0 1.0
47.46666666666667 -100.93333333333334 2992.0 0.0 0.0 1.0
46.4 -96.40000000000002 2992.0 0.0 0.0 1.0
37.382066666666674 -86.3318 2732.42 0.0 0.0 1.0
37.6256 -85.11416666666666 2732.42 0.0 0.0 1.0
36.121199999999995 -81.0909 2720.0 0.0 0.0 1.0
35.63636666666667 -79.39396666666666 2720.0 0.0 0.0 1.0
-59.638266666666674 14.8132 1526.1133333333335 -0.023715269183924848 -0.9149957025154251 0.40276599954047454
35.878800000000005 -64.36363333333334 2720.0 0.0 0.0 1.0
35.63636666666667 -61.696933333333334 2720.0 0.0 0.0 1.0
36.121199999999995 -56.36363333333333 2720.0 0.0 0.0 1.0
36.121199999999995 -56.36363333333333 2720.0 0.0 0.0 1.0
47.199999999999996 -52.4 2992.0 0.0 0.0 1.0
49.06666666666666 -46.0 2992.0 0.0 0.0 1.0
48.53333333333333 -34.266666666666666 2992.0 0.0 0.0 1.0
47.73333333333333 -19.333333333333332 2992.0 0.0 0.0 1.0
48.0 -9.733333333333333 2992.0 0.0 0.0 1.0
49.06666666666666 -6.0 2992.0 0.0 0.0 1.0
48.26666666666667 -2.8000000000000003 2992.0 0.0 0.0 1.0
48.26666666666667 -2.8000000000000003 2992.0 0.0 0.0 1.0
48.26666666666667 1.7333333333333334 2992.0 0.0 0.0 1.0
48.0 3.866666666666667 2992.0 0.0 0.0 1.0
25.136599999999998 11.256799999999998 2452.46 0.0 0.0 1.0
25.136599999999998 12.131133333333333 2452.46 0.0 0.0 1.0
24.917999999999996 12.786866666666668 2452.46 0.0 0.0 1.0
24.917999999999996 13.661200000000001 2452.46 0.0 0.0 1.0
24.480866666666667 14.098366666666665 2452.46 0.0 0.0 1.0
24.262266666666665 16.284133333333333 2452.46 0.0 0.0 1.0
25.355199999999996 26.994533333333333 2452.46 0.0 0.0 1.0
47.199999999999996 41.2 2992.0 0.0 0.0 1.0
47.46666666666666 47.333333333333336 2992.0 0.0 0.0 1.0
47.73333333333333 50.26666666666667 2992.0 0.0 0.0 1.0
49.06666666666666 55.06666666666666 2992.0 0.0 0.0 1.0
23.225800000000003 52.5806 2412.9 0.0 0.0 1.0
47.46666666666667 64.66666666666667 2992.0 0.0 0.0 1.0
22.580633333333335 54.301066666666664 2412.9 0.0 0.0 1.0
22.2222 61.48146666666667 2374.6 0.0 0.0 1.0
26.010900000000003 73.98906666666666 2452.46 0.0 0.0 1.0
25.360533333333333 77.82313333333333 2442.45 0.0 0.0 1.0
23.440866666666665 85.69893333333334 2412.9 0.0 0.0 1.0
23.225800000000003 86.55916666666667 2412.9 0.0 0.0 1.0
22.7957 87.41936666666668 2412.9 0.0 0.0 1.0
23.44083333333333 90.43013333333333 2412.9 0.0 0.0 1.0
22.811233333333334 93.70813333333332 2403.21 0.0 0.0 1.0
22.613333333333333 97.59999999999998 2393.6 0.0 0.0 1.0
23.679999999999996 100.8 2393.6 0.0 0.0 1.0
21.1421 105.49766666666666 2384.06 0.0 0.0 1.0
21.396600000000003 114.15033333333334 2365.22 0.0 0.0 1.0
21.396600000000003 114.15033333333334 2365.22 0.0 0.0 1.0
35.920866666666676 -132.846 2732.42 0.0 0.0 1.0
36.651466666666664 -129.92366666666666 2732.42 0.0 0.0 1.0
36.407933333333325 -122.13100000000001 2732.42 0.0 0.0 1.0
36.1644 -117.99066666666666 2732.42 0.0 0.0 1.0
46.666666666666664 -126.26666666666667 2992.0 0.0 0.0 1.0
46.666666666666664 -126.26666666666667 2992.0 0.0 0.0 1.0
46.4 -121.46666666666665 2992.0 0.0 0.0 1.0
35.63636666666667 -79.39396666666666 2720.0 0.0 0.0 1.0
35.39393333333334 -65.8182 2720.0 0.0 0.0 1.0
35.63636666666667 -61.696933333333334 2720.0 0.0 0.0 1.0
36.121199999999995 -56.36363333333333 2720.0 0.0 0.0 1.0
47.199999999999996 -52.4 2992.0 0.0 0.0 1.0
47.73333333333333 -49.46666666666667 2992.0 0.0 0.0 1.0
46.666666666666664 -30.26666666666667 2992.0 0.0 0.0 1.0
47.199999999999996 -24.933333333333334 2992.0 0.0 0.0 1.0
46.4 -21.2 2992.0 0.0 0.0 1.0
47.199999999999996 3.3333333333333335 2992.0 0.0 0.0 1.0
47.73333333333333 6.266666666666667 2992.0 0.0 0.0 1.0
24.2623 19.562866666666668 2452.46 0.0 0.0 1.0
47.199999999999996 41.2 2992.0 0.0 0.0 1.0
20.883533333333332 47.2289 2403.21 0.0 0.0 1.0
22.580633333333335 54.301066666666664 2412.9 0.0 0.0 1.0
22.764233333333333 59.5122 2432.52 0.0 0.0 1.0
23.6919 59.6016 2384.06 0.0 0.0 1.0
22.365566666666666 89.5699 2412.9 0.0 0.0 1.0
22.795666666666666 90.21506666666666 2412.9 0.0 0.0 1.0
22.168666666666667 94.1365 2403.21 0.0 0.0 1.0
21.546666666666667 97.59999999999998 2393.6 0.0 0.0 1.0
21.992033333333335 104.86033333333334 2384.06 0.0 0.0 1.0
21.1858 113.51766666666667 2365.22 0.0 0.0 1.0
35.92086666666666 -131.38500000000002 2732.42 0.0 0.0 1.0
35.67733333333333 -130.65433333333334 2732.42 0.0 0.0 1.0
34.7032 -126.51433333333334 2732.42 0.0 0.0 1.0
36.407933333333325 -122.13100000000001 2732.42 0.0 0.0 1.0
36.651466666666664 -101.67433333333334 2732.42 0.0 0.0 1.0
35.92086666666666 -98.02126666666668 2732.42 0.0 0.0 1.0
34.946733333333334 -96.31656666666667 2732.42 0.0 0.0 1.0
47.46666666666667 -100.93333333333334 2992.0 0.0 0.0 1.0
34.666666666666664 -81.57576666666667 2720.0 0.0 0.0 1.0
34.666666666666664 -81.57576666666667 2720.0 0.0 0.0 1.0
35.15153333333333 -80.12123333333334 2720.0 0.0 0.0 1.0
33.69696666666667 -69.69696666666665 2720.0 0.0 0.0 1.0
34.9091 -61.696933333333334 2720.0 0.0 0.0 1.0
47.199999999999996 -52.400000000000006 2992.0 0.0 0.0 1.0
45.599999999999994 -35.86666666666667 2992.0 0.0 0.0 1.0
46.4 -32.13333333333333 2992.0 0.0 0.0 1.0
46.13333333333333 -27.866666666666664 2992.0 0.0 0.0 1.0
46.13333333333333 -27.866666666666664 2992.0 0.0 0.0 1.0
45.86666666666667 -20.133333333333333 2992.0 0.0 0.0 1.0
46.4 3.6 2992.0 0.0 0.0 1.0
46.133333333333326 6.266666666666667 2992.0 0.0 0.0 1.0
24.480866666666667 12.349699999999999 2452.46 0.0 0.0 1.0
24.480866666666667 14.098366666666665 2452.46 0.0 0.0 1.0
25.136633333333332 23.060133333333336 2452.46 0.0 0.0 1.0
24.043733333333336 29.1803 2452.46 0.0 0.0 1.0
47.199999999999996 41.2 2992.0 0.0 0.0 1.0
46.13333333333333 50.53333333333333 2992.0 0.0 0.0 1.0
22.3656 53.01073333333333 2412.9 0.0 0.0 1.0
22.150533333333332 54.516133333333336 2412.9 0.0 0.0 1.0
22.150533333333332 54.516133333333336 2412.9 0.0 0.0 1.0
23.825166666666664 67.21313333333335 2452.46 0.0 0.0 1.0
23.22583333333333 83.76343333333334 2412.9 0.0 0.0 1.0
21.505399999999998 88.27956666666667 2412.9 0.0 0.0 1.0
22.150533333333332 88.70966666666668 2412.9 0.0 0.0 1.0
21.333333333333332 96.32 2393.6 0.0 0.0 1.0
19.4709 110.37066666666665 2374.6 0.0 0.0 1.0
47.73333333333333 144.13333333333333 2992.0 0.0 0.0 1.0
49.333333333333336 146.53333333333333 2992.0 0.0 0.0 1.0
35.4338 -132.846 2732.42 0.0 0.0 1.0
34.45966666666667 -125.78366666666666 2732.42 0.0 0.0 1.0
34.45966666666667 -125.78366666666666 2732.42 0.0 0.0 1.0
34.7032 -117.26033333333334 2732.42 0.0 0.0 1.0
45.866666666666674 -126.8 2992.0 0.0 0.0 1.0
32.484833333333334 -101.45466666666668 2720.0 0.0 0.0 1.0
46.4 -96.39999999999999 2992.0 0.0 0.0 1.0
45.333333333333336 -95.06666666666666 2992.0 0.0 0.0 1.0
34.42423333333334 -82.30303333333335 2720.0 0.0 0.0 1.0
34.666666666666664 -81.57576666666667 2720.0 0.0 0.0 1.0
33.69696666666667 -78.1818 2720.0 0.0 0.0 1.0
33.69696666666667 -77.45453333333334 2720.0 0.0 0.0 1.0
34.18183333333334 -67.03033333333333 2720.0 0.0 0.0 1.0
34.1818 -60.96966666666666 2720.0 0.0 0.0 1.0
32.969699999999996 -53.21213333333333 2720.0 0.0 0.0 1.0
45.333333333333336 -34.53333333333333 2992.0 0.0 0.0 1.0
45.333333333333336 -34.53333333333333 2992.0 0.0 0.0 1.0
46.13333333333333 -27.866666666666664 2992.0 0.0 0.0 1.0
45.866666666666674 -24.666666666666668 2992.0 0.0 0.0 1.0
45.333333333333336 -21.2 2992.0 0.0 0.0 1.0
45.86666666666667 -20.133333333333333 2992.0 0.0 0.0 1.0
45.86666666666667 -20.133333333333333 2992.0 0.0 0.0 1.0
45.86666666666667 -9.2 2992.0 0.0 0.0 1.0
46.666666666666664 1.4666666666666668 2992.0 0.0 0.0 1.0
45.06666666666666 4.4 2992.0 0.0 0.0 1.0
22.51363333333333 18.03276666666667 2452.46 0.0 0.0 1.0
22.9508 18.25136666666667 2452.46 0.0 0.0 1.0
23.387966666666667 18.907133333333334 2452.46 0.0 0.0 1.0
23.1694 28.52456666666667 2452.46 0.0 0.0 1.0
23.1694 28.52456666666667 2452.46 0.0 0.0 1.0
45.333333333333336 44.666666666666664 2992.0 0.0 0.0 1.0
45.06666666666666 44.93333333333334 2992.0 0.0 0.0 1.0
20.883533333333336 47.2289 2403.21 0.0 0.0 1.0
20.215033333333334 48.4946 2412.9 0.0 0.0 1.0
22.0765 68.96176666666668 2452.46 0.0 0.0 1.0
22.150533333333332 78.60216666666666 2412.9 0.0 0.0 1.0
22.150533333333332 78.81723333333333 2412.9 0.0 0.0 1.0
20.883533333333332 80.85676666666667 2403.21 0.0 0.0 1.0
21.720433333333332 86.55913333333335 2412.9 0.0 0.0 1.0
21.954466666666665 93.70813333333332 2403.21 0.0 0.0 1.0
20.69333333333333 96.53333333333335 2393.6 0.0 0.0 1.0
20.906666666666666 97.38666666666666 2393.6 0.0 0.0 1.0
19.654733333333333 106.77266666666667 2384.06 0.0 0.0 1.0
19.654733333333333 106.77266666666667 2384.06 0.0 0.0 1.0
34.45966666666667 -125.78366666666666 2732.42 0.0 0.0 1.0
33.485533333333336 -118.47766666666666 2732.42 0.0 0.0 1.0
44.800000000000004 -126.8 2992.0 0.0 0.0 1.0
44.0 -118.53333333333335 2992.0 0.0 0.0 1.0
32.484833333333334 -101.45466666666668 2720.0 0.0 0.0 1.0
44.26666666666667 -112.13333333333333 2992.0 0.0 0.0 1.0
33.72906666666666 -93.88130000000001 2732.42 0.0 0.0 1.0
33.72906666666666 -92.90716666666667 2732.42 0.0 0.0 1.0
45.06666666666666 -99.86666666666666 2992.0 0.0 0.0 1.0
44.53333333333333 -92.93333333333334 2992.0 0.0 0.0 1.0
44.53333333333333 -92.93333333333334 2992.0 0.0 0.0 1.0
44.53333333333333 -79.86666666666666 2992.0 0.0 0.0 1.0
44.53333333333333 -79.86666666666666 2992.0 0.0 0.0 1.0
33.69696666666667 -70.9091 2720.0 0.0 0.0 1.0
34.1818 -60.96966666666666 2720.0 0.0 0.0 1.0
44.0 -38.53333333333333 2992.0 0.0 0.0 1.0
45.06666666666666 -36.666666666666664 2992.0 0.0 0.0 1.0
