ply
format ascii 1.0
comment VCGLIB generated
element vertex 591
property float x
property float y
property float z
property float nx
property float ny
property float nz
element face 0
property list uchar int vertex_indices
end_header
-203.362 96.2319 2601.74 0.0 0.0 1.0
-160.228 123.58800000000001 1701.63 -0.9007108262481209 0.3729873218052792 0.2227116190322197
-160.5293333333333 122.536 1695.1933333333334 0.9754716906700082 -0.1659727287434622 0.14459610649960633
-146.351 113.99666666666667 1418.01 0.0 0.0 1.0
-145.46633333333332 -192.54700000000003 1393.79 0.6960223097152396 -0.6960223097152951 0.17636861613464316
-202.43500000000003 -352.6956666666667 2601.74 0.0 0.0 1.0
-203.5943333333333 -343.4203333333333 2601.74 0.0 0.0 1.0
-200.11599999999999 -292.8693333333333 2601.74 0.0 0.0 1.0
-202.66666666666666 -268.98533333333336 2601.74 0.0 0.0 1.0
-154.578 -95.70550000000001 1558.3400000000001 -0.1722889450221665 0.47149923862403204 0.8648728157365724
-154.24966666666668 -91.2871 1633.4866666666667 -0.616448922254425 0.48438006390665833 0.6207790910953264
-156.03466666666668 -89.76956666666666 1588.676666666667 -0.7763652624973438 0.621055623510483 0.10745646417705897
-167.13366666666664 -58.45416666666667 1777.43 0.48126698620506064 0.8021116436750949 0.35355197506156816
-199.88433333333333 -78.1449 2601.74 0.0 0.0 1.0
-203.13066666666668 -68.86956666666667 2601.74 0.0 0.0 1.0
-204.29 -65.85506666666667 2601.74 0.0 0.0 1.0
-147.30933333333334 114.66333333333334 1416.8933333333334 -0.12120456972877794 0.8487517890769716 0.5147133695713584
-143.01366666666664 123.57600000000001 1314.22 -0.9770489134203827 0.19269811189970842 0.09079018919650372
-147.14866666666668 152.13266666666667 1400.3166666666668 0.8684820469316854 0.043447336216217956 0.4938129839656557
-144.922 161.7446666666667 1398.13 0.0 0.0 1.0
-142.25400000000002 151.6 1322.9766666666667 -0.8518618139914094 0.4725620940770507 0.22586836233695512
-203.59433333333334 355.0146666666667 2601.74 0.0 0.0 1.0
-147.573 -209.47633333333332 1460.7066666666667 0.7044940650057727 -0.7044940650057945 0.0858849506214767
-145.46633333333332 -192.54700000000003 1393.79 0.6960223097152396 -0.6960223097152951 0.17636861613464316
-201.27533333333335 -260.4056666666667 2601.74 0.0 0.0 1.0
-202.43466666666666 -244.17399999999998 2601.74 0.0 0.0 1.0
-204.75366666666665 -234.89833333333334 2601.74 0.0 0.0 1.0
-157.06699999999998 -122.63633333333333 1643.9633333333331 0.00036051131339897023 -0.9928841083533446 0.11908407706732642
-156.03466666666668 -89.76956666666666 1588.676666666667 -0.7763652624973439 0.621055623510483 0.10745646417705883
-157.04666666666665 -78.9728 1656.0933333333332 0.08745932127708789 0.43729660638543805 0.8950544928469609
-156.62966666666668 -62.264633333333336 1679.33 -0.3295094761546146 -0.9414706084211643 0.07110976447291933
-201.73900000000003 92.75363333333333 2601.74 0.0 0.0 1.0
-201.50699999999998 114.087 2601.74 0.0 0.0 1.0
-143.50333333333333 122.75166666666667 1326.8566666666668 0.5134322950559034 -0.8558564520360377 0.06242605146822514
-143.01666666666665 125.18700000000001 1319.0466666666669 0.47822465821661947 0.6261845061543969 0.6157874150433504
-145.91866666666667 156.63566666666668 1398.13 0.0 0.0 1.0
-204.05766666666668 381.21733333333333 2601.74 0.0 0.0 1.0
-147.573 -209.47633333333332 1460.7066666666667 0.7044940650058187 -0.7044940650057397 0.08588495062154933
-153.96 -256.83866666666665 1798.823333333333 -0.07823807490242252 0.9962303993228601 0.03746725371010668
-145.17899999999997 -198.65933333333336 1434.0966666666666 0.6607546799348046 0.7200023024260086 0.2121318869135428
-203.5943333333333 -343.4203333333333 2601.74 0.0 0.0 1.0
-156.47299999999998 -196.691 1583.0766666666668 -0.8777622786356821 0.3795858644835997 0.2923148194815547
-156.47299999999998 -196.691 1583.0766666666666 -0.8777622786356817 0.3795858644835995 0.2923148194815547
-157.06699999999998 -122.63633333333333 1643.9633333333331 0.0003605113133980234 -0.9928841083533443 0.11908407706732671
-157.26666666666668 -82.73316666666666 1657.62 0.0 0.0 1.0
-157.759 -63.69853333333333 1677.7600000000002 0.7740030360464101 0.6288477837907069 -0.07395785970710801
-148.686 -2.3114133333333333 1443.1000000000001 0.9440447039032495 0.20969496311397984 0.2545734068532156
-142.668 11.195383333333332 1479.9733333333334 0.21491905412819715 0.2844547952438702 0.934288643640395
-202.8983333333333 27.826066666666666 2601.74 0.0 0.0 1.0
-169.28099999999998 39.5514 2021.76 0.7071238016549849 0.707088682502487 -0.0012345889594896292
-202.66633333333334 112.92766666666667 2601.74 0.0 0.0 1.0
-144.06966666666665 119.82033333333334 1353.86 -0.9801027234000574 0.08906660368720569 0.17738599632275526
-208.46366666666665 284.5216666666667 2601.74 0.0 0.0 1.0
-206.60866666666666 301.449 2601.74 0.0 0.0 1.0
-142.25400000000002 151.6 1322.9766666666667 -0.8518618139914027 0.4725620940770607 0.22586836233695967
-204.05766666666668 381.21733333333333 2601.74 0.0 0.0 1.0
-205.21766666666667 -369.6233333333333 2601.74 0.0 0.0 1.0
-205.21766666666667 -369.6233333333333 2601.74 0.0 0.0 1.0
-205.913 -359.88366666666667 2601.74 0.0 0.0 1.0
-145.61166666666665 -192.24866666666665 1391.6333333333332 -0.1406911707904455 -0.9881022550908155 -0.06212831839072144
-203.5943333333333 -343.4203333333333 2601.74 0.0 0.0 1.0
-161.47766666666666 -192.01833333333335 1554.3133333333335 0.8033914771039192 -0.11877895653832493 0.5834840991839018
-159.34266666666667 -187.4706666666667 1639.45 0.0 0.0 1.0
-205.44933333333333 -267.13033333333334 2601.74 0.0 0.0 1.0
-205.44933333333333 -240.69566666666665 2601.74 0.0 0.0 1.0
-207.07233333333332 -155.826 2601.74 0.0 0.0 1.0
-204.75366666666665 -71.65216666666667 2601.74 0.0 0.0 1.0
-205.681 -58.66663333333333 2601.74 0.0 0.0 1.0
-151.56433333333334 -31.56463333333333 1526.53 0.0 0.0 1.0
-153.197 -26.394566666666663 1526.53 0.0 0.0 1.0
-203.5943333333333 -33.39133333333333 2601.74 0.0 0.0 1.0
-203.82600000000002 -27.362333333333336 2601.74 0.0 0.0 1.0
-204.98566666666667 -14.1449 2601.74 0.0 0.0 1.0
-204.98566666666667 -11.826066666666668 2601.74 0.0 0.0 1.0
-204.98566666666667 -11.826066666666668 2601.74 0.0 0.0 1.0
-170.773 0.6339566666666666 1789.8366666666668 0.5177387653398478 0.07395617403115079 0.8523362336467013
-203.13033333333337 72.11593333333333 2601.74 0.0 0.0 1.0
-201.73933333333335 82.78263333333332 2601.74 0.0 0.0 1.0
-160.52933333333334 122.536 1695.1933333333334 0.9754716906700079 -0.16597272874346206 0.14459610649960622
-160.22799999999998 123.58800000000001 1701.63 -0.9007108262481208 0.37298732180527944 0.22271161903221995
-150.008 -213.9766666666667 1476.4133333333332 0.8496035245644339 -0.5208908105251523 -0.08274427205638685
-205.913 -359.88366666666667 2601.74 0.0 0.0 1.0
-204.98533333333333 -242.78266666666664 2601.74 0.0 0.0 1.0
-208.92733333333334 -211.71033333333332 2601.74 0.0 0.0 1.0
-207.53599999999997 -176.46366666666665 2601.74 0.0 0.0 1.0
-159.48866666666666 -80.07506666666666 1639.46 -0.8892432033115553 0.4443442156011359 0.10864963610622423
-205.681 -58.66663333333333 2601.74 0.0 0.0 1.0
-203.82600000000002 -27.362333333333336 2601.74 0.0 0.0 1.0
-202.8983333333333 27.826066666666666 2601.74 0.0 0.0 1.0
-160.07533333333333 34.49836666666666 1826.25 -0.7833434297149372 -0.6201282026255442 -0.0425920583072853
-206.37666666666667 73.27536666666667 2601.74 0.0 0.0 1.0
-206.84033333333332 99.2464 2601.74 0.0 0.0 1.0
-160.89333333333335 89.98103333333334 1671.5166666666664 -0.9988837675089413 -0.0011771852172414294 0.04722111013209786
-144.06966666666665 119.82033333333334 1353.86 -0.9801027234000572 0.08906660368720566 0.17738599632275528
-147.35533333333333 126.44766666666665 1404.6899999999998 -7.340591741281733e-27 -9.615199915039819e-27 1.0
-206.60866666666666 301.449 2601.74 0.0 0.0 1.0
-144.28833333333333 170.794 1361.0333333333333 -0.35170055696073604 0.2008533424276902 0.9143110264396537
-146.86799999999997 186.27166666666665 1410.22 0.7068627809682162 0.7070714181526768 -0.019875072665061635
-203.362 378.203 2601.74 0.0 0.0 1.0
-204.058 -345.971 2601.74 0.0 0.0 1.0
-204.75366666666665 -269.913 2601.74 0.0 0.0 1.0
-205.44933333333333 -267.13033333333334 2601.74 0.0 0.0 1.0
-205.44933333333333 -267.13033333333334 2601.74 0.0 0.0 1.0
-177.66133333333332 -194.79600000000002 1932.4033333333334 0.6327687749886464 -0.3166909615132105 0.7066190715620447
-157.596 -79.49136666666666 1636.4633333333334 0.061369722719489345 0.7979046767670034 0.5996514687105142
-157.23166666666668 -76.21130000000001 1634.97 0.0 0.0 1.0
-167.13366666666664 -58.45416666666667 1777.43 0.4812669862050604 0.802111643675095 0.353551975061568
-204.98566666666667 -11.826066666666668 2601.74 0.0 0.0 1.0
-204.98533333333333 29.44926666666667 2601.74 0.0 0.0 1.0
-208.0 127.07233333333333 2601.74 0.0 0.0 1.0
-160.89333333333335 89.98103333333334 1671.5166666666664 -0.9988837675089413 -0.0011771852172414294 0.04722111013209786
-146.572 186.60366666666667 1414.66 0.0 0.0 1.0
-205.21766666666667 -369.6233333333333 2601.74 0.0 0.0 1.0
-145.99433333333332 -191.34099999999998 1384.17 -0.0003386223448876812 0.9905767721525498 0.13695818269363455
-159.34266666666667 -187.4706666666667 1639.45 0.0 0.0 1.0
-159.34266666666667 -187.4706666666667 1639.45 0.0 0.0 1.0
-205.44933333333333 -240.69566666666665 2601.74 0.0 0.0 1.0
-204.75366666666665 -234.89833333333334 2601.74 0.0 0.0 1.0
-205.68133333333333 -9.507240000000001 2601.74 0.0 0.0 1.0
-150.456 0.7804433333333334 1447.756666666667 0.9576311801073732 0.1276375129821114 0.25816891401929304
-169.28099999999998 39.5514 2021.76 0.7071238016549849 0.707088682502487 -0.0012345889594896292
-208.0 127.07233333333333 2601.74 0.0 0.0 1.0
-160.89333333333335 89.98103333333334 1671.5166666666664 -0.9988837675089413 -0.0011771852172414294 0.04722111013209786
-160.674 124.47666666666667 1688.8266666666666 -0.9849474850398834 0.058027614260248966 0.16282274932229904
-147.30933333333334 114.66333333333334 1416.8933333333334 -0.12120456972877794 0.8487517890769716 0.5147133695713584
-144.98733333333334 119.21233333333335 1386.2866666666666 -0.7871752730307701 0.5435160339259997 0.29145395930452594
-211.47833333333332 259.2463333333333 2601.74 0.0 0.0 1.0
-207.30433333333335 373.5653333333333 2601.74 0.0 0.0 1.0
-177.66133333333332 -194.79600000000002 1932.4033333333334 0.6327687749886405 -0.3166909615131934 0.7066190715620577
-206.14466666666667 -168.57966666666667 2601.74 0.0 0.0 1.0
-207.07233333333332 -155.826 2601.74 0.0 0.0 1.0
-155.48633333333336 -90.1995 1556.9833333333333 -0.4948883991932407 -0.3646322372319489 0.7887514208641245
-158.09133333333332 -82.47683333333333 1578.9166666666667 -0.7508587926720285 -0.6506618595101219 -0.113358802242853
-159.48866666666666 -80.07506666666666 1639.46 -0.8892432033115553 0.44434421560113624 0.10864963610622426
-207.07233333333332 -73.50723333333333 2601.74 0.0 0.0 1.0
-207.53633333333335 -70.029 2601.74 0.0 0.0 1.0
-206.84033333333332 -60.28983333333334 2601.74 0.0 0.0 1.0
-185.36533333333333 20.86769666666667 1920.1233333333332 -0.7966448668835903 0.5006694650288385 0.3386547546628623
-206.84033333333332 99.2464 2601.74 0.0 0.0 1.0
-207.768 102.72466666666666 2601.74 0.0 0.0 1.0
-143.50333333333333 122.75166666666667 1326.8566666666668 0.5134322950559033 -0.8558564520360378 0.06242605146822505
-211.71 277.1016666666667 2601.74 0.0 0.0 1.0
-205.913 -359.8836666666666 2601.74 0.0 0.0 1.0
-213.33333333333334 -282.43466666666666 2601.74 0.0 0.0 1.0
-210.319 -222.37666666666667 2601.74 0.0 0.0 1.0
-207.53599999999997 -176.46366666666665 2601.74 0.0 0.0 1.0
-157.454 -91.164 1585.8700000000001 -0.7794434197156628 0.6235180042258915 0.0607721471408937
-165.4466666666667 -58.600233333333335 1772.176666666667 -0.5143692267026041 -0.8572820445043356 -0.022176446781023415
-208.69566666666665 -62.14490000000001 2601.74 0.0 0.0 1.0
-207.768 99.7103 2601.74 0.0 0.0 1.0
-208.0 100.63776666666666 2601.74 0.0 0.0 1.0
-208.0 100.63776666666666 2601.74 0.0 0.0 1.0
-162.07399999999998 100.00383333333333 1662.2299999999998 0.9981925847326119 0.0553849108052695 -0.02332542475326476
-211.71 244.638 2601.74 0.0 0.0 1.0
-144.28833333333333 170.794 1361.0333333333333 -0.35170055696073604 0.20085334242769018 0.9143110264396537
-160.357 -200.332 1592.92 0.28011862429274226 0.7619862911472531 0.5838753706297218
-162.51966666666667 -74.87483333333334 1624.6499999999999 -0.7831129224234918 -0.6194564605685974 0.05484381636213959
-206.14499999999998 -28.289866666666665 2601.74 0.0 0.0 1.0
-162.07399999999998 100.00383333333333 1662.2300000000002 0.9981925847326119 0.055384910805269603 -0.023325424753264802
-162.07399999999998 100.00383333333333 1662.2299999999998 0.9981925847326119 0.05538491080526951 -0.023325424753264844
-143.0136666666667 123.57600000000001 1314.22 -0.9770489134203827 0.19269811189970854 0.09079018919650356
-150.16533333333334 137.07033333333334 1405.7933333333333 0.7805894969401697 0.38977504840554084 0.48862608291734816
-148.93566666666666 147.107 1403.6066666666666 0.8726003448655455 -0.02497246179074862 0.487796078594981
-158.938 -202.50266666666667 1584.47 -0.836473488718362 0.5377934512347236 0.10531052407227583
-153.82933333333332 -182.14033333333336 1592.9033333333334 0.1841105392803014 -0.21037672900642762 0.960127565075846
-208.92733333333334 -211.71033333333332 2601.74 0.0 0.0 1.0
-210.087 -195.01466666666667 2601.74 0.0 0.0 1.0
-210.31866666666664 -176.23166666666665 2601.74 0.0 0.0 1.0
-207.07233333333332 -155.826 2601.74 0.0 0.0 1.0
-161.69899999999998 -87.60846666666667 1657.62 0.0 0.0 1.0
-163.838 -66.1362 1656.1066666666666 -0.9421952512115144 0.3005387220062731 0.14813704860468754
-210.55066666666667 -74.43476666666666 2601.74 0.0 0.0 1.0
-211.24633333333335 -49.3913 2601.74 0.0 0.0 1.0
-153.197 -26.394566666666663 1526.53 0.0 0.0 1.0
-152.83 4.12895 1448.9166666666667 -0.8948945617494364 -0.392985133808715 0.2114861885718092
-176.6786666666667 32.427 1721.3533333333332 0.41677800214254307 0.7490669548945127 0.5149706729660751
-209.391 73.73913333333333 2601.74 0.0 0.0 1.0
-161.97633333333332 89.1517 1642.4566666666667 -0.9964341451452302 -0.06234000538382459 0.056856997084257475
-162.814 122.92166666666667 1665.4099999999999 -0.9897305189644056 0.14126000499770758 0.021888600194985303
-162.482 124.37833333333333 1637.9566666666667 0.48361099911550687 0.8061409201986284 0.3409651277122191
-147.35533333333333 126.44766666666665 1404.6899999999998 -7.340591741281737e-27 -9.615199915039826e-27 1.0
-150.16533333333334 137.07033333333334 1405.7933333333333 0.78058949694017 0.38977504840554 0.4886260829173482
-148.62933333333334 160.74733333333333 1402.5033333333333 0.8498256532423889 -0.06543814163816165 0.5229858589962935
-169.12933333333334 -257.757 1786.5633333333333 -0.035590336076078775 0.9991125096627737 0.022528227035114198
-209.39133333333334 -292.86966666666666 2601.74 0.0 0.0 1.0
-210.087 -219.36233333333334 2601.74 0.0 0.0 1.0
-210.78266666666664 -192.232 2601.74 0.0 0.0 1.0
-157.712 -19.821666666666665 1513.6733333333332 0.8590613655374941 0.5117101840281498 -0.01289409953168321
-170.26766666666666 37.90026666666667 1786.28 -0.9942113794919145 0.1064826487103155 -0.014324050140242963
-209.85500000000002 99.24643333333334 2601.74 0.0 0.0 1.0
-161.97633333333332 89.1517 1642.4566666666667 -0.9964341451452301 -0.06234000538382502 0.056856997084257885
-162.34433333333334 92.89376666666668 1643.96 0.0 0.0 1.0
-144.77166666666668 115.31866666666667 1400.323333333333 -0.22656492375093226 0.963396163321202 0.14330445849212828
-211.24633333333335 273.3913333333333 2601.74 0.0 0.0 1.0
-151.352 159.12033333333332 1406.8999999999999 0.8681822623874765 -0.06685163437593636 0.49172189117124837
-150.36 173.521 1404.6899999999998 1.6859826601730118e-26 -3.739979281661518e-27 1.0
-150.36 173.521 1404.6899999999998 1.6859826601730098e-26 -3.7399792816615136e-27 1.0
-150.11933333333332 187.0 1402.5133333333333 -0.5630176479526547 -0.7855453226433706 0.2567677436263816
-208.46400000000003 360.34799999999996 2601.74 0.0 0.0 1.0
-209.85533333333333 369.85533333333336 2601.74 0.0 0.0 1.0
-210.78266666666664 -192.232 2601.74 0.0 0.0 1.0
-157.454 -91.164 1585.8700000000001 -0.7794434197156628 0.6235180042258915 0.060772147140893684
-211.24633333333335 -69.33333333333333 2601.74 0.0 0.0 1.0
-210.78266666666664 -63.30433333333334 2601.74 0.0 0.0 1.0
-211.24633333333335 -49.3913 2601.74 0.0 0.0 1.0
-207.76833333333335 -9.971006666666666 2601.74 0.0 0.0 1.0
-163.00633333333334 109.69866666666667 1645.4666666666665 -0.9989018819301452 -2.4509158856532122e-17 0.04685115021442071
-163.428 123.829 1636.4633333333334 0.857923076133022 -0.47672085521779184 0.19158606848847443
-211.47833333333332 259.2463333333333 2601.74 0.0 0.0 1.0
-206.60866666666666 301.449 2601.74 0.0 0.0 1.0
-150.36 173.521 1404.6899999999998 1.6859826601730098e-26 -3.7399792816615136e-27 1.0
-210.78266666666664 -192.232 2601.74 0.0 0.0 1.0
-161.69899999999998 -87.60846666666667 1657.62 0.0 0.0 1.0
-159.64066666666668 -80.07376666666666 1607.1633333333332 -0.37969897726232016 0.6040738505777569 0.7006593107310499
-212.17366666666666 -77.68116666666667 2601.74 0.0 0.0 1.0
-209.855 -60.98546666666667 2601.74 0.0 0.0 1.0
-156.1 -22.187466666666666 1508.5866666666668 -0.9984664466293778 -0.0008651548154061161 0.05535346838680485
-142.23833333333332 -15.217833333333333 1348.8533333333332 0.6278190269613022 0.7033997094535517 0.33327483872327157
-172.86833333333334 20.788966666666667 1793.4333333333334 -0.7027767555613309 -0.6721393255471352 0.2330956003354234
-212.40600000000003 100.406 2601.74 0.0 0.0 1.0
-208.0 127.07233333333333 2601.74 0.0 0.0 1.0
-162.784 98.75443333333334 1643.96 0.0 0.0 1.0
-163.00633333333334 104.42380000000001 1645.4666666666665 -0.9989018819301451 9.454080017943338e-16 0.04685115021441803
-163.07666666666668 112.08733333333333 1643.9633333333331 -0.9989051109449506 -0.00013414612025168578 0.046782062084462915
-211.71 244.638 2601.74 0.0 0.0 1.0
-150.16533333333334 137.07033333333334 1405.7933333333333 0.7805894969401701 0.3897750484055401 0.4886260829173482
-144.92600000000002 179.38666666666668 1385.22 -0.648416613332212 -0.6974309906802526 0.30519814677279095
-167.04600000000002 -214.63766666666666 1630.55 -0.5628669215513249 -0.8159716387031068 0.13179951993653544
-209.85500000000002 -301.6813333333334 2601.74 0.0 0.0 1.0
-212.63766666666666 -215.65233333333333 2601.74 0.0 0.0 1.0
-166.57433333333333 -106.519 1657.62 0.0 0.0 1.0
-209.15966666666668 -40.347833333333334 2601.74 0.0 0.0 1.0
-156.1 -22.187466666666666 1508.5866666666668 -0.9984664466293777 -0.0008651548154063007 0.055353468386804834
-173.10566666666668 33.049033333333334 1782.7233333333334 -0.5128389420958052 0.8205379995018662 0.25241555190504966
-173.10566666666668 33.049033333333334 1782.7233333333334 -0.5128389420958052 0.8205379995018662 0.2524155519050497
-163.28733333333335 113.24133333333333 1639.46 -0.9989096629514814 0.000136333387624475 0.046684758491019544
-163.4466666666667 119.08333333333333 1645.4666666666665 0.9942491106627521 0.03819350363851422 0.10004979873113791
-162.92533333333333 124.16866666666665 1640.9533333333331 0.5124136541664696 0.8541526463368115 -0.08863127991622
-152.722 111.98466666666667 1421.3833333333334 0.32086767810942485 0.647477294084165 0.6912431459263189
-150.847 138.80933333333334 1406.8966666666668 0.9203557273866715 0.05744584221404273 0.38684016115040337
-212.638 307.478 2601.74 0.0 0.0 1.0
-207.07233333333332 380.058 2601.74 0.0 0.0 1.0
-210.78300000000002 -375.6523333333333 2601.74 0.0 0.0 1.0
-211.24666666666667 -371.24666666666667 2601.74 0.0 0.0 1.0
-213.33366666666666 -369.1596666666667 2601.74 0.0 0.0 1.0
-214.95666666666668 -271.536 2601.74 0.0 0.0 1.0
-214.26133333333334 -250.43500000000003 2601.74 0.0 0.0 1.0
-210.319 -222.37666666666667 2601.74 0.0 0.0 1.0
-213.56533333333334 -189.913 2601.74 0.0 0.0 1.0
-164.51633333333334 -69.71990000000001 1660.6866666666665 -0.603170305697535 0.4522589816035625 0.6569987792101677
-230.633 -86.8644 2244.0499999999997 0.18089217989681805 0.5366367747117008 0.8241959665511599
-164.113 -63.2335 1650.0199999999998 -0.3093238732671637 -0.9374845010504704 0.15950408056582727
-172.13466666666667 -59.389199999999995 1758.29 -0.3873249433145137 -0.7746048601887923 0.49996669774927044
-212.40600000000003 100.406 2601.74 0.0 0.0 1.0
-212.40600000000003 100.406 2601.74 0.0 0.0 1.0
-163.6916666666667 96.14273333333334 1624.62 -0.9925239300778398 -0.10452932151459002 0.06300689776951902
-166.04399999999998 102.19923333333332 1633.4866666666667 -0.5071309917831333 0.7838524074895986 0.35832047170907744
-163.71900000000002 115.949 1636.4633333333334 -0.9918170895507066 -0.12408349347395876 -0.0300357707153245
-162.92533333333333 124.16866666666665 1640.9533333333336 0.5124136541664696 0.8541526463368115 -0.08863127991622
-163.97333333333333 119.09333333333335 1621.6899999999998 -0.9469707681799806 0.22294735651320166 0.23138893758430404
-145.84433333333334 115.822 1357.9633333333334 0.8103629616457978 -0.5747605970822425 0.11385133479373608
-214.95666666666668 226.78233333333333 2601.74 0.0 0.0 1.0
-212.638 368.6956666666667 2601.74 0.0 0.0 1.0
-165.477 -188.68933333333334 1617.33 -0.05811076505743946 0.9883114303680739 0.1409384815735244
-210.31866666666667 -176.23166666666665 2601.74 0.0 0.0 1.0
-155.48633333333336 -90.1995 1556.9833333333333 -0.4948883991932407 -0.3646322372319488 0.7887514208641246
-214.72466666666665 -135.884 2601.74 0.0 0.0 1.0
-165.821 -61.7597 1719.55 -0.08958342823989356 -0.9498234995100142 0.2996833815268007
-214.49300000000002 -63.768100000000004 2601.74 0.0 0.0 1.0
-186.61233333333334 -31.681 1932.4033333333334 -0.7313249404335184 -0.474368587258074 0.4900390544871806
-213.10133333333332 -50.7826 2601.74 0.0 0.0 1.0
-173.3983333333333 -4.3277 1800.6066666666666 -0.9009896146242674 -1.4274213046229963e-14 0.43384065547066253
-173.3983333333333 -4.3277 1800.6066666666666 -0.9009896146242634 -2.097607908820597e-14 0.4338406554706707
-212.40566666666666 75.36229999999999 2601.74 0.0 0.0 1.0
-163.70533333333333 102.4558 1630.5266666666666 -0.9989016009063176 -0.0001353475080893157 0.046856945993602336
-152.53633333333335 170.53933333333333 1408.0033333333333 0.8208978782933637 0.1375587148245285 0.554260113474962
-213.33366666666666 -369.1596666666667 2601.74 0.0 0.0 1.0
-161.02733333333336 -184.5666666666667 1640.9533333333331 0.4382299302457282 -0.21911496512286452 0.8717471882925864
-217.50733333333335 -237.913 2601.74 0.0 0.0 1.0
-214.72466666666665 -135.884 2601.74 0.0 0.0 1.0
-171.24833333333333 -57.662866666666666 1777.43 -0.09402323583901563 -0.9872687322959298 0.12829684857060292
-212.40566666666666 75.36229999999999 2601.74 0.0 0.0 1.0
-216.34766666666667 104.81166666666667 2601.74 0.0 0.0 1.0
-163.54033333333334 93.80196666666666 1621.6899999999998 -0.9918445370257085 -0.12399994547445925 0.029469100674923324
-163.9126666666667 100.87553333333334 1626.0966666666666 -0.9989108689778818 1.2554532083098788e-05 0.04665914358662353
-164.19966666666667 115.935 1626.12 -0.9694436079013098 -0.2422460801667033 0.03867722512226998
-163.428 123.829 1636.4633333333334 0.8579230761330217 -0.4767208552177918 0.19158606848847468
-214.95666666666668 226.78233333333333 2601.74 0.0 0.0 1.0
-154.33200000000002 131.15066666666667 1413.5466666666669 0.8407444034380086 0.07001572692213129 0.5368860643295115
-211.942 285.913 2601.74 0.0 0.0 1.0
-217.04366666666667 -257.3916666666667 2601.74 0.0 0.0 1.0
-214.0293333333333 -244.174 2601.74 0.0 0.0 1.0
-167.5343333333333 -74.22956666666667 1659.1599999999999 -0.7571008284712644 0.5676765689909963 0.32332900975126794
-215.42033333333333 -73.27536666666667 2601.74 0.0 0.0 1.0
-214.49300000000002 -63.768100000000004 2601.74 0.0 0.0 1.0
-214.49300000000002 -63.768100000000004 2601.74 0.0 0.0 1.0
-173.987 -4.161286666666666 1793.4133333333332 0.8740909837082946 0.1248591553073238 0.46944131000137546
-163.83033333333336 96.55556666666666 1621.6899999999998 0.985944893540961 0.15160867912732093 -0.0701959779030924
-212.638 307.478 2601.74 0.0 0.0 1.0
-147.47733333333335 174.141 1356.93 -0.7171275979131998 0.4095457688003796 0.5639151279837685
-150.11933333333332 187.0 1402.5133333333333 -0.5630176479526569 -0.7855453226433687 0.2567677436263825
-214.26133333333334 369.15933333333334 2601.74 0.0 0.0 1.0
-215.88433333333333 371.2463333333333 2601.74 0.0 0.0 1.0
-156.968 -255.72633333333332 1772.3433333333335 -0.12677202075657049 0.9915929308348707 0.02592902373031332
-158.938 -202.50266666666667 1584.47 -0.8364734887183619 0.5377934512347232 0.10531052407227638
-149.85233333333335 -197.3613333333333 1461.9033333333334 0.7651625107556123 0.09019235240965706 0.6374885659374446
-214.26066666666665 -291.94233333333335 2601.74 0.0 0.0 1.0
-216.34766666666667 -286.14500000000004 2601.74 0.0 0.0 1.0
-215.88400000000001 -283.82599999999996 2601.74 0.0 0.0 1.0
-216.81166666666664 -273.15933333333334 2601.74 0.0 0.0 1.0
-216.57966666666667 -259.0146666666667 2601.74 0.0 0.0 1.0
-214.95633333333333 -213.33366666666666 2601.74 0.0 0.0 1.0
-168.34133333333332 -63.44356666666667 1643.9633333333334 -0.11011043615642817 -0.989345160685246 0.09524623288154714
-215.42033333333333 -73.27536666666667 2601.74 0.0 0.0 1.0
-213.7973333333333 -67.94203333333333 2601.74 0.0 0.0 1.0
-161.543 -1.8310699999999993 2140.463333333333 0.6541600409368347 -0.6836652669144305 0.32353739143465177
-173.56933333333333 24.0904 1800.6266666666668 0.8274848299357519 0.5504757618914001 -0.11065844656546533
-216.34766666666664 69.5652 2601.74 0.0 0.0 1.0
-215.65199999999996 243.24666666666667 2601.74 0.0 0.0 1.0
-220.52166666666668 326.2606666666666 2601.74 0.0 0.0 1.0
-166.79466666666667 -207.63466666666667 1639.45 0.0 0.0 1.0
-166.79466666666667 -207.63466666666667 1639.45 0.0 0.0 1.0
-161.74833333333333 -189.196 1637.9566666666667 -0.6046109456766876 -2.1332253711382618e-15 0.7965209378088823
-215.88400000000001 -283.82599999999996 2601.74 0.0 0.0 1.0
-216.81166666666664 -273.15933333333334 2601.74 0.0 0.0 1.0
-213.56533333333334 -189.913 2601.74 0.0 0.0 1.0
-217.04333333333338 -170.435 2601.74 0.0 0.0 1.0
-218.43500000000003 -158.14466666666667 2601.74 0.0 0.0 1.0
-214.72466666666665 -135.884 2601.74 0.0 0.0 1.0
-188.072 -111.83953333333334 1953.5033333333333 -0.8497828041937975 -2.0412320124766864e-13 0.5271329867277573
-188.072 -111.83953333333334 1953.5033333333333 -0.8497828041937975 -2.0412320124766864e-13 0.5271329867277573
-161.04333333333332 -77.70126666666667 1570.6266666666668 -0.7518213222042983 -0.6514959461072453 -0.10157623582711622
-213.56533333333334 -49.3913 2601.74 0.0 0.0 1.0
-175.26833333333335 1.9248 1793.4133333333332 0.7885112853603751 0.11263455964584651 0.6046183993501317
-157.02466666666666 10.571126666666666 1447.75 -0.7839087118172114 -0.620591614912311 0.0187930582292906
-216.11599999999999 96.46376666666667 2601.74 0.0 0.0 1.0
-217.27533333333335 130.319 2601.74 0.0 0.0 1.0
-214.95633333333333 250.203 2601.74 0.0 0.0 1.0
-216.34799999999998 271.768 2601.74 0.0 0.0 1.0
-154.90233333333333 159.74733333333333 1412.4333333333334 0.8561333591831762 0.1223510668527951 0.5020616373850063
-217.739 -286.84066666666666 2601.74 0.0 0.0 1.0
-216.57933333333335 -210.55100000000002 2601.74 0.0 0.0 1.0
-217.971 -205.68133333333336 2601.74 0.0 0.0 1.0
-166.57433333333333 -106.519 1657.62 0.0 0.0 1.0
-207.38133333333334 -72.33443333333334 2035.42 0.8205427594967517 0.5703881738108223 0.03697175968507615
-174.03166666666667 -59.735166666666665 1709.7399999999998 0.46127538621731434 0.84567992608933 0.2684222060106292
-175.42533333333333 -52.31823333333333 1784.5066666666664 -0.5079860828583386 -0.7196239855692306 0.47338299400770295
-173.35299999999998 20.8233 1784.5199999999998 -0.278613899024486 0.8348401880265919 0.4747801130271762
-216.34766666666667 104.81166666666667 2601.74 0.0 0.0 1.0
-164.86566666666667 111.34133333333334 1605.7266666666667 -0.9989035130976394 -7.36574620239743e-17 0.046816359546571644
-164.466 119.50266666666668 1617.3066666666666 -0.7814064319559683 0.5575332090420517 -0.2802868332853229
-216.81133333333332 254.145 2601.74 0.0 0.0 1.0
-214.95633333333333 258.319 2601.74 0.0 0.0 1.0
-148.19666666666666 -190.16 1369.5433333333333 -0.5258090617585311 0.8409975217033154 0.1274676392716778
-159.23033333333333 -89.1886 1551.6299999999999 -0.7759515879191985 0.6268719156235428 0.07021918974286263
-214.021 -134.02700000000002 2579.69 -0.8943899410492085 0.44719497052460644 0.009126427969889984
-173.533 -5.44258 1797.01 -0.931658156106507 0.35831712036973207 -0.060182401166506055
-157.43200000000002 35.0288 1477.53 0.0 0.0 1.0
-217.73900000000003 92.7536 2601.74 0.0 0.0 1.0
-216.34766666666667 104.81166666666667 2601.74 0.0 0.0 1.0
-164.44166666666666 99.19233333333334 1608.6266666666668 -0.993642977889255 3.625141061913195e-16 0.11257722900912832
-164.86566666666667 111.34133333333334 1605.7266666666667 -0.9989035130976394 -4.5901886408345384e-17 0.046816359546571644
-165.219 113.24399999999999 1604.29 0.0 0.0 1.0
-165.39033333333333 118.16566666666667 1612.9466666666667 -0.998932820216894 0.00016617196408936626 0.04618650322768242
-165.15333333333334 118.62366666666667 1584.47 -0.8957966317355764 0.3445121179121162 0.2808198625149299
-217.50733333333335 228.17366666666666 2601.74 0.0 0.0 1.0
-154.33200000000002 131.15066666666667 1413.5466666666669 0.8407444034380086 0.07001572692213129 0.5368860643295115
-153.89833333333334 139.09799999999998 1412.4399999999998 0.8949953638316201 -0.047078798709760776 0.44358413568561195
-217.04333333333332 277.56533333333334 2601.74 0.0 0.0 1.0
-154.90233333333333 161.13433333333333 1412.4333333333334 0.9177767893109146 0.13116060494600812 0.37481016623398333
-155.28033333333335 170.82566666666665 1412.4333333333334 0.8922797803733898 1.4257935436897775e-16 0.4514828828835212
-155.28033333333335 170.82566666666665 1412.4333333333334 0.8922797803733898 -2.767441165666345e-16 0.4514828828835212
-215.88433333333333 371.2463333333333 2601.74 0.0 0.0 1.0
-152.46966666666665 -200.92100000000002 1399.2466666666667 0.7954038919480872 -0.6034478902851639 0.05642067337616778
-165.0773333333333 -189.71400000000003 1626.12 0.19519452640728044 -0.9771112686816655 -0.08457343244745273
-216.81166666666664 -273.15933333333334 2601.74 0.0 0.0 1.0
-217.50733333333332 -237.913 2601.74 0.0 0.0 1.0
-220.75366666666665 -233.50733333333332 2601.74 0.0 0.0 1.0
-217.971 -205.68133333333333 2601.74 0.0 0.0 1.0
-219.13066666666668 -204.75366666666665 2601.74 0.0 0.0 1.0
-166.57433333333333 -106.519 1657.62 0.0 0.0 1.0
-218.43500000000003 -158.14466666666667 2601.74 0.0 0.0 1.0
-173.69333333333336 -60.019000000000005 1717.9066666666665 -0.4468446871923409 -0.8192233822339691 0.35944801505797086
-176.033 -32.22023333333333 1789.8366666666668 2.964338567718241e-16 -0.7523431851954585 0.6587713804423748
-169.25300000000001 28.623966666666664 1804.2233333333334 0.26472434504090686 -0.6923709306859105 0.6712253835216521
-178.1626666666667 38.826966666666664 1516.28 -0.6161090371588837 -0.07637419224909607 0.7839493842649864
-220.058 113.62333333333333 2601.74 0.0 0.0 1.0
-165.591 117.56233333333334 1608.61 -0.9989318241146464 0.0001895581243598771 0.04620795211544036
-154.332 131.15066666666667 1413.5466666666669 0.8407444034380087 0.07001572692213137 0.5368860643295115
-218.66666666666666 331.362 2601.74 0.0 0.0 1.0
-167.72333333333333 -199.472 1559.6966666666667 0.620928711750559 -0.28830160156598056 0.7289236732733284
-218.43466666666666 -259.7103333333333 2601.74 0.0 0.0 1.0
-165.79533333333333 -73.64723333333335 1567.8766666666668 0.4143303352892093 0.8901390015600552 0.1896916739364158
-176.033 -32.22023333333333 1789.8366666666668 2.964338567718241e-16 -0.7523431851954585 0.6587713804423748
-175.245 -28.92363333333333 1763.4800000000002 -0.9977304103087132 0.05809609203668304 0.03404221548713191
-163.177 -8.251706666666665 1517.5 -0.9029488199395103 -0.23559583196656514 0.35941345624479354
-212.174 -5.56522 2601.74 0.0 0.0 1.0
-217.739 92.7536 2601.74 0.0 0.0 1.0
-217.9706666666667 103.65233333333333 2601.74 0.0 0.0 1.0
-165.571 115.28500000000001 1602.86 -0.9743858785759498 -0.21653019523910105 0.06071930649712047
-165.15333333333334 118.62366666666667 1584.47 -0.8957966317355767 0.3445121179121162 0.28081986251492963
-156.34166666666667 151.54733333333334 1415.7766666666666 0.8501299132428002 2.311181392264011e-16 0.526573005963835
-156.34166666666667 151.54733333333334 1415.7766666666666 0.8501299132427999 -2.9242954686194917e-16 0.5265730059638355
-220.29 -239.76800000000003 2601.74 0.0 0.0 1.0
-166.9523333333333 -80.36053333333332 1607.1633333333332 0.3244317965933477 0.25951979079048415 0.9096117235102437
-177.1096666666667 27.408966666666668 1777.43 -0.4405309890885976 -0.7342698645624727 0.5165077091854775
-215.884 74.43476666666668 2601.74 0.0 0.0 1.0
-220.058 112.0 2601.74 0.0 0.0 1.0
-220.29 114.55066666666666 2601.74 0.0 0.0 1.0
-165.571 115.28500000000001 1602.86 -0.9743858785759499 -0.21653019523910083 0.060719306497120415
-221.44933333333333 240.92766666666668 2601.74 0.0 0.0 1.0
-155.33933333333334 159.62366666666665 1413.5466666666669 0.8504495936781721 2.224650810520064e-16 0.5260565450715654
-155.591 161.38466666666667 1413.5466666666669 0.9308598531974469 7.242775347665595e-17 0.36537642740771853
-220.28966666666668 362.4346666666666 2601.74 0.0 0.0 1.0
-220.28966666666668 362.4346666666666 2601.74 0.0 0.0 1.0
-166.79466666666667 -207.63466666666667 1639.45 0.0 0.0 1.0
-167.64866666666666 -187.73866666666666 1604.2966666666664 -0.4467613113262069 0.8939436846617368 0.03562329793106528
-220.058 -284.98533333333336 2601.74 0.0 0.0 1.0
-220.058 -259.0146666666667 2601.74 0.0 0.0 1.0
-221.68133333333333 -258.319 2601.74 0.0 0.0 1.0
-219.13066666666668 -204.75366666666665 2601.74 0.0 0.0 1.0
-221.21766666666667 -160.69566666666665 2601.74 0.0 0.0 1.0
-166.99466666666666 -91.07466666666669 1634.97 0.0 0.0 1.0
-168.948 -59.40213333333333 1674.6299999999999 -0.2558700400378488 -0.558243032585619 0.789237124811448
-175.93666666666664 -55.339866666666666 1779.1899999999998 -0.5190684579698843 -0.7353235159627982 0.4357376077559461
-176.76099999999997 -8.578233333333335 1756.58 0.9503125975598149 0.05895353833733638 0.3056639449405594
-229.135 -15.828700000000003 2466.943333333333 -0.1814030947687967 -0.5148153294631891 0.8378890700790953
-156.514 112.8 1423.6333333333334 0.49962686996884914 0.29982858542582885 0.8126966286177624
-155.28033333333335 170.82566666666665 1412.4333333333334 0.8922797803733898 -1.8143848746309398e-16 0.4514828828835211
-223.53633333333332 342.95633333333336 2601.74 0.0 0.0 1.0
-168.14733333333334 -193.72666666666666 1590.0966666666666 -0.895941371938766 -0.42437535708791524 0.13112823626125028
-185.97633333333332 -202.80466666666666 1936.57 0.0 0.0 1.0
-218.89833333333334 -179.942 2601.74 0.0 0.0 1.0
-220.7536666666667 -166.0293333333333 2601.74 0.0 0.0 1.0
-175.9043333333333 -38.41023333333334 1766.93 -0.9853685506613891 0.10949054944022187 -0.1306163808668437
-176.033 -32.22023333333333 1789.8366666666668 2.964338567718241e-16 -0.7523431851954585 0.6587713804423748
-174.80899999999997 -18.82720666666667 1758.32 -0.9974434972439288 0.06295931615242527 0.0338022826953934
-165.884 95.6909 1572.0100000000002 -0.9993009629289197 -0.036741025638750195 0.0069052533875995714
-166.273 109.67933333333333 1581.6766666666665 -0.9622901217512505 -0.1373772262911849 0.23478760460574621
-222.84033333333332 365.21733333333333 2601.74 0.0 0.0 1.0
-169.4333333333333 -208.97433333333333 1615.8533333333335 -0.7583374036815573 0.5055582691210366 0.4115036071541251
-222.8406666666667 -218.4346666666667 2601.74 0.0 0.0 1.0
-220.75366666666665 -188.98566666666667 2601.74 0.0 0.0 1.0
-169.4416666666667 -70.70093333333332 1618.76 0.10665063418254095 0.4799401852753209 0.8707944997451192
-188.32766666666666 -7.391836666666667 1932.4199999999998 -0.9854674922713089 0.13267377463162347 0.10607304653631036
-223.07233333333332 112.69566666666667 2601.74 0.0 0.0 1.0
-221.44933333333336 116.17399999999999 2601.74 0.0 0.0 1.0
-166.056 105.63733333333334 1580.2833333333335 -0.9989136281423626 -7.467435279922674e-14 0.046600037676611854
-166.056 105.63733333333334 1580.2833333333335 -0.9989136281423643 -4.755990033373043e-14 0.046600037676573114
-170.53333333333333 115.65166666666669 1546.4233333333332 -0.04379849737210054 -0.9864895103292273 0.1578611340335164
-224.0 204.52166666666668 2601.74 0.0 0.0 1.0
-217.971 226.08666666666667 2601.74 0.0 0.0 1.0
-218.66666666666666 331.362 2601.74 0.0 0.0 1.0
-151.59699999999998 -201.17566666666667 1404.7299999999998 -0.6778925831324046 0.7351541166322204 -0.003173410275283665
-167.64866666666666 -187.73866666666663 1604.2966666666664 -0.4467613113262064 0.893943684661737 0.035623297931065154
-185.97633333333337 -202.80466666666666 1936.57 0.0 0.0 1.0
-222.8406666666667 -241.391 2601.74 0.0 0.0 1.0
-222.8406666666667 -218.4346666666667 2601.74 0.0 0.0 1.0
-222.60866666666666 114.08699999999999 2601.74 0.0 0.0 1.0
-165.78466666666665 115.41466666666668 1583.07 0.0 0.0 1.0
-224.232 272.2316666666666 2601.74 0.0 0.0 1.0
-157.60166666666666 153.55800000000002 1418.0166666666667 -0.009713453855375965 -0.8323033035675391 0.5542353829238622
-157.412 172.25099999999998 1416.8933333333334 0.6948260605273895 -0.3474130302637118 0.6296990805257491
-168.27033333333333 -188.803 1600.006666666667 -0.9888175285085048 0.14161971133363335 0.046730639585929545
-223.30433333333335 -284.5216666666667 2601.74 0.0 0.0 1.0
-185.97633333333337 -202.80466666666666 1936.57 0.0 0.0 1.0
-222.37666666666667 -204.058 2601.74 0.0 0.0 1.0
-222.37666666666667 -204.058 2601.74 0.0 0.0 1.0
-173.32533333333333 -55.8062 1768.6833333333334 0.4187077691102212 0.837383278438938 0.3513873205987911
-225.1593333333333 -55.4203 2601.74 0.0 0.0 1.0
-165.47833333333332 -5.2737066666666665 1517.5 0.08102026586583229 -0.8912249196549399 0.4462665785212645
-175.13366666666664 3.0396799999999993 1797.01 -0.8225893072388288 -0.5640695660209608 -0.07191909555374193
-228.40566666666666 29.217399999999998 2601.74 0.0 0.0 1.0
-177.1096666666667 27.408966666666668 1777.43 -0.44053098908859767 -0.7342698645624728 0.5165077091854775
-177.10966666666664 27.408966666666668 1777.43 -0.44053098908859767 -0.7342698645624728 0.5165077091854775
-217.48766666666666 73.44266666666665 2576.123333333333 -0.31599269206566094 0.9480235013767321 0.03741736760513184
-222.60866666666666 114.08699999999999 2601.74 0.0 0.0 1.0
-222.60866666666666 118.95633333333332 2601.74 0.0 0.0 1.0
-166.09966666666665 101.95736666666669 1573.3933333333334 0.9999924684609074 -1.1067694023208973e-13 0.003881110853977023
-157.982 131.52566666666667 1420.2666666666667 0.8882007969043054 0.11489506614809508 0.44485780666790775
-221.21733333333336 276.40566666666666 2601.74 0.0 0.0 1.0
-157.53833333333333 170.48166666666665 1416.8933333333334 0.8920715598398418 -2.4182085686715867e-17 0.4518941603129119
-157.97766666666666 171.62699999999998 1418.01 0.0 0.0 1.0
-223.07233333333332 374.26099999999997 2601.74 0.0 0.0 1.0
-171.12166666666667 -214.89233333333334 1620.2366666666667 -0.7259642557090344 0.5369658803021691 0.42970169050650003
-168.65633333333332 -192.22400000000002 1578.8999999999999 0.9494350275211794 0.22809629902702255 0.21574338202140228
-170.18533333333332 -192.797 1642.47 0.864085319197197 -0.06850447641928328 0.49866190736650234
-221.68133333333333 -258.319 2601.74 0.0 0.0 1.0
-222.8406666666667 -218.43466666666666 2601.74 0.0 0.0 1.0
-224.92766666666668 -189.44933333333333 2601.74 0.0 0.0 1.0
-174.8803333333333 -76.0221 1653.04 0.0 0.0 1.0
-164.01466666666667 42.591366666666666 1452.4333333333334 0.716603617507254 0.6919385639333825 -0.08775123427807661
-223.07233333333332 112.69566666666667 2601.74 0.0 0.0 1.0
-226.31866666666664 127.536 2601.74 0.0 0.0 1.0
-168.977 105.795 1626.0966666666666 -0.3996169071983647 0.7004601176913509 0.5913222057432246
-227.47833333333332 321.855 2601.74 0.0 0.0 1.0
-167.75266666666667 -191.84933333333333 1595.74 -0.6575270426022758 -0.5746114510659668 0.4873190623714296
-223.76833333333335 -282.20266666666663 2601.74 0.0 0.0 1.0
-223.76833333333335 -161.62333333333333 2601.74 0.0 0.0 1.0
-224.69566666666665 -52.6377 2601.74 0.0 0.0 1.0
-164.11766666666665 -6.208263333333334 1514.9433333333334 0.4235027923762059 -0.8430453696967145 0.3315416858895523
-173.28333333333333 79.85106666666667 1656.0933333333332 -0.6218562876890802 0.6220433684013876 0.47576969774189226
-173.4273333333333 86.28796666666666 1741.2233333333334 0.516106153085072 -0.3042232742559073 0.8006763629262096
-171.16466666666668 98.44596666666666 1636.4633333333334 0.5384118878967883 -0.8322020570365648 0.13248537744040428
-224.92766666666668 199.18833333333336 2601.74 0.0 0.0 1.0
-224.92766666666668 199.1883333333333 2601.74 0.0 0.0 1.0
-175.30066666666667 -232.02733333333333 1642.4566666666667 0.6322219650263684 -2.5461208710491226e-15 0.7747873172285396
-169.07033333333334 -196.57366666666667 1566.5133333333335 -0.901947025605022 0.41878039634614483 0.10542553124561174
-225.85500000000002 -253.681 2601.74 0.0 0.0 1.0
-223.76800000000003 -232.81166666666664 2601.74 0.0 0.0 1.0
-164.11766666666665 -6.208263333333334 1514.9433333333334 0.42350279237620636 -0.8430453696967143 0.33154168588955224
-228.40566666666666 29.217399999999998 2601.74 0.0 0.0 1.0
-226.78266666666664 108.98533333333334 2601.74 0.0 0.0 1.0
-224.92766666666668 199.1883333333333 2601.74 0.0 0.0 1.0
-159.30566666666667 154.42633333333333 1421.3833333333334 0.9104456189432123 0.08225224926577084 0.405368156664818
-169.4333333333333 -208.97433333333333 1615.8533333333335 -0.7583374036815572 0.5055582691210367 0.41150360715412515
-224.69566666666665 -282.6666666666667 2601.74 0.0 0.0 1.0
-222.8406666666667 -241.391 2601.74 0.0 0.0 1.0
-225.39133333333334 -221.681 2601.74 0.0 0.0 1.0
-225.85533333333333 -160.696 2601.74 0.0 0.0 1.0
-180.27699999999996 -55.59983333333333 1777.43 0.03398682939021695 -0.6458714723596868 0.7626892792087291
-226.78266666666664 -64.69566666666667 2601.74 0.0 0.0 1.0
-226.78266666666664 -61.68116666666666 2601.74 0.0 0.0 1.0
-225.1593333333333 -58.89856666666666 2601.74 0.0 0.0 1.0
-224.69566666666665 -52.6377 2601.74 0.0 0.0 1.0
-225.85533333333333 -45.2174 2601.74 0.0 0.0 1.0
-178.35866666666666 14.366106666666667 1768.6833333333334 -0.852797893286799 0.42641701516099295 -0.3015033704401785
-230.26099999999997 142.8406666666667 2601.74 0.0 0.0 1.0
-173.05700000000002 107.916 1618.76 0.43113076393611804 0.8622615278722303 0.26576553941266756
-158.54633333333334 174.42066666666665 1419.1333333333334 0.644848985285772 -0.32242449264290085 0.6929734718731145
-168.65633333333335 -192.22400000000002 1578.8999999999999 0.9494350275211793 0.2280962990270226 0.2157433820214023
-228.638 -156.75366666666665 2601.74 0.0 0.0 1.0
-176.05899999999997 -77.79006666666666 1653.04 0.0 0.0 1.0
-175.09766666666667 -82.11710000000001 1636.4633333333334 0.7794173199847146 -0.6236622255710776 0.059616018850435874
-168.76433333333333 -66.00363333333333 1583.0933333333332 0.9044338284940912 0.3826907920829128 0.18853967097264626
-225.85533333333333 -45.2174 2601.74 0.0 0.0 1.0
-189.99866666666665 -22.4096 1934.4866666666667 -0.9419395134719997 -7.54621164621238e-17 0.3357825977624997
-189.99866666666665 -22.4096 1934.4866666666667 -0.9419395134719998 2.5433900605357826e-16 0.3357825977624994
-173.28333333333333 79.85106666666667 1656.0933333333332 -0.6218562876890802 0.6220433684013875 0.4757696977418923
-172.53466666666665 117.88499999999999 1607.1633333333332 0.07044304394403277 0.7750373044167801 0.6279768740346021
-156.51399999999998 112.8 1423.6333333333332 0.4996268699688492 0.2998285854258288 0.8126966286177623
-228.40599999999998 267.3623333333333 2601.74 0.0 0.0 1.0
-161.3356666666667 151.48433333333332 1425.8933333333334 0.8089647933757803 0.0808964793375781 0.5822643065732825
-160.69833333333332 187.91600000000003 1423.6333333333334 0.9239345273910183 -0.15405647918423587 0.3501593784494319
-161.20933333333332 190.54999999999998 1428.1666666666667 0.6396849528209799 -0.7463668274247455 0.1836837501096404
-228.86966666666663 380.5216666666667 2601.74 0.0 0.0 1.0
-168.65633333333335 -192.22400000000002 1578.8999999999999 0.9494350275211793 0.22809629902702255 0.21574338202140228
-196.20933333333335 -208.61433333333335 1920.0199999999998 0.31456448342197957 0.5433588664869851 0.7783381835548362
-226.31866666666667 -236.058 2601.74 0.0 0.0 1.0
-228.17399999999998 -222.14466666666667 2601.74 0.0 0.0 1.0
-179.179 57.98933333333334 1673.0866666666668 0.24164645344385272 0.645512060727831 0.7245144380845125
-160.63866666666664 133.592 1424.7666666666667 0.8489537766065621 0.053384011588333884 0.5257638562056088
-160.191 153.273 1423.6333333333332 0.9079138012700317 0.09079138012700345 0.4092058830931386
-226.31866666666667 282.6666666666667 2601.74 0.0 0.0 1.0
-161.335 189.23 1425.8933333333334 0.9241318633063577 -0.15408938289703408 0.34962374247229067
-228.40566666666666 360.8113333333334 2601.74 0.0 0.0 1.0
-228.40566666666666 360.8113333333334 2601.74 0.0 0.0 1.0
-229.33333333333334 367.76800000000003 2601.74 0.0 0.0 1.0
-174.59133333333332 -197.6883333333333 1645.4666666666665 0.8494650105702924 -0.5096661229720296 0.13656368079205006
-229.1016666666667 -291.71 2601.74 0.0 0.0 1.0
-228.638 -156.75366666666665 2601.74 0.0 0.0 1.0
-177.45566666666664 -68.63506666666666 1666.8499999999997 3.0267295764682123e-26 -2.052845050066225e-26 1.0
-175.5956666666667 -57.658633333333334 1758.29 -0.3873264183001322 -0.7746078099885625 0.49996098486933366
-226.78266666666664 -64.69566666666667 2601.74 0.0 0.0 1.0
-183.83466666666666 14.159306666666666 1765.1899999999998 9.723447637260495e-28 7.1895406545007655e-28 1.0
-181.5043333333333 48.465166666666676 1653.0466666666664 0.6580692180996904 0.7478109151731008 0.08788480720597472
-174.37599999999998 81.10476666666666 1654.5666666666666 0.31089028944014 0.932776386011127 0.18241557398382147
-171.5086666666667 119.673 1604.2966666666664 -0.8824416370509006 0.2936922409913119 0.36748010120335467
-229.79733333333334 236.05766666666668 2601.74 0.0 0.0 1.0
-161.46266666666668 148.30966666666666 1425.8933333333334 0.7976247593292161 -0.10636858008555523 0.5937006556132417
-226.31866666666667 282.6666666666667 2601.74 0.0 0.0 1.0
-229.79733333333334 323.71000000000004 2601.74 0.0 0.0 1.0
-160.69833333333332 187.91599999999997 1423.6333333333332 0.9239345273910183 -0.15405647918423582 0.35015937844943174
-228.40566666666666 374.7246666666667 2601.74 0.0 0.0 1.0
-168.54433333333333 -217.97433333333333 1626.0966666666666 -0.5304075783765697 0.5671703563225816 0.630067923092121
-226.087 -285.21733333333333 2601.74 0.0 0.0 1.0
-229.79733333333334 -192.23166666666665 2601.74 0.0 0.0 1.0
-190.38233333333332 -19.04563333333333 1926.2133333333331 -0.99109438852627 0.09353795681433971 0.09477638770674143
-230.029 237.44899999999998 2601.74 0.0 0.0 1.0
-229.33366666666666 266.6666666666667 2601.74 0.0 0.0 1.0
-161.27266666666668 157.58899999999997 1424.7666666666667 0.9005032549004385 0.18057075953566198 0.3955857539326085
-229.33333333333334 367.76800000000003 2601.74 0.0 0.0 1.0
-227.47833333333332 -190.60866666666666 2601.74 0.0 0.0 1.0
-163.871 19.872766666666667 1447.75 -0.8252916040049793 -0.5502418577676776 0.1269947491798904
-174.69633333333334 66.76066666666667 1665.3266666666666 -0.42438841062111227 0.5278708932914187 0.7356947715909132
-173.05700000000002 107.916 1618.76 0.4311307639361181 0.8622615278722303 0.2657655394126674
-229.5653333333333 268.5216666666667 2601.74 0.0 0.0 1.0
-161.335 189.23000000000002 1425.8933333333334 0.9241318633063578 -0.15408938289703406 0.3496237424722907
-231.42033333333333 -377.73900000000003 2601.74 0.0 0.0 1.0
-229.1016666666667 -291.71 2601.74 0.0 0.0 1.0
-177.18499999999997 -89.62963333333333 1662.22 0.0 0.0 1.0
