ply
format ascii 1.0
comment VCGLIB generated
element vertex 731
property float x
property float y
property float z
property float nx
property float ny
property float nz
element face 0
property list uchar int vertex_indices
end_header
8.222223333333334 10.555566666666666 2493.33 0.0 0.0 1.0
10.054633333333333 24.153000000000002 2452.46 0.0 0.0 1.0
10.27322 29.180333333333333 2452.46 0.0 0.0 1.0
8.380953333333334 29.931933333333333 2442.45 0.0 0.0 1.0
10.840096666666668 30.460700000000003 2432.52 0.0 0.0 1.0
9.462380000000001 38.602133333333335 2412.9 0.0 0.0 1.0
10.34013 42.3401 2442.45 0.0 0.0 1.0
2.9250966666666667 55.18276666666666 2263.816666666667 0.7059350819368116 0.7060049764993789 0.05668009570368027
-2.00717 58.399033333333335 2144.8 0.0 0.0 1.0
6.1866666666666665 71.57333333333334 2393.6 0.0 0.0 1.0
12.97388 85.94273333333335 2425.9533333333334 -0.6717964870543455 0.671801672536415 0.3120448569656554
-9.605583333333334 64.77886666666666 1875.8733333333332 -0.7062062407961888 -0.7061734961571613 0.05090912281396235
3.6029466666666665 85.83696666666667 2380.9066666666663 6.126647928560764e-15 -0.9857799899101489 0.16804110060561647
6.0557799999999995 93.38646666666666 2384.06 0.0 0.0 1.0
8.106666666666667 102.08 2393.6 0.0 0.0 1.0
-5.908573333333333 99.5095 2104.5766666666664 0.2518334962279239 -0.9232474598638007 0.29016205477742935
19.360699999999998 -132.846 2732.42 0.0 0.0 1.0
19.360699999999998 -130.898 2732.42 0.0 0.0 1.0
18.386566666666667 -127.976 2732.42 0.0 0.0 1.0
19.84776666666667 -121.88699999999999 2732.42 0.0 0.0 1.0
19.117166666666666 -114.82466666666666 2732.42 0.0 0.0 1.0
19.117166666666666 -114.82466666666666 2732.42 0.0 0.0 1.0
23.127399999999998 -108.82266666666665 2616.953333333333 0.2841051164794504 0.9470238024701887 0.14976715375910427
18.1818 -104.606 2720.0 0.0 0.0 1.0
-5.441199999999999 -74.2997 1909.79 -0.3642870212264291 -0.9272766429870196 0.08633072185901573
-26.047833333333333 -53.31216666666666 1592.9033333333334 -0.570005246118776 5.6027533852074574e-14 0.8216410526483408
18.9091 -90.54546666666666 2720.0 0.0 0.0 1.0
18.424233333333333 -83.75756666666666 2720.0 0.0 0.0 1.0
28.266666666666666 -74.8 2992.0 0.0 0.0 1.0
5.992228000000001 -57.6889 2636.1566666666663 0.41950659294322024 0.8808381823102789 0.219404455427631
18.220200000000002 -49.8341 2707.69 0.0 0.0 1.0
-15.356126666666668 -29.22223333333333 1739.5433333333333 0.21643481042872872 -0.8938962433455785 0.3925627070511701
10.222233333333334 -36.111133333333335 2493.33 0.0 0.0 1.0
10.444466666666667 -30.111100000000004 2493.33 0.0 0.0 1.0
10.444466666666667 -30.111100000000004 2493.33 0.0 0.0 1.0
10.153419999999999 -26.889833333333332 2503.77 0.0 0.0 1.0
11.492333333333333 -17.071133333333336 2503.77 0.0 0.0 1.0
10.82287 -16.178533333333334 2503.77 0.0 0.0 1.0
11.555566666666666 -15.444466666666665 2493.33 0.0 0.0 1.0
10.59972 -11.938633333333334 2503.77 0.0 0.0 1.0
10.822866666666664 -5.02092 2503.77 0.0 0.0 1.0
10.822866666666664 -5.02092 2503.77 0.0 0.0 1.0
9.777786666666668 -0.5555566666666667 2493.33 0.0 0.0 1.0
12.675703333333333 -3.7706033333333338 2295.683333333333 0.7467080624827418 0.6605514861558659 -0.07809483696472083
9.617489999999998 9.508186666666667 2452.46 0.0 0.0 1.0
8.96175 23.9344 2452.46 0.0 0.0 1.0
5.15775 26.2277 2462.55 0.0 0.0 1.0
10.85281 34.14906666666667 2387.24 -0.3411922145125747 0.9382812661368475 0.056711007508592544
13.495256666666668 39.1903 2422.67 0.0 0.0 1.0
9.462380000000001 38.602133333333335 2412.9 0.0 0.0 1.0
9.617493333333334 42.513666666666666 2452.46 0.0 0.0 1.0
8.74317 47.541 2452.46 0.0 0.0 1.0
8.380936666666667 52.136066666666665 2442.45 0.0 0.0 1.0
2.9250966666666667 55.18276666666666 2263.816666666667 0.7059350819368116 0.7060049764993789 0.05668009570368027
2.835993333333333 55.80073333333333 2272.4366666666665 -0.7040373926242066 -0.704107099296735 0.09254481350592571
-2.00717 58.399033333333335 2144.8 0.0 0.0 1.0
5.760000000000001 69.22666666666666 2393.6 0.0 0.0 1.0
7.8933333333333335 81.81333333333333 2393.6 0.0 0.0 1.0
-2.0584623333333334 89.21713333333332 2202.7066666666665 -0.3110751497947931 0.4666090229275207 0.8279542686059246
8.106666666666667 93.33333333333333 2393.6 0.0 0.0 1.0
7.8933333333333335 95.68 2393.6 0.0 0.0 1.0
9.21255 106.40033333333334 2489.883333333333 1.3919074706871752e-15 0.7835231214459366 0.6213626301602116
7.4584866666666665 108.812 2292.72 0.0 0.0 1.0
18.6301 -133.57666666666668 2732.42 0.0 0.0 1.0
18.873633333333334 -129.924 2732.42 0.0 0.0 1.0
18.873633333333334 -128.70633333333333 2732.42 0.0 0.0 1.0
18.386566666666667 -122.13066666666667 2732.42 0.0 0.0 1.0
19.117166666666666 -114.82466666666666 2732.42 0.0 0.0 1.0
18.1818 -103.15166666666666 2720.0 0.0 0.0 1.0
18.143066666666666 -106.05799999999999 2732.42 0.0 0.0 1.0
17.454533333333334 -100.96966666666667 2720.0 0.0 0.0 1.0
18.1818 -92.24243333333334 2720.0 0.0 0.0 1.0
18.424233333333333 -89.81816666666667 2720.0 0.0 0.0 1.0
18.666666666666668 -89.57576666666667 2720.0 0.0 0.0 1.0
17.696966666666665 -84.96966666666667 2720.0 0.0 0.0 1.0
17.696966666666665 -83.0303 2720.0 0.0 0.0 1.0
28.266666666666666 -79.06666666666666 2992.0 0.0 0.0 1.0
17.9394 -72.36363333333333 2720.0 0.0 0.0 1.0
28.266666666666666 -74.8 2992.0 0.0 0.0 1.0
29.599999999999998 -73.46666666666665 2992.0 0.0 0.0 1.0
-28.025266666666663 -33.92793333333333 1472.6899999999998 0.881310164004782 0.4406831045831235 0.17056024201684317
15.565599999999998 -59.24583333333334 2707.69 0.0 0.0 1.0
-26.95266666666667 -34.816833333333335 1604.29 0.0 0.0 1.0
22.961100000000002 -53.9566 2783.2966666666666 0.00011298025502539659 0.9970614258672064 0.07660613737237637
28.26666666666667 -51.866666666666674 2992.0 0.0 0.0 1.0
10.0 -37.22223333333333 2493.33 0.0 0.0 1.0
10.222233333333334 -36.11113333333333 2493.33 0.0 0.0 1.0
10.222233333333334 -36.111133333333335 2493.33 0.0 0.0 1.0
10.222233333333334 -34.77779999999999 2493.33 0.0 0.0 1.0
10.153419999999999 -26.889833333333332 2503.77 0.0 0.0 1.0
10.222209999999999 -18.333333333333332 2493.33 0.0 0.0 1.0
10.822866666666664 -5.02092 2503.77 0.0 0.0 1.0
11.2692 -1.2273333333333334 2503.77 0.0 0.0 1.0
26.666666666666668 10.266666666666667 2992.0 0.0 0.0 1.0
9.18033 9.726753333333333 2452.46 0.0 0.0 1.0
8.524590000000002 24.371566666666666 2452.46 0.0 0.0 1.0
8.306013333333333 28.524600000000003 2452.46 0.0 0.0 1.0
7.510203333333334 29.496566666666666 2442.45 0.0 0.0 1.0
6.775956666666666 36.612033333333336 2452.46 0.0 0.0 1.0
10.742783333333335 45.263866666666665 2435.83 0.3582219435324219 -0.9313616320496171 0.06513485639600385
8.38095 44.7347 2442.45 0.0 0.0 1.0
3.7543699999999998 52.5068 2409.67 -0.2502831715920838 0.9385783811627796 0.23754779820420027
4.17671 55.15396666666666 2403.21 0.0 0.0 1.0
2.41814 55.11376666666666 2260.9633333333336 0.31574023242992766 -0.9471788635392129 0.05621659976964518
-2.00717 58.399033333333335 2144.8 0.0 0.0 1.0
6.746989999999999 71.004 2403.21 0.0 0.0 1.0
12.357726666666666 76.42276666666667 2432.52 0.0 0.0 1.0
-14.6574 64.42386666666665 1870.01 -0.7713049505853576 0.5896428588682404 0.23960378166507998
9.21255 106.40033333333334 2489.883333333333 1.3919074706871752e-15 0.7835231214459366 0.6213626301602116
-12.152923333333334 90.00606666666665 1951.3400000000001 -0.7485802671223166 -0.3638258315283704 0.5543088922142339
5.630813333333333 99.76086666666667 2384.06 0.0 0.0 1.0
0.6989633333333334 99.45769999999999 2275.31 0.9111669406707673 -0.21272540434521994 0.3528777530177233
9.515423333333333 128.39966666666666 2636.12 0.0 0.0 1.0
17.41246666666667 -136.01199999999997 2732.42 0.0 0.0 1.0
18.630100000000002 -133.57666666666668 2732.42 0.0 0.0 1.0
16.925433333333334 -117.26 2732.42 0.0 0.0 1.0
18.666633333333333 -107.27266666666667 2720.0 0.0 0.0 1.0
17.93936666666667 -106.06066666666668 2720.0 0.0 0.0 1.0
17.45453333333333 -100.96966666666667 2720.0 0.0 0.0 1.0
18.1818 -92.24243333333334 2720.0 0.0 0.0 1.0
16.2896 -53.21266666666667 2707.69 0.0 0.0 1.0
19.508733333333335 -52.2287 2770.41 -0.942717917074474 0.314111821313112 0.11232405146772667
17.013566666666666 -49.59276666666667 2707.69 0.0 0.0 1.0
20.674733333333332 -46.901666666666664 2761.8566666666666 0.9081529978602767 -0.39731886107349584 -0.1318933474920266
27.46666666666667 -51.333333333333336 2992.0 0.0 0.0 1.0
28.0 -50.53333333333334 2992.0 0.0 0.0 1.0
10.222209999999999 -18.77776666666667 2493.33 0.0 0.0 1.0
10.599703333333332 -16.624833333333335 2503.77 0.0 0.0 1.0
9.11111 -5.88889 2493.33 0.0 0.0 1.0
9.33333 -3.4444466666666664 2493.33 0.0 0.0 1.0
9.33333 -3.4444466666666664 2493.33 0.0 0.0 1.0
8.08743 23.715833333333332 2452.46 0.0 0.0 1.0
7.510203333333334 29.496566666666666 2442.45 0.0 0.0 1.0
6.775956666666666 36.17486666666667 2452.46 0.0 0.0 1.0
7.431693333333333 42.29506666666666 2452.46 0.0 0.0 1.0
7.510203333333334 47.34693333333333 2442.45 0.0 0.0 1.0
3.1999999999999997 54.50666666666666 2393.6 0.0 0.0 1.0
5.67604 63.72153333333333 2403.21 0.0 0.0 1.0
5.67604 63.72153333333333 2403.21 0.0 0.0 1.0
5.760000000000001 69.22666666666666 2393.6 0.0 0.0 1.0
9.247303333333333 70.86023333333334 2412.9 0.0 0.0 1.0
7.858609999999999 71.17236666666666 2416.1566666666663 0.0 -0.9871505285645814 0.1597930973311033
5.48337 90.84216666666667 2459.186666666667 -0.8625298099794875 0.15000424335123091 0.48326085489451115
-10.027645999999999 65.56176666666666 1677.7933333333333 0.6233385670564641 0.7200780399921305 0.3048551248397927
28.799999999999997 148.4 2992.0 0.0 0.0 1.0
16.681866666666668 -127.00166666666667 2732.42 0.0 0.0 1.0
16.681866666666668 -127.00166666666667 2732.42 0.0 0.0 1.0
17.655966666666668 -123.83533333333332 2732.42 0.0 0.0 1.0
16.242433333333334 -110.42399999999999 2720.0 0.0 0.0 1.0
17.45453333333333 -100.96966666666667 2720.0 0.0 0.0 1.0
-28.025266666666663 -33.92793333333333 1472.6899999999998 0.881310164004782 0.4406831045831235 0.17056024201684317
-23.317333333333334 -35.31766666666667 1422.5166666666667 -0.7089852900699082 -0.6931639439401837 0.12985994488593436
16.0 -51.030300000000004 2720.0 0.0 0.0 1.0
18.14306666666667 -39.5738 2732.42 0.0 0.0 1.0
16.0 -29.274099999999994 2659.56 0.0 0.0 1.0
10.153419999999999 -26.889833333333332 2503.77 0.0 0.0 1.0
8.591353333333332 -23.319366666666667 2503.77 0.0 0.0 1.0
8.591353333333332 -21.087866666666667 2503.77 0.0 0.0 1.0
8.814506666666666 -12.384900000000002 2503.77 0.0 0.0 1.0
9.707106666666666 -11.715466666666666 2503.77 0.0 0.0 1.0
10.0 -7.666666666666667 2493.33 0.0 0.0 1.0
9.26082 -0.11157600000000001 2503.77 0.0 0.0 1.0
26.666666666666668 10.266666666666667 2992.0 0.0 0.0 1.0
-18.333383333333334 1.145966666666667 1517.5 0.23888414568807242 0.10686841239088747 0.9651494741085088
8.08743 23.715833333333332 2452.46 0.0 0.0 1.0
7.510203333333334 29.496566666666666 2442.45 0.0 0.0 1.0
6.85714 49.7415 2442.45 0.0 0.0 1.0
3.1679100000000004 43.17333333333334 2368.3466666666664 -0.2112187903010672 -0.7181565788547981 0.6630518462920725
3.4133333333333327 54.93333333333334 2393.6 0.0 0.0 1.0
4.81928 59.43776666666667 2403.21 0.0 0.0 1.0
5.67604 61.79383333333333 2403.21 0.0 0.0 1.0
-9.729149999999999 63.813300000000005 1881.7733333333333 0.548156311178212 0.8077443279597046 0.2169648800253636
6.826666666666667 95.89333333333333 2393.6 0.0 0.0 1.0
3.2934966666666665 105.498 2384.06 0.0 0.0 1.0
26.210866666666664 114.53000000000002 2557.26 0.0 0.0 1.0
-2.0777556666666666 98.24043333333333 2122.04 -0.7035076152452004 -0.7035148912533201 -0.10071659782200813
-8.4288 86.94099999999999 1992.46 -0.10172254272958542 -0.2644755594587852 0.95901261866025
13.310956666666664 113.34100000000001 2429.2366666666667 0.603779012484147 0.6900872495097924 0.39903695586709476
4.1673100000000005 103.66033333333333 2221.8133333333335 -0.6696595419307229 -0.730484639026601 0.13397122843099862
24.53333333333333 148.4 2992.0 0.0 0.0 1.0
16.681900000000002 -136.01199999999997 2732.42 0.0 0.0 1.0
15.951333333333332 -129.924 2732.42 0.0 0.0 1.0
16.681900000000002 -128.95000000000002 2732.42 0.0 0.0 1.0
16.438366666666667 -118.234 2732.42 0.0 0.0 1.0
17.656000000000002 -116.04233333333333 2732.42 0.0 0.0 1.0
16.727266666666665 -85.2121 2720.0 0.0 0.0 1.0
16.0 -84.48483333333333 2720.0 0.0 0.0 1.0
15.272733333333333 -83.51513333333332 2720.0 0.0 0.0 1.0
16.48483333333333 -75.0303 2720.0 0.0 0.0 1.0
14.7879 -71.63636666666667 2720.0 0.0 0.0 1.0
-27.984633333333335 -34.30383333333333 1477.5533333333333 0.6726508536636457 0.7399159717065906 0.008073653389926789
15.515166666666667 -54.42423333333334 2720.0 0.0 0.0 1.0
15.757566666666667 -53.45453333333334 2720.0 0.0 0.0 1.0
15.324266666666666 -48.38613333333333 2707.69 0.0 0.0 1.0
15.324266666666666 -48.38613333333333 2707.69 0.0 0.0 1.0
8.591353333333332 -23.319366666666667 2503.77 0.0 0.0 1.0
8.591353333333332 -21.087866666666667 2503.77 0.0 0.0 1.0
8.591353333333332 -21.087866666666667 2503.77 0.0 0.0 1.0
8.8889 -15.0 2493.33 0.0 0.0 1.0
8.8889 -15.0 2493.33 0.0 0.0 1.0
8.814506666666666 -12.3849 2503.77 0.0 0.0 1.0
9.930266666666666 -5.913530000000001 2503.77 0.0 0.0 1.0
25.333333333333332 -4.933333333333334 2992.0 0.0 0.0 1.0
25.333333333333332 -4.933333333333334 2992.0 0.0 0.0 1.0
9.26082 -0.11157600000000001 2503.77 0.0 0.0 1.0
8.591353333333332 2.7893973333333335 2503.77 0.0 0.0 1.0
25.066666666666666 10.800000000000002 2992.0 0.0 0.0 1.0
25.866666666666664 11.866666666666667 2992.0 0.0 0.0 1.0
2.033093333333333 25.726799999999997 2396.8033333333333 -0.9170344919925051 -4.656486801890484e-15 0.3988078992397823
5.90164 20.65576666666667 2452.46 0.0 0.0 1.0
5.90164 20.65576666666667 2452.46 0.0 0.0 1.0
6.775956666666667 28.961766666666666 2452.46 0.0 0.0 1.0
7.9455800000000005 43.42856666666666 2442.45 0.0 0.0 1.0
6.12022 44.2623 2452.46 0.0 0.0 1.0
5.90164 45.13663333333333 2452.46 0.0 0.0 1.0
7.292516666666668 50.82993333333334 2442.45 0.0 0.0 1.0
4.81928 59.43776666666667 2403.21 0.0 0.0 1.0
5.67604 63.72153333333333 2403.21 0.0 0.0 1.0
3.8400000000000003 65.38666666666666 2393.6 0.0 0.0 1.0
4.266666666666667 67.52 2393.6 0.0 0.0 1.0
4.266666666666667 67.52 2393.6 0.0 0.0 1.0
3.534138333333333 72.07496666666667 2403.21 0.0 0.0 1.0
-6.06748 75.51859999999999 2094.7566666666667 0.5351870250401692 0.8410052537073733 0.07927806421230248
3.0810133333333334 97.42366666666665 2384.06 0.0 0.0 1.0
6.826666666666667 103.36000000000001 2393.6 0.0 0.0 1.0
6.349206666666667 109.31233333333334 2374.6 0.0 0.0 1.0
-5.908573333333333 99.5095 2104.576666666667 0.25183349622792395 -0.9232474598638006 0.29016205477742946
14.977200000000002 -134.064 2732.42 0.0 0.0 1.0
16.438366666666667 -127.976 2732.42 0.0 0.0 1.0
25.22453333333333 -116.298 2982.0733333333337 0.6858408865124906 -0.6858572981154226 0.24335579921089484
16.194833333333335 -108.98033333333335 2732.42 0.0 0.0 1.0
14.7879 -90.06060000000001 2720.0 0.0 0.0 1.0
15.030299999999999 -76.48483333333333 2720.0 0.0 0.0 1.0
-18.16914 -56.00516666666667 2063.5 -0.6648853580681068 -0.5983883574676223 0.4470557395603442
14.545466666666668 -69.2121 2720.0 0.0 0.0 1.0
14.117633333333332 -58.280499999999996 2707.69 0.0 0.0 1.0
14.600266666666665 -57.556533333333334 2707.69 0.0 0.0 1.0
15.272733333333335 -53.45453333333333 2720.0 0.0 0.0 1.0
14.8416 -48.1448 2707.69 0.0 0.0 1.0
12.936366666666666 -42.755766666666666 2687.44 -0.7060285361263062 -0.7060285361263196 0.0552033726385585
15.5844 -42.82826666666667 2590.48 0.0 0.0 1.0
12.795233333333334 -35.754866666666665 2683.41 0.0 0.0 1.0
28.0 -32.13333333333333 2992.0 0.0 0.0 1.0
24.657366666666665 -32.60176666666666 2914.2966666666666 0.6634650376985676 -0.1769241989564668 0.7269882884718645
10.824256666666665 -18.466833333333334 2640.0099999999998 -0.8062059394857576 0.5758639530825292 -0.13569337005929633
-7.98339 -16.51493333333333 2194.646666666667 6.448093686977443e-16 -0.893439230793045 0.4491840835113508
-21.395266666666668 -5.820713333333333 1467.8733333333332 0.17063388904876373 -0.9555397087552756 0.2404744079938177
9.735313333333334 -3.6177989999999998 2455.8233333333333 0.7021094245641277 -0.7021811631093148 -0.11825383762347513
25.333333333333332 -4.933333333333334 2992.0 0.0 0.0 1.0
4.718789999999999 17.8875 2462.55 0.0 0.0 1.0
5.464479999999999 30.928966666666668 2452.46 0.0 0.0 1.0
2.4710436666666666 46.475300000000004 2313.4066666666668 -0.17123197489654948 0.3852632124950842 0.9067810473708606
4.17671 59.651966666666674 2403.21 0.0 0.0 1.0
4.266666666666667 67.52 2393.6 0.0 0.0 1.0
4.266666666666667 70.93333333333334 2393.6 0.0 0.0 1.0
0.18912333333333345 65.15366666666667 2121.99 0.0 0.0 1.0
-23.285633333333333 70.60423333333334 1915.9199999999998 -0.5830366166273058 0.15901564205222118 0.7967322820461737
-1.8789200000000001 72.30306666666667 2137.2166666666667 -0.7781304167756559 -0.48962886180102505 0.39341661401112277
-12.034896666666667 83.01803333333334 2044.67 0.8853368637317178 0.4590616307202079 0.07376352023994678
1.9944666666666666 116.23533333333334 2486.4366666666665 -0.5376744232714267 -0.8065116349071404 0.24585604999501265
5.9995666666666665 127.49633333333334 2651.7466666666664 0.1729208263027091 0.950991599390154 0.2563461833539659
-7.398789999999999 97.78723333333333 2056.3766666666666 -0.498789484930877 -0.18675567562334747 0.846363614142797
14.977200000000002 -134.064 2732.42 0.0 0.0 1.0
15.464266666666667 -130.65466666666666 2732.42 0.0 0.0 1.0
15.464266666666667 -130.65466666666666 2732.42 0.0 0.0 1.0
14.977200000000002 -118.47766666666666 2732.42 0.0 0.0 1.0
13.516 -113.85066666666667 2732.42 0.0 0.0 1.0
14.7879 -110.18166666666666 2720.0 0.0 0.0 1.0
5.713259999999998 -99.80366666666664 2613.133333333333 0.5951265932495644 0.802129212360327 0.04912295477033708
14.060633333333334 -104.36366666666667 2720.0 0.0 0.0 1.0
13.333333333333334 -94.42423333333333 2720.0 0.0 0.0 1.0
14.7879 -90.06060000000001 2720.0 0.0 0.0 1.0
14.7879 -90.06060000000001 2720.0 0.0 0.0 1.0
14.7879 -71.63636666666667 2720.0 0.0 0.0 1.0
14.7879 -68.72726666666667 2720.0 0.0 0.0 1.0
14.545499999999999 -68.0 2720.0 0.0 0.0 1.0
14.545499999999999 -67.0303 2720.0 0.0 0.0 1.0
14.303066666666666 -66.06060000000001 2720.0 0.0 0.0 1.0
14.117633333333332 -58.280499999999996 2707.69 0.0 0.0 1.0
15.515166666666667 -54.42423333333334 2720.0 0.0 0.0 1.0
14.117633333333332 -48.1448 2707.69 0.0 0.0 1.0
18.14306666666667 -39.5738 2732.42 0.0 0.0 1.0
11.666666666666666 -31.785700000000002 2671.43 0.0 0.0 1.0
4.463520000000002 -20.028599999999997 2568.24 0.0 0.0 1.0
-8.641128 -9.570269999999999 2085.02 0.0 0.0 1.0
10.959406666666666 -4.360046666666666 2643.9 -0.9819259370726461 0.04091572377834235 0.1847900366678364
23.2 8.133333333333333 2992.0 0.0 0.0 1.0
0.011440000000000339 5.981080000000001 2528.4566666666665 -0.7445651098890701 0.2481895953909605 0.6196972824497042
4.590163333333333 29.8361 2452.46 0.0 0.0 1.0
5.464479999999999 31.803266666666673 2452.46 0.0 0.0 1.0
5.464479999999999 31.803266666666673 2452.46 0.0 0.0 1.0
4.3715866666666665 42.73223333333333 2452.46 0.0 0.0 1.0
4.390899999999999 60.080333333333336 2403.21 0.0 0.0 1.0
2.3466666666666667 71.78666666666668 2393.6 0.0 0.0 1.0
7.02875 75.05036666666666 2465.943333333333 0.6695340059941398 0.5021496571129213 0.5473298244009864
0.5312099999999998 81.06240000000001 2384.06 0.0 0.0 1.0
2.272133333333334 92.96996666666666 2761.936666666667 0.3830250653471551 -0.8965628320857456 0.22241152721519314
2.018595 88.28686666666665 2384.06 0.0 0.0 1.0
3.0810133333333334 97.42366666666665 2384.06 0.0 0.0 1.0
2.231078333333333 101.46066666666665 2384.06 0.0 0.0 1.0
2.6560466666666667 102.52333333333333 2384.06 0.0 0.0 1.0
3.2934966666666665 105.498 2384.06 0.0 0.0 1.0
4.236903333333333 114.95566666666667 2521.3566666666666 -0.2935994534003496 -0.9436591462612295 0.15266557123511268
-4.296483333333334 98.09043333333334 2194.626666666667 -0.6055914546500502 0.31722694334652196 0.7298123433252268
14.977200000000002 -134.064 2732.42 0.0 0.0 1.0
13.516 -121.157 2732.42 0.0 0.0 1.0
14.060633333333334 -104.36366666666667 2720.0 0.0 0.0 1.0
14.060633333333334 -104.36366666666667 2720.0 0.0 0.0 1.0
13.575766666666667 -101.21190000000001 2720.0 0.0 0.0 1.0
14.545466666666664 -82.78786666666667 2720.0 0.0 0.0 1.0
13.575766666666667 -81.57576666666667 2720.0 0.0 0.0 1.0
13.333333333333334 -79.15153333333332 2720.0 0.0 0.0 1.0
14.303033333333332 -77.69696666666665 2720.0 0.0 0.0 1.0
13.575766666666667 -71.87876666666666 2720.0 0.0 0.0 1.0
13.8182 -68.9697 2720.0 0.0 0.0 1.0
13.8182 -65.8182 2720.0 0.0 0.0 1.0
14.117633333333332 -58.280499999999996 2707.69 0.0 0.0 1.0
14.117633333333332 -48.1448 2707.69 0.0 0.0 1.0
11.360266666666666 -45.32136666666667 2683.41 0.0 0.0 1.0
12.795233333333334 -35.754866666666665 2683.41 0.0 0.0 1.0
4.463520000000002 -20.028599999999997 2568.24 0.0 0.0 1.0
11.091433333333333 -17.8171 2647.79 0.0 0.0 1.0
11.091433333333333 -15.6932 2647.79 0.0 0.0 1.0
11.091433333333335 -15.6932 2647.79 0.0 0.0 1.0
-18.891333333333332 -20.420823333333335 1744.6166666666666 -0.6934568256711714 -0.23608162187849954 0.6807224829115606
24.0 11.066666666666668 2992.0 0.0 0.0 1.0
24.0 11.066666666666668 2992.0 0.0 0.0 1.0
24.0 17.466666666666665 2992.0 0.0 0.0 1.0
24.0 17.466666666666665 2992.0 0.0 0.0 1.0
4.060356666666666 20.521266666666666 2462.55 0.0 0.0 1.0
6.120216666666667 21.967233333333336 2452.46 0.0 0.0 1.0
4.590163333333333 29.8361 2452.46 0.0 0.0 1.0
5.397286666666666 34.524366666666666 2325.42 4.284479822064813e-17 -0.8832479661019422 0.4689062063747741
0.6722800000000001 27.226866666666666 2514.29 0.0 0.0 1.0
6.639456666666668 41.034 2442.45 0.0 0.0 1.0
4.371583333333334 44.699466666666666 2452.46 0.0 0.0 1.0
5.2459 45.355199999999996 2452.46 0.0 0.0 1.0
2.89157 55.58233333333333 2403.21 0.0 0.0 1.0
2.89157 55.58233333333333 2403.21 0.0 0.0 1.0
2.89157 55.58233333333333 2403.21 0.0 0.0 1.0
3.8400000000000003 65.38666666666666 2393.6 0.0 0.0 1.0
5.973333333333334 82.66666666666667 2393.6 0.0 0.0 1.0
1.5936283333333332 86.58699999999999 2384.06 0.0 0.0 1.0
2.018595 88.28686666666665 2384.06 0.0 0.0 1.0
3.0810133333333334 97.42366666666665 2384.06 0.0 0.0 1.0
2.4435633333333335 104.01066666666667 2384.06 0.0 0.0 1.0
2.4435633333333335 105.073 2384.06 0.0 0.0 1.0
-11.645453333333334 74.01173333333332 1656.1233333333332 -0.25227239269011414 0.8990241920961083 0.35793035902580916
-12.14931 95.76536666666668 2080.193333333333 0.6066331884297904 -0.1516580241222399 0.7803819695603201
12.541866666666666 -136.256 2732.42 0.0 0.0 1.0
13.759533333333332 -129.43699999999998 2732.42 0.0 0.0 1.0
14.2466 -127.73233333333333 2732.42 0.0 0.0 1.0
13.516 -121.157 2732.42 0.0 0.0 1.0
13.272466666666666 -119.20866666666666 2732.42 0.0 0.0 1.0
14.003066666666667 -118.72133333333333 2732.42 0.0 0.0 1.0
12.8485 -106.788 2720.0 0.0 0.0 1.0
8.642263333333334 -100.53120000000001 2695.5333333333333 0.3658704628215355 0.9143808628924189 -0.17333909544840403
12.606066666666665 -99.99990000000001 2720.0 0.0 0.0 1.0
12.363633333333333 -92.96966666666667 2720.0 0.0 0.0 1.0
13.333333333333334 -79.15153333333333 2720.0 0.0 0.0 1.0
13.333333333333334 -79.15153333333332 2720.0 0.0 0.0 1.0
12.187033333333334 -70.34689999999999 2707.69 0.0 0.0 1.0
13.8182 -68.9697 2720.0 0.0 0.0 1.0
13.8182 -66.30303333333333 2720.0 0.0 0.0 1.0
-28.246733333333328 -33.779666666666664 1477.5533333333333 -0.5537387635105345 -0.830556958907474 -0.05956945354955619
-15.356126666666668 -29.22223333333333 1739.5433333333333 0.21643481042872872 -0.8938962433455785 0.3925627070511701
12.795233333333334 -39.3423 2683.41 0.0 0.0 1.0
11.666666666666666 -31.785700000000002 2671.43 0.0 0.0 1.0
11.091433333333333 -17.8171 2647.79 0.0 0.0 1.0
9.322012 -10.324706666666666 2791.9266666666667 0.6109068212915751 -0.6109061332162459 0.5035737801933278
3.1069933333333335 -13.961689999999999 2679.4166666666665 0.5360287714440399 -0.737040669696517 0.411636013241678
22.933333333333334 5.466666666666666 2992.0 0.0 0.0 1.0
22.133333333333336 7.333333333333333 2992.0 0.0 0.0 1.0
4.13793 13.678166666666668 2579.31 0.0 0.0 1.0
3.84088 21.39916666666667 2462.55 0.0 0.0 1.0
4.06036 22.2771 2462.55 0.0 0.0 1.0
3.9344300000000003 27.868866666666666 2452.46 0.0 0.0 1.0
3.9344300000000003 27.868866666666666 2452.46 0.0 0.0 1.0
3.7158499999999997 28.306033333333335 2452.46 0.0 0.0 1.0
4.590163333333333 29.8361 2452.46 0.0 0.0 1.0
3.9344300000000003 36.393433333333334 2452.46 0.0 0.0 1.0
3.9344300000000003 36.393433333333334 2452.46 0.0 0.0 1.0
3.9344300000000003 36.39343333333333 2452.46 0.0 0.0 1.0
3.4972700000000003 42.07646666666667 2452.46 0.0 0.0 1.0
3.934426666666667 43.82513333333333 2452.46 0.0 0.0 1.0
-9.286123333333334 33.09883333333333 2191.96 0.8866243066463322 -0.459733580140932 -0.05042196103596271
-6.9651700000000005 41.49256666666667 2232.84 0.0 0.0 1.0
2.67738 58.7952 2403.21 0.0 0.0 1.0
-11.028806666666668 52.47973333333334 2114.5066666666667 0.7848090152977497 -0.6195940285017281 -0.013343513494445802
6.895566666666667 72.15813333333334 2928.56 0.44502951200706126 0.3135423181778586 0.8388324911175123
2.3466666666666667 67.52 2393.6 0.0 0.0 1.0
-10.962083333333332 59.861799999999995 1889.7133333333334 0.6585685804459696 0.5225739411413333 0.5414830568811871
1.5936283333333332 86.58699999999999 2384.06 0.0 0.0 1.0
-5.182143333333333 80.00873333333334 2047.0166666666667 -0.39373266846893024 0.9186762223265182 -0.031758216452017506
12.541866666666666 -136.256 2732.42 0.0 0.0 1.0
14.2466 -131.14166666666668 2732.42 0.0 0.0 1.0
13.272466666666666 -128.2193333333333 2732.42 0.0 0.0 1.0
13.272466666666666 -120.42633333333333 2732.42 0.0 0.0 1.0
12.785400000000001 -113.36366666666667 2732.42 0.0 0.0 1.0
12.785400000000001 -113.36366666666667 2732.42 0.0 0.0 1.0
12.785400000000001 -113.36366666666667 2732.42 0.0 0.0 1.0
12.363633333333333 -93.93936666666666 2720.0 0.0 0.0 1.0
11.8788 -92.24239999999999 2720.0 0.0 0.0 1.0
12.1212 -88.1212 2720.0 0.0 0.0 1.0
12.1212 -88.1212 2720.0 0.0 0.0 1.0
11.8788 -74.54543333333334 2720.0 0.0 0.0 1.0
12.606066666666665 -72.60603333333334 2720.0 0.0 0.0 1.0
12.187033333333334 -70.34689999999999 2707.69 0.0 0.0 1.0
12.187033333333334 -69.3816 2707.69 0.0 0.0 1.0
11.463033333333334 -68.17496666666666 2707.69 0.0 0.0 1.0
-28.058633333333333 -37.58626666666667 1618.7666666666667 -0.7381204008025996 0.5799639028248809 0.34470298133196053
13.393666666666668 -56.59123333333334 2707.69 0.0 0.0 1.0
21.333333333333332 -49.199999999999996 2992.0 0.0 0.0 1.0
-3.241845333333334 -46.11763333333334 2346.67 0.0 0.0 1.0
21.333333333333332 -49.199999999999996 2992.0 0.0 0.0 1.0
21.599999999999998 -37.46666666666667 2992.0 0.0 0.0 1.0
11.666666666666666 -31.785700000000002 2671.43 0.0 0.0 1.0
12.105833333333331 -30.50423333333333 2663.5166666666664 0.7581962827636199 0.6498847040193534 0.05280405557441941
14.933333333333332 -21.2 2992.0 0.0 0.0 1.0
6.8356433333333335 -9.154196666666666 2736.596666666667 -0.1804658054352554 0.7940496427200984 0.5804457407585043
8.551923333333333 -4.56707 2628.4133333333334 -0.9872493842862792 -0.08974936269129281 0.131467505958202
-36.226366666666664 7.0894900000000005 1605.7333333333333 0.362428191795486 -0.3624281917953563 0.8586568648673362
8.267826666666666 9.432310000000001 2613.1 0.0 0.0 1.0
8.267826666666666 9.432310000000001 2613.1 0.0 0.0 1.0
-9.480773333333333 22.782533333333333 2191.96 0.865250154907668 0.43261432869324656 -0.2533515581983823
7.371516666666667 7.942973333333334 2507.2766666666666 0.9619013717486882 -1.556947860527103e-16 0.2733966916917464
6.19276 21.991500000000002 2479.5699999999997 -0.7225613414630726 0.6623524311690699 0.1979756670591297
3.6214 23.3745 2462.55 0.0 0.0 1.0
-24.695309999999996 22.818160000000002 1566.4966666666667 -0.5299100404608516 -0.37852449318483505 0.7588903458853212
3.7158499999999997 28.306033333333332 2452.46 0.0 0.0 1.0
3.934426666666667 30.273233333333334 2452.46 0.0 0.0 1.0
3.06011 41.6393 2452.46 0.0 0.0 1.0
3.06011 43.169399999999996 2452.46 0.0 0.0 1.0
19.031499999999998 70.94793333333332 2987.036666666667 0.9432866249624021 0.2620240624895564 0.20384732974338776
2.249 57.72423333333333 2403.21 0.0 0.0 1.0
0.0 58.98666666666667 2393.6 0.0 0.0 1.0
2.3466666666666667 67.52 2393.6 0.0 0.0 1.0
10.01168 73.61876666666667 2469.3366666666666 0.3926099017211697 -0.8973979391006017 0.2013315771767709
0.8533333333333334 74.56 2393.6 0.0 0.0 1.0
0.8533333333333334 74.56 2393.6 0.0 0.0 1.0
0.7436933333333333 86.587 2384.06 0.0 0.0 1.0
19.200000000000003 110.26666666666665 2992.0 0.0 0.0 1.0
12.482433333333333 107.39499999999998 2640.0099999999998 -0.7333573580183063 -0.05500115157812691 0.6776148306859064
-1.7566733333333329 96.63296666666668 2304.5 0.5944184211098829 -0.5943894446089344 0.5416344974082767
1.5936266666666665 99.54836666666665 2384.06 0.0 0.0 1.0
1.5936266666666665 100.39833333333333 2384.06 0.0 0.0 1.0
-33.559333333333335 -69.30313333333334 1541.0033333333333 -0.47424954673596503 -0.877365418420079 -0.0729197502827022
12.298333333333332 -125.29666666666667 2732.42 0.0 0.0 1.0
0.9351066666666673 -94.87166666666667 2416.1566666666663 0.39169240654891724 -0.49614573871010953 0.7748654493598985
11.393949999999998 -108.485 2720.0 0.0 0.0 1.0
12.363633333333333 -92.96966666666667 2720.0 0.0 0.0 1.0
11.393933333333335 -91.0303 2720.0 0.0 0.0 1.0
11.636366666666667 -88.3636 2720.0 0.0 0.0 1.0
11.393933333333335 -74.78786666666667 2720.0 0.0 0.0 1.0
11.393933333333335 -73.09089999999999 2720.0 0.0 0.0 1.0
21.333333333333332 -49.199999999999996 2992.0 0.0 0.0 1.0
9.621556666666667 -20.759433333333334 2632.2666666666664 -0.8128566611188044 0.5806144897170031 0.04637739541472021
6.88889 -11.2222 2493.33 0.0 0.0 1.0
7.953216666666666 -10.643276666666667 2624.56 0.0 0.0 1.0
8.03493 13.857366666666666 2613.1 0.0 0.0 1.0
8.03493 13.857366666666666 2613.1 0.0 0.0 1.0
8.03493 13.857366666666666 2613.1 0.0 0.0 1.0
7.04185 16.9697 2590.48 0.0 0.0 1.0
7.04185 16.9697 2590.48 0.0 0.0 1.0
5.7471266666666665 19.6552 2579.31 0.0 0.0 1.0
3.84088 21.399166666666662 2462.55 0.0 0.0 1.0
2.7434833333333333 25.569266666666667 2462.55 0.0 0.0 1.0
2.7434833333333337 25.569266666666664 2462.55 0.0 0.0 1.0
-2.7733333333333334 32.10666666666666 2393.6 0.0 0.0 1.0
-2.7733333333333334 32.10666666666666 2393.6 0.0 0.0 1.0
19.733333333333334 48.13333333333333 2992.0 0.0 0.0 1.0
-10.251 47.850833333333334 2109.523333333333 0.8037278561547003 -0.04871088396314824 0.5929998170526684
-6.9651700000000005 41.49256666666667 2232.84 0.0 0.0 1.0
0.535475 52.583666666666666 2403.21 0.0 0.0 1.0
0.5312100000000001 85.94953333333332 2384.06 0.0 0.0 1.0
19.200000000000003 110.26666666666665 2992.0 0.0 0.0 1.0
4.986438 90.94850000000001 2432.52 0.0 0.0 1.0
5.48337 90.84216666666667 2459.186666666667 -0.8625298099794876 0.15000424335123091 0.483260854894511
0.53121 104.01100000000001 2384.06 0.0 0.0 1.0
0.6400000000000001 106.77333333333335 2393.6 0.0 0.0 1.0
-5.908573333333333 99.5095 2104.5766666666664 0.25183349622792395 -0.9232474598638006 0.29016205477742935
11.324203333333335 -136.256 2732.42 0.0 0.0 1.0
10.837136666666666 -135.52533333333335 2732.42 0.0 0.0 1.0
-32.905100000000004 -55.477133333333335 1425.99 0.8621144084970115 -0.14757859480988736 0.4847466400252685
15.516733333333335 -126.65966666666668 2740.773333333333 0.31438472810114326 0.9433426951788249 0.10614519390683931
10.83714 -123.83533333333332 2732.42 0.0 0.0 1.0
16.000466666666664 -102.95459999999999 2740.773333333333 0.6903234408765091 -0.6372316556801834 0.34262131278644814
10.42425 -101.21233333333333 2720.0 0.0 0.0 1.0
10.666666666666666 -100.00016666666666 2720.0 0.0 0.0 1.0
11.151533333333333 -88.60603333333334 2720.0 0.0 0.0 1.0
11.151533333333333 -88.60603333333334 2720.0 0.0 0.0 1.0
8.084453333333334 -81.44793333333332 2707.69 0.0 0.0 1.0
12.363633333333333 -79.39396666666666 2720.0 0.0 0.0 1.0
10.739053333333333 -68.17496666666666 2707.69 0.0 0.0 1.0
9.207773333333334 -51.77873333333333 2683.41 0.0 0.0 1.0
9.207773333333334 -51.77873333333333 2683.41 0.0 0.0 1.0
18.133333333333333 -53.46666666666667 2992.0 0.0 0.0 1.0
-15.9262 -32.134499999999996 2054.013333333334 -0.2995968669930557 0.5991937339861112 0.7424342303798545
5.665323333333333 -33.971 2235.6266666666666 0.38660178181731925 -0.38660178181732396 0.8373040813177397
19.83416666666667 -40.06366666666667 2987.036666666667 -0.5925331327088055 -0.7900441769450753 0.15727264580170158
7.017543333333333 -22.807033333333333 2624.56 0.0 0.0 1.0
7.485379999999999 -12.51463333333333 2624.56 0.0 0.0 1.0
7.953216666666666 -10.643276666666665 2624.56 0.0 0.0 1.0
6.63755 -5.24017 2613.1 0.0 0.0 1.0
9.322012 -10.324706666666666 2791.9266666666667 0.6109068212915753 -0.6109061332162457 0.5035737801933278
7.953216666666666 -6.900586666666666 2624.56 0.0 0.0 1.0
6.63755 1.513823333333333 2613.1 0.0 0.0 1.0
6.870446666666666 4.308583333333334 2613.1 0.0 0.0 1.0
21.866666666666664 8.666666666666666 2992.0 0.0 0.0 1.0
8.267826666666666 9.43231 2613.1 0.0 0.0 1.0
7.04185 16.9697 2590.48 0.0 0.0 1.0
2.8612300000000004 20.028599999999997 2568.24 0.0 0.0 1.0
5.7471266666666665 19.6552 2579.31 0.0 0.0 1.0
3.29581 20.7684 2465.9433333333336 0.44694744701089406 -0.8938134457398749 -0.036544545763433675
6.4367833333333335 20.574733333333334 2579.31 0.0 0.0 1.0
2.7434833333333337 25.569266666666664 2462.55 0.0 0.0 1.0
2.4043733333333335 35.300533333333334 2452.46 0.0 0.0 1.0
1.7486333333333333 37.26776666666667 2452.46 0.0 0.0 1.0
1.96721 39.23496666666666 2452.46 0.0 0.0 1.0
2.40437 41.8579 2452.46 0.0 0.0 1.0
1.96721 42.29506666666666 2452.46 0.0 0.0 1.0
2.40437 42.73223333333334 2452.46 0.0 0.0 1.0
18.933333333333334 62.53333333333334 2992.0 0.0 0.0 1.0
0.10709499999999998 51.7269 2403.21 0.0 0.0 1.0
0.535475 52.583666666666666 2403.21 0.0 0.0 1.0
-0.64 70.72000000000001 2393.6 0.0 0.0 1.0
1.0666666666666667 71.78666666666668 2393.6 0.0 0.0 1.0
-0.9561766666666666 78.72506666666666 2384.06 0.0 0.0 1.0
-0.318725 86.16203333333334 2384.06 0.0 0.0 1.0
-2.231078333333333 93.3865 2384.06 0.0 0.0 1.0
-12.697883333333332 95.1035 2157.7 0.86266324871003 0.3178311628434598 0.3934405561843252
-0.318725 104.64833333333333 2384.06 0.0 0.0 1.0
-0.2150483333333333 108.128 2400.0066666666667 0.3159588694281962 -0.9487206417130498 -0.009956747322039475
18.133333333333333 148.93333333333334 2992.0 0.0 0.0 1.0
18.133333333333333 148.93333333333334 2992.0 0.0 0.0 1.0
10.106539999999999 -118.72133333333333 2732.42 0.0 0.0 1.0
-14.380843333333331 -104.927 2486.4366666666665 -0.3748726285558555 -1.9196389107166858e-14 0.9270763249914343
1.0762333333333334 -102.24233333333332 2683.41 0.0 0.0 1.0
9.696966666666667 -98.7879 2720.0 0.0 0.0 1.0
9.696966666666667 -92.72726666666667 2720.0 0.0 0.0 1.0
10.666666666666666 -89.09090000000002 2720.0 0.0 0.0 1.0
9.696966666666667 -74.06063333333334 2720.0 0.0 0.0 1.0
11.22172 -68.89896666666667 2707.69 0.0 0.0 1.0
10.739053333333333 -66.48566666666667 2707.69 0.0 0.0 1.0
-27.618966666666665 -34.383633333333336 1405.8566666666666 -0.6116660239671379 -0.7671392949638555 0.19329246557119453
7.619049999999999 -48.452400000000004 2671.43 0.0 0.0 1.0
6.783626666666667 -22.5731 2624.56 0.0 0.0 1.0
-38.44793333333334 -13.929689999999999 1558.3933333333334 0.26263140248457256 -0.912968228980064 0.31227193165891765
7.48538 -12.514633333333334 2624.56 0.0 0.0 1.0
16.49423333333333 -9.41169 2740.773333333333 -0.27399531781170644 0.7828475745682816 0.5586378440544651
6.404653333333333 -9.898106666666669 2613.1 0.0 0.0 1.0
6.404653333333333 -8.966516666666665 2613.1 0.0 0.0 1.0
6.404653333333333 -7.802033333333334 2613.1 0.0 0.0 1.0
6.63755 1.5138233333333335 2613.1 0.0 0.0 1.0
6.870446666666666 10.5968 2613.1 0.0 0.0 1.0
6.105106666666667 15.862633333333333 2489.883333333333 0.27777641030058514 0.9027582295733896 0.3284324052496046
2.3045266666666664 27.325066666666668 2462.55 0.0 0.0 1.0
18.13333333333333 40.13333333333333 2992.0 0.0 0.0 1.0
1.7486333333333333 35.7377 2452.46 0.0 0.0 1.0
19.2 44.93333333333334 2992.0 0.0 0.0 1.0
19.733333333333334 48.133333333333326 2992.0 0.0 0.0 1.0
18.933333333333334 62.53333333333334 2992.0 0.0 0.0 1.0
-0.8533333333333334 57.49333333333334 2393.6 0.0 0.0 1.0
-0.8533333333333334 57.49333333333334 2393.6 0.0 0.0 1.0
-1.28 58.77333333333333 2393.6 0.0 0.0 1.0
21.315566666666665 90.5899 2805.096666666667 -0.5123668697545121 0.6313122025490381 0.5821727352690482
-1.80611 77.2377 2384.06 0.0 0.0 1.0
-0.7436916666666668 77.66266666666667 2384.06 0.0 0.0 1.0
15.200000000000001 96.66666666666667 2992.0 0.0 0.0 1.0
4.007726666666667 88.69626666666666 2568.27 -0.7071132364702716 -0.7070916654738073 0.003499632268560725
-1.8061116666666666 83.8247 2384.06 0.0 0.0 1.0
-0.10624166666666664 86.79950000000001 2384.06 0.0 0.0 1.0
-12.590323333333332 76.20729999999999 1990.25 -0.8500592444382364 0.03541497067755413 0.5254950625809934
-2.656045 89.98673333333333 2384.06 0.0 0.0 1.0
-1.3305600000000002 97.30543333333333 2286.9333333333334 0.8710856693724028 -0.48391922388410535 -0.08385667158573507
-6.5743920000000005 92.04863333333333 2080.193333333333 -0.5728983921621993 0.14322434023601566 0.807015626008521
-0.318725 104.64833333333333 2384.06 0.0 0.0 1.0
-0.008709999999999773 105.40233333333333 2307.46 0.6578310941290463 2.1006695004348217e-15 0.7531654875238122
-0.008709999999999773 105.40233333333333 2307.46 0.6578310941290421 -1.598943695351238e-14 0.7531654875238161
9.515423333333333 128.39966666666666 2636.12 0.0 0.0 1.0
9.61948 -136.74266666666665 2732.42 0.0 0.0 1.0
9.61948 -136.74266666666665 2732.42 0.0 0.0 1.0
-33.65546666666666 -73.89503333333333 1556.9833333333333 -0.06258679180859655 0.9700201748909137 0.2348270721099012
15.043700000000001 -128.52033333333333 2770.41 -0.00011108011549733286 0.998928714079396 0.04627539139642292
9.61948 -121.64366666666668 2732.42 0.0 0.0 1.0
9.37595 -121.15666666666668 2732.42 0.0 0.0 1.0
10.10654 -118.72133333333333 2732.42 0.0 0.0 1.0
10.10654 -118.72133333333333 2732.42 0.0 0.0 1.0
9.45456 -109.697 2720.0 0.0 0.0 1.0
8.727276666666667 -102.90899999999999 2720.0 0.0 0.0 1.0
9.9394 -102.42433333333332 2720.0 0.0 0.0 1.0
9.696966666666667 -93.45453333333334 2720.0 0.0 0.0 1.0
9.696966666666667 -93.45453333333334 2720.0 0.0 0.0 1.0
9.696966666666667 -92.72726666666667 2720.0 0.0 0.0 1.0
-15.9736 -63.7509 2047.0166666666667 0.7169721096121123 0.6964755649460729 -0.029542875137771055
14.328266666666666 -96.4038 2749.1666666666665 0.5237765398940909 -0.4834936378509215 0.7013501539275911
9.212123333333333 -76.48483333333333 2720.0 0.0 0.0 1.0
9.45455 -74.54546666666666 2720.0 0.0 0.0 1.0
9.45455 -74.54546666666666 2720.0 0.0 0.0 1.0
9.696966666666667 -74.06063333333334 2720.0 0.0 0.0 1.0
-14.647633333333332 -37.61396666666666 2054.013333333334 0.28295923344789115 -0.565918466895782 0.7743838589697681
9.207773333333334 -51.77873333333333 2683.41 0.0 0.0 1.0
16.631466666666668 -39.850966666666665 2914.2966666666666 -0.949662946741302 0.2532437228548861 0.18441232177168698
-18.62535 -29.809366666666666 2165.5099999999998 -0.24584460778502704 -0.5377827603410131 0.8064428879362919
21.599999999999998 -37.46666666666667 2992.0 0.0 0.0 1.0
5.847953333333333 -24.21053333333333 2624.56 0.0 0.0 1.0
6.081873333333333 -23.7427 2624.56 0.0 0.0 1.0
6.404653333333333 -9.898106666666669 2613.1 0.0 0.0 1.0
6.404653333333333 -7.802033333333333 2613.1 0.0 0.0 1.0
6.63755 -5.24017 2613.1 0.0 0.0 1.0
6.63755 1.5138233333333335 2613.1 0.0 0.0 1.0
6.171756666666667 5.705963333333333 2613.1 0.0 0.0 1.0
4.271286666666668 21.818166666666666 2590.48 0.0 0.0 1.0
4.271286666666668 21.818166666666666 2590.48 0.0 0.0 1.0
18.13333333333333 40.13333333333333 2992.0 0.0 0.0 1.0
11.111133333333333 33.6667 2493.33 0.0 0.0 1.0
0.10709499999999998 51.7269 2403.21 0.0 0.0 1.0
-1.4933333333333334 56.21333333333333 2393.6 0.0 0.0 1.0
-0.8533333333333334 57.49333333333334 2393.6 0.0 0.0 1.0
-0.5397936666666666 55.7283 2409.67 0.9494447885083549 -0.20345204923056692 0.23908546011459567
3.5341383333333334 72.07496666666667 2403.21 0.0 0.0 1.0
-15.503866666666667 60.86376666666666 1988.04 0.0 0.0 1.0
-1.5936283333333332 79.3625 2384.06 0.0 0.0 1.0
6.210233333333334 104.70773333333334 2486.4366666666665 -0.8078436954365504 0.32314234550924154 0.49291742541951583
14.666666666666666 120.66666666666667 2992.0 0.0 0.0 1.0
-10.558786666666666 91.24579999999999 2194.626666666667 -0.5062256560223847 0.7593492809805543 0.4088083348698036
-0.9561766666666666 106.13566666666667 2384.06 0.0 0.0 1.0
-3.3862400000000004 111.00566666666667 2374.6 0.0 0.0 1.0
1.9944666666666666 116.23533333333334 2486.4366666666665 -0.5376744232714267 -0.8065116349071404 0.24585604999501265
9.61948 -136.74266666666665 2732.42 0.0 0.0 1.0
16.8 -144.4 2992.0 0.0 0.0 1.0
15.043700000000001 -128.52033333333333 2770.41 -0.00011108011549732745 0.998928714079396 0.04627539139642292
8.888886666666666 -121.88733333333334 2732.42 0.0 0.0 1.0
-25.861766666666668 -59.23226666666667 1598.6066666666666 -0.037183866403668026 0.7013864666450902 0.7118106380817794
-6.590566666666668 -72.9361 2089.9466666666667 -0.9264361937731104 0.20892007611731747 0.3131587148113974
11.56774 -113.85066666666667 2732.42 0.0 0.0 1.0
-26.047833333333333 -53.31216666666666 1592.9033333333334 -0.5700052461187876 3.1016553847782105e-14 0.8216410526483328
-28.176666666666666 -51.4706 1588.6833333333334 -0.9994682388300586 1.093262248116303e-15 0.032607354537602856
-28.176666666666666 -51.4706 1588.6833333333334 -0.9994682388300586 1.1210030643945703e-15 0.032607354537602856
9.212123333333333 -76.48483333333333 2720.0 0.0 0.0 1.0
-28.209833333333332 -45.33193333333333 1627.58 -0.9756960544670966 -0.05036133980174353 0.21326261920625872
7.619049999999999 -48.452400000000004 2671.43 0.0 0.0 1.0
7.619049999999999 -48.452400000000004 2671.43 0.0 0.0 1.0
18.133333333333336 -53.46666666666667 2992.0 0.0 0.0 1.0
5.614036666666666 -25.3801 2624.56 0.0 0.0 1.0
5.614036666666666 -23.274866666666668 2624.56 0.0 0.0 1.0
5.007273333333334 -13.158666666666667 2613.1 0.0 0.0 1.0
6.171756666666667 2.2125133333333333 2613.1 0.0 0.0 1.0
5.007273333333334 6.63755 2613.1 0.0 0.0 1.0
5.473066666666667 10.363903333333333 2613.1 0.0 0.0 1.0
5.7471266666666665 19.6552 2579.31 0.0 0.0 1.0
4.463516666666667 27.81116666666667 2568.24 0.0 0.0 1.0
-36.0145 25.12166666666667 1768.6933333333334 0.22296864554037488 0.7540877441640091 0.6177674782695561
-0.2171633333333336 30.976133333333337 2564.58 -0.6756091279119962 -7.32330807597164e-17 0.7372599991061444
5.837948999999999 37.5345 2469.3366666666666 0.06225856653811082 -0.684850964865614 0.7260186132705257
3.1679100000000004 43.173333333333325 2368.3466666666664 -0.21121879030106713 -0.7181565788547981 0.6630518462920725
17.6 59.866666666666674 2992.0 0.0 0.0 1.0
17.6 59.86666666666667 2992.0 0.0 0.0 1.0
18.133333333333336 61.46666666666666 2992.0 0.0 0.0 1.0
-2.3466666666666667 55.78666666666667 2393.6 0.0 0.0 1.0
-0.6400000000000001 62.4 2393.6 0.0 0.0 1.0
-0.2133333333333333 69.22666666666667 2393.6 0.0 0.0 1.0
-2.86853 71.2882 2384.06 0.0 0.0 1.0
2.1765066666666666 93.32243333333334 2575.6199999999994 0.909510847341975 0.41341701879321496 0.04331728453415455
-1.8061116666666666 83.8247 2384.06 0.0 0.0 1.0
-1.8061116666666666 83.8247 2384.06 0.0 0.0 1.0
-2.4813753333333333 100.12043333333334 2429.2366666666667 -0.8974877268293581 -0.35899315889979505 0.25620244349697036
-1.4950483333333333 107.488 2400.0066666666667 -0.3155259815642581 0.947420821730761 -0.053264824311371695
9.515423333333333 128.39966666666666 2636.12 0.0 0.0 1.0
16.8 -144.4 2992.0 0.0 0.0 1.0
-33.65546666666666 -73.89503333333333 1556.9833333333333 -0.06258679180859655 0.9700201748909137 0.2348270721099012
8.645356666666666 -121.15666666666668 2732.42 0.0 0.0 1.0
8.0 -100.96966666666667 2720.0 0.0 0.0 1.0
8.242416666666667 -98.7879 2720.0 0.0 0.0 1.0
-14.541033333333333 -63.9164 2040.0199999999998 -0.938723928924772 -0.33524534533006595 0.08004963271973281
8.084453333333334 -81.44793333333332 2707.69 0.0 0.0 1.0
-5.764307333333334 -50.898666666666664 2435.8566666666666 0.8681555822531921 -0.3314778232588202 0.3693620685590428
-28.990933333333334 -36.44563333333334 1673.0866666666668 -0.6748696954115708 0.734452140131142 -0.07163063640565386
18.133333333333336 -53.46666666666667 2992.0 0.0 0.0 1.0
1.0100966666666669 -34.64646666666667 2266.67 0.0 0.0 1.0
1.118769333333334 -26.278133333333333 2445.7866666666664 -0.41109021276098423 -0.39586621742216727 0.8211545377552231
4.210526666666667 -30.526333333333337 2624.56 0.0 0.0 1.0
5.380116666666666 -23.742700000000003 2624.56 0.0 0.0 1.0
5.1462 -23.50876666666667 2624.56 0.0 0.0 1.0
3.8427899999999995 -16.885 2613.1 0.0 0.0 1.0
4.54148 9.199416666666666 2613.1 0.0 0.0 1.0
-11.233780000000001 30.114866666666668 2230.0733333333333 -2.369610176162097e-15 -0.9139581582588312 0.405808433810986
16.533333333333335 38.8 2992.0 0.0 0.0 1.0
-6.310433333333333 31.450400000000002 2283.97 0.0 0.0 1.0
-6.310433333333333 31.4504 2283.97 0.0 0.0 1.0
1.2984556666666667 38.040866666666666 2643.9 -0.7057802247345991 0.3528901123672998 0.6142823804790215
-0.8326766666666666 40.0886 2699.5633333333335 0.5228347099719296 -0.4767016331266883 0.7066819787025254
-8.399700000000001 51.8571 2119.49 0.23176553498221836 -0.9270539702529959 0.29471286540048314
-1.28 58.77333333333333 2393.6 0.0 0.0 1.0
-3.7184633333333337 66.61353333333334 2384.06 0.0 0.0 1.0
-3.0810133333333334 70.86319999999999 2384.06 0.0 0.0 1.0
-24.13276666666667 60.77009999999999 1860.3233333333335 0.31611102568856775 0.9483410046149358 -0.026891604713290815
-2.6560466666666667 78.93753333333332 2384.06 0.0 0.0 1.0
1.6246599999999998 88.39146666666666 2416.1566666666668 -0.6749590023700203 1.2353155165212056e-17 0.7378552331722443
4.007726666666667 88.69626666666666 2568.27 -0.7071132364702721 -0.7070916654738069 0.0034996322685607365
13.014833333333334 93.09230000000001 2783.4166666666665 0.9307295856519466 0.3284269831965184 0.16086688627741066
-10.543013333333333 77.75636666666666 2094.7566666666667 -0.4809887729124383 0.48098877291243664 0.7330072309768679
-3.5059799999999997 93.3865 2384.06 0.0 0.0 1.0
-6.8374266666666665 92.00036666666666 2260.9633333333336 0.4613285684886823 -0.8303944795995408 0.31244353113289314
-2.7956966666666667 96.66683333333333 2412.9 0.0 0.0 1.0
7.671233333333333 -136.74266666666665 2732.42 0.0 0.0 1.0
6.6971099999999995 -135.03833333333333 2732.42 0.0 0.0 1.0
15.733333333333333 -142.53333333333333 2992.0 0.0 0.0 1.0
8.401826666666667 -121.64366666666668 2732.42 0.0 0.0 1.0
-13.889233333333332 -73.7938 2037.72 -0.9939070269383481 1.8422786906256963e-05 0.11022169234399544
-0.20027666666666674 -91.28546666666666 2325.3933333333334 0.6213234049637635 -0.7060504785338704 0.3397792639440021
7.27273 -110.66666666666667 2720.0 0.0 0.0 1.0
-0.20027666666666674 -91.28546666666666 2325.3933333333334 0.6213234049637636 -0.7060504785338705 0.33977926394400176
7.27273 -103.15133333333334 2720.0 0.0 0.0 1.0
7.757576666666666 -93.93936666666666 2720.0 0.0 0.0 1.0
6.545453333333334 -89.09089999999999 2720.0 0.0 0.0 1.0
8.969700000000001 -78.90909999999998 2720.0 0.0 0.0 1.0
4.6636766666666665 -76.41256666666666 2683.41 0.0 0.0 1.0
-11.869320000000002 -61.8655 2227.346666666667 0.43897733108553116 0.8839514265925296 0.16102415414482388
5.620326666666667 -66.60686666666668 2683.41 0.0 0.0 1.0
5.620326666666667 -64.93273333333333 2683.41 0.0 0.0 1.0
-28.990933333333334 -36.44563333333334 1673.0866666666668 -0.6748696954115709 0.7344521401311418 -0.07163063640565352
4.210526666666667 -30.526333333333337 2624.56 0.0 0.0 1.0
-20.165733333333332 -13.04671 2104.5766666666664 0.16869749194517752 0.4600825841286745 0.8717024561126853
3.376996666666667 -16.1863 2613.1 0.0 0.0 1.0
18.961433333333332 -4.0995800000000004 2977.1633333333334 -0.4626435542653753 -0.8757944956620524 0.1376406301378775
3.376996666666667 5.007273333333333 2613.1 0.0 0.0 1.0
3.8427899999999995 6.870446666666667 2613.1 0.0 0.0 1.0
-2.78261 9.623199999999999 2601.74 0.0 0.0 1.0
2.75862 16.666666666666668 2579.31 0.0 0.0 1.0
17.599999999999998 17.733333333333334 2992.0 0.0 0.0 1.0
