ply
format ascii 1.0
comment VCGLIB generated
element vertex 868
property float x
property float y
property float z
property float nx
property float ny
property float nz
element face 0
property list uchar int vertex_indices
end_header
-86.41973333333333 -24.197533333333336 2216.3 0.0 0.0 1.0
-85.23456666666667 -16.2963 2216.3 0.0 0.0 1.0
-86.81479999999999 -6.617283333333333 2216.3 0.0 0.0 1.0
-86.61726666666668 -5.629626666666667 2216.3 0.0 0.0 1.0
-86.81479999999999 -1.0864186666666666 2216.3 0.0 0.0 1.0
-86.41973333333334 12.938233333333335 2216.3 0.0 0.0 1.0
-86.41973333333334 12.938233333333335 2216.3 0.0 0.0 1.0
-86.61726666666668 14.518499999999998 2216.3 0.0 0.0 1.0
-86.41976666666666 18.864233333333335 2216.3 0.0 0.0 1.0
-87.01233333333333 33.67903333333333 2216.3 0.0 0.0 1.0
-86.2222 40.395066666666665 2216.3 0.0 0.0 1.0
-87.4074 45.13576666666666 2216.3 0.0 0.0 1.0
-85.62963333333335 48.8889 2216.3 0.0 0.0 1.0
-86.61726666666668 81.08643333333335 2216.3 0.0 0.0 1.0
-87.4074 87.4074 2216.3 0.0 0.0 1.0
-86.61726666666668 97.4815 2216.3 0.0 0.0 1.0
-85.43206666666667 108.34566666666667 2216.3 0.0 0.0 1.0
-85.82713333333334 111.50633333333333 2216.3 0.0 0.0 1.0
-85.6296 124.14833333333333 2216.3 0.0 0.0 1.0
-85.6296 124.14833333333333 2216.3 0.0 0.0 1.0
-85.6296 152.59266666666667 2216.3 0.0 0.0 1.0
-85.6296 152.59266666666667 2216.3 0.0 0.0 1.0
-85.82713333333334 161.28366666666668 2216.3 0.0 0.0 1.0
-85.82713333333334 161.28366666666668 2216.3 0.0 0.0 1.0
-87.01233333333334 -155.16066666666669 2216.3 0.0 0.0 1.0
-86.43990000000001 -134.51266666666666 2035.37 0.0 0.0 1.0
-86.81479999999999 -117.63 2216.3 0.0 0.0 1.0
-87.60493333333334 -110.71600000000001 2216.3 0.0 0.0 1.0
-87.4074 -94.51853333333332 2216.3 0.0 0.0 1.0
-86.81479999999999 -84.44446666666666 2216.3 0.0 0.0 1.0
-87.80246666666666 -75.7531 2216.3 0.0 0.0 1.0
-87.4074 -68.44443333333334 2216.3 0.0 0.0 1.0
-86.61726666666668 -66.66669999999999 2216.3 0.0 0.0 1.0
-87.80246666666666 -11.555566666666666 2216.3 0.0 0.0 1.0
-86.81479999999999 -6.617283333333333 2216.3 0.0 0.0 1.0
-86.81479999999999 -1.0864186666666666 2216.3 0.0 0.0 1.0
-87.01233333333333 1.0864209999999999 2216.3 0.0 0.0 1.0
-86.8148 2.4691363333333336 2216.3 0.0 0.0 1.0
-86.8148 2.4691363333333336 2216.3 0.0 0.0 1.0
-86.81479999999999 12.938233333333335 2216.3 0.0 0.0 1.0
-86.81479999999999 39.20986666666667 2216.3 0.0 0.0 1.0
-86.2222 40.395066666666665 2216.3 0.0 0.0 1.0
-85.62963333333335 48.8889 2216.3 0.0 0.0 1.0
-85.52016666666667 44.4161 1905.7300000000002 3.888989686384228e-28 1.944685648298887e-28 1.0
-85.69003333333335 49.172 1905.7300000000002 3.999972842518295e-27 -2.2222798197429502e-27 1.0
-86.81479999999999 71.01233333333333 2216.3 0.0 0.0 1.0
-86.61726666666668 81.08643333333333 2216.3 0.0 0.0 1.0
-86.61726666666668 81.08643333333333 2216.3 0.0 0.0 1.0
-86.61726666666668 96.69136666666667 2216.3 0.0 0.0 1.0
-86.61726666666668 97.4815 2216.3 0.0 0.0 1.0
-86.61726666666668 97.4815 2216.3 0.0 0.0 1.0
-86.81479999999999 100.24676666666666 2216.3 0.0 0.0 1.0
-87.01233333333334 110.32133333333333 2216.3 0.0 0.0 1.0
-87.01233333333333 110.32133333333333 2216.3 0.0 0.0 1.0
-86.41976666666666 116.44433333333332 2216.3 0.0 0.0 1.0
-87.60493333333334 118.81466666666665 2216.3 0.0 0.0 1.0
-86.61726666666668 137.18533333333332 2216.3 0.0 0.0 1.0
-87.01233333333334 150.81500000000003 2216.3 0.0 0.0 1.0
-87.20986666666666 156.93833333333336 2216.3 0.0 0.0 1.0
-87.20986666666666 -141.531 2216.3 0.0 0.0 1.0
-86.81479999999999 -133.23466666666664 2216.3 0.0 0.0 1.0
-87.4074 -125.33333333333333 2216.3 0.0 0.0 1.0
-88.39506666666666 -122.76533333333334 2216.3 0.0 0.0 1.0
-86.81479999999999 -117.63 2216.3 0.0 0.0 1.0
-87.60493333333334 -115.45666666666666 2216.3 0.0 0.0 1.0
-86.92536666666668 -81.43283333333333 1786.2699999999998 -3.54100294905685e-27 2.7996551753684827e-43 1.0
-87.4074 -91.7531 2216.3 0.0 0.0 1.0
-87.20986666666666 -86.41973333333333 2216.3 0.0 0.0 1.0
-87.60493333333334 -84.24693333333333 2216.3 0.0 0.0 1.0
-87.80246666666666 -73.1852 2216.3 0.0 0.0 1.0
-87.80246666666666 -69.43206666666667 2216.3 0.0 0.0 1.0
-87.60493333333334 -32.69136666666667 2216.3 0.0 0.0 1.0
-86.2222 -25.975333333333335 2216.3 0.0 0.0 1.0
-86.22219999999999 -21.234533333333335 2216.3 0.0 0.0 1.0
-87.80246666666666 -11.555566666666666 2216.3 0.0 0.0 1.0
-86.81479999999999 -6.617283333333333 2216.3 0.0 0.0 1.0
-87.01233333333333 -0.29629566666666657 2216.3 0.0 0.0 1.0
-87.2099 6.814816666666666 2216.3 0.0 0.0 1.0
-87.4074 13.3333 2216.3 0.0 0.0 1.0
-87.20986666666666 14.716033333333334 2216.3 0.0 0.0 1.0
-85.82713333333334 27.358033333333335 2216.3 0.0 0.0 1.0
-87.60493333333334 33.481500000000004 2216.3 0.0 0.0 1.0
-87.4074 34.271633333333334 2216.3 0.0 0.0 1.0
-87.4074 34.271633333333334 2216.3 0.0 0.0 1.0
-87.4074 45.13576666666666 2216.3 0.0 0.0 1.0
-85.85986666666668 50.021233333333335 1905.7300000000002 2.3932822357705902e-27 -2.8722017126220038e-27 1.0
-86.81479999999999 68.04939999999999 2216.3 0.0 0.0 1.0
-87.4074 87.4074 2216.3 0.0 0.0 1.0
-86.73983333333332 75.61319999999999 1822.54 -0.9446938807959293 7.289579864695643e-16 0.3279534594827847
-86.73983333333332 75.61319999999999 1822.54 -0.9446938807959292 7.419455213282003e-16 0.32795345948278487
-86.41973333333334 94.12343333333335 2216.3 0.0 0.0 1.0
-87.01233333333333 110.32133333333333 2216.3 0.0 0.0 1.0
-85.10823333333333 122.51066666666668 1942.86 0.0 0.0 1.0
-88.5926 144.88866666666667 2216.3 0.0 0.0 1.0
-87.20986666666666 156.93833333333336 2216.3 0.0 0.0 1.0
-87.20986666666666 156.93833333333336 2216.3 0.0 0.0 1.0
-87.80246666666666 162.66633333333334 2216.3 0.0 0.0 1.0
-88.19753333333334 -154.963 2216.3 0.0 0.0 1.0
-87.16553333333333 -134.14966666666666 2035.37 0.0 0.0 1.0
-87.20986666666666 -141.531 2216.3 0.0 0.0 1.0
-88.79013333333334 -137.58033333333333 2216.3 0.0 0.0 1.0
-88.0 -136.59266666666664 2216.3 0.0 0.0 1.0
-87.80246666666666 -134.81500000000003 2216.3 0.0 0.0 1.0
-87.8644 -117.243 2028.47 0.0 0.0 1.0
-87.20986666666666 -113.87633333333333 2216.3 0.0 0.0 1.0
-86.92540000000001 -82.7065 1786.2699999999998 -9.915846276019914e-26 -8.499296808017067e-26 1.0
-88.59259999999999 -97.08643333333333 2216.3 0.0 0.0 1.0
-88.0 -88.19753333333334 2216.3 0.0 0.0 1.0
-88.0 -88.19753333333334 2216.3 0.0 0.0 1.0
-87.80246666666666 -87.20986666666666 2216.3 0.0 0.0 1.0
-87.20986666666666 -67.25926666666668 2216.3 0.0 0.0 1.0
-88.39506666666666 -58.3704 2216.3 0.0 0.0 1.0
-87.80246666666666 -52.0494 2216.3 0.0 0.0 1.0
-89.38273333333335 -46.32096666666666 2216.3 0.0 0.0 1.0
-88.0 -38.617266666666666 2216.3 0.0 0.0 1.0
-87.4074 13.3333 2216.3 0.0 0.0 1.0
-88.0 33.283966666666664 2216.3 0.0 0.0 1.0
-87.20986666666666 39.4074 2216.3 0.0 0.0 1.0
-87.4074 42.5679 2216.3 0.0 0.0 1.0
-86.36943333333333 49.341833333333334 1905.7300000000002 0.0 0.0 1.0
-88.0 70.61726666666667 2216.3 0.0 0.0 1.0
-87.01233333333333 82.0741 2216.3 0.0 0.0 1.0
-88.0 107.16033333333333 2216.3 0.0 0.0 1.0
-86.1672 111.96499999999999 1949.1899999999998 8.190218083537437e-26 -7.380453969236714e-26 1.0
-87.0358 112.31266666666666 1949.1899999999998 1.0 0.0 0.0
-85.646 115.09233333333333 1949.1899999999998 -8.268306226126825e-28 -2.3124097158133697e-27 1.0
-87.01233333333334 136.19766666666666 2216.3 0.0 0.0 1.0
-88.0 138.173 2216.3 0.0 0.0 1.0
-88.39506666666666 149.23466666666664 2216.3 0.0 0.0 1.0
-88.61680000000001 -135.96366666666665 2035.37 0.0 0.0 1.0
-88.07256666666667 -134.14966666666666 2035.37 0.0 0.0 1.0
-88.58756666666666 -119.41233333333334 2028.47 0.0 0.0 1.0
-87.8644 -117.243 2028.47 0.0 0.0 1.0
-88.5926 -122.568 2216.3 0.0 0.0 1.0
-87.60493333333334 -118.02499999999999 2216.3 0.0 0.0 1.0
-86.92540000000001 -82.70649999999999 1786.2699999999998 -3.5413736700071316e-26 -2.1248242020042512e-26 1.0
-88.5926 -84.44443333333334 2216.3 0.0 0.0 1.0
-88.79013333333334 -59.753099999999996 2216.3 0.0 0.0 1.0
-88.79013333333334 -57.77779999999999 2216.3 0.0 0.0 1.0
-88.5926 -52.83950000000001 2216.3 0.0 0.0 1.0
-89.18520000000001 -8.395063333333333 2216.3 0.0 0.0 1.0
-88.5926 -1.0864183333333333 2216.3 0.0 0.0 1.0
-88.0 33.283966666666664 2216.3 0.0 0.0 1.0
-88.19753333333334 45.3333 2216.3 0.0 0.0 1.0
-88.19753333333334 45.3333 2216.3 0.0 0.0 1.0
-85.52016666666667 44.4161 1905.7300000000002 3.8889896863842273e-28 1.944685648298886e-28 1.0
-88.79013333333334 66.46916666666667 2216.3 0.0 0.0 1.0
-87.4074 87.4074 2216.3 0.0 0.0 1.0
-87.4074 99.8517 2216.3 0.0 0.0 1.0
-89.97533333333335 104.0 2216.3 0.0 0.0 1.0
-89.58026666666667 114.469 2216.3 0.0 0.0 1.0
-87.01233333333333 161.08633333333333 2216.3 0.0 0.0 1.0
-89.97533333333332 -164.04933333333335 2216.3 0.0 0.0 1.0
-89.58026666666666 -156.543 2216.3 0.0 0.0 1.0
-87.8644 -117.243 2028.47 0.0 0.0 1.0
-89.18520000000001 -123.358 2216.3 0.0 0.0 1.0
-90.56790000000001 -104.59266666666667 2216.3 0.0 0.0 1.0
-87.403 -82.06966666666666 1786.2699999999998 -2.833098936005698e-26 -2.1246017771951166e-26 1.0
-87.90416666666665 -73.37326666666667 1791.62 0.0 0.0 1.0
-88.98766666666666 -77.1358 2216.3 0.0 0.0 1.0
-88.98766666666666 -69.82713333333334 2216.3 0.0 0.0 1.0
-90.17286666666666 -63.30863333333334 2216.3 0.0 0.0 1.0
-89.18520000000001 -51.654333333333334 2216.3 0.0 0.0 1.0
-89.97533333333332 -49.283966666666664 2216.3 0.0 0.0 1.0
-89.38273333333332 -44.148133333333334 2216.3 0.0 0.0 1.0
-89.38273333333332 -44.148133333333334 2216.3 0.0 0.0 1.0
-87.60493333333334 -32.69136666666667 2216.3 0.0 0.0 1.0
-89.7778 -16.691366666666664 2216.3 0.0 0.0 1.0
-89.7778 -14.518499999999998 2216.3 0.0 0.0 1.0
-88.39506666666666 -10.567929999999999 2216.3 0.0 0.0 1.0
-89.18520000000001 -8.395063333333333 2216.3 0.0 0.0 1.0
-88.5926 2.074073333333333 2216.3 0.0 0.0 1.0
-88.79013333333334 18.074066666666667 2216.3 0.0 0.0 1.0
-87.80246666666666 36.8395 2216.3 0.0 0.0 1.0
-88.79013333333334 70.81479999999999 2216.3 0.0 0.0 1.0
-89.1852 72.19753333333334 2216.3 0.0 0.0 1.0
-89.38273333333332 73.38273333333333 2216.3 0.0 0.0 1.0
-89.7778 97.4815 2216.3 0.0 0.0 1.0
-87.80246666666666 110.71633333333334 2216.3 0.0 0.0 1.0
-88.98766666666666 118.81466666666665 2216.3 0.0 0.0 1.0
-88.39506666666666 124.93833333333333 2216.3 0.0 0.0 1.0
-88.79013333333334 138.76566666666668 2216.3 0.0 0.0 1.0
-88.79013333333334 138.76566666666668 2216.3 0.0 0.0 1.0
-88.59259999999999 144.88866666666667 2216.3 0.0 0.0 1.0
-88.59259999999999 144.88866666666667 2216.3 0.0 0.0 1.0
-88.0 156.3456666666667 2216.3 0.0 0.0 1.0
-90.17286666666666 -157.72833333333332 2216.3 0.0 0.0 1.0
-89.38273333333332 -154.56766666666667 2216.3 0.0 0.0 1.0
-89.3424 -137.77766666666668 2035.37 0.0 0.0 1.0
-88.61680000000001 -136.8706666666667 2035.37 0.0 0.0 1.0
-88.61680000000001 -135.96366666666665 2035.37 0.0 0.0 1.0
-89.18520000000001 -123.358 2216.3 0.0 0.0 1.0
-88.19753333333334 -116.44433333333332 2216.3 0.0 0.0 1.0
-90.17286666666666 -109.33333333333333 2216.3 0.0 0.0 1.0
-89.97533333333332 -108.74066666666666 2216.3 0.0 0.0 1.0
-89.04906666666666 -82.88286666666666 1797.0 0.0 0.0 1.0
-87.403 -82.06966666666666 1786.2699999999998 -2.833098936005702e-26 -2.1246017771951203e-26 1.0
-88.38323333333334 -72.0958 1791.62 0.0 0.0 1.0
-89.58026666666667 -85.23453333333333 2216.3 0.0 0.0 1.0
-89.97533333333332 -60.74073333333333 2216.3 0.0 0.0 1.0
-89.58026666666667 -57.382733333333334 2216.3 0.0 0.0 1.0
-89.38273333333332 -44.148133333333334 2216.3 0.0 0.0 1.0
-89.7778 -16.691366666666664 2216.3 0.0 0.0 1.0
-89.18520000000001 -8.395063333333333 2216.3 0.0 0.0 1.0
-88.5926 -1.0864183333333333 2216.3 0.0 0.0 1.0
-90.37036666666665 1.4814796666666668 2216.3 0.0 0.0 1.0
-90.37036666666667 19.654300000000003 2216.3 0.0 0.0 1.0
-90.76546666666665 30.123433333333335 2216.3 0.0 0.0 1.0
-90.17286666666666 49.283966666666664 2216.3 0.0 0.0 1.0
-90.3704 50.074099999999994 2216.3 0.0 0.0 1.0
-87.87976666666667 52.28646666666666 1901.6966666666667 -2.6036310452619593e-16 0.9306460033344583 0.36592077896397107
-89.7778 74.76543333333333 2216.3 0.0 0.0 1.0
-89.97533333333332 76.14813333333335 2216.3 0.0 0.0 1.0
-89.15906666666666 75.29886666666665 1818.84 0.0 0.0 1.0
-89.97533333333332 97.08643333333335 2216.3 0.0 0.0 1.0
-89.58026666666666 106.96300000000001 2216.3 0.0 0.0 1.0
-89.58026666666667 114.469 2216.3 0.0 0.0 1.0
-89.97533333333332 123.95066666666668 2216.3 0.0 0.0 1.0
-89.77776666666666 163.45666666666668 2216.3 0.0 0.0 1.0
-89.97533333333332 -164.04933333333335 2216.3 0.0 0.0 1.0
-89.97533333333332 -164.04933333333335 2216.3 0.0 0.0 1.0
-89.38273333333332 -154.56766666666667 2216.3 0.0 0.0 1.0
-90.61223333333334 -129.97733333333332 2035.37 0.0 0.0 1.0
-89.7778 -141.13566666666668 2216.3 0.0 0.0 1.0
-91.55553333333334 -138.173 2216.3 0.0 0.0 1.0
-90.17286666666666 -109.33333333333333 2216.3 0.0 0.0 1.0
-90.3704 -108.93833333333333 2216.3 0.0 0.0 1.0
-90.56790000000001 -105.18533333333335 2216.3 0.0 0.0 1.0
-88.38323333333334 -72.0958 1791.62 0.0 0.0 1.0
-89.58026666666667 -85.23453333333335 2216.3 0.0 0.0 1.0
-88.88889999999999 -66.06606666666666 1797.0 0.0 0.0 1.0
-88.88889999999999 -66.06606666666666 1797.0 0.0 0.0 1.0
-89.97533333333332 -69.03703333333333 2216.3 0.0 0.0 1.0
-90.76546666666667 -67.45679999999999 2216.3 0.0 0.0 1.0
-90.56793333333333 -57.1852 2216.3 0.0 0.0 1.0
-89.58026666666666 -50.66669999999999 2216.3 0.0 0.0 1.0
-90.17286666666666 -47.7037 2216.3 0.0 0.0 1.0
-91.1605 -27.1605 2216.3 0.0 0.0 1.0
-90.96300000000001 -19.851866666666666 2216.3 0.0 0.0 1.0
-89.7778 -16.691366666666664 2216.3 0.0 0.0 1.0
-89.58026666666666 -12.740733333333333 2216.3 0.0 0.0 1.0
-91.35803333333332 -5.432099999999999 2216.3 0.0 0.0 1.0
-91.55553333333334 5.827159999999999 2216.3 0.0 0.0 1.0
-87.87976666666667 52.28646666666666 1901.6966666666667 4.054225484765051e-15 0.9306460033344589 0.3659207789639697
-91.1605 66.86423333333333 2216.3 0.0 0.0 1.0
-89.97533333333332 76.14813333333335 2216.3 0.0 0.0 1.0
-90.17283333333334 83.06176666666666 2216.3 0.0 0.0 1.0
-90.3704 97.28396666666667 2216.3 0.0 0.0 1.0
-90.96300000000001 103.605 2216.3 0.0 0.0 1.0
-90.3704 107.358 2216.3 0.0 0.0 1.0
-90.56793333333333 113.87633333333333 2216.3 0.0 0.0 1.0
-90.96300000000001 147.6543333333333 2216.3 0.0 0.0 1.0
-90.24943333333333 -138.50333333333333 2035.37 0.0 0.0 1.0
-91.1605 -140.3456666666667 2216.3 0.0 0.0 1.0
-90.76546666666667 -136.0 2216.3 0.0 0.0 1.0
-89.97533333333332 -135.01233333333332 2216.3 0.0 0.0 1.0
-89.6723 -120.13566666666667 2028.47 0.0 0.0 1.0
-90.75703333333333 -113.627 2028.47 0.0 0.0 1.0
-90.3704 -108.93833333333333 2216.3 0.0 0.0 1.0
-91.55556666666666 -98.46916666666665 2216.3 0.0 0.0 1.0
-88.38323333333334 -72.0958 1791.62 0.0 0.0 1.0
-90.56793333333333 -77.1358 2216.3 0.0 0.0 1.0
-90.3704 -46.12343333333333 2216.3 0.0 0.0 1.0
-92.14813333333332 -38.02466666666667 2216.3 0.0 0.0 1.0
-91.1605 -27.1605 2216.3 0.0 0.0 1.0
-91.75306666666665 -23.012333333333334 2216.3 0.0 0.0 1.0
-90.96300000000001 -19.851866666666666 2216.3 0.0 0.0 1.0
-91.35803333333332 -5.432099999999999 2216.3 0.0 0.0 1.0
-89.97533333333332 13.3333 2216.3 0.0 0.0 1.0
-89.97533333333332 13.3333 2216.3 0.0 0.0 1.0
-90.96296666666666 31.111100000000004 2216.3 0.0 0.0 1.0
-91.16053333333332 40.0 2216.3 0.0 0.0 1.0
-91.35803333333332 40.39506666666667 2216.3 0.0 0.0 1.0
-91.55556666666666 43.555566666666664 2216.3 0.0 0.0 1.0
-90.17286666666666 44.74073333333334 2216.3 0.0 0.0 1.0
-90.96296666666666 48.8889 2216.3 0.0 0.0 1.0
-91.1605 66.86423333333333 2216.3 0.0 0.0 1.0
-90.3704 97.28396666666667 2216.3 0.0 0.0 1.0
-90.96300000000001 103.605 2216.3 0.0 0.0 1.0
-90.3704 107.358 2216.3 0.0 0.0 1.0
-92.14813333333332 117.432 2216.3 0.0 0.0 1.0
-90.96296666666666 120.395 2216.3 0.0 0.0 1.0
-90.56793333333333 143.50633333333334 2216.3 0.0 0.0 1.0
-90.96300000000001 147.062 2216.3 0.0 0.0 1.0
-91.16053333333333 -162.46900000000002 2216.3 0.0 0.0 1.0
-92.34570000000001 -161.67866666666666 2216.3 0.0 0.0 1.0
-90.17286666666666 -157.72833333333332 2216.3 0.0 0.0 1.0
-90.61223333333334 -129.97733333333335 2035.37 0.0 0.0 1.0
-91.95063333333333 -111.70366666666666 2216.3 0.0 0.0 1.0
-91.55556666666666 -110.51866666666666 2216.3 0.0 0.0 1.0
-89.04906666666666 -82.88286666666666 1797.0 0.0 0.0 1.0
-90.61876666666666 -68.10379999999999 1791.62 0.0 0.0 1.0
-91.1605 -83.4568 2216.3 0.0 0.0 1.0
-91.55556666666666 -75.55556666666666 2216.3 0.0 0.0 1.0
-91.16053333333333 -65.87656666666668 2216.3 0.0 0.0 1.0
-92.34570000000001 -64.69136666666667 2216.3 0.0 0.0 1.0
-91.35803333333332 -61.530833333333334 2216.3 0.0 0.0 1.0
-91.35803333333332 -57.1852 2216.3 0.0 0.0 1.0
-92.14816666666667 -42.172866666666664 2216.3 0.0 0.0 1.0
-92.14816666666667 -42.172866666666664 2216.3 0.0 0.0 1.0
-91.95060000000001 -20.049400000000002 2216.3 0.0 0.0 1.0
-90.96300000000001 -18.074099999999998 2216.3 0.0 0.0 1.0
-90.96300000000001 29.135766666666665 2216.3 0.0 0.0 1.0
-90.96300000000001 29.135766666666665 2216.3 0.0 0.0 1.0
-91.55556666666666 40.0 2216.3 0.0 0.0 1.0
-91.95060000000001 49.87656666666667 2216.3 0.0 0.0 1.0
-89.15906666666666 75.29886666666667 1818.84 0.0 0.0 1.0
-90.96300000000001 103.605 2216.3 0.0 0.0 1.0
-91.35803333333332 113.67866666666667 2216.3 0.0 0.0 1.0
-90.56793333333333 143.50633333333334 2216.3 0.0 0.0 1.0
-91.55556666666666 147.062 2216.3 0.0 0.0 1.0
-91.35803333333332 148.04933333333335 2216.3 0.0 0.0 1.0
-92.24489999999999 -133.24266666666668 2035.37 0.0 0.0 1.0
-92.7407 -138.56799999999998 2216.3 0.0 0.0 1.0
-91.55553333333334 -138.173 2216.3 0.0 0.0 1.0
-91.48020000000001 -119.41233333333332 2028.47 0.0 0.0 1.0
-90.75703333333333 -113.627 2028.47 0.0 0.0 1.0
-91.1186 -113.26533333333333 2028.47 0.0 0.0 1.0
-91.1186 -112.36166666666668 2028.47 0.0 0.0 1.0
-91.1186 -112.36166666666666 2028.47 0.0 0.0 1.0
-92.14813333333335 -105.778 2216.3 0.0 0.0 1.0
-92.7407 -104.0 2216.3 0.0 0.0 1.0
-89.04906666666666 -82.88286666666666 1797.0 0.0 0.0 1.0
-91.1605 -83.4568 2216.3 0.0 0.0 1.0
-89.52953333333335 -64.46446666666667 1797.0 0.0 0.0 1.0
-91.35803333333332 -72.79013333333332 2216.3 0.0 0.0 1.0
-91.95060000000001 -59.555566666666664 2216.3 0.0 0.0 1.0
-92.14813333333332 -57.382733333333334 2216.3 0.0 0.0 1.0
-92.14813333333332 -38.02466666666667 2216.3 0.0 0.0 1.0
-91.1605 -25.7778 2216.3 0.0 0.0 1.0
-91.75306666666665 -23.012333333333334 2216.3 0.0 0.0 1.0
-92.1481 -21.827133333333336 2216.3 0.0 0.0 1.0
-91.95060000000001 -20.049400000000002 2216.3 0.0 0.0 1.0
-91.95060000000001 -20.049400000000002 2216.3 0.0 0.0 1.0
-92.34563333333334 0.09876533333333337 2216.3 0.0 0.0 1.0
-92.54316666666666 0.6913580000000001 2216.3 0.0 0.0 1.0
-92.34563333333334 2.4691363333333336 2216.3 0.0 0.0 1.0
-91.55553333333334 5.827159999999999 2216.3 0.0 0.0 1.0
-91.55553333333334 5.827159999999999 2216.3 0.0 0.0 1.0
-92.7407 16.2963 2216.3 0.0 0.0 1.0
-93.13576666666667 19.654333333333334 2216.3 0.0 0.0 1.0
-91.55556666666666 30.913566666666668 2216.3 0.0 0.0 1.0
-91.35803333333332 40.395066666666665 2216.3 0.0 0.0 1.0
-91.75306666666665 49.08643333333333 2216.3 0.0 0.0 1.0
-91.95060000000001 49.87656666666667 2216.3 0.0 0.0 1.0
-93.53083333333335 56.79013333333334 2216.3 0.0 0.0 1.0
-92.54316666666666 63.1111 2216.3 0.0 0.0 1.0
-91.95060000000001 66.86423333333333 2216.3 0.0 0.0 1.0
-92.54316666666666 84.0494 2216.3 0.0 0.0 1.0
-92.1481 84.8395 2216.3 0.0 0.0 1.0
-92.34563333333334 85.6296 2216.3 0.0 0.0 1.0
-89.15906666666666 75.29886666666667 1818.84 0.0 0.0 1.0
-91.35803333333332 113.67866666666667 2216.3 0.0 0.0 1.0
-89.64166666666667 114.91866666666665 1949.1899999999998 -1.5836129923648558e-28 -2.0090477749422042e-27 1.0
-93.72836666666667 133.23466666666664 2216.3 0.0 0.0 1.0
-91.7531 147.6543333333333 2216.3 0.0 0.0 1.0
-92.14813333333335 163.6543333333333 2216.3 0.0 0.0 1.0
-91.70066666666666 -139.229 2035.37 0.0 0.0 1.0
-91.70066666666668 -129.79600000000002 2035.37 0.0 0.0 1.0
-92.20336666666667 -117.24266666666666 2028.47 0.0 0.0 1.0
-91.48020000000001 -115.79633333333334 2028.47 0.0 0.0 1.0
-92.56496666666668 -109.10733333333333 2028.47 0.0 0.0 1.0
-92.93826666666666 -110.91366666666666 2216.3 0.0 0.0 1.0
-92.7407 -104.0 2216.3 0.0 0.0 1.0
-90.97096666666668 -63.98396666666665 1797.0 0.0 0.0 1.0
-92.74073333333332 -62.32096666666666 2216.3 0.0 0.0 1.0
-92.14813333333332 -57.382733333333334 2216.3 0.0 0.0 1.0
-92.74073333333335 -47.90123333333333 2216.3 0.0 0.0 1.0
-92.7407 -37.43206666666667 2216.3 0.0 0.0 1.0
-93.33330000000001 -14.518500000000001 2216.3 0.0 0.0 1.0
-92.5432 -4.839506666666667 2216.3 0.0 0.0 1.0
-92.7407 0.09876533333333333 2216.3 0.0 0.0 1.0
-92.93823333333334 3.851853333333333 2216.3 0.0 0.0 1.0
-92.7407 16.2963 2216.3 0.0 0.0 1.0
-91.95060000000001 40.98766666666666 2216.3 0.0 0.0 1.0
-92.54316666666666 63.1111 2216.3 0.0 0.0 1.0
-92.54316666666666 63.1111 2216.3 0.0 0.0 1.0
-91.95060000000001 66.86423333333333 2216.3 0.0 0.0 1.0
-92.74073333333335 73.7778 2216.3 0.0 0.0 1.0
-92.7407 85.82713333333334 2216.3 0.0 0.0 1.0
-93.33330000000001 98.27163333333333 2216.3 0.0 0.0 1.0
-93.53083333333335 116.24666666666667 2216.3 0.0 0.0 1.0
-93.13576666666667 118.815 2216.3 0.0 0.0 1.0
-93.53083333333332 119.40733333333333 2216.3 0.0 0.0 1.0
-89.64166666666667 114.91866666666665 1949.1899999999998 -1.5836129923648558e-28 -2.0090477749422042e-27 1.0
-92.60773333333333 -133.96833333333333 2035.37 0.0 0.0 1.0
-92.7407 -104.0 2216.3 0.0 0.0 1.0
-92.12853333333334 -54.0562 1802.41 0.0 0.0 1.0
-93.1358 -56.19753333333333 2216.3 0.0 0.0 1.0
-92.93826666666666 -42.76546666666667 2216.3 0.0 0.0 1.0
-92.7407 -37.432066666666664 2216.3 0.0 0.0 1.0
-93.53083333333335 -14.123433333333333 2216.3 0.0 0.0 1.0
-93.72836666666666 -8.592593333333333 2216.3 0.0 0.0 1.0
-92.54316666666666 0.691358 2216.3 0.0 0.0 1.0
-94.12343333333332 9.185193333333332 2216.3 0.0 0.0 1.0
-93.72836666666666 10.172863333333334 2216.3 0.0 0.0 1.0
-93.13576666666667 16.49383333333333 2216.3 0.0 0.0 1.0
-93.13576666666665 16.49383333333333 2216.3 0.0 0.0 1.0
-93.53083333333332 18.469166666666666 2216.3 0.0 0.0 1.0
-93.72836666666666 36.0494 2216.3 0.0 0.0 1.0
-93.3333 37.62963333333334 2216.3 0.0 0.0 1.0
-92.34566666666667 39.80246666666667 2216.3 0.0 0.0 1.0
-93.33330000000001 83.65436666666666 2216.3 0.0 0.0 1.0
-92.7407 85.82713333333334 2216.3 0.0 0.0 1.0
-93.33330000000001 98.86423333333333 2216.3 0.0 0.0 1.0
-94.12343333333332 109.33333333333333 2216.3 0.0 0.0 1.0
-94.91356666666665 141.53066666666666 2216.3 0.0 0.0 1.0
-92.34566666666666 148.83933333333334 2216.3 0.0 0.0 1.0
-93.72836666666666 153.975 2216.3 0.0 0.0 1.0
-93.9259 159.111 2216.3 0.0 0.0 1.0
-94.12343333333332 -163.06166666666664 2216.3 0.0 0.0 1.0
-94.12343333333332 -163.06166666666664 2216.3 0.0 0.0 1.0
-94.12343333333332 -161.87633333333335 2216.3 0.0 0.0 1.0
-92.7891 -129.61466666666666 2035.37 0.0 0.0 1.0
-93.33330000000001 -138.7653333333333 2216.3 0.0 0.0 1.0
-93.33330000000001 -138.37033333333332 2216.3 0.0 0.0 1.0
-93.53086666666665 -114.66633333333334 2216.3 0.0 0.0 1.0
-94.12343333333332 -109.53066666666666 2216.3 0.0 0.0 1.0
-93.9259 -107.753 2216.3 0.0 0.0 1.0
-94.71603333333333 -105.58033333333333 2216.3 0.0 0.0 1.0
-92.28916666666667 -73.1727 1802.41 0.0 0.0 1.0
-90.61876666666666 -68.1038 1791.62 0.0 0.0 1.0
-91.73653333333333 -67.62473333333334 1791.62 0.0 0.0 1.0
-92.28916666666667 -56.305200000000006 1802.41 0.0 0.0 1.0
-92.74073333333335 -63.50616666666667 2216.3 0.0 0.0 1.0
-92.93826666666666 -42.76546666666667 2216.3 0.0 0.0 1.0
-94.32096666666666 -15.308633333333333 2216.3 0.0 0.0 1.0
-93.53083333333332 -15.308633333333333 2216.3 0.0 0.0 1.0
-93.72836666666666 -8.592593333333333 2216.3 0.0 0.0 1.0
-93.72836666666666 -8.592593333333333 2216.3 0.0 0.0 1.0
-94.12343333333335 -4.049383333333333 2216.3 0.0 0.0 1.0
-93.9259 4.839506666666667 2216.3 0.0 0.0 1.0
-93.53083333333332 16.49383333333333 2216.3 0.0 0.0 1.0
-93.13576666666665 19.654333333333334 2216.3 0.0 0.0 1.0
-93.53083333333332 46.91356666666667 2216.3 0.0 0.0 1.0
-93.92593333333332 52.246900000000004 2216.3 0.0 0.0 1.0
-94.5185 57.382733333333334 2216.3 0.0 0.0 1.0
-93.53083333333335 98.27163333333333 2216.3 0.0 0.0 1.0
-93.33330000000001 98.86423333333333 2216.3 0.0 0.0 1.0
-93.33333333333333 104.988 2216.3 0.0 0.0 1.0
-93.53083333333332 116.24666666666667 2216.3 0.0 0.0 1.0
-93.53083333333332 116.24666666666667 2216.3 0.0 0.0 1.0
-93.53083333333332 117.62966666666667 2216.3 0.0 0.0 1.0
-93.72836666666666 133.23466666666664 2216.3 0.0 0.0 1.0
-93.72836666666666 153.975 2216.3 0.0 0.0 1.0
-93.72836666666666 153.975 2216.3 0.0 0.0 1.0
-93.9259 161.28366666666668 2216.3 0.0 0.0 1.0
-94.12343333333332 -163.06166666666664 2216.3 0.0 0.0 1.0
-94.12343333333332 -161.87633333333335 2216.3 0.0 0.0 1.0
-94.91356666666667 -159.11133333333333 2216.3 0.0 0.0 1.0
-94.91356666666667 -159.11133333333333 2216.3 0.0 0.0 1.0
-92.9705 -139.77333333333334 2035.37 0.0 0.0 1.0
-92.7891 -132.1543333333333 2035.37 0.0 0.0 1.0
-94.1921 -118.14666666666666 2028.47 0.0 0.0 1.0
-94.32096666666666 -111.111 2216.3 0.0 0.0 1.0
-93.53353333333332 -58.2182 1797.0 0.0 0.0 1.0
-93.6153 -46.002 1807.8499999999997 -1.3828753229589846e-27 -9.030972474232276e-28 1.0
-94.32096666666666 -55.20986666666667 2216.3 0.0 0.0 1.0
-95.70369999999998 -51.45680000000001 2216.3 0.0 0.0 1.0
-94.5185 -37.432066666666664 2216.3 0.0 0.0 1.0
-94.71603333333333 -28.34566666666667 2216.3 0.0 0.0 1.0
-94.71603333333333 -28.34566666666667 2216.3 0.0 0.0 1.0
-92.93823333333334 -22.419733333333337 2216.3 0.0 0.0 1.0
-94.32096666666666 -14.123433333333333 2216.3 0.0 0.0 1.0
-94.71603333333333 11.753100000000002 2216.3 0.0 0.0 1.0
-93.72836666666666 36.0494 2216.3 0.0 0.0 1.0
-95.11110000000001 45.728366666666666 2216.3 0.0 0.0 1.0
-94.5185 57.382733333333334 2216.3 0.0 0.0 1.0
-96.09876666666666 79.50616666666666 2216.3 0.0 0.0 1.0
-93.72836666666666 84.24693333333333 2216.3 0.0 0.0 1.0
-94.91356666666667 109.33333333333333 2216.3 0.0 0.0 1.0
-94.91356666666667 109.33333333333333 2216.3 0.0 0.0 1.0
-95.11110000000001 125.13600000000001 2216.3 0.0 0.0 1.0
-95.50616666666667 126.12366666666667 2216.3 0.0 0.0 1.0
-96.29630000000002 138.76533333333336 2216.3 0.0 0.0 1.0
-93.9259 156.74066666666667 2216.3 0.0 0.0 1.0
-94.32096666666666 162.864 2216.3 0.0 0.0 1.0
-93.72836666666667 163.6543333333333 2216.3 0.0 0.0 1.0
-93.6961 -139.41033333333334 2035.37 0.0 0.0 1.0
-93.6961 -139.41033333333334 2035.37 0.0 0.0 1.0
-92.7891 -129.61466666666666 2035.37 0.0 0.0 1.0
-95.90123333333334 -136.59266666666664 2216.3 0.0 0.0 1.0
-95.11110000000001 -133.62966666666668 2216.3 0.0 0.0 1.0
-96.69136666666667 -132.04933333333335 2216.3 0.0 0.0 1.0
-95.50616666666666 -115.259 2216.3 0.0 0.0 1.0
-94.71603333333333 -105.58033333333334 2216.3 0.0 0.0 1.0
-94.71603333333333 -105.58033333333334 2216.3 0.0 0.0 1.0
-92.61046666666665 -70.44176666666667 1802.41 0.0 0.0 1.0
-94.71603333333333 -53.62963333333334 2216.3 0.0 0.0 1.0
-93.1717 -39.515166666666666 1813.33 0.0 0.0 1.0
-95.11110000000001 -48.49383333333333 2216.3 0.0 0.0 1.0
-95.70369999999998 -32.2963 2216.3 0.0 0.0 1.0
-95.11110000000001 -29.135766666666665 2216.3 0.0 0.0 1.0
-94.5185 -14.518500000000001 2216.3 0.0 0.0 1.0
-94.91356666666667 5.234570000000001 2216.3 0.0 0.0 1.0
-94.12343333333332 16.691366666666664 2216.3 0.0 0.0 1.0
-94.5185 57.382733333333334 2216.3 0.0 0.0 1.0
-95.11110000000001 66.86423333333333 2216.3 0.0 0.0 1.0
-95.90123333333334 69.82713333333334 2216.3 0.0 0.0 1.0
-94.12343333333332 100.04953333333333 2216.3 0.0 0.0 1.0
-94.5185 106.37066666666668 2216.3 0.0 0.0 1.0
-95.11110000000001 119.01233333333333 2216.3 0.0 0.0 1.0
-95.11110000000001 133.037 2216.3 0.0 0.0 1.0
-95.30863333333332 145.08633333333333 2216.3 0.0 0.0 1.0
-95.30863333333332 145.08633333333333 2216.3 0.0 0.0 1.0
-95.50616666666667 -159.70366666666666 2216.3 0.0 0.0 1.0
-93.87753333333335 -141.22433333333333 2035.37 0.0 0.0 1.0
-93.33333333333333 -133.42433333333335 2035.37 0.0 0.0 1.0
-95.90123333333334 -136.59266666666664 2216.3 0.0 0.0 1.0
-94.1921 -118.14666666666666 2028.47 0.0 0.0 1.0
-96.09876666666666 -111.111 2216.3 0.0 0.0 1.0
-97.08643333333333 -98.0741 2216.3 0.0 0.0 1.0
-93.09236666666668 -72.04820000000001 1802.41 0.0 0.0 1.0
-93.09236666666668 -72.04820000000001 1802.41 0.0 0.0 1.0
-92.61046666666665 -70.44176666666668 1802.41 0.0 0.0 1.0
-91.73653333333333 -67.62473333333334 1791.62 0.0 0.0 1.0
-90.97096666666665 -63.98396666666667 1797.0 0.0 0.0 1.0
-92.28916666666667 -56.305200000000006 1802.41 0.0 0.0 1.0
-92.93173333333334 -53.73493333333334 1802.41 0.0 0.0 1.0
-92.93173333333334 -53.73493333333334 1802.41 0.0 0.0 1.0
-92.93173333333334 -52.12853333333334 1802.41 0.0 0.0 1.0
-92.93173333333334 -51.6466 1802.41 0.0 0.0 1.0
-96.29630000000002 -35.654333333333334 2216.3 0.0 0.0 1.0
-95.11110000000001 -29.135766666666665 2216.3 0.0 0.0 1.0
-95.50616666666667 -13.728366666666666 2216.3 0.0 0.0 1.0
-95.90123333333334 -2.074073333333333 2216.3 0.0 0.0 1.0
-95.90123333333334 -2.074073333333333 2216.3 0.0 0.0 1.0
-94.91356666666667 5.234570000000001 2216.3 0.0 0.0 1.0
-96.69136666666667 8.987653333333332 2216.3 0.0 0.0 1.0
-96.88889999999999 22.2222 2216.3 0.0 0.0 1.0
-96.69136666666667 29.333299999999998 2216.3 0.0 0.0 1.0
-94.71603333333333 62.518499999999996 2216.3 0.0 0.0 1.0
-94.71603333333333 62.716033333333336 2216.3 0.0 0.0 1.0
-95.90123333333334 69.6296 2216.3 0.0 0.0 1.0
-96.69136666666667 72.5926 2216.3 0.0 0.0 1.0
-95.50616666666667 109.926 2216.3 0.0 0.0 1.0
-94.5185 115.85166666666667 2216.3 0.0 0.0 1.0
-95.90123333333334 141.33333333333334 2216.3 0.0 0.0 1.0
-95.90123333333334 141.33333333333334 2216.3 0.0 0.0 1.0
-95.30863333333332 145.08633333333333 2216.3 0.0 0.0 1.0
-94.5185 153.77766666666668 2216.3 0.0 0.0 1.0
-96.69136666666667 -160.09866666666667 2216.3 0.0 0.0 1.0
-94.91526666666668 -117.60433333333333 2028.47 0.0 0.0 1.0
-96.90396666666668 -108.20333333333333 2028.47 0.0 0.0 1.0
-96.09876666666666 -103.80233333333332 2216.3 0.0 0.0 1.0
-92.93173333333334 -52.931733333333334 1802.41 0.0 0.0 1.0
-92.93173333333334 -51.6466 1802.41 0.0 0.0 1.0
-93.1717 -39.515166666666666 1813.33 0.0 0.0 1.0
-94.5185 -42.76546666666667 2216.3 0.0 0.0 1.0
-96.29630000000002 -35.654333333333334 2216.3 0.0 0.0 1.0
-95.70369999999998 -13.925899999999999 2216.3 0.0 0.0 1.0
-96.88889999999999 -10.370393333333332 2216.3 0.0 0.0 1.0
-95.90123333333334 -2.074073333333333 2216.3 0.0 0.0 1.0
-96.29630000000002 3.25926 2216.3 0.0 0.0 1.0
-97.08643333333333 13.530833333333334 2216.3 0.0 0.0 1.0
-95.90123333333334 53.6296 2216.3 0.0 0.0 1.0
-95.30863333333333 57.382733333333334 2216.3 0.0 0.0 1.0
-96.69136666666667 72.5926 2216.3 0.0 0.0 1.0
-96.29630000000002 110.32133333333333 2216.3 0.0 0.0 1.0
-96.09876666666666 118.81466666666665 2216.3 0.0 0.0 1.0
-97.08643333333333 124.14833333333333 2216.3 0.0 0.0 1.0
-96.49383333333333 133.037 2216.3 0.0 0.0 1.0
-96.29630000000002 140.74066666666667 2216.3 0.0 0.0 1.0
-96.49383333333333 152.59266666666667 2216.3 0.0 0.0 1.0
-95.90123333333334 -136.59266666666667 2216.3 0.0 0.0 1.0
-95.63843333333334 -117.24266666666666 2028.47 0.0 0.0 1.0
-96.36156666666666 -112.18066666666668 2028.47 0.0 0.0 1.0
-95.70369999999998 -106.173 2216.3 0.0 0.0 1.0
-96.09876666666666 -103.80233333333332 2216.3 0.0 0.0 1.0
-93.09236666666668 -72.0482 1802.41 0.0 0.0 1.0
-94.33433333333335 -59.339333333333336 1797.0 0.0 0.0 1.0
-93.9798 -38.38386666666667 1813.33 0.0 0.0 1.0
-96.29630000000002 -35.654333333333334 2216.3 0.0 0.0 1.0
-97.08643333333335 -14.716033333333334 2216.3 0.0 0.0 1.0
-96.88889999999999 -10.370393333333332 2216.3 0.0 0.0 1.0
-96.29630000000002 3.25926 2216.3 0.0 0.0 1.0
-96.69136666666667 8.987653333333332 2216.3 0.0 0.0 1.0
-97.08643333333333 13.530833333333334 2216.3 0.0 0.0 1.0
-97.28396666666667 21.432066666666667 2216.3 0.0 0.0 1.0
-97.28396666666667 21.432066666666667 2216.3 0.0 0.0 1.0
-96.69136666666668 29.333299999999998 2216.3 0.0 0.0 1.0
-97.08643333333335 41.1852 2216.3 0.0 0.0 1.0
-97.4815 41.58026666666667 2216.3 0.0 0.0 1.0
-96.69136666666668 45.3333 2216.3 0.0 0.0 1.0
-96.49383333333333 69.6296 2216.3 0.0 0.0 1.0
-96.49383333333333 69.6296 2216.3 0.0 0.0 1.0
-97.28396666666667 79.50616666666666 2216.3 0.0 0.0 1.0
-97.28396666666667 79.50616666666666 2216.3 0.0 0.0 1.0
-96.09876666666668 82.27163333333334 2216.3 0.0 0.0 1.0
-96.49383333333333 109.926 2216.3 0.0 0.0 1.0
-96.69136666666668 110.12366666666667 2216.3 0.0 0.0 1.0
-95.90123333333334 117.23433333333332 2216.3 0.0 0.0 1.0
-97.28396666666667 128.889 2216.3 0.0 0.0 1.0
-96.88889999999999 140.74066666666667 2216.3 0.0 0.0 1.0
-98.27146666666668 -138.56799999999998 2216.3 0.0 0.0 1.0
-96.90393333333333 -114.35033333333332 2028.47 0.0 0.0 1.0
-96.36156666666666 -112.18066666666668 2028.47 0.0 0.0 1.0
-97.67903333333334 -116.247 2216.3 0.0 0.0 1.0
-97.67903333333334 -115.65433333333334 2216.3 0.0 0.0 1.0
-97.67903333333334 -115.65433333333333 2216.3 0.0 0.0 1.0
-97.08643333333333 -98.0741 2216.3 0.0 0.0 1.0
-101.23449999999998 -88.5926 2216.3 0.0 0.0 1.0
-93.76356666666668 -67.5235 1806.0366666666666 0.964535555072878 1.6096578151645395e-14 0.26395295603621227
-93.76356666666668 -67.5235 1806.0366666666666 0.964535555072878 1.6096578151645395e-14 0.26395295603621227
-94.33433333333335 -59.339333333333336 1797.0 0.0 0.0 1.0
-93.5743 -52.12853333333334 1802.41 0.0 0.0 1.0
-94.09870000000001 -46.64653333333333 1807.8499999999997 -1.0140449940798618e-27 -1.0447543565983206e-27 1.0
-94.90433333333333 -43.907333333333334 1807.8499999999997 -1.4154837196866015e-11 1.4154837196865947e-11 1.0
-97.08643333333333 -48.09876666666667 2216.3 0.0 0.0 1.0
-94.3465 -31.043566666666663 1818.84 0.0 0.0 1.0
-94.3465 -31.043566666666663 1818.84 0.0 0.0 1.0
-94.67070000000001 -30.395133333333334 1818.84 0.0 0.0 1.0
-96.88889999999999 -10.370393333333332 2216.3 0.0 0.0 1.0
-97.67903333333334 -4.049383333333333 2216.3 0.0 0.0 1.0
-97.08643333333333 -3.0617299999999994 2216.3 0.0 0.0 1.0
-96.69136666666668 8.987653333333334 2216.3 0.0 0.0 1.0
-96.69136666666668 29.333299999999998 2216.3 0.0 0.0 1.0
-97.08643333333335 41.1852 2216.3 0.0 0.0 1.0
-97.4815 53.6296 2216.3 0.0 0.0 1.0
-96.69136666666668 68.64196666666666 2216.3 0.0 0.0 1.0
-99.0616 92.14813333333335 2216.3 0.0 0.0 1.0
-97.08643333333333 124.14833333333333 2216.3 0.0 0.0 1.0
-97.08643333333333 124.14833333333333 2216.3 0.0 0.0 1.0
-97.67903333333334 125.92633333333333 2216.3 0.0 0.0 1.0
-97.28396666666667 132.04933333333335 2216.3 0.0 0.0 1.0
-97.87656666666665 138.96266666666668 2216.3 0.0 0.0 1.0
-97.4815 141.13566666666668 2216.3 0.0 0.0 1.0
-96.88889999999999 142.1233333333333 2216.3 0.0 0.0 1.0
-97.87656666666668 146.07399999999998 2216.3 0.0 0.0 1.0
-97.87656666666668 146.07399999999998 2216.3 0.0 0.0 1.0
-97.87656666666668 146.86433333333335 2216.3 0.0 0.0 1.0
-96.49383333333333 152.59266666666667 2216.3 0.0 0.0 1.0
-98.66669999999999 -159.90099999999998 2216.3 0.0 0.0 1.0
-96.4172 -132.3356666666667 2035.37 0.0 0.0 1.0
-96.72316666666666 -116.51966666666665 2028.47 0.0 0.0 1.0
-97.67903333333334 -115.65433333333334 2216.3 0.0 0.0 1.0
-98.07393333333334 -111.30866666666667 2216.3 0.0 0.0 1.0
-98.27163333333333 -97.08643333333333 2216.3 0.0 0.0 1.0
-95.18073333333332 -48.91566666666666 1802.41 0.0 0.0 1.0
-95.18073333333332 -48.915666666666674 1802.41 0.0 0.0 1.0
-94.90433333333333 -43.907333333333334 1807.8499999999997 -1.4154837196866015e-11 1.4154837196865947e-11 1.0
-93.9798 -38.38386666666667 1813.33 0.0 0.0 1.0
-98.27163333333334 -20.049400000000002 2216.3 0.0 0.0 1.0
-98.27163333333334 -20.049400000000002 2216.3 0.0 0.0 1.0
-97.08643333333335 -14.716033333333334 2216.3 0.0 0.0 1.0
-98.0741 -2.6666666666666665 2216.3 0.0 0.0 1.0
-98.27163333333334 13.728366666666666 2216.3 0.0 0.0 1.0
-97.87656666666668 22.2222 2216.3 0.0 0.0 1.0
-98.86406666666666 24.197533333333336 2216.3 0.0 0.0 1.0
-98.66669999999999 34.469166666666666 2216.3 0.0 0.0 1.0
-97.4815 40.39506666666667 2216.3 0.0 0.0 1.0
-97.4815 41.58026666666667 2216.3 0.0 0.0 1.0
-99.0616 51.061733333333336 2216.3 0.0 0.0 1.0
-99.06176666666666 58.76546666666667 2216.3 0.0 0.0 1.0
-97.08643333333335 71.60493333333334 2216.3 0.0 0.0 1.0
-97.87656666666668 79.50616666666666 2216.3 0.0 0.0 1.0
-99.06176666666666 88.98766666666667 2216.3 0.0 0.0 1.0
-97.67903333333334 125.92633333333333 2216.3 0.0 0.0 1.0
-97.87656666666668 132.24699999999999 2216.3 0.0 0.0 1.0
-97.4815 132.83966666666666 2216.3 0.0 0.0 1.0
-98.66669999999999 -159.90099999999998 2216.3 0.0 0.0 1.0
-99.85186666666668 -156.148 2216.3 0.0 0.0 1.0
-96.90393333333333 -114.35033333333332 2028.47 0.0 0.0 1.0
-97.8079 -109.83066666666667 2028.47 0.0 0.0 1.0
-94.65463333333332 -58.37836666666667 1797.0 0.0 0.0 1.0
-94.65463333333332 -58.37836666666667 1797.0 0.0 0.0 1.0
-95.34136666666666 -55.50203333333334 1802.41 0.0 0.0 1.0
-95.8233 -54.21686666666667 1802.41 0.0 0.0 1.0
-94.7432 -42.6183 1807.8499999999997 2.116508288239162e-27 8.466383437749334e-28 1.0
-97.08643333333333 -48.09876666666667 2216.3 0.0 0.0 1.0
-94.99490000000002 -29.422466666666665 1818.84 0.0 0.0 1.0
-95.64336666666667 -27.9635 1818.84 0.0 0.0 1.0
-98.27163333333334 -20.049400000000002 2216.3 0.0 0.0 1.0
-98.66669999999999 -12.740733333333333 2216.3 0.0 0.0 1.0
-98.86423333333333 -2.469136666666666 2216.3 0.0 0.0 1.0
-99.45666666666666 18.27163333333333 2216.3 0.0 0.0 1.0
-99.25926666666668 23.012333333333334 2216.3 0.0 0.0 1.0
-98.66669999999999 34.469166666666666 2216.3 0.0 0.0 1.0
-99.2593 45.92589999999999 2216.3 0.0 0.0 1.0
-99.2593 46.518499999999996 2216.3 0.0 0.0 1.0
-98.86406666666666 53.827133333333336 2216.3 0.0 0.0 1.0
-98.66669999999999 80.09876666666666 2216.3 0.0 0.0 1.0
-99.0616 85.82716666666666 2216.3 0.0 0.0 1.0
-97.67903333333334 140.938 2216.3 0.0 0.0 1.0
-98.66669999999999 146.27166666666668 2216.3 0.0 0.0 1.0
-99.25913333333334 -160.49366666666666 2216.3 0.0 0.0 1.0
-99.3196 -134.875 2035.37 0.0 0.0 1.0
-97.4463 -113.627 2028.47 0.0 0.0 1.0
-97.08473333333332 -112.723 2028.47 0.0 0.0 1.0
-97.8079 -109.83066666666667 2028.47 0.0 0.0 1.0
-99.4568 -95.30863333333333 2216.3 0.0 0.0 1.0
-96.03333333333335 -57.76566666666667 1807.8633333333335 0.9798605288292009 0.16317226832292725 0.11510062942012701
-95.8233 -55.66266666666667 1802.41 0.0 0.0 1.0
-95.8233 -54.21686666666667 1802.41 0.0 0.0 1.0
-95.18076666666667 -52.7711 1802.41 0.0 0.0 1.0
-95.54886666666665 -44.713 1807.8499999999997 1.6593130755062611e-25 -1.244484806629693e-25 1.0
-97.0505 -32.727266666666665 1813.33 0.0 0.0 1.0
-95.64336666666667 -27.9635 1818.84 0.0 0.0 1.0
-95.64336666666667 -27.9635 1818.84 0.0 0.0 1.0
-99.06176666666666 -22.41973333333333 2216.3 0.0 0.0 1.0
-99.45666666666666 -11.555566666666666 2216.3 0.0 0.0 1.0
-99.85173333333334 5.827163333333334 2216.3 0.0 0.0 1.0
-99.45666666666666 18.27163333333333 2216.3 0.0 0.0 1.0
-100.24676666666669 27.950599999999998 2216.3 0.0 0.0 1.0
-99.45666666666666 35.4568 2216.3 0.0 0.0 1.0
-99.2593 45.92589999999999 2216.3 0.0 0.0 1.0
-99.06176666666666 58.76546666666667 2216.3 0.0 0.0 1.0
-99.6542 60.148133333333334 2216.3 0.0 0.0 1.0
-98.66669999999999 79.1111 2216.3 0.0 0.0 1.0
-98.66669999999999 80.09876666666666 2216.3 0.0 0.0 1.0
-99.06176666666666 88.98766666666667 2216.3 0.0 0.0 1.0
-100.44443333333334 96.49383333333334 2216.3 0.0 0.0 1.0
-99.85173333333334 113.67899999999999 2216.3 0.0 0.0 1.0
-99.25926666666668 138.37 2216.3 0.0 0.0 1.0
-100.64209999999999 162.66666666666666 2216.3 0.0 0.0 1.0
-100.64196666666668 -164.24666666666667 2216.3 0.0 0.0 1.0
-99.85186666666668 -157.92566666666667 2216.3 0.0 0.0 1.0
-100.83963333333334 -132.04933333333332 2216.3 0.0 0.0 1.0
-97.62713333333333 -117.06200000000001 2028.47 0.0 0.0 1.0
-97.26553333333334 -115.79666666666667 2028.47 0.0 0.0 1.0
-98.16950000000001 -108.92666666666668 2028.47 0.0 0.0 1.0
-100.4443 -116.64166666666667 2216.3 0.0 0.0 1.0
-95.8233 -49.71886666666666 1802.41 0.0 0.0 1.0
-96.83786666666667 -45.8409 1807.8499999999997 -1.037321013159834e-26 2.0749282085111725e-26 1.0
-97.46116666666667 -22.659433333333336 1822.54 -0.8938273498773307 -0.38306886423314357 0.2330899265656863
-98.86423333333333 -20.641966666666665 2216.3 0.0 0.0 1.0
-99.65433333333334 -15.901233333333332 2216.3 0.0 0.0 1.0
-99.6542 -2.6666666666666665 2216.3 0.0 0.0 1.0
-99.85173333333334 5.827163333333334 2216.3 0.0 0.0 1.0
-100.04933333333332 14.123433333333333 2216.3 0.0 0.0 1.0
-99.2593 46.518499999999996 2216.3 0.0 0.0 1.0
-99.85173333333334 58.567933333333336 2216.3 0.0 0.0 1.0
-99.06176666666666 88.98766666666667 2216.3 0.0 0.0 1.0
-100.4446 106.568 2216.3 0.0 0.0 1.0
-100.4446 106.568 2216.3 0.0 0.0 1.0
-99.85173333333334 113.67899999999999 2216.3 0.0 0.0 1.0
-101.0373 118.815 2216.3 0.0 0.0 1.0
-98.46916666666665 126.914 2216.3 0.0 0.0 1.0
-99.65433333333334 134.025 2216.3 0.0 0.0 1.0
-99.85186666666668 146.07399999999998 2216.3 0.0 0.0 1.0
-99.25913333333334 -160.49366666666666 2216.3 0.0 0.0 1.0
-101.62966666666667 -139.75300000000001 2216.3 0.0 0.0 1.0
-101.432 -134.61733333333333 2216.3 0.0 0.0 1.0
-97.8079 -109.83066666666667 2028.47 0.0 0.0 1.0
-100.4443 -116.64166666666667 2216.3 0.0 0.0 1.0
-100.4443 -116.04899999999999 2216.3 0.0 0.0 1.0
-100.83933333333334 -111.50633333333333 2216.3 0.0 0.0 1.0
-101.432 -108.543 2216.3 0.0 0.0 1.0
-100.27013333333333 -90.36033333333334 2021.62 0.0 0.0 1.0
-97.35789999999999 -57.071 1811.5033333333333 0.753344571147823 0.6457334311341311 -0.12450017284263115
-95.8233 -54.21686666666667 1802.41 0.0 0.0 1.0
-95.8233 -49.71886666666666 1802.41 0.0 0.0 1.0
-95.96756666666666 -29.098266666666664 1818.84 0.0 0.0 1.0
-98.0224 -13.781866666666668 1829.97 0.0 0.0 1.0
-100.24676666666666 -11.160533333333333 2216.3 0.0 0.0 1.0
-100.8393 -3.6543200000000002 2216.3 0.0 0.0 1.0
-100.64176666666667 3.6543233333333327 2216.3 0.0 0.0 1.0
-99.85173333333334 5.827163333333334 2216.3 0.0 0.0 1.0
-100.2469 18.666700000000002 2216.3 0.0 0.0 1.0
-101.432 24.197533333333336 2216.3 0.0 0.0 1.0
-100.24676666666669 27.950599999999998 2216.3 0.0 0.0 1.0
-100.04910000000001 36.64196666666667 2216.3 0.0 0.0 1.0
-99.65403333333335 38.02466666666667 2216.3 0.0 0.0 1.0
-101.23433333333332 43.753099999999996 2216.3 0.0 0.0 1.0
-101.03699999999999 49.08643333333333 2216.3 0.0 0.0 1.0
-101.23466666666667 53.432066666666664 2216.3 0.0 0.0 1.0
-99.85173333333334 58.567933333333336 2216.3 0.0 0.0 1.0
-99.6542 60.148133333333334 2216.3 0.0 0.0 1.0
-101.62966666666667 66.86423333333333 2216.3 0.0 0.0 1.0
-99.45666666666666 83.25926666666668 2216.3 0.0 0.0 1.0
-99.0616 94.51850000000002 2216.3 0.0 0.0 1.0
-99.85173333333334 113.67899999999999 2216.3 0.0 0.0 1.0
-101.03699999999999 132.642 2216.3 0.0 0.0 1.0
-100.83933333333334 153.9753333333333 2216.3 0.0 0.0 1.0
-100.83933333333334 153.97533333333334 2216.3 0.0 0.0 1.0
-101.432 -164.24666666666667 2216.3 0.0 0.0 1.0
-101.432 -164.24666666666667 2216.3 0.0 0.0 1.0
-101.23463333333332 -157.13566666666668 2216.3 0.0 0.0 1.0
-100.4079 -133.968 2035.37 0.0 0.0 1.0
-101.82733333333333 -143.111 2216.3 0.0 0.0 1.0
-101.03699999999999 -133.23466666666664 2216.3 0.0 0.0 1.0
-100.4443 -116.64166666666667 2216.3 0.0 0.0 1.0
-100.83933333333334 -111.50633333333333 2216.3 0.0 0.0 1.0
-101.23433333333332 -110.51866666666668 2216.3 0.0 0.0 1.0
-99.00903333333333 -94.3243 2021.62 0.0 0.0 1.0
-99.00903333333333 -94.3243 2021.62 0.0 0.0 1.0
-101.03710000000001 -93.72840000000001 2216.3 0.0 0.0 1.0
-96.83786666666667 -45.8409 1807.8499999999997 -1.037321013159834e-26 2.0749282085111725e-26 1.0
-96.83786666666667 -45.8409 1807.8499999999997 -1.037321013159834e-26 2.0749282085111725e-26 1.0
-97.85860000000001 -36.44446666666666 1813.33 0.0 0.0 1.0
-97.0505 -32.72726666666667 1813.33 0.0 0.0 1.0
-99.65433333333334 -15.901233333333332 2216.3 0.0 0.0 1.0
-101.03699999999999 -11.358066666666666 2216.3 0.0 0.0 1.0
-101.62966666666667 9.58026 2216.3 0.0 0.0 1.0
-101.432 22.024666666666665 2216.3 0.0 0.0 1.0
-100.83933333333334 23.4074 2216.3 0.0 0.0 1.0
-100.24676666666666 27.950599999999998 2216.3 0.0 0.0 1.0
-101.03696666666667 46.12343333333333 2216.3 0.0 0.0 1.0
-101.03696666666667 46.91356666666667 2216.3 0.0 0.0 1.0
-101.62966666666667 70.61726666666668 2216.3 0.0 0.0 1.0
-101.62966666666667 99.45683333333334 2216.3 0.0 0.0 1.0
-100.83963333333334 111.90133333333334 2216.3 0.0 0.0 1.0
-100.4443 133.62966666666665 2216.3 0.0 0.0 1.0
-101.432 137.38266666666667 2216.3 0.0 0.0 1.0
-101.432 138.1726666666667 2216.3 0.0 0.0 1.0
-101.23466666666667 145.08633333333333 2216.3 0.0 0.0 1.0
-101.23466666666667 145.08633333333333 2216.3 0.0 0.0 1.0
-101.82733333333333 148.24666666666667 2216.3 0.0 0.0 1.0
-102.02466666666668 163.25933333333333 2216.3 0.0 0.0 1.0
-100.5893 -139.229 2035.37 0.0 0.0 1.0
-102.22233333333334 -142.12333333333333 2216.3 0.0 0.0 1.0
-100.83963333333334 -132.04933333333332 2216.3 0.0 0.0 1.0
-100.51953333333331 -113.62733333333334 2028.47 0.0 0.0 1.0
-101.62966666666667 -107.95066666666666 2216.3 0.0 0.0 1.0
-100.27013333333333 -90.36033333333334 2021.62 0.0 0.0 1.0
-102.815 -76.34566666666666 2216.3 0.0 0.0 1.0
-98.28803333333333 -43.26283333333333 1807.8499999999997 3.318488849384244e-27 -1.6591299624777844e-27 1.0
-98.28803333333333 -37.30113333333333 1807.8499999999997 -1.7286299194417938e-27 3.457617474120864e-27 1.0
-97.85860000000001 -36.44446666666666 1813.33 0.0 0.0 1.0
-98.72340000000001 -25.694 1818.84 0.0 0.0 1.0
-99.1057 -19.1057 1824.39 0.0 0.0 1.0
-101.43233333333335 -11.160533333333333 2216.3 0.0 0.0 1.0
-101.43233333333335 -11.160533333333333 2216.3 0.0 0.0 1.0
-101.62963333333333 -2.074073333333333 2216.3 0.0 0.0 1.0
-101.62966666666667 9.58026 2216.3 0.0 0.0 1.0
-101.82733333333333 17.283966666666668 2216.3 0.0 0.0 1.0
-101.23466666666667 18.469166666666666 2216.3 0.0 0.0 1.0
-101.62966666666667 49.67903333333334 2216.3 0.0 0.0 1.0
-102.02499999999999 52.24693333333334 2216.3 0.0 0.0 1.0
-101.82733333333333 53.23453333333333 2216.3 0.0 0.0 1.0
-101.82733333333333 53.23453333333333 2216.3 0.0 0.0 1.0
-101.23466666666667 54.22220000000001 2216.3 0.0 0.0 1.0
-101.62966666666667 66.86423333333333 2216.3 0.0 0.0 1.0
-101.62966666666667 70.61726666666668 2216.3 0.0 0.0 1.0
-102.22233333333332 90.17286666666666 2216.3 0.0 0.0 1.0
-101.62966666666667 99.45683333333334 2216.3 0.0 0.0 1.0
-103.40766666666667 102.42 2216.3 0.0 0.0 1.0
-100.4446 106.568 2216.3 0.0 0.0 1.0
-100.83963333333334 111.90133333333334 2216.3 0.0 0.0 1.0
-102.02499999999999 118.22233333333332 2216.3 0.0 0.0 1.0
-102.02499999999999 118.22233333333332 2216.3 0.0 0.0 1.0
-101.62966666666667 131.6543333333333 2216.3 0.0 0.0 1.0
-101.43233333333335 144.494 2216.3 0.0 0.0 1.0
-101.62966666666667 145.08633333333333 2216.3 0.0 0.0 1.0
-101.62966666666667 147.06133333333332 2216.3 0.0 0.0 1.0
-101.62966666666667 153.18533333333332 2216.3 0.0 0.0 1.0
-102.42 156.74066666666667 2216.3 0.0 0.0 1.0
-100.64209999999999 162.66666666666669 2216.3 0.0 0.0 1.0
-101.43200000000002 -164.24666666666667 2216.3 0.0 0.0 1.0
-100.70033333333333 -116.158 2028.47 0.0 0.0 1.0
-101.62966666666667 -109.33333333333333 2216.3 0.0 0.0 1.0
-96.94779999999999 -50.36143333333334 1802.41 0.0 0.0 1.0
-98.28803333333333 -43.26283333333333 1807.8499999999997 3.318488849384244e-27 -1.6591299624777844e-27 1.0
-98.50503333333334 -33.373733333333334 1813.33 0.0 0.0 1.0
-98.18180000000001 -32.72726666666667 1813.33 0.0 0.0 1.0
-99.04759999999999 -23.586633333333335 1818.84 0.0 0.0 1.0
-98.0224 -13.781866666666668 1829.97 0.0 0.0 1.0
-102.02433333333333 -3.85185 2216.3 0.0 0.0 1.0
-101.03666666666668 3.851853333333333 2216.3 0.0 0.0 1.0
-102.22233333333332 9.777790000000001 2216.3 0.0 0.0 1.0
-101.43196666666665 14.716033333333334 2216.3 0.0 0.0 1.0
-102.02466666666665 15.901233333333332 2216.3 0.0 0.0 1.0
-101.62966666666667 20.444433333333333 2216.3 0.0 0.0 1.0
-102.222 35.4568 2216.3 0.0 0.0 1.0
-102.02433333333333 42.76546666666667 2216.3 0.0 0.0 1.0
-102.222 46.716033333333336 2216.3 0.0 0.0 1.0
-101.82733333333333 53.23453333333333 2216.3 0.0 0.0 1.0
-101.62966666666667 70.61726666666668 2216.3 0.0 0.0 1.0
