ply
format ascii 1.0
comment VCGLIB generated
element vertex 797
property float x
property float y
property float z
property float nx
property float ny
property float nz
element face 0
property list uchar int vertex_indices
end_header
-43.86476666666667 48.01933333333333 2168.12 0.0 0.0 1.0
-43.9273 54.4 2176.0 0.0 0.0 1.0
-43.0918 54.7826 2168.12 0.0 0.0 1.0
-43.663000000000004 64.76193333333333 2191.94 0.0 0.0 1.0
-44.637699999999995 71.40096666666666 2168.12 0.0 0.0 1.0
-44.058 74.29953333333333 2168.12 0.0 0.0 1.0
-43.16546666666667 87.19423333333333 2152.52 0.0 0.0 1.0
-44.571433333333324 91.90476666666666 2137.14 0.0 0.0 1.0
-41.6 -118.08 2393.6 0.0 0.0 1.0
-41.5405 -113.78466666666668 2384.06 0.0 0.0 1.0
-40.69056666666666 -111.87233333333334 2384.06 0.0 0.0 1.0
-40.69056666666666 -108.47266666666667 2384.06 0.0 0.0 1.0
-41.11553333333333 -97.84863333333334 2384.06 0.0 0.0 1.0
-41.54046666666667 -89.98673333333335 2384.06 0.0 0.0 1.0
-41.752966666666666 -85.09963333333333 2384.06 0.0 0.0 1.0
-41.752966666666666 -82.54983333333332 2384.06 0.0 0.0 1.0
-40.84653333333333 -75.873 2374.6 0.0 0.0 1.0
-42.53966666666667 -59.15343333333333 2374.6 0.0 0.0 1.0
-41.0582 -44.33863333333334 2374.6 0.0 0.0 1.0
-40.579699999999995 -39.7365 2365.22 0.0 0.0 1.0
-41.8836 -28.16736666666667 2349.75 -0.8266503223601357 0.5510855766732571 0.11381534046246822
-42.424233333333326 -22.1212 2266.67 0.0 0.0 1.0
-42.424233333333326 -22.1212 2266.67 0.0 0.0 1.0
-42.22223333333333 -17.070733333333333 2266.67 0.0 0.0 1.0
-42.76726666666667 -6.138366666666666 2258.11 0.0 0.0 1.0
-43.030300000000004 -3.5353499999999998 2266.67 0.0 0.0 1.0
-47.31183333333333 2.3894866666666665 2144.8 0.0 0.0 1.0
-43.06176666666667 10.567896666666668 2216.3 0.0 0.0 1.0
-50.62166666666667 10.99309 1883.7533333333333 0.9883169180230882 -6.121407982269878e-15 0.1524128260657361
-46.2662 19.693766666666665 2114.49 0.0 0.0 1.0
-53.286300000000004 16.8019 1577.506666666667 -5.396316223030467e-17 -0.9779078110176944 0.20903663112139245
-42.92443333333333 28.054533333333335 2224.54 0.0 0.0 1.0
-40.2656 33.4661 2384.06 0.0 0.0 1.0
-44.83093333333333 32.1739 2168.12 0.0 0.0 1.0
-44.83093333333333 32.1739 2168.12 0.0 0.0 1.0
-44.44446666666667 34.106300000000005 2168.12 0.0 0.0 1.0
-45.024166666666666 49.37196666666667 2168.12 0.0 0.0 1.0
-45.024166666666666 49.37196666666667 2168.12 0.0 0.0 1.0
-45.0909 53.04243333333333 2176.0 0.0 0.0 1.0
-44.29259999999999 63.51383333333333 2189.273333333333 -0.8874451237695052 -0.4437414896056898 0.12463804676041332
-43.27226666666667 67.10623333333334 2191.94 0.0 0.0 1.0
-44.637699999999995 71.40096666666666 2168.12 0.0 0.0 1.0
-44.83093333333333 74.29953333333333 2168.12 0.0 0.0 1.0
-44.57280000000001 82.503 2160.29 0.0 0.0 1.0
-45.46763333333333 83.741 2152.52 0.0 0.0 1.0
-44.826766666666664 89.94026666666667 2144.8 0.0 0.0 1.0
-44.95239999999999 91.90476666666666 2137.14 0.0 0.0 1.0
-44.571433333333324 92.47616666666666 2137.14 0.0 0.0 1.0
-44.5077 95.3737 2129.54 0.0 0.0 1.0
-41.6 -118.08 2393.6 0.0 0.0 1.0
-42.390433333333334 -106.985 2384.06 0.0 0.0 1.0
-41.5405 -96.9987 2384.06 0.0 0.0 1.0
-41.965466666666664 -94.87386666666667 2384.06 0.0 0.0 1.0
-42.17796666666667 -94.66136666666667 2384.06 0.0 0.0 1.0
-42.390433333333334 -84.88713333333334 2384.06 0.0 0.0 1.0
-42.328066666666665 -65.07936666666667 2374.6 0.0 0.0 1.0
-42.328066666666665 -64.8677 2374.6 0.0 0.0 1.0
-41.0582 -44.33863333333334 2374.6 0.0 0.0 1.0
-42.89856666666666 -37.20683333333333 2365.22 0.0 0.0 1.0
-42.476933333333335 -35.098800000000004 2365.22 0.0 0.0 1.0
-42.0553 -34.0448 2365.22 0.0 0.0 1.0
-42.0553 -34.0448 2365.22 0.0 0.0 1.0
-41.36483333333333 -29.50133333333333 2355.91 0.0 0.0 1.0
-43.333333333333336 -25.9375 2337.5 0.0 0.0 1.0
-42.62626666666666 -18.48483333333333 2266.67 0.0 0.0 1.0
-43.03029999999999 -3.5353499999999998 2266.67 0.0 0.0 1.0
-47.31183333333333 2.3894866666666665 2144.8 0.0 0.0 1.0
-47.3944 2.3728173333333333 2127.023333333333 -4.92410752943666e-17 -0.8843830228636141 0.46676189740660723
-44.772400000000005 8.364083333333333 2208.12 0.0 0.0 1.0
-44.772400000000005 8.364083333333333 2208.12 0.0 0.0 1.0
-57.8014 27.051066666666667 1977.1000000000001 0.7572209634193715 0.563065890328197 0.3310184522155128
-56.5614 11.719299999999999 1574.74 0.0 0.0 1.0
-44.83093333333333 32.1739 2168.12 0.0 0.0 1.0
-44.251233333333325 35.84543333333334 2168.12 0.0 0.0 1.0
-44.83093333333333 40.28986666666667 2168.12 0.0 0.0 1.0
-44.251233333333325 43.1884 2168.12 0.0 0.0 1.0
-45.2174 50.1449 2168.12 0.0 0.0 1.0
-45.0909 53.04243333333333 2176.0 0.0 0.0 1.0
-43.46763333333333 66.12943333333334 2191.94 0.0 0.0 1.0
-53.73056666666667 50.969966666666664 1674.63 -0.964669491258654 0.08039360852013315 0.2508976690682502
-45.024166666666666 70.82126666666666 2168.12 0.0 0.0 1.0
-44.637699999999995 71.40096666666666 2168.12 0.0 0.0 1.0
-46.25456666666667 77.09093333333334 2176.0 0.0 0.0 1.0
-45.9206 82.8881 2160.29 0.0 0.0 1.0
-45.46763333333333 83.741 2152.52 0.0 0.0 1.0
-44.826766666666664 89.94026666666667 2144.8 0.0 0.0 1.0
-45.456700000000005 97.08183333333334 2129.54 0.0 0.0 1.0
-38.95653333333333 128.57966666666667 2601.74 0.0 0.0 1.0
-42.45333333333334 -119.14666666666666 2393.6 0.0 0.0 1.0
-42.45333333333334 -119.14666666666666 2393.6 0.0 0.0 1.0
-42.390433333333334 -106.13533333333334 2384.06 0.0 0.0 1.0
-41.965466666666664 -104.22333333333334 2384.06 0.0 0.0 1.0
-43.02786666666666 -100.18599999999999 2384.06 0.0 0.0 1.0
-42.177933333333335 -96.57373333333334 2384.06 0.0 0.0 1.0
-42.6029 -95.93626666666667 2384.06 0.0 0.0 1.0
-43.1746 -91.11113333333333 2374.6 0.0 0.0 1.0
-42.3904 -87.43693333333333 2384.06 0.0 0.0 1.0
-42.390433333333334 -84.88713333333332 2384.06 0.0 0.0 1.0
-42.96296666666667 -83.28043333333333 2374.6 0.0 0.0 1.0
-42.96296666666667 -82.43386666666666 2374.6 0.0 0.0 1.0
-41.1155 -80.63746666666667 2384.06 0.0 0.0 1.0
-43.1746 -79.25923333333333 2374.6 0.0 0.0 1.0
-42.96296666666667 -66.9841 2374.6 0.0 0.0 1.0
-43.38623333333334 -61.48146666666667 2374.6 0.0 0.0 1.0
-43.38623333333334 -52.1693 2374.6 0.0 0.0 1.0
-43.74176666666667 -45.428200000000004 2365.22 0.0 0.0 1.0
-43.95256666666666 -43.320166666666665 2365.22 0.0 0.0 1.0
-42.303533333333334 -29.00726666666667 2349.75 -0.8225625147219395 0.5483604439675782 0.15063775378702104
-51.515366666666665 -13.598363333333333 1826.25 -0.9947180606521737 4.745148070633754e-15 0.10264492102573008
-43.333333333333336 -25.9375 2337.5 0.0 0.0 1.0
-44.81286666666667 -28.6711 2322.3866666666668 0.9776788321602934 -0.2058245023386939 -0.04219449469674246
-44.11403333333333 -5.452296666666666 2224.54 0.0 0.0 1.0
-46.48443333333333 -1.6031893333333336 2124.5066666666667 -0.9960417083905593 0.07114886369614944 0.053279961910297435
-45.55963333333333 6.396063333333333 2208.12 0.0 0.0 1.0
-44.9692 9.151293333333333 2208.12 0.0 0.0 1.0
-45.362833333333334 9.741696666666666 2208.12 0.0 0.0 1.0
-46.2662 19.693766666666665 2114.49 0.0 0.0 1.0
-46.2662 19.693766666666665 2114.49 0.0 0.0 1.0
-46.3768 23.864766666666668 2168.12 0.0 0.0 1.0
-45.024166666666666 40.869566666666664 2168.12 0.0 0.0 1.0
-45.99033333333333 49.95166666666666 2168.12 0.0 0.0 1.0
-45.99033333333333 49.95166666666666 2168.12 0.0 0.0 1.0
-45.0909 53.04243333333333 2176.0 0.0 0.0 1.0
-53.73056666666667 50.969966666666664 1674.63 -0.964669491258654 0.08039360852013315 0.2508976690682503
-45.41063333333333 74.49276666666667 2168.12 0.0 0.0 1.0
-45.41063333333333 74.49276666666667 2168.12 0.0 0.0 1.0
-45.9206 82.8881 2160.29 0.0 0.0 1.0
-45.46763333333333 83.741 2152.52 0.0 0.0 1.0
-46.595499999999994 97.84100000000001 2129.54 0.0 0.0 1.0
-46.9751 102.01666666666667 2129.54 0.0 0.0 1.0
-42.45333333333334 -119.14666666666666 2393.6 0.0 0.0 1.0
-43.45283333333333 -113.36 2384.06 0.0 0.0 1.0
-42.815400000000004 -107.19766666666665 2384.06 0.0 0.0 1.0
-42.6029 -104.86066666666666 2384.06 0.0 0.0 1.0
-43.665333333333336 -99.76100000000001 2384.06 0.0 0.0 1.0
-43.24036666666667 -95.5113 2384.06 0.0 0.0 1.0
-43.1746 -91.11113333333333 2374.6 0.0 0.0 1.0
-42.390433333333334 -84.88713333333332 2384.06 0.0 0.0 1.0
-43.1746 -81.58729999999998 2374.6 0.0 0.0 1.0
-43.1746 -79.25923333333334 2374.6 0.0 0.0 1.0
-43.59786666666667 -74.81483333333334 2374.6 0.0 0.0 1.0
-43.80949999999999 -69.31216666666667 2374.6 0.0 0.0 1.0
-42.75133333333333 -65.07936666666666 2374.6 0.0 0.0 1.0
-42.75133333333333 -64.65606666666666 2374.6 0.0 0.0 1.0
-42.96296666666667 -61.0582 2374.6 0.0 0.0 1.0
-43.38623333333334 -60.0 2374.6 0.0 0.0 1.0
-43.38623333333334 -58.9418 2374.6 0.0 0.0 1.0
-43.74179999999999 -38.260866666666665 2365.22 0.0 0.0 1.0
-43.109366666666666 -36.7852 2365.22 0.0 0.0 1.0
-36.63766666666667 -35.826100000000004 2601.74 0.0 0.0 1.0
-51.515366666666665 -13.598363333333333 1826.25 -0.9947180606521735 5.445200254442676e-15 0.10264492102573163
-51.515366666666665 -13.598363333333333 1826.25 -0.9947180606521737 4.745148070633754e-15 0.10264492102573008
-46.48443333333333 -1.6031893333333336 2124.5066666666667 -0.9960417083905594 0.07114886369614902 0.053279961910297935
-52.26666666666667 3.587880333333333 2176.0 0.0 0.0 1.0
-45.362833333333334 9.741696666666666 2208.12 0.0 0.0 1.0
-51.338366666666666 9.69426 1891.68 0.31592208048829495 0.9477724809150537 0.043824233935930886
-55.90086666666667 11.699766666666667 1571.9799999999998 -0.7070958202054064 0.7070958202054061 0.005567952593887749
-46.570033333333335 21.73913333333333 2168.12 0.0 0.0 1.0
-46.18356666666667 22.705333333333332 2168.12 0.0 0.0 1.0
-47.149766666666665 27.922666666666668 2168.12 0.0 0.0 1.0
-47.149766666666665 27.922666666666668 2168.12 0.0 0.0 1.0
-47.03026666666667 40.82423333333333 2176.0 0.0 0.0 1.0
-47.03026666666667 42.18183333333334 2176.0 0.0 0.0 1.0
-46.6424 42.957600000000006 2176.0 0.0 0.0 1.0
-45.99033333333333 49.95166666666666 2168.12 0.0 0.0 1.0
-46.956500000000005 59.03383333333333 2168.12 0.0 0.0 1.0
-46.956500000000005 60.5797 2168.12 0.0 0.0 1.0
-47.688700000000004 67.03696666666667 2170.7466666666664 -0.3121443489748712 0.9364868927671288 0.1598693375179305
-46.570033333333335 73.33333333333333 2168.12 0.0 0.0 1.0
-47.342966666666676 77.77776666666666 2168.12 0.0 0.0 1.0
-45.9206 82.8881 2160.29 0.0 0.0 1.0
-47.428566666666676 94.9524 2137.14 0.0 0.0 1.0
-47.3547 99.54913333333333 2129.54 0.0 0.0 1.0
-46.9751 102.01666666666667 2129.54 0.0 0.0 1.0
-43.45283333333333 -113.36 2384.06 0.0 0.0 1.0
-43.6653 -112.51 2384.06 0.0 0.0 1.0
-43.6653 -111.235 2384.06 0.0 0.0 1.0
-44.09026666666667 -109.74766666666666 2384.06 0.0 0.0 1.0
-43.02786666666666 -106.77266666666667 2384.06 0.0 0.0 1.0
-43.665333333333336 -99.76100000000001 2384.06 0.0 0.0 1.0
-43.8778 -99.12353333333333 2384.06 0.0 0.0 1.0
-43.1746 -91.11113333333333 2374.6 0.0 0.0 1.0
-43.8778 -89.98673333333333 2384.06 0.0 0.0 1.0
-43.24033333333333 -88.9243 2384.06 0.0 0.0 1.0
-43.80953333333333 -84.127 2374.6 0.0 0.0 1.0
-43.1746 -81.58729999999998 2374.6 0.0 0.0 1.0
-43.80949999999999 -79.25923333333334 2374.6 0.0 0.0 1.0
-44.2328 -74.39156666666668 2374.6 0.0 0.0 1.0
-44.2328 -74.39156666666668 2374.6 0.0 0.0 1.0
-44.444433333333336 -71.4286 2374.6 0.0 0.0 1.0
-43.59786666666667 -70.37036666666667 2374.6 0.0 0.0 1.0
-43.38623333333334 -58.9418 2374.6 0.0 0.0 1.0
-44.65606666666667 -54.49733333333333 2374.6 0.0 0.0 1.0
-44.021166666666666 -51.74603333333334 2374.6 0.0 0.0 1.0
-44.3742 -44.585 2365.22 0.0 0.0 1.0
-42.89856666666666 -39.104099999999995 2365.22 0.0 0.0 1.0
-43.531 -37.20683333333333 2365.22 0.0 0.0 1.0
-44.00373333333334 -29.02156666666667 2334.4666666666667 -0.9667035924748606 0.24167589811871515 0.08412445877811578
-46.15383333333333 -20.820533333333334 2301.54 0.0 0.0 1.0
-46.3346 1.6760733333333333 2221.7933333333335 -0.9777951573339949 -0.17778229630728978 0.1109508243047119
-51.39853333333334 9.842270000000001 1887.7 0.0 0.0 1.0
-51.39853333333334 9.842270000000001 1887.7 0.0 0.0 1.0
-47.5362 19.613533333333333 2168.12 0.0 0.0 1.0
-47.14973333333334 21.352633333333333 2168.12 0.0 0.0 1.0
-46.3768 23.864766666666668 2168.12 0.0 0.0 1.0
-46.570033333333335 31.787433333333336 2168.12 0.0 0.0 1.0
-46.984133333333325 37.41146666666666 2191.94 0.0 0.0 1.0
-47.96093333333334 40.14653333333333 2191.94 0.0 0.0 1.0
-47.68856666666667 45.25546666666667 2183.94 0.0 0.0 1.0
-46.3768 50.53136666666666 2168.12 0.0 0.0 1.0
-47.14973333333333 56.52173333333334 2168.12 0.0 0.0 1.0
-46.956500000000005 59.03383333333333 2168.12 0.0 0.0 1.0
-46.956500000000005 60.5797 2168.12 0.0 0.0 1.0
-54.721000000000004 51.523833333333336 1668.403333333333 -0.7016984401591556 0.7016984401591665 0.12344471700482174
-54.721000000000004 51.523833333333336 1668.4033333333334 -0.7016984401591555 0.7016984401591666 0.12344471700482174
-47.0024 85.46763333333332 2152.52 0.0 0.0 1.0
-48.0 95.52383333333331 2137.14 0.0 0.0 1.0
-47.7343 99.35940000000001 2129.54 0.0 0.0 1.0
-47.7343 99.92873333333334 2129.54 0.0 0.0 1.0
-43.66533333333333 -114.21 2384.06 0.0 0.0 1.0
-43.24036666666667 -104.22333333333334 2384.06 0.0 0.0 1.0
-44.09029999999999 -99.54849999999999 2384.06 0.0 0.0 1.0
-44.09029999999999 -99.12353333333333 2384.06 0.0 0.0 1.0
-44.51526666666666 -95.72376666666666 2384.06 0.0 0.0 1.0
-44.09029999999999 -95.29879999999999 2384.06 0.0 0.0 1.0
-44.51526666666666 -90.19923333333334 2384.06 0.0 0.0 1.0
-43.24036666666667 -85.52456666666666 2384.06 0.0 0.0 1.0
-43.80949999999999 -79.25923333333333 2374.6 0.0 0.0 1.0
-44.444433333333336 -71.4286 2374.6 0.0 0.0 1.0
-44.65606666666667 -68.25396666666667 2374.6 0.0 0.0 1.0
-44.65606666666667 -68.25396666666667 2374.6 0.0 0.0 1.0
-43.59786666666667 -60.84653333333333 2374.6 0.0 0.0 1.0
-44.65606666666667 -54.49733333333333 2374.6 0.0 0.0 1.0
-44.3742 -44.585 2365.22 0.0 0.0 1.0
-44.3742 -43.9526 2365.22 0.0 0.0 1.0
-44.79580000000001 -43.320166666666665 2365.22 0.0 0.0 1.0
-45.29750000000001 -32.31073333333333 2331.4333333333334 -0.8915251008368206 0.44574465046457284 0.08058970877297225
-48.072 -0.830753333333333 2082.6066666666666 -0.949061304846799 0.2711645419030614 0.16047563945033516
-51.97110000000001 6.845474666666667 1621.6899999999998 0.8830085625742103 -0.46854540236455755 0.027587757133584554
-46.54366666666667 6.592866666666667 2208.12 0.0 0.0 1.0
-51.566766666666666 9.337539999999999 1887.7 0.0 0.0 1.0
-51.566766666666666 9.337539999999999 1887.7 0.0 0.0 1.0
-47.5362 19.613533333333333 2168.12 0.0 0.0 1.0
-47.9227 31.980666666666668 2168.12 0.0 0.0 1.0
-49.745466666666665 34.61816666666667 2176.0 0.0 0.0 1.0
-46.984133333333325 37.41146666666666 2191.94 0.0 0.0 1.0
-46.98413333333334 37.41146666666666 2191.94 0.0 0.0 1.0
-48.467166666666664 39.41603333333333 2183.94 0.0 0.0 1.0
-48.467166666666664 39.41603333333333 2183.94 0.0 0.0 1.0
-47.6121 43.345466666666674 2176.0 0.0 0.0 1.0
-48.11593333333334 55.16906666666667 2168.12 0.0 0.0 1.0
-46.956500000000005 60.5797 2168.12 0.0 0.0 1.0
-47.5362 62.89856666666666 2168.12 0.0 0.0 1.0
-47.5362 62.898566666666675 2168.12 0.0 0.0 1.0
-47.72943333333333 63.47830000000001 2168.12 0.0 0.0 1.0
-54.721000000000004 51.523833333333336 1668.4033333333334 -0.7016984401591556 0.7016984401591665 0.12344471700482174
-48.8889 66.9565 2168.12 0.0 0.0 1.0
-55.25873333333334 52.369400000000006 1662.2300000000002 -0.19490180096268883 0.9731809748619996 0.12219688272680539
-47.342966666666676 72.94683333333334 2168.12 0.0 0.0 1.0
-47.342966666666676 77.77776666666666 2168.12 0.0 0.0 1.0
-47.72943333333333 78.9372 2168.12 0.0 0.0 1.0
-48.53716666666667 86.42686666666667 2152.52 0.0 0.0 1.0
-48.0 95.52383333333331 2137.14 0.0 0.0 1.0
-43.30666666666667 -118.93333333333332 2393.6 0.0 0.0 1.0
-44.940200000000004 -107.83533333333332 2384.06 0.0 0.0 1.0
-44.51526666666666 -95.72376666666666 2384.06 0.0 0.0 1.0
-45.291 -84.127 2374.6 0.0 0.0 1.0
-44.86773333333334 -74.81483333333334 2374.6 0.0 0.0 1.0
-45.50266666666667 -73.12166666666667 2374.6 0.0 0.0 1.0
-45.0794 -72.48676666666667 2374.6 0.0 0.0 1.0
-44.86773333333333 -71.85186666666668 2374.6 0.0 0.0 1.0
-44.65606666666667 -68.25396666666667 2374.6 0.0 0.0 1.0
-44.79580000000001 -43.320166666666665 2365.22 0.0 0.0 1.0
-44.20903333333333 -39.2622 2362.1166666666663 -0.8888813425471304 0.4444406712735635 0.11118654859970702
-41.136966666666666 -35.2455 2319.38 0.0 0.0 1.0
-44.77986666666666 -29.88676666666667 2258.11 0.0 0.0 1.0
-58.159600000000005 -20.385366666666666 1498.6266666666668 0.8952816090576992 -0.14627217289200017 0.42080315103443555
-46.56406666666667 -18.7692 2301.54 0.0 0.0 1.0
-46.76919999999999 -16.717933333333335 2301.54 0.0 0.0 1.0
-51.726166666666664 -7.241303333333334 2008.0966666666666 -3.156191657814779e-17 -0.9880780555367722 0.15395374684193805
-59.68596666666667 0.9557613333333334 1630.5766666666666 0.5324066237950189 0.8368855441396057 0.12714469296571176
-57.36873333333333 -2.281452 1763.46 -0.75120267868343 0.638522237090657 0.16728385540625898
-59.320933333333336 4.846533333333333 1450.0833333333333 -0.9337302709661678 -0.23342804861308392 0.27140215032702797
-51.50659999999999 9.526016666666667 1891.68 -0.3155987562837684 -0.946802501915832 0.06294797374069543
-52.03753333333333 9.75365 1936.5833333333333 -0.9953248276958776 -0.00015508998014482684 0.09658397030185781
-48.808666666666674 17.0397 2160.29 0.0 0.0 1.0
-48.11593333333334 19.806766666666665 2168.12 0.0 0.0 1.0
-47.9227 21.352633333333333 2168.12 0.0 0.0 1.0
-47.14973333333334 36.03866666666667 2168.12 0.0 0.0 1.0
-47.14973333333334 36.03866666666667 2168.12 0.0 0.0 1.0
-47.295866666666676 45.338666666666676 2197.3133333333335 0.9915625702463368 5.600565583453701e-16 0.1296289677752567
-58.79136666666667 32.416133333333335 1506.04 1.7511680852251478e-16 -0.9997676459554891 0.021555836810944688
-47.295866666666676 45.338666666666676 2197.3133333333335 0.9915625702463368 4.490342558828544e-16 0.1296289677752567
-47.72943333333333 63.47830000000001 2168.12 0.0 0.0 1.0
-48.30916666666667 72.56036666666667 2168.12 0.0 0.0 1.0
-48.69566666666666 76.61836666666666 2168.12 0.0 0.0 1.0
-48.11593333333334 77.58453333333334 2168.12 0.0 0.0 1.0
-50.255066666666664 79.80606666666667 2181.2933333333335 0.12373618221983973 -0.9897835192465365 0.07083743528389325
-48.616133333333345 83.85076666666667 2160.29 0.0 0.0 1.0
-48.571433333333324 95.7143 2137.14 0.0 0.0 1.0
-48.493500000000004 99.92873333333334 2129.54 0.0 0.0 1.0
-42.43476666666667 126.957 2601.74 0.0 0.0 1.0
-44.94023333333333 -94.87383333333332 2384.06 0.0 0.0 1.0
-45.5777 -89.77426666666668 2384.06 0.0 0.0 1.0
-46.349199999999996 -82.2222 2374.6 0.0 0.0 1.0
-46.560833333333335 -78.20106666666668 2374.6 0.0 0.0 1.0
-45.92593333333334 -75.44973333333334 2374.6 0.0 0.0 1.0
-45.92593333333334 -75.44973333333334 2374.6 0.0 0.0 1.0
-46.349199999999996 -61.90473333333333 2374.6 0.0 0.0 1.0
-46.349199999999996 -58.73016666666666 2374.6 0.0 0.0 1.0
-45.291 -54.074066666666674 2374.6 0.0 0.0 1.0
-45.291 -54.074066666666674 2374.6 0.0 0.0 1.0
-45.428200000000004 -45.2174 2365.22 0.0 0.0 1.0
-45.849799999999995 -44.79580000000001 2365.22 0.0 0.0 1.0
-45.428200000000004 -44.163399999999996 2365.22 0.0 0.0 1.0
-55.61456666666667 -29.498499999999996 1765.1899999999998 3.263832895971877e-26 7.071205761535823e-26 1.0
-45.803000000000004 -32.849333333333334 2325.3933333333334 -0.8943772652418 0.44717067540158434 -0.011300198205772037
-47.04926666666666 -32.024899999999995 2310.4466666666667 -0.925956099148076 -0.370675410600001 0.07214597997809262
-44.77986666666666 -29.88676666666667 2258.11 0.0 0.0 1.0
-56.65743333333333 -18.3934 1657.62 0.0 0.0 1.0
-46.15383333333333 -20.820533333333334 2301.54 0.0 0.0 1.0
-46.974333333333334 -19.58973333333333 2301.54 0.0 0.0 1.0
-46.76919999999999 -19.384600000000002 2301.54 0.0 0.0 1.0
-46.974333333333334 -18.974333333333334 2301.54 0.0 0.0 1.0
-58.398533333333326 -6.758623333333333 1563.7633333333333 4.141157741961216e-15 -0.9268850242924161 0.3753453766099261
-56.49216666666666 -6.097333333333334 1648.4800000000002 -3.6377077491530366e-26 2.286743892551487e-26 1.0
-48.072 -0.830753333333333 2082.6066666666666 -0.949061304846799 0.2711645419030614 0.16047563945033516
-45.38506666666667 1.256366666666666 1866.1633333333332 -0.7258082319874423 -0.5729717508303276 0.3806649223788453
-46.74046666666666 5.8056600000000005 2208.12 0.0 0.0 1.0
-44.641999999999996 8.987666666666668 2216.3 0.0 0.0 1.0
-52.03753333333333 9.75365 1936.5833333333333 -0.9953248276958769 -0.00015508998017825038 0.09658397030186229
-59.759166666666665 6.37887 1446.5833333333333 0.6930658356858042 -0.6930479459608218 -0.19835395636241743
-57.0237 10.857666666666667 1571.9799999999998 0.7004419193670014 -0.7004419193670008 0.13697530867621008
-57.68423333333333 10.8772 1574.74 0.0 0.0 1.0
-48.80866666666666 17.0397 2160.29 0.0 0.0 1.0
-48.50243333333333 20.386466666666667 2168.12 0.0 0.0 1.0
-48.50243333333333 20.966166666666666 2168.12 0.0 0.0 1.0
-48.888933333333334 28.888900000000003 2168.12 0.0 0.0 1.0
-48.88893333333334 28.888900000000003 2168.12 0.0 0.0 1.0
-44.22186666666666 37.63296666666667 2205.4133333333334 0.3976213198924077 0.686796008954817 0.6084476378873983
-48.96966666666666 41.40606666666667 2176.0 0.0 0.0 1.0
-48.695666666666675 59.80676666666667 2168.12 0.0 0.0 1.0
-55.4073 52.22083333333333 1662.2300000000002 -0.00040843598596034474 0.9872570485162033 0.15913313085313208
-49.46863333333334 70.04833333333333 2168.12 0.0 0.0 1.0
-48.695666666666675 76.61836666666666 2168.12 0.0 0.0 1.0
-49.578833333333336 80.77013333333333 2160.29 0.0 0.0 1.0
-49.001233333333325 83.65823333333333 2160.29 0.0 0.0 1.0
-48.61613333333333 83.85076666666667 2160.29 0.0 0.0 1.0
-49.414566666666666 91.85186666666668 2144.8 0.0 0.0 1.0
-49.22343333333333 93.18996666666668 2144.8 0.0 0.0 1.0
-48.571433333333324 95.7143 2137.14 0.0 0.0 1.0
-49.632299999999994 97.84100000000001 2129.54 0.0 0.0 1.0
-49.632299999999994 97.84100000000001 2129.54 0.0 0.0 1.0
-49.4425 99.5492 2129.54 0.0 0.0 1.0
-48.493500000000004 100.68793333333333 2129.54 0.0 0.0 1.0
-42.43476666666667 126.957 2601.74 0.0 0.0 1.0
-43.362300000000005 128.57966666666667 2601.74 0.0 0.0 1.0
-46.85256666666667 -116.97233333333334 2384.06 0.0 0.0 1.0
-46.85256666666667 -114.42200000000001 2384.06 0.0 0.0 1.0
-46.002633333333335 -108.68533333333333 2384.06 0.0 0.0 1.0
-46.85256666666667 -106.77300000000001 2384.06 0.0 0.0 1.0
-46.427600000000005 -99.54836666666665 2384.06 0.0 0.0 1.0
-46.427600000000005 -99.54836666666665 2384.06 0.0 0.0 1.0
-46.349199999999996 -82.85713333333332 2374.6 0.0 0.0 1.0
-46.560833333333335 -80.5291 2374.6 0.0 0.0 1.0
-46.77246666666667 -79.89416666666666 2374.6 0.0 0.0 1.0
-45.92593333333334 -75.44973333333333 2374.6 0.0 0.0 1.0
-45.50266666666667 -73.12166666666667 2374.6 0.0 0.0 1.0
-46.984100000000005 -61.2698 2374.6 0.0 0.0 1.0
-46.98413333333334 -57.67196666666666 2374.6 0.0 0.0 1.0
-45.291 -44.33863333333333 2374.6 0.0 0.0 1.0
-51.700700000000005 -31.83673333333334 2035.37 0.0 0.0 1.0
-61.282866666666656 -21.781200000000002 1531.7699999999998 -0.0001907564980264985 0.9759602086331909 0.21794869757953844
-56.65743333333333 -18.3934 1657.62 0.0 0.0 1.0
-47.17946666666666 -19.179466666666666 2301.54 0.0 0.0 1.0
-47.17946666666666 -18.974333333333334 2301.54 0.0 0.0 1.0
-58.398533333333326 -6.758623333333333 1563.7633333333333 4.141157741961216e-15 -0.9268850242924161 0.3753453766099261
-56.49216666666666 -6.097333333333334 1648.4800000000002 -3.637707749153038e-26 2.2867438925514885e-26 1.0
-56.49216666666666 -6.097333333333334 1648.4800000000002 -3.637707749153038e-26 2.2867438925514885e-26 1.0
-55.3778 -5.121183333333334 2017.08 4.213311376327562e-15 -0.9039159239726771 0.4277101850419529
-47.3944 2.3728173333333333 2127.023333333333 0.0 -0.8843830228636141 0.46676189740660723
-59.98383333333334 4.3260700000000005 1448.91 0.0 0.0 1.0
-52.615100000000005 9.04256 1932.4033333333334 -0.7071113623858929 0.7070702616150142 0.006720589590327112
-57.68423333333333 10.8772 1574.74 0.0 0.0 1.0
-49.57883333333333 16.654633333333333 2160.29 0.0 0.0 1.0
-48.88893333333334 28.888900000000003 2168.12 0.0 0.0 1.0
-48.69566666666666 32.1739 2168.12 0.0 0.0 1.0
-48.69566666666666 32.1739 2168.12 0.0 0.0 1.0
-48.96966666666666 41.40606666666667 2176.0 0.0 0.0 1.0
-48.96966666666666 41.40606666666667 2176.0 0.0 0.0 1.0
-48.96966666666666 41.98786666666666 2176.0 0.0 0.0 1.0
-47.68856666666667 45.25546666666667 2183.94 0.0 0.0 1.0
-48.8889 66.9565 2168.12 0.0 0.0 1.0
-49.08213333333333 72.56036666666667 2168.12 0.0 0.0 1.0
-48.695666666666675 77.3913 2168.12 0.0 0.0 1.0
-49.3863 83.4657 2160.29 0.0 0.0 1.0
-50.6475 87.76979999999999 2152.52 0.0 0.0 1.0
-49.796899999999994 90.7049 2144.8 0.0 0.0 1.0
-49.22343333333333 93.18996666666668 2144.8 0.0 0.0 1.0
-42.89853333333334 127.18866666666666 2601.74 0.0 0.0 1.0
-42.89853333333334 127.18866666666666 2601.74 0.0 0.0 1.0
-46.85256666666667 -116.97233333333334 2384.06 0.0 0.0 1.0
-47.06506666666667 -112.51 2384.06 0.0 0.0 1.0
-47.27753333333334 -112.08533333333334 2384.06 0.0 0.0 1.0
-47.06506666666667 -109.11033333333332 2384.06 0.0 0.0 1.0
-47.490033333333336 -104.86066666666666 2384.06 0.0 0.0 1.0
-46.85256666666667 -98.69856666666665 2384.06 0.0 0.0 1.0
-47.277566666666665 -89.56176666666668 2384.06 0.0 0.0 1.0
-46.3492 -82.85713333333332 2374.6 0.0 0.0 1.0
-46.349199999999996 -81.37566666666667 2374.6 0.0 0.0 1.0
-47.19573333333333 -78.20106666666668 2374.6 0.0 0.0 1.0
-47.19573333333333 -78.20106666666666 2374.6 0.0 0.0 1.0
-47.619033333333334 -70.79363333333333 2374.6 0.0 0.0 1.0
-47.407399999999996 -66.7725 2374.6 0.0 0.0 1.0
-46.560833333333335 -65.07936666666667 2374.6 0.0 0.0 1.0
-46.984100000000005 -61.2698 2374.6 0.0 0.0 1.0
-46.772466666666666 -60.84653333333333 2374.6 0.0 0.0 1.0
-45.92589999999999 -49.84126666666666 2374.6 0.0 0.0 1.0
-45.92589999999999 -49.84126666666666 2374.6 0.0 0.0 1.0
-47.114599999999996 -47.114599999999996 2365.22 0.0 0.0 1.0
-51.700700000000005 -31.83673333333333 2035.37 0.0 0.0 1.0
-47.3846 -18.358966666666664 2301.54 0.0 0.0 1.0
-59.8547 4.971749999999999 1448.91 0.0 0.0 1.0
-52.615100000000005 9.04256 1932.4033333333334 -0.7071113623858938 0.7070702616150134 0.0067205895903272765
-57.68423333333334 10.8772 1574.74 0.0 0.0 1.0
-48.937733333333334 34.67643333333333 2191.94 0.0 0.0 1.0
-58.79136666666667 32.416133333333335 1506.04 1.7511680852251478e-16 -0.9997676459554891 0.021555836810944688
-50.434799999999996 47.2464 2168.12 0.0 0.0 1.0
-50.821266666666666 50.33813333333333 2168.12 0.0 0.0 1.0
-50.821266666666666 54.975833333333334 2168.12 0.0 0.0 1.0
-50.434799999999996 58.2609 2168.12 0.0 0.0 1.0
-50.241566666666664 60.5797 2168.12 0.0 0.0 1.0
-50.241566666666664 60.5797 2168.12 0.0 0.0 1.0
-50.241566666666664 62.705333333333336 2168.12 0.0 0.0 1.0
-50.434799999999996 63.09183333333334 2168.12 0.0 0.0 1.0
-50.048333333333325 66.3768 2168.12 0.0 0.0 1.0
-49.46863333333334 70.04833333333333 2168.12 0.0 0.0 1.0
-50.241566666666664 70.4348 2168.12 0.0 0.0 1.0
-50.048333333333325 72.1739 2168.12 0.0 0.0 1.0
-50.241566666666664 72.94683333333334 2168.12 0.0 0.0 1.0
-50.15643333333333 80.5776 2160.29 0.0 0.0 1.0
-50.15643333333333 81.1552 2160.29 0.0 0.0 1.0
-49.386300000000006 83.4657 2160.29 0.0 0.0 1.0
-49.578833333333336 84.23586666666667 2160.29 0.0 0.0 1.0
-50.0119 99.1696 2129.54 0.0 0.0 1.0
-50.0119 99.1696 2129.54 0.0 0.0 1.0
-43.362300000000005 127.18866666666666 2601.74 0.0 0.0 1.0
-48.12746666666667 -115.272 2384.06 0.0 0.0 1.0
-47.27753333333334 -112.51 2384.06 0.0 0.0 1.0
-47.27753333333334 -112.08533333333334 2384.06 0.0 0.0 1.0
-47.49 -108.47266666666667 2384.06 0.0 0.0 1.0
-47.490033333333336 -104.86066666666666 2384.06 0.0 0.0 1.0
-47.70250000000001 -98.48606666666667 2384.06 0.0 0.0 1.0
-47.70250000000001 -94.4489 2384.06 0.0 0.0 1.0
-47.914966666666665 -92.74903333333333 2384.06 0.0 0.0 1.0
-47.914966666666665 -92.74903333333333 2384.06 0.0 0.0 1.0
-47.407399999999996 -79.89416666666666 2374.6 0.0 0.0 1.0
-47.19573333333333 -78.20106666666668 2374.6 0.0 0.0 1.0
-47.619033333333334 -77.35453333333334 2374.6 0.0 0.0 1.0
-48.042333333333325 -72.48676666666667 2374.6 0.0 0.0 1.0
-46.984100000000005 -61.2698 2374.6 0.0 0.0 1.0
-46.98409999999999 -45.820100000000004 2374.6 0.0 0.0 1.0
-66.03766666666667 -26.06656666666667 1326.8333333333333 -0.6333400371670336 0.22061675585974125 0.7417605033669453
-55.61456666666667 -29.498499999999996 1765.1899999999998 3.263832895971867e-26 7.071205761535801e-26 1.0
-47.7681 -49.043499999999995 2601.74 0.0 0.0 1.0
-51.700700000000005 -31.83673333333333 2035.37 0.0 0.0 1.0
-48.410266666666665 -26.769266666666667 2301.54 0.0 0.0 1.0
-57.24836666666667 -18.0979 1657.62 0.0 0.0 1.0
-47.79486666666667 -19.179466666666666 2301.54 0.0 0.0 1.0
-49.75733333333333 -15.427833333333334 2292.72 0.0 0.0 1.0
-49.55296666666666 -13.180066666666667 2292.72 0.0 0.0 1.0
-51.2381 -2.9523833333333336 2137.14 0.0 0.0 1.0
-56.46536666666666 -1.7960953333333334 1760.01 -0.9261901538677174 0.21370816139678075 0.31064549027935545
-51.11913333333334 1.058964 2160.29 0.0 0.0 1.0
-59.98383333333334 4.3260700000000005 1448.91 0.0 0.0 1.0
-59.8547 4.971749999999999 1448.91 0.0 0.0 1.0
-49.57883333333333 16.654633333333333 2160.29 0.0 0.0 1.0
-50.62803333333333 27.536199999999997 2168.12 0.0 0.0 1.0
-50.62803333333333 27.536199999999997 2168.12 0.0 0.0 1.0
-48.937733333333334 34.67643333333333 2191.94 0.0 0.0 1.0
-48.156299999999995 37.997566666666664 2191.94 0.0 0.0 1.0
-51.20773333333333 41.06283333333334 2168.12 0.0 0.0 1.0
-58.79136666666667 32.416133333333335 1506.04 1.7511680852251476e-16 -0.9997676459554891 0.021555836810944688
-50.434799999999996 47.2464 2168.12 0.0 0.0 1.0
-50.821266666666666 50.33813333333333 2168.12 0.0 0.0 1.0
-50.821266666666666 54.975833333333334 2168.12 0.0 0.0 1.0
-50.434799999999996 58.2609 2168.12 0.0 0.0 1.0
-52.65456666666666 78.83636666666666 2176.0 0.0 0.0 1.0
-50.15643333333333 80.5776 2160.29 0.0 0.0 1.0
-50.15643333333333 81.1552 2160.29 0.0 0.0 1.0
-51.22303333333334 86.235 2152.52 0.0 0.0 1.0
-51.031200000000005 86.61869999999999 2152.52 0.0 0.0 1.0
-50.94383333333334 90.13143333333333 2144.8 0.0 0.0 1.0
-51.150666666666666 102.01666666666667 2129.54 0.0 0.0 1.0
-44.7536 127.88433333333334 2601.74 0.0 0.0 1.0
-48.12746666666667 -115.272 2384.06 0.0 0.0 1.0
-48.12746666666667 -112.08533333333334 2384.06 0.0 0.0 1.0
-47.915 -109.11033333333332 2384.06 0.0 0.0 1.0
-47.490033333333336 -104.86066666666666 2384.06 0.0 0.0 1.0
-47.70249999999999 -100.18583333333333 2384.06 0.0 0.0 1.0
-47.70250000000001 -94.4489 2384.06 0.0 0.0 1.0
-45.7143 -87.93649999999998 2374.6 0.0 0.0 1.0
-48.46563333333333 -80.74076666666667 2374.6 0.0 0.0 1.0
-48.46563333333333 -80.74076666666667 2374.6 0.0 0.0 1.0
-47.830666666666666 -77.56616666666666 2374.6 0.0 0.0 1.0
-48.46563333333333 -72.6984 2374.6 0.0 0.0 1.0
-48.25396666666666 -72.27513333333333 2374.6 0.0 0.0 1.0
-48.04233333333334 -70.582 2374.6 0.0 0.0 1.0
-47.8307 -68.4656 2374.6 0.0 0.0 1.0
-47.114599999999996 -47.114599999999996 2365.22 0.0 0.0 1.0
-55.61456666666667 -29.498499999999996 1765.1899999999998 3.263832895971877e-26 7.071205761535823e-26 1.0
-61.282866666666656 -21.781200000000002 1531.7699999999998 -0.00019075649802707462 0.9759602086331908 0.21794869757953872
-57.24836666666667 -18.8366 1657.62 0.0 0.0 1.0
-57.24836666666667 -18.0979 1657.62 0.0 0.0 1.0
-51.8893 -3.7545 2160.29 0.0 0.0 1.0
-52.770933333333325 2.9540566666666668 1885.72 -0.8860539104182856 -1.9027809729630136e-13 0.46358221259283144
-55.3778 -5.121183333333334 2017.08 4.213311376327562e-15 -0.9039159239726771 0.4277101850419529
-51.61906666666667 -2.9523833333333336 2137.14 0.0 0.0 1.0
-51.61906666666667 -2.9523833333333336 2137.14 0.0 0.0 1.0
-51.11913333333333 1.058964 2160.29 0.0 0.0 1.0
-47.31183333333333 2.3894866666666665 2144.8 0.0 0.0 1.0
-59.22806666666667 3.859646666666667 1574.74 0.0 0.0 1.0
-59.684866666666665 5.254683333333333 1571.9799999999998 0.8815146124751126 -0.4407765480108253 0.1692572678395603
-58.2271 10.605566666666666 1576.1233333333332 0.8813978892567489 -0.44075127795513425 0.1699296083520002
-51.8893 22.2383 2160.29 0.0 0.0 1.0
-51.20773333333333 27.922666666666668 2168.12 0.0 0.0 1.0
-50.434799999999996 29.082133333333335 2168.12 0.0 0.0 1.0
-49.745466666666665 34.61816666666667 2176.0 0.0 0.0 1.0
-49.745466666666665 34.61816666666667 2176.0 0.0 0.0 1.0
-48.467166666666664 39.41603333333333 2183.94 0.0 0.0 1.0
-51.20773333333333 42.99516666666667 2168.12 0.0 0.0 1.0
-51.0145 47.2464 2168.12 0.0 0.0 1.0
-50.434799999999996 58.2609 2168.12 0.0 0.0 1.0
-51.20773333333333 60.96616666666667 2168.12 0.0 0.0 1.0
-51.40096666666667 61.35263333333334 2168.12 0.0 0.0 1.0
-51.0145 65.7971 2168.12 0.0 0.0 1.0
-50.62803333333333 71.20773333333334 2168.12 0.0 0.0 1.0
-50.62803333333333 72.36713333333334 2168.12 0.0 0.0 1.0
-50.62803333333333 72.36713333333334 2168.12 0.0 0.0 1.0
-51.80953333333334 96.2857 2137.14 0.0 0.0 1.0
-61.55386666666666 105.16266666666667 2249.62 0.0 0.0 1.0
-49.61486666666667 -118.884 2384.06 0.0 0.0 1.0
-48.55243333333333 -114.42200000000001 2384.06 0.0 0.0 1.0
-48.76489999999999 -113.35966666666667 2384.06 0.0 0.0 1.0
-48.55243333333333 -112.51 2384.06 0.0 0.0 1.0
-48.12746666666666 -108.68533333333333 2384.06 0.0 0.0 1.0
-48.55243333333333 -98.48606666666667 2384.06 0.0 0.0 1.0
-48.55243333333333 -92.53653333333334 2384.06 0.0 0.0 1.0
-48.67726666666667 -81.16403333333334 2374.6 0.0 0.0 1.0
-48.67726666666667 -81.16403333333334 2374.6 0.0 0.0 1.0
-48.46563333333333 -72.6984 2374.6 0.0 0.0 1.0
-48.67726666666667 -72.06349999999999 2374.6 0.0 0.0 1.0
-47.83066666666667 -61.48146666666667 2374.6 0.0 0.0 1.0
-48.04233333333334 -56.61376666666666 2374.6 0.0 0.0 1.0
-49.31216666666666 -55.555566666666664 2374.6 0.0 0.0 1.0
-53.57876666666667 -43.88023333333334 2072.986666666667 -0.44355236871052434 0.8871848588749287 0.12713898849037647
-61.665099999999995 -49.351400000000005 2142.2466666666664 -0.5898950855952084 0.8072220045941941 -0.020406452154955932
-59.105 -29.004566666666665 1639.45 0.0 0.0 1.0
-57.37133333333333 -21.0993 1475.1166666666668 -0.4283734333784901 0.8205621371921437 0.37838337778262116
-48.410266666666665 -26.769266666666667 2301.54 0.0 0.0 1.0
-50.77903333333333 -17.2669 2292.72 0.0 0.0 1.0
-51.61906666666667 -2.9523833333333336 2137.14 0.0 0.0 1.0
-61.58853333333334 -1.745019 1565.1266666666668 0.7071358983567949 0.2356857037832658 0.6666416355789033
-51.50423333333333 0.673887 2160.29 0.0 0.0 1.0
-51.50423333333333 0.673887 2160.29 0.0 0.0 1.0
-52.08186666666666 1.4440419999999998 2160.29 0.0 0.0 1.0
-59.22806666666667 3.8596466666666664 1574.74 0.0 0.0 1.0
-59.508766666666666 4.421053333333334 1574.74 0.0 0.0 1.0
-52.560366666666674 11.690833333333332 2168.12 0.0 0.0 1.0
-51.0145 33.7198 2168.12 0.0 0.0 1.0
-51.98066666666667 40.67636666666667 2168.12 0.0 0.0 1.0
-51.20773333333333 41.06283333333334 2168.12 0.0 0.0 1.0
-51.5942 47.439633333333326 2168.12 0.0 0.0 1.0
-51.5942 60.772933333333334 2168.12 0.0 0.0 1.0
-51.98066666666667 62.898566666666675 2168.12 0.0 0.0 1.0
-51.5942 66.9565 2168.12 0.0 0.0 1.0
-51.69676666666667 83.85076666666667 2160.29 0.0 0.0 1.0
-51.60673333333333 87.00240000000001 2152.52 0.0 0.0 1.0
-52.47310000000001 92.043 2144.8 0.0 0.0 1.0
-52.0 96.09523333333334 2137.14 0.0 0.0 1.0
-51.80953333333334 96.85713333333335 2137.14 0.0 0.0 1.0
-51.80953333333334 96.85713333333335 2137.14 0.0 0.0 1.0
-45.68113333333333 127.88433333333334 2601.74 0.0 0.0 1.0
-49.61486666666667 -118.884 2384.06 0.0 0.0 1.0
-49.61486666666667 -106.77266666666667 2384.06 0.0 0.0 1.0
-49.61486666666667 -106.77266666666667 2384.06 0.0 0.0 1.0
-49.61486666666667 -98.48606666666667 2384.06 0.0 0.0 1.0
-49.402366666666666 -93.17396666666666 2384.06 0.0 0.0 1.0
-50.2523 -90.4117 2384.06 0.0 0.0 1.0
-50.15873333333334 -83.28043333333333 2374.6 0.0 0.0 1.0
-50.3704 -64.44443333333334 2374.6 0.0 0.0 1.0
-50.370366666666676 -53.862433333333335 2374.6 0.0 0.0 1.0
-53.57876666666667 -43.88023333333334 2072.986666666667 -0.44355236871052506 0.8871848588749282 0.12713898849037664
-50.942566666666664 -30.70398333333333 2102.27 -0.9791920730417563 0.19964939615673638 -0.03637310416281111
-59.105 -29.004566666666665 1639.45 0.0 0.0 1.0
-51.392066666666665 -27.279700000000002 2292.72 0.0 0.0 1.0
-50.98336666666666 -22.3755 2292.72 0.0 0.0 1.0
-50.5747 -14.2018 2292.72 0.0 0.0 1.0
-61.7103 -3.5602099999999997 1566.49 0.0 0.0 1.0
-60.070166666666665 6.245613333333334 1574.74 0.0 0.0 1.0
-52.560366666666674 12.850266666666668 2168.12 0.0 0.0 1.0
-52.08183333333333 17.232233333333333 2160.29 0.0 0.0 1.0
-52.65946666666667 19.9278 2160.29 0.0 0.0 1.0
-52.65946666666667 22.045766666666665 2160.29 0.0 0.0 1.0
-52.65946666666667 22.045766666666665 2160.29 0.0 0.0 1.0
-51.20773333333333 27.922666666666668 2168.12 0.0 0.0 1.0
-52.1739 33.1401 2168.12 0.0 0.0 1.0
-51.98066666666667 44.154566666666675 2168.12 0.0 0.0 1.0
-51.98066666666667 47.8261 2168.12 0.0 0.0 1.0
-52.1739 48.4058 2168.12 0.0 0.0 1.0
-52.367133333333335 49.178733333333334 2168.12 0.0 0.0 1.0
-52.367133333333335 49.178733333333334 2168.12 0.0 0.0 1.0
-52.560366666666674 52.077333333333335 2168.12 0.0 0.0 1.0
-51.98066666666667 55.16906666666667 2168.12 0.0 0.0 1.0
-51.98066666666667 61.159400000000005 2168.12 0.0 0.0 1.0
-51.78743333333333 61.54586666666666 2168.12 0.0 0.0 1.0
-52.560366666666674 64.44446666666666 2168.12 0.0 0.0 1.0
-52.560366666666674 64.6377 2168.12 0.0 0.0 1.0
-51.98066666666667 67.9227 2168.12 0.0 0.0 1.0
-52.753600000000006 68.30916666666667 2168.12 0.0 0.0 1.0
-51.5942 74.10626666666667 2168.12 0.0 0.0 1.0
-52.852000000000004 81.34776666666666 2160.29 0.0 0.0 1.0
-53.13556666666667 85.39943333333333 2200.02 -0.823421059651413 -0.5067096807732762 0.2553880536226955
-52.56596666666667 87.38610000000001 2152.52 0.0 0.0 1.0
-52.56596666666667 88.53716666666666 2152.52 0.0 0.0 1.0
-53.046600000000005 90.51376666666665 2144.8 0.0 0.0 1.0
-52.47310000000001 92.043 2144.8 0.0 0.0 1.0
-52.19046666666666 96.2857 2137.14 0.0 0.0 1.0
-46.3768 127.18866666666668 2601.74 0.0 0.0 1.0
-46.3768 127.18866666666668 2601.74 0.0 0.0 1.0
-50.03979999999999 -115.05966666666666 2384.06 0.0 0.0 1.0
-49.61486666666667 -106.77266666666667 2384.06 0.0 0.0 1.0
-50.88976666666667 -103.58566666666667 2384.06 0.0 0.0 1.0
-50.03983333333334 -93.38646666666666 2384.06 0.0 0.0 1.0
-50.2523 -90.4117 2384.06 0.0 0.0 1.0
-49.827333333333335 -89.56173333333334 2384.06 0.0 0.0 1.0
-50.15873333333334 -83.28043333333333 2374.6 0.0 0.0 1.0
-49.9471 -74.17989999999999 2374.6 0.0 0.0 1.0
-50.79366666666667 -70.79363333333333 2374.6 0.0 0.0 1.0
-50.15873333333334 -54.920633333333335 2374.6 0.0 0.0 1.0
-50.7826 -53.44926666666667 2601.74 0.0 0.0 1.0
-57.37133333333333 -21.0993 1475.1166666666668 -0.4283734333784901 0.8205621371921437 0.37838337778262116
-66.03766666666667 -26.06656666666667 1326.8333333333333 -0.6333400371670331 0.22061675585974097 0.7417605033669455
-51.59643333333333 -29.731800000000003 2292.72 0.0 0.0 1.0
-51.392066666666665 -27.279700000000002 2292.72 0.0 0.0 1.0
-50.98336666666666 -22.3755 2292.72 0.0 0.0 1.0
-50.98336666666666 -22.3755 2292.72 0.0 0.0 1.0
-51.187733333333334 -21.149433333333334 2292.72 0.0 0.0 1.0
-51.392066666666665 -17.471266666666665 2292.72 0.0 0.0 1.0
-50.983399999999996 -17.062566666666665 2292.72 0.0 0.0 1.0
-51.392066666666665 -11.341000000000001 2292.72 0.0 0.0 1.0
-51.392066666666665 -11.341000000000001 2292.72 0.0 0.0 1.0
-56.45993333333333 -6.05527 1913.8633333333335 -0.939153002483849 -0.3130612075705033 0.14136590197098473
-52.19050000000001 -2.7619066666666665 2137.14 0.0 0.0 1.0
-52.08186666666666 0.28880866666666666 2160.29 0.0 0.0 1.0
-52.43446666666667 -0.49937666666666664 2241.2 0.0 0.0 1.0
-52.08186666666666 1.4440419999999998 2160.29 0.0 0.0 1.0
-60.40246666666667 3.289588 1570.5999999999997 -1.1035469385586226e-19 5.517855786253437e-20 1.0
-59.9298 5.1228066666666665 1574.74 0.0 0.0 1.0
-60.070166666666665 6.245613333333334 1574.74 0.0 0.0 1.0
-60.070166666666665 6.245613333333334 1574.74 0.0 0.0 1.0
-52.560366666666674 12.850266666666668 2168.12 0.0 0.0 1.0
-52.560366666666674 12.850266666666668 2168.12 0.0 0.0 1.0
-52.65946666666667 19.9278 2160.29 0.0 0.0 1.0
-52.65946666666667 19.9278 2160.29 0.0 0.0 1.0
-51.98066666666667 31.400966666666665 2168.12 0.0 0.0 1.0
-54.777366666666666 36.10106666666667 2160.29 0.0 0.0 1.0
-52.560366666666674 40.09663333333334 2168.12 0.0 0.0 1.0
-53.1401 44.73426666666666 2168.12 0.0 0.0 1.0
-52.367133333333335 49.178733333333334 2168.12 0.0 0.0 1.0
-52.560366666666674 52.077333333333335 2168.12 0.0 0.0 1.0
-52.94683333333333 52.27056666666667 2168.12 0.0 0.0 1.0
-52.94683333333333 72.1739 2168.12 0.0 0.0 1.0
-52.94683333333333 72.1739 2168.12 0.0 0.0 1.0
-51.4187 79.61213333333333 2181.2933333333335 0.12355738727554569 -0.9883533127700462 0.08883299604379276
-52.852 82.503 2160.29 0.0 0.0 1.0
-52.85543333333334 90.89606666666667 2144.8 0.0 0.0 1.0
-52.85543333333334 90.89606666666667 2144.8 0.0 0.0 1.0
-52.66903333333334 101.827 2129.54 0.0 0.0 1.0
-49.61486666666667 -118.884 2384.06 0.0 0.0 1.0
-51.31473333333334 -114.21 2384.06 0.0 0.0 1.0
-51.527233333333335 -110.81033333333333 2384.06 0.0 0.0 1.0
-50.464800000000004 -102.73566666666666 2384.06 0.0 0.0 1.0
-50.889766666666674 -101.673 2384.06 0.0 0.0 1.0
-51.31473333333333 -100.18566666666668 2384.06 0.0 0.0 1.0
-50.889766666666674 -97.42363333333333 2384.06 0.0 0.0 1.0
-50.889766666666674 -96.78620000000001 2384.06 0.0 0.0 1.0
-50.03983333333334 -93.38646666666666 2384.06 0.0 0.0 1.0
-50.15873333333334 -83.28043333333333 2374.6 0.0 0.0 1.0
-51.428599999999996 -80.10583333333334 2374.6 0.0 0.0 1.0
-51.428599999999996 -71.42856666666667 2374.6 0.0 0.0 1.0
-51.00533333333334 -66.3492 2374.6 0.0 0.0 1.0
-51.00533333333334 -66.3492 2374.6 0.0 0.0 1.0
-51.21696666666667 -62.96296666666667 2374.6 0.0 0.0 1.0
-51.428599999999996 -61.26983333333334 2374.6 0.0 0.0 1.0
-53.57876666666667 -43.88023333333334 2072.986666666667 -0.4435523687105252 0.8871848588749282 0.12713898849037666
-59.6895 -28.858433333333334 1639.45 0.0 0.0 1.0
-52.61816666666667 -38.314166666666665 2292.72 0.0 0.0 1.0
-52.4138 -35.65773333333333 2292.72 0.0 0.0 1.0
-52.61813333333333 -33.20563333333333 2292.72 0.0 0.0 1.0
-51.59643333333333 -29.731800000000003 2292.72 0.0 0.0 1.0
-51.59643333333333 -29.731800000000003 2292.72 0.0 0.0 1.0
-51.80076666666667 -21.149433333333334 2292.72 0.0 0.0 1.0
-51.80076666666667 -17.879966666666665 2292.72 0.0 0.0 1.0
-52.0051 -11.136666666666665 2292.72 0.0 0.0 1.0
-56.9968 -5.878593333333334 1911.82 0.0 0.0 1.0
-52.43446666666667 -0.49937666666666675 2241.2 0.0 0.0 1.0
-60.77193333333333 2.45614 1574.74 0.0 0.0 1.0
-60.491233333333334 3.5789500000000003 1574.74 0.0 0.0 1.0
-52.94683333333333 12.4638 2168.12 0.0 0.0 1.0
-54.199733333333334 12.611333333333333 2160.29 0.0 0.0 1.0
-54.199733333333334 18.194933333333335 2160.29 0.0 0.0 1.0
-53.42959999999999 22.2383 2160.29 0.0 0.0 1.0
-53.81466666666666 27.8219 2160.29 0.0 0.0 1.0
-53.814666666666675 27.8219 2160.29 0.0 0.0 1.0
-54.007200000000005 32.057766666666666 2160.29 0.0 0.0 1.0
-53.52653333333333 38.93716666666666 2168.12 0.0 0.0 1.0
-53.14006666666666 39.71013333333333 2168.12 0.0 0.0 1.0
-53.52653333333333 49.565200000000004 2168.12 0.0 0.0 1.0
-53.52653333333333 49.565200000000004 2168.12 0.0 0.0 1.0
-53.14006666666666 52.65703333333334 2168.12 0.0 0.0 1.0
-53.14006666666666 52.65703333333334 2168.12 0.0 0.0 1.0
-52.94683333333334 54.39613333333333 2168.12 0.0 0.0 1.0
-54.29953333333333 57.29466666666667 2168.12 0.0 0.0 1.0
-53.52653333333333 64.25123333333333 2168.12 0.0 0.0 1.0
-53.52653333333333 64.25123333333333 2168.12 0.0 0.0 1.0
-53.52653333333333 65.99033333333334 2168.12 0.0 0.0 1.0
-53.52653333333333 65.99033333333334 2168.12 0.0 0.0 1.0
-53.52653333333333 70.82126666666666 2168.12 0.0 0.0 1.0
-53.14006666666666 71.5942 2168.12 0.0 0.0 1.0
-51.159400000000005 80.39073333333333 2186.6066666666666 0.12188675455530762 -0.9749896813443746 0.18584601242956222
-52.852000000000004 81.34776666666666 2160.29 0.0 0.0 1.0
-52.65946666666667 83.46570000000001 2160.29 0.0 0.0 1.0
-52.56596666666667 87.38610000000001 2152.52 0.0 0.0 1.0
-53.6201 90.70493333333333 2144.8 0.0 0.0 1.0
-52.7619 97.04763333333334 2137.14 0.0 0.0 1.0
-52.66903333333334 101.827 2129.54 0.0 0.0 1.0
-51.102233333333324 -115.27233333333334 2384.06 0.0 0.0 1.0
-51.31473333333333 -100.18566666666668 2384.06 0.0 0.0 1.0
-50.889766666666674 -97.42363333333333 2384.06 0.0 0.0 1.0
-51.31473333333333 -95.7238 2384.06 0.0 0.0 1.0
-50.2523 -90.4117 2384.06 0.0 0.0 1.0
-52.5896 -85.73706666666668 2384.06 0.0 0.0 1.0
-51.640233333333335 -80.31746666666668 2374.6 0.0 0.0 1.0
-51.42856666666666 -75.02646666666668 2374.6 0.0 0.0 1.0
-50.79366666666667 -70.79363333333333 2374.6 0.0 0.0 1.0
-51.00533333333334 -66.3492 2374.6 0.0 0.0 1.0
-51.21696666666667 -62.96296666666667 2374.6 0.0 0.0 1.0
-51.00533333333334 -62.1164 2374.6 0.0 0.0 1.0
-52.275133333333336 -58.518499999999996 2374.6 0.0 0.0 1.0
-52.0635 -54.920633333333335 2374.6 0.0 0.0 1.0
-60.47013333333334 -35.51493333333334 1623.1499999999999 -0.9999277899705704 6.109939829171802e-17 0.012017272759283246
-60.47013333333334 -35.51493333333334 1623.1499999999999 -0.9999277899705703 8.002569640099341e-17 0.012017272759283354
-60.47013333333334 -35.51493333333333 1623.1499999999999 -0.9999277899705703 1.6329242324788017e-16 0.012017272759283243
-59.6895 -28.858433333333334 1639.45 0.0 0.0 1.0
-52.822466666666664 -34.227333333333334 2292.72 0.0 0.0 1.0
-52.61813333333333 -33.20563333333333 2292.72 0.0 0.0 1.0
-51.80076666666667 -27.892733333333336 2292.72 0.0 0.0 1.0
-53.0268 -23.805899999999998 2292.72 0.0 0.0 1.0
-51.80076666666667 -21.76246666666667 2292.72 0.0 0.0 1.0
-51.80076666666667 -17.879966666666665 2292.72 0.0 0.0 1.0
-52.20943333333333 -12.158366666666666 2292.72 0.0 0.0 1.0
-57.3376 -5.026623333333333 1911.82 0.0 0.0 1.0
-59.741600000000005 -6.925067666666667 2319.38 0.0 0.0 1.0
-52.43446666666667 -0.49937666666666675 2241.2 0.0 0.0 1.0
-60.77193333333333 2.45614 1574.74 0.0 0.0 1.0
-54.6544 7.255866666666666 2170.7466666666664 -0.923357739584073 0.3693367246636329 0.10488502545612138
-54.007200000000005 22.623366666666666 2160.29 0.0 0.0 1.0
-54.007200000000005 32.057766666666666 2160.29 0.0 0.0 1.0
-53.91303333333334 38.5507 2168.12 0.0 0.0 1.0
-53.52656666666667 46.47343333333333 2168.12 0.0 0.0 1.0
-53.3333 49.178733333333334 2168.12 0.0 0.0 1.0
-53.91303333333334 64.058 2168.12 0.0 0.0 1.0
-53.52653333333333 65.99033333333334 2168.12 0.0 0.0 1.0
-54.49276666666666 68.1159 2168.12 0.0 0.0 1.0
-54.49276666666666 70.04833333333333 2168.12 0.0 0.0 1.0
-54.7879 78.25453333333333 2176.0 0.0 0.0 1.0
-54.7879 78.25453333333333 2176.0 0.0 0.0 1.0
-53.6201 90.70493333333333 2144.8 0.0 0.0 1.0
-54.38473333333334 93.95456666666666 2144.8 0.0 0.0 1.0
-54.38473333333334 93.95456666666666 2144.8 0.0 0.0 1.0
-50.31886666666667 128.81133333333335 2601.74 0.0 0.0 1.0
-51.7397 -114.63499999999999 2384.06 0.0 0.0 1.0
-51.527233333333335 -114.21 2384.06 0.0 0.0 1.0
-51.952200000000005 -111.87266666666666 2384.06 0.0 0.0 1.0
-52.16466666666667 -109.53533333333333 2384.06 0.0 0.0 1.0
-51.952200000000005 -104.01066666666667 2384.06 0.0 0.0 1.0
-51.95216666666666 -100.39799999999998 2384.06 0.0 0.0 1.0
-51.31473333333333 -94.6614 2384.06 0.0 0.0 1.0
-52.48676666666666 -79.25923333333334 2374.6 0.0 0.0 1.0
-52.275133333333336 -78.62433333333333 2374.6 0.0 0.0 1.0
-51.428599999999996 -71.42856666666667 2374.6 0.0 0.0 1.0
-52.275133333333336 -60.21163333333334 2374.6 0.0 0.0 1.0
-52.275133333333336 -60.21163333333334 2374.6 0.0 0.0 1.0
-52.0635 -54.920633333333335 2374.6 0.0 0.0 1.0
-74.4189 -38.671533333333336 1704.8666666666668 0.49467569717001114 -0.49478391762439117 0.7144822107579888
-61.046833333333325 -31.809033333333332 1648.4800000000002 -1.4978277856168688e-25 6.864874879356348e-26 1.0
