ply
format ascii 1.0
comment VCGLIB generated
element vertex 473
property float x
property float y
property float z
property float nx
property float ny
property float nz
element face 0
property list uchar int vertex_indices
end_header
7.244586666666666 -54.459 1610.0466666666664 0.6556913513265538 0.2868655617080697 0.698410338770462
12.8073 -37.07033333333333 1773.9166666666667 -0.8962019299253151 -0.1280326993616783 0.4247702069264072
13.228733333333333 -33.706700000000005 1788.0533333333333 -0.5794544706701523 -0.8112265532396141 -0.07838364459087652
-6.489543333333334 -21.2346 1457.1566666666668 -0.4404811665165244 -0.8946908602673556 0.0741930353759777
4.938400000000001 -23.702766666666665 1677.7766666666666 -0.12963584132036118 0.9852151575926626 0.11200732964778258
20.051933333333334 -18.993800000000004 1877.8533333333332 0.6114254138729107 -0.36939817392528884 0.6997885054579005
24.265833333333333 -12.432989999999998 1924.12 0.0 0.0 1.0
5.337056666666666 -6.1100900000000005 1577.5166666666667 0.36274168681522734 -0.6892111864236626 0.6272211804100137
21.522000000000002 -5.401923333333333 1924.12 0.0 0.0 1.0
14.332293333333334 0.5773766666666665 1837.4633333333331 -0.360405246734399 -0.493889104592319 0.7913163782529175
-4.27972 9.009986666666668 1454.7833333333335 0.49874172312455844 0.5699915865449564 0.6529672923529246
-0.882105 8.481766666666667 1522.6500000000003 2.2406363942185456e-29 -6.0938318186398575e-30 1.0
3.50009 23.085633333333334 1604.2966666666664 -0.3621408859934867 0.7816459585687252 0.5078223844466008
-0.6837603333333333 19.076933333333333 1534.36 0.0 0.0 1.0
13.653889999999999 34.70766666666666 1913.8633333333335 -0.45304281228189197 0.06969621968280983 0.8887601741761609
13.0676 34.9822 1788.0533333333333 -0.9464182295010017 -0.29121616187435184 0.13959112411382196
11.331086666666666 42.806533333333334 1775.6766666666665 -0.39776652104408433 0.5551474652003516 0.7304745626085212
2.148272 41.627900000000004 1554.2933333333333 -0.8844294133926969 -0.4420111277584226 0.14970229010799124
7.537183333333332 46.9947 1645.4833333333333 0.6081013482814441 -0.7767264186658869 0.1640390830404608
12.839513333333334 55.9924 1704.84 0.0 0.0 1.0
18.8783 77.96823333333333 1899.68 0.0 0.0 1.0
11.77809 78.1355 1809.7 -0.3764897039224198 0.8476052058606064 0.3739263534954546
0.2167833333333334 71.40593333333334 1607.1633333333332 -0.5111690031576244 0.817884666916969 0.264141859297157
6.070166666666666 85.44733333333333 1547.5866666666668 0.14839186114190947 0.9398230966927764 0.30775380171435784
8.481050000000002 98.86163333333333 1700.006666666667 0.355680545961138 0.869119030852422 0.34369093592199
24.1778 120.089 1994.67 0.0 0.0 1.0
8.640596666666667 102.12299999999999 1671.51 0.0 0.0 1.0
8.111916666666666 103.069 1669.9566666666667 -0.8931692611805249 -0.44651469563693064 -0.05360314787859397
10.1155 106.945 1693.5866666666668 0.4809276037435838 -0.8657800496484044 0.1383240600483553
11.341000000000001 115.63199999999999 1719.54 0.0 0.0 1.0
13.781333333333334 131.35 1852.6433333333334 0.08448092191024552 0.9705400442622467 0.22564351600839624
9.861156666666666 119.43933333333332 1688.8100000000002 -0.31851038207165394 -0.47773621189969356 0.8187302659315215
17.222733333333334 -126.11500000000001 1806.0366666666669 0.7949297789644102 -0.4769469043421134 0.37497772861073875
19.692566666666668 -136.317 1990.25 -0.4303881709776283 -0.6763085713334688 0.5978066063731767
0.5734766666666666 -114.117 1611.5 0.10751000346112388 0.860296297812233 0.49832908717669167
13.506666666666668 -122.51766666666667 1793.4133333333332 -2.015426563117809e-17 0.9976687954726515 0.06824202913270215
-4.764970000000001 -79.42183333333332 1445.4166666666667 -0.829713060614015 -0.5532606769587398 0.07401932435304268
-3.8086033333333336 -81.81196666666666 1448.9166666666667 -0.9881955670589929 -0.1411393674837835 0.05957516421490326
-2.4671653333333334 -62.81296666666666 1494.756666666667 0.32480375722221705 -0.5568064409523725 0.7645057923968159
-12.683659999999998 -40.89713333333333 1388.4000000000003 -3.353971498636387e-27 -1.5460355797908034e-26 1.0
14.108033333333333 -43.792033333333336 1829.97 0.0 0.0 1.0
3.68117 -42.262166666666666 1588.676666666667 -0.37426810183373 -0.5738728569118514 0.7284183770674697
14.9555 -31.572699999999998 1775.67 0.0 0.0 1.0
25.310766666666666 -24.895833333333332 1905.7433333333336 -0.23016528735163883 0.6694048898932583 0.706343424889998
0.20287600000000014 -9.552273333333334 1520.07 0.45633436015626844 0.7722592783310481 0.4420119441512616
13.465200000000001 -0.3944700000000001 1777.43 0.8707281319839106 -0.4353694150738271 0.22866130540623428
-3.9374266666666666 9.107913333333334 1448.9166666666667 -0.9614570248924109 -0.079950573711693 0.2630746948077768
3.3429063333333335 14.146683333333334 1533.05 0.41655575193156413 -0.018934255860508127 0.9089129768507753
7.903073333333334 48.08383333333333 1688.8133333333335 -0.881223072303734 -0.44061479487190336 -0.17118557000973803
9.596826666666667 55.71896666666667 1656.0933333333332 -0.31549895076771595 0.8202816116537536 0.4770728347403475
14.863100000000001 65.39003333333334 1873.9066666666665 -0.046088049566640726 -0.737509883503975 0.673761874419365
17.173033333333333 75.08486666666667 1870.01 -0.3553027161046248 -0.886304299879663 0.2970263758380675
6.181864666666667 73.74549999999999 1669.9566666666667 -0.6209586813559034 -0.7451531964630322 0.24322218206747367
18.234133333333336 85.00893333333333 1843.1233333333332 0.3759332668915893 0.8772030769597098 0.2986451751102548
10.887596666666667 90.96646666666668 1770.41 0.0 0.0 1.0
10.887596666666667 90.96646666666668 1770.41 0.0 0.0 1.0
21.163700000000002 104.746 1870.01 0.6161313380380525 -0.7805282070935935 -0.10563092453774801
24.53333333333333 119.02233333333334 1994.67 0.0 0.0 1.0
9.363663333333333 110.78433333333332 1722.8466666666666 -0.31623125612173414 0.8698091612592145 0.3787212901874042
11.406976666666667 112.48333333333333 1695.18 0.0 0.0 1.0
15.072899999999999 -127.69566666666667 1798.8033333333333 -0.7943194903754881 -8.290257083506163e-18 0.607500244616926
13.506666666666668 -122.51766666666667 1793.4133333333332 -3.023139844676714e-17 0.9976687954726515 0.06824202913270215
2.1754199999999995 -112.86500000000001 1676.2 -0.6604953220819542 0.4198040827407958 0.6225033828197358
-3.1468966666666667 -93.5754 1471.4766666666667 -0.8916639360129929 -0.44579794801657285 -0.0787376324131607
-2.3170866666666665 -71.98853333333334 1576.1233333333332 -0.2445068970276303 -0.4325878541505654 0.8678041978161485
8.45173 -75.40983333333334 1634.97 0.0 0.0 1.0
15.0813 -80.2444 1839.3466666666666 0.6243574047734954 -0.6868058277087926 0.37212307927585686
-3.9129366666666665 -41.430933333333336 1492.2766666666666 -0.4534207923380277 0.31039081633086957 0.8355041150185986
-6.489543333333334 -21.2346 1457.1566666666668 -0.4404811665165244 -0.8946908602673557 0.0741930353759776
0.076922 -21.342533333333336 1530.4399999999998 -0.6548828426499169 0.18455562266728417 0.7328490189286296
0.067854 3.3248533333333334 1522.6500000000003 3.570114353834981e-29 9.981479771351929e-31 1.0
-4.5765433333333325 7.158353333333333 1446.5766666666668 -0.9166038228219345 0.30553197237065843 -0.2578519843776874
11.641663333333334 13.5934 1826.25 -0.7533167662356268 0.25110258596214685 0.6078333168159019
15.770566666666667 34.74186666666666 1843.1233333333337 -0.9904991364032795 -7.565708611694708e-17 0.13751894700134099
9.140683333333333 43.4372 1695.18 0.0 0.0 1.0
2.148272 41.627900000000004 1554.2933333333333 -0.884429413392697 -0.4420111277584227 0.14970229010799113
11.981429999999998 51.437666666666665 1746.3100000000002 -0.33039459839353347 0.9085807188364333 0.2555787289878521
20.43986666666667 68.9715 1903.7133333333334 0.28912868817810156 -0.8674144355173417 0.4049651821188357
9.436983333333332 78.00586666666668 1721.1933333333334 -0.5624849855836411 -0.6562372409021001 0.5029545950144704
15.575933333333333 103.323 1829.97 0.0 0.0 1.0
4.380366666666667 97.00583333333333 1637.9566666666667 -0.9649669163547732 -0.18093146879545333 0.1900069839250125
24.1778 120.089 1994.67 0.0 0.0 1.0
5.284009999999999 105.60879999999999 1646.9733333333334 -0.9320876495021327 0.20713737686349426 0.29716446751201636
4.54939 110.75099999999999 1646.9733333333334 0.7856800326727128 0.4159542971854656 0.457918015492239
10.092633333333334 -119.856 1665.3066666666666 0.13023784857140785 0.5208710456409713 0.8436417821637169
13.506666666666668 -122.51766666666667 1793.4133333333332 -3.023139844676714e-17 0.9976687954726515 0.06824202913270215
-3.1468966666666667 -93.5754 1471.4766666666667 -0.8916639360129925 -0.44579794801657374 -0.07873763241316185
1.34072 -78.1913 1503.5233333333333 -0.23264615653060103 0.9696308081246812 0.07544442846902151
1.660532333333333 -68.59740000000001 1550.2666666666667 0.22363327378027734 -0.8946152399764341 0.38684846033068665
-3.2499186666666664 -63.403333333333336 1489.7966666666664 -0.4002837877125049 0.4366742203625881 0.8056602972501848
-16.44567 -39.016133333333336 1145.7233333333334 0.8633444200901008 -0.05138879471757648 0.5019916374570023
14.341233333333333 -44.543033333333334 1788.0533333333333 -0.05289724500475343 0.952172561360699 0.3009473290506375
-3.7407733333333333 -38.91923333333333 1472.6833333333334 -0.03611544368151865 0.6861732690820419 0.7265410652708839
12.8073 -37.07033333333333 1773.9166666666667 -0.8962019299253139 -0.1280326993616798 0.42477020692640904
16.0652 -38.4098 1829.97 0.0 0.0 1.0
16.0652 -38.4098 1829.97 0.0 0.0 1.0
17.6194 -31.689466666666664 1846.9233333333334 -0.32182039018881947 0.8841353699820025 0.33872744796591747
17.0829 -34.41266666666667 1843.1233333333337 0.9149581210625789 0.39212617331373745 0.09533467839123326
-19.811296666666667 -12.881566666666666 1189.6733333333334 0.038101242106711536 0.9990564382274434 0.020845349270761555
30.27716666666667 -19.628200000000003 1992.46 0.10472257936043604 0.6545247116610432 0.7487526849348359
-5.819336666666666 -0.20042999999999989 1450.0933333333332 0.9342000590635946 0.15253960176036752 0.3224932860392056
14.638966666666667 -2.453016666666666 1775.67 0.0 0.0 1.0
4.58801 -7.9642533333333345 1581.6933333333334 -0.8185580167294888 -0.47385124221798147 0.3246964328359056
-2.8270589999999998 2.1692699999999996 1475.1033333333335 0.8941892015989437 -0.4023858781465 0.1962429025776825
-4.5765433333333325 7.158353333333333 1446.5766666666668 -0.9166038228219323 0.30553197237066115 -0.2578519843776917
15.770566666666667 30.4752 1843.1233333333332 -0.9904991364032795 -1.5129033034397785e-16 0.13751894700134107
15.770566666666667 34.741866666666674 1843.1233333333332 -0.9904991364032796 -9.717176563427486e-17 0.1375189470013409
15.3436 37.989733333333334 1841.2300000000002 -1.2386005852836106e-26 -6.3781259252648055e-28 1.0
14.119566666666666 37.8872 1789.8366666666668 -0.48503854191857376 0.8730410260208487 0.05036843990007746
29.6889 55.20003333333333 1994.67 0.0 0.0 1.0
18.8783 77.96823333333333 1899.68 0.0 0.0 1.0
3.0976466666666673 63.5017 1511.11 0.0 0.0 1.0
2.5791489999999997 81.29113333333333 1523.9433333333334 0.2956852450506304 -0.8131584825308673 0.5013417179404144
15.438166666666667 100.9671 1852.6433333333334 0.23575091415849017 0.9413856293388423 0.24127702614991758
24.1778 120.089 1994.67 0.0 0.0 1.0
7.24487 105.132 1693.5866666666668 0.5711246868293589 -0.8158407254277167 0.0906669886322672
4.525686666666666 103.721 1637.9566666666667 -0.980546211694712 0.14007894324865355 0.1375027868426294
12.459766666666667 120.90266666666666 1758.28 0.4849567338657558 -0.8313901553774476 0.271306792800552
6.923090666666667 116.62 1687.22 0.15193216333666396 -0.8103724464796352 0.5658737630695135
13.373833333333332 127.98366666666668 1818.84 0.0 0.0 1.0
2.3155933333333336 122.27999999999999 1676.2 -0.12616557689559918 -0.9782060642831827 0.16490949944198718
12.166746666666667 -122.30333333333333 1695.1933333333334 -0.41390808934769885 0.9055802178497289 0.09276078164706696
13.846033333333333 -127.49266666666665 1828.11 0.7710171411913734 0.4956683481261989 0.39980677414837135
-8.021313333333334 -93.08556666666668 1439.6166666666668 0.7043344991014083 0.7043271741105158 0.08852200395982592
-7.35641 -92.7101 1447.7433333333336 0.7680050432716132 -2.367243807138903e-15 0.640443794184445
-6.656829999999999 -76.86296666666667 1436.16 0.8911153605654286 -0.08101240673102299 0.4464867345397772
5.558933333333333 -82.4192 1643.9633333333334 0.6902901501387897 -0.16322189883392973 0.7048816357108572
16.958366666666667 -88.15986666666667 1846.9233333333334 0.11383024369634916 0.7198065301319734 0.6847782376794682
0.3395756666666667 -76.5745 1538.3100000000002 0.26053026744472113 0.8810572077670563 0.3947938403608901
6.451620000000001 -72.1864 1608.5999999999997 3.397987124435251e-29 -1.9813953420716215e-28 1.0
0.47914633333333345 -66.3843 1543.5966666666666 -0.6113836062276602 0.6113810453739509 0.5024174592841262
-3.7453033333333337 -56.857733333333336 1475.1033333333335 0.5992454507377352 -0.5992644587137151 0.5308361312991857
-5.57711 -50.10490000000001 1439.6233333333332 -0.8245348497536152 0.2623523511437954 0.5013118045599024
10.606066666666667 -59.924266666666675 1700.0 0.0 0.0 1.0
3.7160966666666666 -47.811866666666674 1668.403333333333 0.613781383578892 0.2527329867022041 0.7479294422634829
13.944966666666668 -48.3588 1829.97 0.0 0.0 1.0
14.664433333333335 -39.02266666666666 1828.11 -0.9904389899902719 -4.3790355186603255e-16 0.13795146649112003
10.972153333333333 -17.003086666666665 1760.01 0.894373714296274 0.4473181344069303 -0.0014648571910754363
13.631366666666667 -11.114966666666666 1820.6899999999998 -0.9904541384692553 -1.1732150967286666e-16 0.13784266244209492
-5.580206666666666 1.992 1439.6266666666668 -0.9960877352028521 0.019531477160772883 0.08618436736654432
-5.887903333333334 3.8988933333333335 1436.1599999999999 -0.9986715215404859 3.4396153182068085e-16 0.05152855581142661
-5.887903333333334 8.38606 1436.16 -0.9986715215404857 -7.725783015399245e-17 0.05152855581142616
-5.887903333333334 8.38606 1436.16 -0.9986715215404857 1.4478677477103886e-16 0.051528555811425826
4.111565333333334 31.874 1565.1266666666668 0.5453470203971557 -0.4090092887901303 0.7316474759249404
13.067599999999999 34.9822 1788.0533333333333 -0.9464182295010017 -0.29121616187435184 0.13959112411382196
16.984633333333335 42.912800000000004 1841.2300000000002 1.1148005596001358e-28 -1.1245066208934946e-28 1.0
9.23945 53.258199999999995 1685.63 0.0 0.0 1.0
8.334783333333334 50.8182 1640.9533333333336 0.2518021111590347 0.4406505830827229 0.8616395768792827
18.8783 77.96823333333334 1899.68 0.0 0.0 1.0
18.590933333333336 78.8223 1887.7 0.0 0.0 1.0
3.3699666666666666 73.77289999999999 1643.96 0.0 0.0 1.0
3.3699666666666666 73.77289999999999 1643.96 0.0 0.0 1.0
-10.103043333333334 70.74073333333334 1444.2600000000002 -0.10499573041829084 -0.8248629828477128 0.5554970352049627
12.494116666666665 100.99466666666667 1972.8400000000001 -0.21724972364197467 0.9559507578690547 0.19738466532906104
12.444543333333334 100.76209999999999 1848.8166666666666 -0.3291803908322008 0.8935085421499023 0.30542225753326446
14.015466666666669 102.52736666666665 1818.8533333333332 0.7053212323204285 -0.7059017723471005 0.06499728482955514
-2.92074 82.05076666666666 1488.5633333333335 -0.5980855653218685 0.679236636399345 0.42536013956002644
5.2275426666666664 102.805 1677.7700000000002 0.6788170861377327 0.6788313270556237 0.2799917730494572
4.3033166666666665 103.33873333333334 1636.4633333333334 -0.9826555255581078 0.12282632134595833 0.13893096442024122
-2.1968666666666667 -112.31233333333334 1539.6366666666665 0.7328028538504817 0.6762343501820185 -0.07554522501450542
-5.824536666666667 -101.48216666666667 1470.2766666666666 -0.3917803963884311 -0.301747595580027 0.8691700118891564
19.262 -135.75433333333334 1992.46 -0.1331959433498613 -0.6993879819589497 0.7022216824952989
8.698469999999999 -109.367 1712.9966666666667 0.9238901363418103 -0.17619236815505024 0.3396811230760793
-3.4157733333333336 -92.54323333333332 1473.8966666666668 0.943280110915461 0.3281069466249373 -0.05068001507276602
-5.0341233333333335 -85.49309999999998 1467.8700000000001 -0.5145045290026605 0.8574864113051289 0.0014642618623241343
-6.656829999999999 -76.86296666666667 1436.1599999999999 0.8911153605654288 -0.081012406731023 0.4464867345397771
-5.97314 -77.94746666666667 1441.9333333333334 -0.8940694608459455 0.007808524388539201 0.4478602752304715
-6.055083333333333 -70.00363333333333 1445.4166666666667 0.6981815272170488 -0.2782017353276622 0.6596562358634581
-5.70949 -68.178 1507.3 0.0 0.0 1.0
-4.563926666666666 -62.26133333333333 1530.4399999999998 -0.3945007657999368 -0.47856699930453084 0.7844378706818792
1.1209603333333333 -60.28653333333333 1574.7433333333336 0.9003049235545919 -0.42135385306444395 -0.10914199526812567
8.550533333333334 -61.52846666666667 1698.3933333333334 0.7978864936811932 -0.05699153416899994 0.6001075805505169
-8.056066666666666 -38.873200000000004 1446.5766666666668 -0.5749146957249845 0.25552195841060565 0.7772912075981929
2.7445966666666664 -21.1246 1617.3066666666666 -0.879966459336664 -0.35146160770926393 0.319583742935893
-3.7108086666666664 -15.164366666666666 1486.0933333333332 0.667212295582198 0.667201252200795 0.3311649765383182
13.631366666666667 -11.114966666666666 1820.6899999999998 -0.9904541384692553 2.172131928681082e-17 0.13784266244209492
13.631366666666667 -11.114966666666666 1820.6899999999998 -0.9904541384692553 2.172131928681082e-17 0.13784266244209492
-2.5643333333333334 -1.6402533333333331 1475.1033333333335 -0.44574948662520536 -0.5448052073786323 0.7102778901151938
-2.9918566666666666 1.1268646666666666 1489.7966666666664 -0.23068954986205653 0.9227581994482267 0.30870639276747813
3.18756 10.962110000000001 1744.61 0.0 0.0 1.0
-1.9445633333333336 10.674729999999998 1507.3099999999997 -0.9265041762279438 -0.2623872742450151 0.2697089723135858
-4.2298 13.25 1556.9833333333333 0.24728078602146103 0.8036951969391979 0.5412266099162831
6.624513333333334 21.550666666666668 1708.1066666666666 -0.9464744549717071 -0.24914955002785685 0.20520869330251723
-4.935216666666666 19.103066666666667 1514.9633333333331 0.6218771786511342 -0.7774696233819082 0.09386031851266553
1.7799133333333332 44.04143333333334 1537.0 0.4802813073667398 -0.8758773417983845 0.04656981767509295
15.455466666666666 50.85086666666666 1797.0 0.0 0.0 1.0
12.839513333333334 55.9924 1704.84 0.0 0.0 1.0
8.923913333333333 50.5188 1768.6933333333334 -0.8010258929204495 0.07406374409290638 0.5940303701680051
14.102400000000001 65.1531 1871.9533333333331 -0.38185592980703387 -0.6109694876912541 0.6934712207305304
14.010066666666667 72.87216666666667 1860.3166666666668 0.9053841777176702 0.4115292273997916 -0.10451404563133371
18.590933333333336 78.8223 1887.7 0.0 0.0 1.0
-0.2679966666666669 72.91603333333333 1513.6633333333332 -0.38817157272699193 0.5924723208410146 0.7059032364027773
4.23425 101.38940000000001 1637.9566666666667 -0.9838838574864817 0.14055575289808528 0.11052888900541974
-6.776633333333334 92.82986666666666 1461.89 0.7309276955998114 0.074966955422708 0.6783248922159639
10.508933333333333 119.923 1760.01 0.8943172692467287 0.4474077250430009 0.004790563528518728
13.347833333333334 127.72433333333333 1815.1666666666667 -0.9541168202460468 -0.1908233640492102 0.2307542785226653
12.358940000000002 132.75366666666665 1846.9233333333334 0.06472417512209734 0.9698336430944453 0.23501805436374468
14.538403333333333 -120.73833333333334 1744.61 0.0 0.0 1.0
12.7301 -119.09033333333333 1854.5633333333335 -0.9429976454877821 -0.28288980483927634 0.17529631748127283
9.506369999999999 -101.5166 1719.55 -0.04625437916439853 -0.5055773758687754 0.8615405094467462
10.999016666666668 -92.97723333333333 1775.67 0.0 0.0 1.0
-5.512400333333333 -68.51963333333333 1471.4766666666667 0.7833806213473261 0.602595608198643 0.15229358186471567
3.2026600000000003 -69.02910000000001 1598.5766666666666 0.6421939182967029 0.12844178596844907 0.755704756449212
17.1065 -66.88523333333335 1828.11 -0.37926684236494373 0.9102249192502624 0.16627464827320562
18.46426666666667 -69.54813333333334 1891.68 -0.44704123655671035 -0.8940677581286766 0.028230775628906243
6.055446666666666 -38.567299999999996 1700.006666666667 0.9010638828008025 -0.3580092945267941 0.24477177971402045
5.480326666666667 -37.56656666666667 1731.1500000000003 -0.8012002661867432 0.16024351848654328 0.5765415407803193
7.343156666666666 -32.26446666666667 1753.13 -0.6664874644154148 -0.7331333699649701 0.1353141589816725
-0.2815699999999997 -7.87379 1534.3633333333335 0.28363706045107046 0.35178425945375064 0.8920750264071134
17.61819 -6.176373333333333 1901.6966666666667 0.7651180824560868 0.5191891531514301 0.3808371609344625
20.705066666666667 -0.94819 1928.2699999999998 0.9777274705702996 -0.040741053172759424 0.2058862789954165
10.815143333333333 8.423183333333332 1673.07 -0.3835283017910609 0.4130300218513809 0.8260219384342724
-3.4605626666666667 13.231553333333332 1522.6500000000003 8.935313477600365e-27 1.0559922860948661e-26 1.0
12.677793333333332 12.128566666666666 1802.42 0.6386861983232098 0.115932074692676 0.7606837017636814
0.9244423333333334 17.706666666666667 1595.7300000000002 0.0 0.0 1.0
0.9244423333333334 17.706666666666667 1595.7300000000002 0.0 0.0 1.0
17.207066666666666 49.01403333333334 1829.9800000000002 -0.28319541046763264 -0.9308014856160275 0.23110377293559045
15.65919 69.35526666666668 1972.7533333333333 -0.3776470397234225 0.04196519688535057 0.9249981814244337
18.51493333333333 71.56153333333333 1932.4033333333334 -0.9397111550313542 -0.3132168219527793 0.13725220419154985
18.51493333333333 71.56153333333333 1932.4033333333334 -0.939711155031354 -0.3132168219527795 0.1372522041915499
15.438166666666667 100.9671 1852.6433333333334 0.23575091415848948 0.9413856293388425 0.2412770261499176
3.158861 99.98153333333335 1648.4800000000002 9.959335491653923e-28 -6.555179686390309e-28 1.0
4.011076666666667 101.29306666666668 1636.4633333333334 -0.9856680866904552 0.12320287426006933 0.11523660292647801
1.7576633333333334 92.6134 1513.6633333333332 -0.4815517773840307 0.049815432527671115 0.8750007476456018
6.971469999999999 109.541 1739.5733333333335 0.0003788996721145087 -0.9882041219232729 0.1531419924413015
3.0513966666666668 102.72766666666666 1629.05 -0.9610003953453928 0.26207001163888044 0.08830373234238578
12.418533333333334 121.573 1763.46 0.4458450037076971 -0.8916495251208677 0.0786343246973925
13.373833333333332 127.98366666666668 1818.84 0.0 0.0 1.0
13.373833333333332 127.98366666666668 1818.84 0.0 0.0 1.0
12.8615 128.21066666666667 1815.1666666666667 -0.9801561483111726 -0.1960312296622353 0.029422473127163496
0.54041 -92.83326666666666 1523.9433333333334 0.13148887138708043 -0.6311536880695898 0.7644316180911847
-8.58168 -71.8602 1428.1833333333334 -0.8165040428616652 0.3197664260039193 0.48069801413281893
-8.150716666666668 -65.32583333333334 1450.0933333333335 0.7703257806031168 -0.23706798109885308 0.5919433791131653
3.2026600000000003 -69.02910000000001 1598.5766666666666 0.6421939182967028 0.12844178596844946 0.755704756449212
18.46426666666667 -69.54813333333334 1891.68 -0.44704123655671035 -0.8940677581286766 0.028230775628906243
-1.1639733333333333 -54.95223333333333 1535.6733333333332 0.6168439411240475 -0.6853828993033803 0.3869804047248971
-4.733286666666667 -55.427233333333334 1518.7900000000002 -0.26637012990021264 -0.7157665463970845 0.6455425663391486
14.341233333333333 -44.543033333333334 1788.0533333333333 -0.05289724500475338 0.9521725613606989 0.3009473290506377
4.194186666666667 -37.135999999999996 1711.3433333333332 0.49815632282648287 -0.4981533508880333 0.7097066415266388
13.228733333333333 -33.706700000000005 1788.0533333333333 -0.5794544706701523 -0.8112265532396145 -0.07838364459087675
4.819413333333333 -22.668333333333333 1690.4033333333334 0.9126046787179642 0.3990609635975656 -0.08889908725439015
13.363666666666667 -21.259766666666668 1828.11 -0.8038174434504709 0.535864605711932 0.2583150052744611
-1.9649133333333333 23.228099999999998 1574.74 0.0 0.0 1.0
9.140683333333333 43.4372 1695.18 0.0 0.0 1.0
10.892996666666667 48.32783333333333 1746.3099999999997 0.8682592566453015 0.21706481416132525 0.44610394495325617
15.65919 69.35526666666668 1972.7533333333333 -0.37764703972342223 0.04196519688535116 0.9249981814244337
18.51493333333333 71.56153333333333 1932.4033333333334 -0.9397111550313544 -0.31321682195277906 0.13725220419154968
8.13349 85.0554 1772.1633333333332 0.8572119532927204 0.5143307937174129 0.02552453263225666
12.604513333333331 104.86613333333332 1924.12 0.0 0.0 1.0
-8.316180000000001 81.98476666666666 1436.1733333333334 0.00032467344923075284 -0.9983804490260929 0.05688913419633555
-4.50514 -110.16199999999999 1534.3633333333335 -0.7645331463430289 -0.6370677174074626 0.09815188016576198
-6.210210000000001 -94.16513333333334 1499.756666666667 -0.48210687696095417 -0.5166899182120608 0.7075340893589291
-5.631873333333334 -91.85296666666666 1503.5233333333333 0.2906887603253953 -0.5842020581807351 0.7577651350107617
-3.3310833333333334 -90.4634 1525.2366666666667 -0.8845283422850727 -0.321647744513152 0.33786438128933144
-15.31547 -59.558233333333334 1143.4800000000002 0.6707304356739768 -0.4595444418752134 0.5821851841142952
-5.70949 -68.178 1507.3 0.0 0.0 1.0
10.007353333333333 -80.1021 1870.01 -0.09586033579240151 0.5154116422334988 0.8515642283891075
10.19013 -67.82693333333333 1760.0100000000002 0.7107676144980326 -0.16721837322220057 0.6832623316396836
-6.69951 -60.098533333333336 1473.89 0.0 0.0 1.0
6.69559 -67.24793333333334 1811.5033333333333 0.5748426593511339 0.10451630824144245 0.8115616170702604
23.6923 -61.715466666666664 1926.1966666666667 -0.6019425274837515 -0.7920241493528115 0.101798528714457
15.839966666666669 -32.08493333333333 1813.34 0.4589596110524391 0.8522301524619478 0.2511171890916252
6.450043333333333 -24.2431 1684.0733333333335 -0.09933178396490386 0.9875044152173008 0.12234470409742428
-1.5063733333333336 -16.123633333333334 1539.6233333333332 -0.5581713141140373 -0.39869158021476986 0.7276605032335192
20.552233333333334 -16.246233333333333 1944.9966666666667 -0.8069523581093005 0.23284590818640044 0.5427805033185048
-8.946483333333333 -10.905063333333333 1465.4833333333333 0.46604730108648845 -0.8831202077508312 0.05383875752772307
5.696876666666667 3.3427936666666667 1597.1533333333334 -0.4055828057277133 0.38172535544049546 0.8305349726001088
10.801396666666667 7.715426666666666 1822.54 0.7403446581569467 0.6477968330555476 0.17958020553968831
-4.27972 9.009986666666668 1454.7833333333335 0.49874172312455844 0.5699915865449564 0.6529672923529246
9.222393333333333 18.216333333333335 1668.4033333333334 -0.27441730884817916 -0.8232543894534302 0.4969379748521769
9.467263333333333 26.801799999999997 1712.9766666666665 0.45625658597875907 -0.4055636213490911 0.7920530770025569
-0.42627600000000004 34.6419 1602.86 -0.7529558614836575 -0.05378266900294847 0.6558695717689017
13.085100000000002 44.84630000000001 1813.3400000000001 0.6890921333767952 -0.6888852766906308 0.2249202242509329
8.758986666666667 46.027366666666666 1854.5500000000002 0.3824234366034435 0.4643706856588023 0.7988192420298761
-8.591073333333334 39.12713333333333 1506.04 0.29605033147795184 0.9251531539087604 0.23758333915590185
18.0695 71.51116666666667 1903.7133333333334 -0.2102418081795249 0.6307460546836157 0.7469657265192675
17.3617 69.55343333333333 1920.006666666667 -0.7013822509527249 0.7013822509527244 0.12698770057363087
-5.307153333333333 57.2447 1488.5633333333335 0.8878036166537108 -0.443563011465687 -0.12270531005658074
12.299199999999999 76.50853333333333 1817.0266666666666 0.9306440693295571 0.11590561841174091 0.347084289247316
-5.3598 64.64846666666666 1484.86 0.0 0.0 1.0
5.693943333333333 107.76966666666665 1726.1599999999999 -0.8212438453525884 0.41070654107684734 0.39607913803580425
0.8629173333333333 100.7559 1611.493333333333 -0.9129782247074123 -1.031216444134607e-15 0.4080082857125597
0.8629173333333333 100.7559 1611.493333333333 -0.9129782247074124 -1.080895961502193e-15 0.40800828571255976
15.2554 -125.521 1820.6899999999998 -0.15792827028500486 0.631691432302426 0.758962842173776
12.244933333333334 -125.30366666666664 1831.8400000000001 -0.79477164124292 -0.5109395440206507 0.32753445716749424
-8.021313333333334 -93.08556666666668 1439.6166666666668 0.7043344991014081 0.704327174110516 0.08852200395982525
-6.213593333333333 -84.59546666666667 1452.43 0.0 0.0 1.0
-6.538483333333333 -76.3483 1438.466666666667 0.5274687599222087 0.7916300130667018 0.3083806571724967
8.848063333333332 -82.573 1739.5433333333333 -0.3899898126428564 0.2908299947247767 0.8736852180294549
-2.4074503333333332 -71.47019999999999 1543.5966666666666 -0.9330210387627897 0.3588556982852804 0.026350123988106138
11.537703333333333 -73.42886666666668 1714.61 0.0 0.0 1.0
-1.1639733333333335 -54.95223333333333 1535.6733333333332 0.6168439411240475 -0.6853828993033803 0.38698040472489703
-4.733286666666667 -55.427233333333334 1518.7900000000002 -0.26637012990021264 -0.7157665463970845 0.6455425663391486
-3.30597 -48.99593333333333 1512.3866666666665 0.3442386844653526 -0.40161014189941924 0.8486512959049151
-9.19947 -48.88276666666667 1433.8666666666668 -0.4789950612377442 0.4791074427693169 0.735540474476351
2.4153733333333336 -46.91536666666667 1642.4566666666667 0.45700490126684473 -0.7937407468331257 0.40140023297810057
-20.312333333333335 -26.960466666666672 1222.0533333333333 0.9523918755591902 0.2721162161949274 0.1374862911442564
7.343156666666666 -32.26446666666667 1753.13 -0.6664874644154148 -0.7331333699649701 0.1353141589816725
1.9325346666666665 -29.362533333333335 1668.403333333333 0.6690140684469064 -0.29269433513343557 0.6831911902248992
3.566201 -21.997866666666667 1597.1533333333334 -0.3566958916732883 -0.06203351341745067 0.9321587225770538
10.801396666666667 7.715426666666666 1822.54 0.7403446581569467 0.6477968330555477 0.17958020553968831
-7.696126666666667 8.59629 1428.1833333333334 -0.9075975545895947 0.40320151737432447 0.1170265580542723
7.572503333333333 19.616466666666664 1700.0366666666669 -0.140478411953157 0.983389934329163 0.11493499395398987
-3.09122 16.61855 1508.5866666666668 -0.9003186157659228 -0.2838245116920695 0.3299545978889992
-8.947136666666667 22.5219 1465.4833333333333 -0.0005381082487480885 0.8424515914103259 0.5387717759587282
-3.73539 26.959366666666664 1493.5266666666666 -0.3030546724861773 -0.9470986948110814 0.10565002494766383
-0.4262760000000001 34.6419 1602.86 -0.7529558614836575 -0.0537826690029484 0.6558695717689017
-1.3439406666666667 44.916 1587.2699999999998 3.503270430844189e-29 -1.401479889139752e-28 1.0
0.3586153333333333 64.6718 1607.1633333333332 -0.9851603991008141 -0.08209644542577542 0.1507287686275492
-5.358836666666666 58.16403333333333 1484.8700000000001 -0.2487681852096537 0.968562092543738 0.0013648863654956015
-12.713756666666667 58.364200000000004 1440.7833333333335 -0.22729259164333193 -0.969635912656064 0.09024563519472599
14.8755 74.68323333333333 1864.1866666666667 -0.14139405170408714 0.987840130599735 0.06464981453492812
6.051663333333334 78.31503333333333 1717.8966666666665 -0.5550000494367897 -0.6475047520868809 0.5222188632652672
10.874936666666665 86.4963 1731.1599999999999 0.563707139514511 -0.458011765974636 0.6873568818955426
-4.941353333333333 76.194 1498.5 -0.9888684089458915 0.12360855111823643 0.08282629944209556
2.0289866666666665 98.76823333333333 1626.09 0.0 0.0 1.0
3.970486666666666 -116.36433333333333 1751.43 0.3256360153994009 -0.7326162659863811 0.5976910508673969
-6.449573333333333 -65.6345 1492.2766666666666 -0.9114651303973123 -0.34726496000417345 0.22054107015046093
15.0813 -80.2444 1839.3466666666666 0.6243574047734954 -0.6868058277087926 0.37212307927585686
-9.19947 -48.88276666666667 1433.8666666666668 -0.47899506123774716 0.4791074427693129 0.7355404744763516
21.333333333333332 -66.22223333333334 1994.67 0.0 0.0 1.0
11.86992 -60.0813 1824.39 0.0 0.0 1.0
4.606633333333334 -42.801300000000005 1566.4966666666667 -0.13868969275210768 0.6243707495309859 0.7687173318290936
14.108033333333333 -43.792033333333336 1829.97 0.0 0.0 1.0
5.69361 -41.137566666666665 1751.42 0.673419125089814 -0.03367131611380291 0.7384936861168372
-8.056066666666666 -38.873200000000004 1446.5766666666668 -0.5749146957249845 0.25552195841060565 0.7772912075981929
-1.2179283333333333 -6.712219999999999 1521.36 -0.6647211625219501 0.06997069843709089 0.743807688489231
-9.450846666666665 8.816223333333333 1423.64 -0.8305426710730535 -0.5536934952606724 0.06018625119458484
0.9244423333333334 17.706666666666667 1595.7300000000002 0.0 0.0 1.0
-2.019156666666667 20.118299999999998 1562.4066666666668 0.8726065265842521 0.4365679869485693 0.21901196892919103
0.06781333333333321 21.892233333333333 1559.6866666666665 -0.16819099020491549 0.8409549510245777 0.5143020135690117
-3.9497656666666665 20.960433333333334 1531.75 -0.2781936338957637 -0.6954947649337636 0.6624917614654531
0.3555546666666667 28.373333333333335 1595.7300000000002 -2.5658158547317087e-28 -4.0248005368418944e-29 1.0
-1.282661 36.36953333333333 1597.1533333333334 0.6100620203085552 0.6100148395101663 0.5056740323117552
13.867666666666667 44.98853333333333 1818.8533333333335 0.16045237942260943 -0.9636967802657181 0.21340934760012478
-5.358836666666666 58.16403333333333 1484.8700000000001 -0.2487681852096537 0.968562092543738 0.0013648863654956015
14.010066666666667 72.87216666666667 1860.3166666666668 0.9053841777176702 0.4115292273997914 -0.10451404563133376
-0.6449696666666667 67.39583333333333 1607.1633333333332 0.7518822593824094 0.6444610897139276 -0.1390790130492039
-7.097733333333333 67.53816666666667 1487.33 0.7818778315105775 0.22338884331198203 0.5820347766895476
-4.941353333333333 76.194 1498.5 -0.9888684089458915 0.12360855111823656 0.08282629944209571
-5.33269 75.66533333333334 1496.006666666667 -0.6892360858623052 0.6900531225513539 0.22086264057629845
12.896799999999999 100.32343333333334 1831.8400000000001 -0.4742925541667991 0.7586936431447084 0.44657645360424414
12.547666666666666 101.10103333333332 1828.11 -0.5294820702272299 0.846976570286246 -0.047743341881722114
-8.46967 78.49829999999999 1461.9033333333334 0.9369018434111662 -0.34701322616053965 -0.04238816677343585
-8.31618 81.98476666666666 1436.1733333333334 0.0003246734492309689 -0.9983804490260927 0.05688913419633548
0.07501666666666651 93.32666666666667 1624.62 -0.7734163361216196 0.0644521025470945 0.6306132709493741
7.24487 105.132 1693.5866666666668 0.5711246868293588 -0.8158407254277168 0.09066698863226715
-3.38501 -110.58366666666666 1546.28 0.005022842697525179 -0.9298621116856108 0.3678739244670823
5.120795333333334 -103.65973333333334 1594.3266666666666 -0.6475534569095936 0.6475805596863886 0.4016390657800842
-6.381893333333334 -95.59036666666667 1507.3100000000002 -0.16520430797969862 0.6816868915337877 0.7127485661409295
-22.24116666666667 -84.41803333333333 1253.64 0.7710823527814592 -0.5714788702088054 0.28079157062468335
-8.560336666666666 -89.78376666666668 1433.8766666666668 -0.9799268321209703 -0.19597772896189475 0.036553159101478
2.464986666666667 -87.61906666666668 1676.1899999999998 -2.802640180344081e-28 -3.423986768134677e-28 1.0
-5.496183333333334 -70.63613333333333 1522.6500000000003 0.0 0.0 1.0
-2.808866333333333 -66.32163333333334 1574.743333333333 -0.7144739232154962 0.6231021768730206 0.3182305614191701
-8.324309999999999 -51.694266666666664 1470.2766666666666 0.4763702897062991 0.8732363202439644 0.1026142099902225
-8.324309999999999 -51.694266666666664 1470.2766666666666 0.4763702897062994 0.8732363202439639 0.1026142099902228
7.726646666666666 -56.769133333333336 1766.93 0.2211314458165883 -0.9730120963673311 0.06594197444660384
-20.312333333333335 -26.960466666666672 1222.0533333333333 0.9523918755591906 0.27211621619492743 0.13748629114425587
3.68117 -42.262166666666666 1588.676666666667 -0.37426810183373 -0.5738728569118514 0.7284183770674696
3.194058 -41.9684 1666.8499999999997 -3.637643337381355e-24 -1.5047565169445708e-24 1.0
-7.323856666666667 -4.8602099999999995 1453.61 0.8829975844872378 -0.23236734557457145 0.4078243279897988
11.359866666666667 4.949963333333333 1820.6899999999998 -0.9710497371993974 0.13872933716391 0.19446485259563862
-11.501273333333335 5.594080000000001 1410.2133333333331 -0.2958018623114391 -0.8874036272418356 0.35357610299780967
11.641663333333334 13.5934 1826.25 -0.7533167662356268 0.25110258596214685 0.6078333168159019
8.926906666666667 16.001366666666666 1784.5199999999998 -0.6243604304509083 0.7804852332570242 -0.03188814128927309
-2.7248966666666665 17.677766666666667 1567.86 0.842241446368201 -0.505356933164914 0.1877330980987465
-1.9682433333333333 18.77203333333333 1577.506666666667 -0.8982527455628179 -0.2994163997872304 0.3217014526347575
-1.282661 36.36953333333333 1597.1533333333334 0.6100620203085556 0.6100148395101656 0.5056740323117556
6.99725 44.22696666666667 1651.54 0.10591434416854344 0.971272048579209 0.21310269671708576
-2.126533333333333 48.440333333333335 1591.4966666666667 0.08287712413189972 -0.9942447746940687 0.06788748256613004
-5.307153333333333 57.2447 1488.5633333333333 0.8878036166537112 -0.4435630114656861 -0.12270531005658034
0.07264366666666666 62.556933333333326 1604.2966666666664 -0.9845461518526316 -0.07577719621500208 0.15788189068404143
-0.5715530000000001 67.90570000000001 1605.7266666666667 -0.9287498144811294 -0.33772618532040033 0.1528555064438261
11.167566666666668 79.50413333333334 1856.4700000000003 0.8979393311625924 0.4040767649998721 0.1744331549290857
-5.59036 76.472 1493.5133333333333 -0.9879015992240686 -1.2134351173026759e-15 0.15508201136988123
-5.59036 76.472 1493.5133333333333 -0.9879015992240686 -1.2134351173026759e-15 0.15508201136988123
12.030133333333334 100.89236666666666 1824.3999999999999 0.6583867926675202 -0.7524969749747739 0.01658716054032511
-1.640885 94.73440000000001 1604.2966666666664 -0.07274417354489082 -0.7223180071217724 0.6877244955670125
-12.894630000000001 80.1845 1418.0166666666667 0.7653752632920883 -0.6377509962872042 -0.08645445665346067
12.888466666666666 127.35866666666668 1854.5500000000002 0.5449317431602015 -0.2854252211194486 0.7884046159462146
-11.805283333333334 90.72703333333334 1422.54 0.8129776849594896 -0.32848949770001457 0.48079302580081246
2.639382 112.80799999999999 1646.9733333333334 0.4544495954615311 -0.6060762561003818 0.6527994615317901
3.17117 -118.27033333333333 1617.3 0.0 0.0 1.0
3.17117 -118.27033333333333 1617.3 0.0 0.0 1.0
7.546748666666667 -119.66466666666668 1843.1333333333332 -0.18766795047857873 -0.9383894627370087 0.29018262626717994
-8.659663333333333 -93.7654 1450.0833333333333 0.9625732136206568 6.274542433801568e-15 0.27102178587707865
-8.659663333333333 -93.7654 1450.0833333333333 0.9625732136206565 9.31084878613882e-15 0.27102178587708053
12.7301 -119.09033333333333 1854.5633333333335 -0.9429976454877821 -0.28288980483927634 0.17529631748127283
-9.29782 -85.67816666666666 1429.3100000000002 -0.9950199162937882 -0.03980999946334177 0.09138123506186137
8.566830000000001 -112.57233333333333 1813.3766666666668 -0.941211510227031 0.3294469529600137 0.07473685972473051
-4.290413333333333 -86.39699999999999 1527.83 0.9396352894934075 0.34168670135514034 -0.01832268691222203
-8.530436666666667 -79.68043333333334 1429.3100000000002 -0.8946980127620796 -0.27953729932231414 0.34838823781404094
3.3139033333333336 -83.38696666666665 1651.5199999999998 -0.6391954963282298 -0.7670490576848386 0.05536118295800029
3.5329433333333333 -70.06133333333334 1615.86 -0.29565807598968286 0.9552038802828855 -0.013109126385757792
13.227033333333333 -76.16893333333333 1831.8400000000001 -0.6482879455268098 0.20472471123610883 0.733355665617932
-10.24789 -44.238866666666674 1428.1666666666667 0.6455104935404046 0.410209169766598 0.6442395825844776
-10.55916 -39.52523333333333 1419.1433333333334 -0.3416305582665707 0.9395369917197124 0.023639011162575243
24.453366666666668 -46.774033333333335 1911.8333333333333 0.25026869175325417 0.9677256644134906 0.02954014833380226
-14.247099999999998 -30.561666666666667 1402.5033333333333 -0.4657627066027737 -0.15524963186222768 0.8711846262100252
13.363666666666667 -21.259766666666668 1828.11 -0.803817443450471 0.5358646057119318 0.2583150052744613
-1.2381866666666668 -17.3891 1542.2733333333333 -0.31571201241767405 0.9469854819801794 0.05953504962582296
-3.710808666666667 -15.164366666666666 1486.0933333333332 0.667212295582198 0.667201252200795 0.3311649765383182
1.0812316666666668 -7.334283333333334 1732.82 0.4444838674027482 -0.8081521693543511 0.38642484752737166
-11.501273333333335 5.594080000000001 1410.2133333333331 -0.2958018623114391 -0.8874036272418356 0.35357610299780967
2.755983666666667 8.182143333333334 1626.0966666666666 0.6010674407652841 0.7063423026039799 0.37389635355801404
-2.5940966666666667 16.755533333333332 1573.36 -0.6248409802191434 0.6248484002521577 0.46812202056846175
6.743053333333333 27.7364 1734.5 -0.23740460182137144 0.3556668215863579 0.9039580560273214
10.980386666666666 56.135533333333335 1940.79 0.5758402713957024 0.8129442114407874 -0.08677379168758421
4.992556666666666 65.68203333333334 1673.07 0.6829585643602992 -0.7256347596502294 -0.08379615119008946
-3.0345633333333333 68.54233333333333 1512.3866666666665 0.7788479403771935 0.05371346769364723 0.6249085926425777
-10.737333333333334 68.43243333333332 1433.8733333333332 0.706568116076396 -0.7065681160763976 0.0390255645507294
-4.085423333333334 92.182 1666.8499999999997 2.0180485010279674e-28 1.2883246769339454e-27 1.0
0.2882816666666667 98.14203333333334 1608.61 -0.5093057074257387 -0.6342872153447627 0.5816248144927746
6.685863333333333 108.58800000000001 1724.5 0.0 0.0 1.0
11.638146666666666 127.01966666666665 1800.6066666666666 -0.30786546314279645 0.7475610345205723 0.5885332244405604
12.244933333333334 -125.30366666666664 1831.8400000000001 -0.7947716412429199 -0.5109395440206506 0.32753445716749424
22.738699999999998 -127.209 1940.79 -0.39611095370330274 -0.8803964709911728 0.2607645800766449
-6.213593333333333 -84.59546666666667 1452.43 0.0 0.0 1.0
-9.53866 -82.0995 1427.0266666666666 -0.9872062751448824 1.2417096273366193e-16 0.15944833117523413
-6.0146266666666675 -82.77983333333334 1482.4133333333332 -0.5622236046951654 0.5622226582863779 0.6064736604610075
2.568353333333333 -83.0822 1648.493333333333 0.6678423789491627 0.7418156640935629 -0.06079537305543239
-4.462176666666667 -64.14296666666667 1494.756666666667 0.3069961432304378 -0.5262791026807514 0.7929588098528068
1.4876833333333337 -52.41726666666667 1668.403333333333 -0.4988089011506511 0.7838365061656425 0.36985133734369363
-9.706063333333333 -41.434266666666666 1423.6433333333334 -0.995589161730347 -0.09333714552214191 -0.009507802629586726
-7.418939999999999 -41.02103333333333 1472.6833333333334 0.8176006444334036 -0.4905659191191934 0.30145358717524684
-10.779573333333332 -39.14966666666667 1414.6633333333332 -0.5461169429064686 0.8196603033851336 0.1729545365842813
-7.3623753333333335 -22.605933333333336 1487.3266666666666 -0.3795140757148531 0.7210805579742046 0.5796653303811695
-6.598821333333333 -23.488366666666668 1527.83 0.12270241956189203 -0.9816133441266811 0.14621682141973752
4.000803333333333 -20.313866666666666 1695.1933333333334 0.9526122285318126 0.2932863637171108 0.08070347519932664
-0.5723000000000003 -16.479633333333336 1614.3933333333334 -0.8483447585605933 -0.5220547046914582 0.08814792074849435
-5.61246 -15.275266666666667 1536.9866666666667 -0.5474455176713666 -0.39103033961594413 0.7398639595772786
-2.773332333333333 -15.146666666666667 1595.7300000000002 -9.155403954373837e-29 -4.0351041006018445e-29 1.0
1.447803333333333 -14.611249999999998 1717.9066666666665 0.7905217008507339 -0.18821734118493738 0.5827947091054753
11.536119999999999 -10.753663333333334 1761.7300000000002 0.4803078167039283 -0.2973354701604597 0.8251642378324233
17.098066666666668 -1.16171 1988.0566666666666 0.9848381879513779 0.12703543690648872 0.11813442056667492
7.257103333333333 6.53372 1809.6766666666665 0.9563171444602033 0.2516639409236641 0.14873728533980168
-2.30972 17.706033333333334 1570.61 0.9147355228465482 0.3922937919914086 0.09677036740476432
-2.2489466666666664 20.736966666666664 1577.506666666667 -0.9454257850613021 -0.315140684208768 0.08280358746848011
-10.125213333333333 30.764866666666666 1465.4833333333333 0.8649778041783688 -0.3762328466794402 0.3320575904240898
-1.3439406666666667 44.916000000000004 1587.2699999999998 -1.751635215422095e-29 7.007399445698759e-29 1.0
-1.9839339999999999 47.22220000000001 1588.6766666666665 0.8116336885557875 0.46377725361399325 0.3551920813188107
8.610006666666665 71.61753333333333 1824.3999999999999 0.8733727267280083 -0.30582905756917367 0.37906288100265745
2.4442086666666665 75.49693333333333 1712.9766666666665 -0.8359751740430905 -0.29856386464515755 0.46044014498278996
8.13349 85.0554 1772.1633333333332 0.8572119532927204 0.5143307937174129 0.02552453263225666
8.13349 85.0554 1772.1633333333332 0.8572119532927204 0.5143307937174127 0.025524532632256788
11.638146666666666 127.01966666666665 1800.6066666666666 -0.30786546314279645 0.7475610345205723 0.5885332244405604
-6.248566666666666 -88.5938 1507.3100000000002 -0.04802128835369292 -0.8503406972112556 0.5240368827965521
-0.7241866666666666 -78.35086666666666 1611.493333333333 0.270073192082832 0.2908461632095385 0.9178610898520975
-7.9121266666666665 -75.3222 1543.5966666666666 0.488797435679586 0.8379389449743657 0.24276612483686458
14.948806666666664 -69.5754 1915.9066666666668 0.5120699434039637 -0.7090110589315501 0.4848584240528603
-12.927433333333333 -39.6565 1401.41 0.0 0.0 1.0
4.194186666666667 -37.135999999999996 1711.3433333333332 0.498156322826483 -0.4981533508880334 0.7097066415266386
9.069183333333335 -14.812933333333334 1817.0033333333333 -0.07072253287695546 -0.6011720697212488 0.7959839608500526
3.10284 -15.058359999999999 1698.3933333333334 0.9875438377176471 -0.054864082983316215 0.14746898312628767
16.209200000000003 3.9938333333333333 1988.0566666666666 0.9767047482273464 0.14647550513034316 0.15682079322260423
-11.986699999999999 7.463446666666667 1408.0033333333333 0.7279163318203868 0.3788611490484466 0.5714910704559113
-2.5940966666666667 16.755533333333332 1573.36 -0.6248409802191437 0.6248484002521575 0.4681220205684616
-2.7248966666666665 17.677766666666667 1567.86 0.842241446368201 -0.505356933164914 0.1877330980987465
-2.1024486666666666 19.62816666666667 1624.6266666666668 0.8920812119458102 -0.20586345857405236 0.4022578124999242
-1.9649133333333333 23.2281 1574.74 0.0 0.0 1.0
-1.9649133333333333 23.2281 1574.74 0.0 0.0 1.0
4.992556666666666 65.68203333333334 1673.07 0.6829585643602992 -0.7256347596502294 -0.08379615119008946
-0.6407733333333333 66.74216666666666 1636.4833333333333 -0.72289955335058 0.6885664601490862 0.057380011530924556
-8.196523333333333 67.92153333333333 1585.8700000000001 -0.25321831155132024 -0.3038607805753997 0.9184492978511156
-14.8329 66.72533333333332 1398.1499999999999 0.6642972743998279 0.6642895664147918 0.34267842531651715
10.041986666666666 79.84126666666667 1800.6266666666668 -0.07668199872076606 0.996491113695041 -0.03354595950342099
3.3699666666666666 73.7729 1643.96 0.0 0.0 1.0
-12.167033333333334 68.65246666666667 1414.66 0.0 0.0 1.0
-9.21463 78.90506666666668 1457.1566666666668 0.28497488398926324 -0.852681615516315 0.43786228206571154
-8.31618 81.98476666666666 1436.1733333333334 0.00032467344923075284 -0.9983804490260929 0.05688913419633555
-2.5483 91.8233 1588.676666666667 -0.9890063789379464 9.761391785392502e-17 0.1478728589703039
5.693943333333333 107.76966666666665 1726.1599999999999 -0.8212438453525884 0.41070654107684734 0.39607913803580425
