ply
format ascii 1.0
comment VCGLIB generated
element vertex 502
property float x
property float y
property float z
property float nx
property float ny
property float nz
element face 0
property list uchar int vertex_indices
end_header
-37.461133333333336 52.07663333333333 1539.6233333333332 -0.9830969181321529 0.17874094351859043 0.039650027353670285
-37.462666666666664 52.0583 1559.6866666666665 -0.6655915551872462 0.665751322723291 0.33728779692661826
-38.437266666666666 55.35113333333334 1523.9433333333334 0.5657874377013529 -0.5657874377013539 0.5998075947157342
-39.57623333333333 68.08803333333333 1453.61 -0.9629539346843485 0.24074041614938327 0.12150626201210056
-40.573699999999995 69.34516666666667 1431.5833333333333 -0.927246487514937 0.34798146901720256 0.13828538828032907
-37.98446666666667 76.0366 1561.0433333333333 -0.2124348967429605 -0.8497650130516465 0.48246330144285837
-40.25413333333333 74.23786666666666 1420.256666666667 -0.7805807440963948 0.5204099847273738 0.34621835558209973
-41.48533333333333 77.58573333333334 1389.4766666666667 -0.7056802928186435 0.7058704006561398 0.06133760514508448
-41.17013333333333 78.58336666666666 1383.0566666666666 -0.7069284647555276 0.7069922381849126 -0.02034995982011382
-38.456700000000005 91.1058 1538.3099999999997 -0.4242900198098864 0.9055242223939416 0.001965132965822854
-43.038999999999994 83.467 1364.1366666666665 0.7199264892363957 -0.5399695591515113 0.43604899413423787
-42.8658 90.32773333333334 1339.7 0.8898596761844106 -0.44491430011986016 -0.10100011014761831
-36.20033333333333 105.492 1550.26 0.0 0.0 1.0
-33.17046666666667 -108.11166666666668 1597.1533333333334 0.44365745835681086 0.8866915104489628 -0.13017766683310789
-25.244433333333333 -127.55533333333334 1994.67 0.0 0.0 1.0
-39.3602 -82.42053333333334 1509.84 -0.966180961147056 0.2415302941051956 0.09031869876392842
-39.26113333333333 -78.05356666666667 1503.5233333333333 -0.9678308663308894 0.138933619955099 0.20976382772864272
-34.20133333333334 -72.04513333333334 1668.403333333333 0.93924355485812 -0.3130811849527059 0.14071857121962103
-35.1111 -66.5926 1662.22 0.0 0.0 1.0
-35.4167 -58.0018 1645.4666666666665 -0.9923291307306824 -1.8663880438512082e-16 0.12362401183947973
-35.4167 -58.0018 1645.4666666666665 -0.9923291307306824 -1.5023622506361314e-16 0.12362401183947973
-41.70543333333333 -40.88453333333333 1418.0166666666667 -0.990362970691724 -0.0002595103370076088 0.13849591668005437
-41.79666666666666 -38.644600000000004 1414.66 0.0 0.0 1.0
-59.70336666666666 -30.427633333333333 1248.4266666666665 -0.15519755997138565 0.9802068767300851 0.12291540257421071
-37.792699999999996 -23.069866666666666 1573.36 0.8062564778212233 -0.5758935761915092 -0.13526670274930652
-36.7109 -20.0177 1587.2699999999998 -4.4842338331229324e-26 -8.069592706865812e-26 1.0
-36.82053333333334 -17.260366666666666 1567.86 -0.8144016924379788 0.30538848231715476 0.4934447874100816
-35.8621 -15.349233333333336 1587.2699999999998 7.454073800592984e-29 -1.9380591881541524e-27 1.0
-36.85236666666666 -12.944299999999998 1587.2699999999998 9.418222247049014e-26 2.9151640288485177e-26 1.0
-37.5597 -11.529633333333331 1587.2699999999998 4.484867736690068e-27 3.3636508025175406e-27 1.0
-38.8127 -7.787076666666667 1520.08 -0.9662464116093825 0.22298471591380103 0.12901817128154214
-40.3382 -10.99756 1513.6633333333332 0.9479386682718032 -0.3159790360375458 0.039617293949275094
-41.33683333333334 5.821423333333333 1501.006666666667 0.12369664759443195 -0.7421953090887364 0.6586693119772423
-38.75306666666666 5.864553333333333 1512.3866666666665 -0.9834830288719366 -0.15130853810095468 0.09933206037646465
-37.35876666666667 35.2103 1558.3400000000001 -0.5997335274585314 0.7998900150316475 -0.02226342055520509
-37.462666666666664 52.0583 1559.6866666666665 -0.6655915551872474 0.6657513227232896 0.33728779692661803
-38.9498 54.93176666666667 1520.08 -0.6558795598974202 0.6558795598974215 0.37368971864038597
-40.80506666666667 66.11160000000001 1441.95 0.9476303013795668 -0.3159864152493212 -0.046361592780610486
-42.12033333333333 77.78686666666665 1379.87 -0.7057423634872115 0.7058060299160307 0.061364195697945816
-38.665366666666664 90.67616666666667 1535.6733333333332 -0.8852946187677169 -0.4427012578676358 0.1423693585830039
-38.456700000000005 91.10579999999999 1538.3100000000002 -0.42429002027481527 0.9055242221759358 0.0019651330396433016
-43.1226 88.46639999999998 1347.7666666666667 -0.8289681745246602 0.5528324022449437 0.08478266717518061
-36.9558 109.13333333333333 1552.9466666666667 0.44885595175804477 0.6734459694969052 0.5873660364200106
-29.41016666666667 -124.67900000000002 1773.9233333333334 -0.9097983067677329 0.36824363313811365 0.19147759047942992
-42.2183 -92.78469999999999 1292.4466666666667 0.43481786477912715 -0.8122720473944236 0.3887769868325438
-39.002100000000006 -105.03866666666666 1543.6000000000001 -0.9885421555133027 -0.14124470673972053 0.05323851604922397
-33.10863333333333 -106.89133333333332 1680.9000000000003 -2.746381271524519e-25 -5.021998943061307e-25 1.0
-41.12246666666667 -74.5093 1483.6466666666668 -0.9827917814909355 1.0283491872618902e-15 0.18471684880885547
-36.62026666666667 -79.10866666666665 1666.8499999999997 -6.923665327104594e-27 7.936847062919041e-27 1.0
-36.995 -51.18533333333334 1624.62 -0.9590298591387773 0.239771251080177 0.1509022081869715
-42.204366666666665 -40.251133333333335 1413.5466666666669 -0.9758807698245725 0.195155513508699 0.09783173633211081
-42.2849 -33.8876 1405.8066666666666 -0.9897544025615209 -0.009029105431154948 0.14249455380890896
-57.93276666666666 -22.143666666666665 1252.7833333333335 0.500465112855127 0.8591291715257083 0.10691930344168449
-38.20576666666667 -30.46613333333333 1578.89 0.0 0.0 1.0
-38.20576666666667 -30.46613333333333 1578.89 0.0 0.0 1.0
-38.41906666666667 -27.745033333333335 1576.1233333333332 -0.7684095446205863 -0.6147130361706115 -0.17797374777728253
-37.94603333333333 -4.94343 1562.4000000000003 -4.369220329111863e-29 2.8690096471669864e-28 1.0
-39.9328 -0.0643266666666668 1498.5 -0.991176447892462 0.0550650530621721 0.12056985143286099
-41.961800000000004 8.04656 1492.2699999999998 -4.614977010445693e-28 -1.6430170506718942e-28 1.0
-40.572633333333336 16.213866666666664 1509.84 0.7812983078965006 -0.607669299670787 -0.14251658259893918
-40.73853333333333 16.471166666666665 1508.57 -0.7388137287324225 0.6567278408080829 0.1512045546405517
-36.46543333333334 33.6658 1570.5999999999997 1.220882696829153e-28 -8.549087957715214e-28 1.0
-38.855199999999996 34.14843333333334 1554.2933333333333 -0.3146015615984364 0.9460453319211495 -0.07761499462106067
-37.61043333333333 43.15153333333333 1554.29 0.0 0.0 1.0
-37.61043333333333 43.15153333333333 1554.29 0.0 0.0 1.0
-38.437266666666666 55.35113333333334 1523.9433333333334 0.5657874377013534 -0.5657874377013536 0.5998075947157337
-42.447966666666666 53.482000000000006 1483.6499999999999 0.9331796245933177 -0.35826547120911856 -0.028664270149141063
-40.87043333333333 64.37236666666666 1448.9333333333334 -0.853683251677683 0.5121324458206374 0.09457940443241246
-43.27869999999999 72.00623333333333 1401.41 0.0 0.0 1.0
-33.91453333333333 83.35043333333334 1534.36 0.0 0.0 1.0
-37.77776666666667 83.26386666666667 1558.33 0.0 0.0 1.0
-38.665366666666664 90.67616666666667 1535.6733333333332 -0.8852946187677169 -0.4427012578676358 0.1423693585830039
-38.82216666666667 98.3707 1555.6366666666665 0.9623118423623246 4.9898075310494354e-18 0.27194837386759324
-38.82216666666667 98.3707 1555.6366666666665 0.9623118423623246 4.9898075310494354e-18 0.27194837386759324
-46.42483333333333 -89.09769999999999 1259.8066666666666 -0.9391755535744549 -0.31265806398566165 0.14210634958668944
-40.8546 -104.31266666666666 1540.95 -0.5665669297477733 -0.8183387439368771 -0.09655886436778288
-40.83096666666667 -103.653 1547.5866666666668 0.5996492868454366 0.08567898414325836 0.7956631476082945
-37.165 -104.902 1629.0433333333333 -0.5244110164230212 -0.838985459623195 0.14524628874787235
-40.06719999999999 -85.71576666666665 1508.57 -0.9996502053201571 -1.784081494813299e-15 0.02644743850295729
-40.0672 -85.71576666666665 1508.57 -0.9996502053201571 -1.8950649622650693e-15 0.02644743850295729
-39.79783333333333 -83.96493333333332 1508.57 -0.9727050417216806 6.376609411471404e-15 0.23204504263014014
-40.0326 -78.93133333333333 1499.756666666667 -0.9163863412798932 0.36650275661117876 0.16097143508106684
-40.6336 -79.59966666666666 1497.25 -0.9537516595533573 0.2725004741581035 0.12689075412663364
-35.5803 -75.24606666666666 1666.8499999999997 0.0 0.0 1.0
-35.555566666666664 -69.4074 1662.22 0.0 0.0 1.0
-35.25926666666666 -67.48146666666666 1662.22 0.0 0.0 1.0
-36.995 -51.18533333333334 1624.62 -0.9590298591387773 0.23977125108017708 0.1509022081869714
-42.76626666666667 -41.6962 1411.3266666666666 -0.9462671910689613 0.3157396004722658 0.06990642173700347
-43.2771 -37.15273333333334 1401.41 -0.9753677377304795 0.20879152173380314 0.07116092078247117
-39.32763333333333 -32.80736666666667 1590.0833333333333 0.6621341556944506 0.7449155130364273 0.081726607053475
-37.879666666666665 -19.434366666666666 1585.8700000000001 -0.5509779853392448 -0.8264669780088638 0.11565290282739787
-40.3382 -10.99756 1513.6633333333332 0.9479386682718032 -0.3159790360375458 0.039617293949275094
-40.399166666666666 -0.8706633333333335 1496.006666666667 -0.9912167833843593 -2.6126986563623368e-05 0.13224707049513273
-40.72966666666667 -0.7296833333333334 1488.5600000000002 -7.967850520616054e-28 3.1870761464143035e-28 1.0
-40.72966666666667 -0.7296833333333334 1488.5600000000002 -7.967850520616054e-28 3.1870761464143035e-28 1.0
-41.33683333333334 5.821423333333333 1501.006666666667 0.12369664759443207 -0.7421953090887365 0.6586693119772423
-39.6924 12.0919 1533.05 -0.6981858934544998 0.6981858934544966 0.1583442969048401
-40.769933333333334 17.944533333333332 1497.25 -0.6592698674073343 0.6592698674073334 0.3615611758159785
-39.593066666666665 29.898333333333337 1521.36 -0.7661724779312123 -0.6384648674631669 0.07309136115839147
-43.65539999999999 32.256 1504.78 -0.3465795906877657 -0.8664777146622566 0.35930343348258365
-37.8068 57.85903333333332 1562.4000000000003 1.157120543396495e-27 3.471438571306949e-27 1.0
-41.327866666666665 55.150299999999994 1486.12 0.9700146246104133 -0.24250361482748112 -0.016236527877704715
-37.083333333333336 73.12496666666665 1558.33 0.0 0.0 1.0
-41.478500000000004 72.8257 1412.4333333333334 -0.9337082584379486 0.33952618595635686 0.1136259529099862
-42.874966666666666 72.5623 1402.5033333333333 -0.9262735753831518 0.3704896548847867 0.06895418167351591
-43.038999999999994 83.467 1364.1366666666665 0.719926489236396 -0.5399695591515111 0.4360489941342373
-39.55176666666667 106.78066666666666 1548.9233333333334 0.5837212718540405 0.7296691929922142 0.35616336923270503
-47.08456666666667 90.66203333333334 1286.8866666666665 0.0025451088524475244 0.6484685747041271 0.7612371706913208
-35.3379 98.6974 1431.6000000000001 -0.652059244650034 -0.6912618114260939 0.3114094563919702
-31.8222 -141.42233333333334 1994.67 0.0 0.0 1.0
-35.526900000000005 -105.75900000000001 1646.9733333333334 -0.21815112265706352 -0.8721592842554828 0.4378907061932539
-47.18876666666667 -77.40660000000001 1265.1233333333332 0.8492562978467854 0.5096214649249391 0.13802066169719424
-47.00903333333333 -77.18563333333333 1263.34 -0.8883174148917923 -0.44422449898898436 -0.11643352136712774
-36.995000000000005 -51.185333333333325 1624.62 -0.9590298591387773 0.23977125108017722 0.1509022081869714
-70.90923333333333 -34.05343333333333 1188.1999999999998 -0.16784444985209832 0.9838901827764406 0.06154956449877284
-33.87536666666667 -44.767833333333336 1784.4966666666667 -0.933466297680709 -1.7257388873666268e-15 0.35866512388894184
-33.87536666666667 -44.767833333333336 1784.4966666666667 -0.933466297680709 -1.7257388873666268e-15 0.35866512388894184
-39.823166666666665 -33.45713333333333 1587.2699999999998 5.310100683971618e-28 7.175750804606837e-29 1.0
-38.4085 -28.081333333333333 1587.2699999999998 3.973370424571692e-28 -3.113461899850964e-28 1.0
-41.18023333333333 -23.919866666666667 1555.64 0.703506454122624 -0.7035064541226241 -0.10078361977833537
-37.41823333333334 -19.593266666666665 1587.2699999999998 -2.9115008433231104e-25 -3.941426431892363e-25 1.0
-38.691433333333336 -10.539356666666666 1587.2699999999998 -4.208331956536608e-27 -6.533920695096053e-27 1.0
-40.72966666666667 -0.7296833333333334 1488.5600000000002 -7.967850520616085e-28 3.187076146414315e-28 1.0
-38.8689 3.084832 1538.3 0.0 0.0 1.0
-40.69726666666667 0.5991666666666666 1489.7966666666664 0.9967292820671184 5.304297007890876e-16 0.08081298330074942
-40.3826 6.464316666666666 1559.6866666666665 0.5132680463506152 0.8554330567697899 -0.06921125617207428
-39.6924 12.0919 1533.05 -0.6981858934544998 0.6981858934544966 0.1583442969048401
-39.72666666666667 12.900333333333334 1531.74 -0.9915845052515898 2.0550256420365477e-16 0.1294610711563903
-40.06786666666667 13.56 1529.13 -0.9915414739200464 2.574129343594268e-16 0.12979023652209576
-38.7368 19.43856666666667 1574.74 0.0 0.0 1.0
-38.7368 19.438566666666667 1574.74 0.0 0.0 1.0
-38.1754 20.8421 1574.74 0.0 0.0 1.0
-39.23903333333333 24.94623333333333 1484.86 0.0 0.0 1.0
-40.82706666666666 33.0348 1547.5866666666668 -0.7050828049331888 0.70508280493319 0.07560738307263672
-39.592033333333326 48.801433333333335 1531.74 0.9284047468235215 -0.3713558486178308 -0.01262773823311355
-41.709300000000006 52.331466666666664 1567.86 -0.691266178528224 6.04897627699417e-16 0.7226002147958341
-39.199333333333335 59.9478 1562.4000000000003 1.3889694524811828e-26 -1.1571974868162308e-27 1.0
-39.199333333333335 59.9478 1562.4000000000003 1.3889694524811828e-26 -1.1571974868162308e-27 1.0
-42.2524 62.5999 1425.9166666666667 -0.9858762455856435 0.15059631303156495 0.0732719515998794
-39.47783333333333 71.0879 1562.4000000000003 -6.993844549391732e-26 -5.861927625696179e-26 1.0
-39.47783333333333 71.0879 1562.4000000000003 -6.993844549391732e-26 -5.861927625696179e-26 1.0
-43.90743333333333 67.04419999999999 1391.6333333333332 0.9960617241708578 5.473837954520552e-05 0.08866249852946767
-43.27870000000001 72.00623333333333 1401.41 0.0 0.0 1.0
-39.1454 90.24803333333334 1533.05 -0.8494248408605043 -0.4247641830652849 0.31313388273067494
-47.08456666666667 90.66203333333334 1286.8866666666665 0.002545108852448142 0.648468574704127 0.7612371706913209
-46.42483333333333 -89.09769999999999 1259.8066666666666 -0.9391755535744549 -0.31265806398566165 0.14210634958668944
-38.020399999999995 -105.372 1585.8700000000001 0.6226137447221587 0.7781984192610328 0.08221523668201706
-37.433166666666665 -104.25999999999999 1669.9566666666667 0.8908007742935111 0.4453007450019756 0.09045013553758015
-47.00903333333333 -77.18563333333333 1263.34 -0.8883174148917917 -0.44422449898898525 -0.11643352136712808
-41.001200000000004 -82.60366666666665 1498.5 -0.9713021018265198 0.14943109258869533 0.18504749540356857
-41.06666666666667 -80.86666666666667 1496.0 0.0 0.0 1.0
-41.98023333333334 -76.63366666666667 1481.1899999999998 -1.716740636825447e-26 5.1501352151608696e-27 1.0
-41.98023333333334 -76.63366666666667 1481.1899999999998 -1.716740636825455e-26 5.150135215160894e-27 1.0
-36.62026666666667 -79.10866666666665 1666.8499999999997 -6.923665327104594e-27 7.936847062919041e-27 1.0
-36.45653333333333 -68.11673333333333 1656.0933333333332 -0.7043272445152778 0.7043272445152774 -0.0885791469084717
-37.10143333333334 -53.11593333333334 1626.09 0.0 0.0 1.0
-42.54443333333333 -40.65796666666666 1410.2133333333331 -0.9541295087312875 0.28624390948555495 0.08775707863538566
-22.933333333333334 -47.377766666666666 1994.67 0.0 0.0 1.0
-38.20576666666667 -30.46613333333333 1578.89 0.0 0.0 1.0
-39.08826666666666 -27.810999999999996 1571.9799999999998 -0.909294066600205 -0.16532798340423263 0.38190438377839014
-41.29546666666667 -18.741233333333337 1529.13 0.8919296686808009 -0.44594667098625285 -0.07478658143835407
-36.51486666666667 -6.278670000000001 1548.9233333333334 0.09236358008250925 -0.6465406040587793 0.7572675989223695
-39.62506666666667 15.021700000000001 1525.2366666666667 -0.6428296367245422 0.7499766590646637 0.1559008306802701
-39.23903333333333 24.94623333333333 1484.86 0.0 0.0 1.0
-44.0306 30.308899999999998 1494.756666666667 -0.2865952667580074 -0.9171048536256233 0.27709536359930403
-37.76083333333333 40.34883333333334 1569.2300000000002 -0.5928818223145171 0.5928818223145231 0.5449608146812279
-39.199333333333335 59.9478 1562.4000000000003 1.3889694524811828e-26 -1.157197486816231e-27 1.0
-38.781533333333336 64.12533333333333 1562.4000000000003 8.885614383119818e-27 1.4357120331401177e-26 1.0
-42.81393333333333 63.1581 1419.1633333333332 -0.9918837375499415 0.10581447321510824 0.07049786125953035
-44.03176666666667 62.32003333333333 1391.6333333333332 0.9948639156396593 -0.05533496004837435 0.08475748671692727
-44.209900000000005 64.99543333333334 1379.8933333333334 -0.7035661995066929 0.7074849054812326 0.06678107088030351
-40.41663333333333 84.51386666666667 1558.33 0.0 0.0 1.0
-39.7583 96.3741 1556.9833333333333 0.8729708702025988 -0.34919253830769403 0.3405678067110085
-46.50033333333334 84.15743333333333 1314.2 -0.9410098889130881 0.12546679587331847 0.3142586070437223
-43.05003333333334 105.32433333333334 1535.6766666666665 0.08706742147050277 -0.9149070069265364 0.3941629520835321
-44.90143333333333 108.24333333333334 1538.3 0.0 0.0 1.0
-41.30093333333334 -83.07066666666667 1497.25 -0.968577466951664 0.16142957782527634 0.18920407478870832
-36.81993333333333 -71.4979 1659.1533333333334 -0.9581152535585005 0.07984143656616184 0.2750281911106239
-37.34296666666666 -70.62826666666666 1656.0933333333332 -0.9914608246383302 0.08262018190837879 0.10089270909688627
-39.318900000000006 -52.7942 1607.18 -0.974660848913771 0.17730277082794166 0.13638165951263934
-38.31576666666667 -25.614033333333335 1574.74 0.0 0.0 1.0
-40.17463333333333 -25.3625 1567.86 -0.7068013284538824 0.7068013284538889 0.029389865458095892
-39.8947 -21.919966666666667 1551.6133333333335 -0.8875017405290871 0.44468734186831327 0.12080491935320506
-39.44896666666667 -18.417033333333332 1547.5866666666668 0.9645008844503747 -0.2516053984044332 -0.08020453471089822
-41.1593 -1.6559049999999997 1487.3266666666666 -0.8941766221622246 0.44707988620888317 0.023827373460076018
-42.46916666666667 6.123456666666667 1477.53 0.0 0.0 1.0
-42.469166666666666 6.123456666666667 1477.53 0.0 0.0 1.0
-39.96763333333333 14.858366666666669 1522.6533333333334 0.3897609985531381 -0.9104962223901865 -0.13814120681411743
-40.65676666666666 33.47626666666667 1548.9233333333334 -0.3641674968606566 0.910418742151643 0.19626448524698525
-40.895466666666664 43.44156666666667 1544.9233333333334 0.9838279591550484 -3.264194422211909e-15 0.17911601487531215
-45.1598 62.90110000000001 1371.4599999999998 -0.9874685716647591 0.13334369385554962 0.08441136939605984
-43.27870000000001 72.00623333333333 1401.41 0.0 0.0 1.0
-42.89553333333333 73.64686666666667 1397.05 0.8753752339478911 -0.4668699209084652 -0.12550170015421389
-43.89136666666667 80.17933333333333 1364.1366666666665 -0.6367410664161749 0.477577638921282 0.6053762574974061
-48.14973333333333 79.9962 1348.7633333333333 0.3006605660732587 -0.051838227048801803 0.9523213859957911
-42.3276 -103.09033333333333 1514.9433333333334 -0.7068707039468222 -0.7066868983332713 -0.03045382776967346
-37.433166666666665 -104.25999999999999 1669.9566666666667 0.8908007742935105 0.4453007450019772 0.0904501355375795
-47.3013 -77.18156666666665 1265.1233333333332 0.8587337275825456 0.4907769423051799 0.14735799270404304
-42.09396666666667 -84.6537 1492.2766666666666 -0.9913117179069099 -5.4485938053709157e-05 0.13153355074555506
-37.36306666666667 -79.85146666666667 1666.8499999999997 0.0 0.0 1.0
-37.36306666666667 -79.85146666666667 1666.8499999999997 0.0 0.0 1.0
-39.24373333333333 -58.3982 1615.8466666666666 -0.9929069151308977 0.08275499899678371 0.08536666812220332
-43.62413333333333 -40.06596666666667 1402.5133333333333 -0.9755577433027075 0.18055938911432096 0.12524135293421168
-44.09536666666667 -39.06146666666666 1393.8433333333332 -0.9740857063734847 0.2213366735586938 0.04655226715039503
-40.17463333333333 -25.3625 1567.86 -0.7068013284538824 0.7068013284538889 0.029389865458095892
-41.29546666666667 -18.741233333333334 1529.13 0.8919296686808008 -0.4459466709862528 -0.07478658143835407
-41.8596 -16.433500000000002 1517.5 -0.8819218897046018 0.44096094485230086 0.16663500705082965
-40.35276666666667 0.776014 1583.07 0.0 0.0 1.0
-40.35276666666667 0.776014 1583.07 0.0 0.0 1.0
-43.954633333333334 22.903833333333335 1543.5966666666666 -0.03970645994214168 0.6749713064461416 0.7367748180504352
-42.457966666666664 25.394966666666665 1472.6833333333334 -0.7295499074163085 -0.6632256586244355 0.16699897703590708
-41.543866666666666 27.57896666666667 1574.74 0.0 0.0 1.0
-40.4032 43.458866666666665 1521.36 -0.10485660808408803 -0.7863794914757724 0.6087794240341946
-40.99916666666667 44.444433333333336 1546.25 0.0 0.0 1.0
-44.41776666666667 59.52463333333333 1395.97 0.9960116308137914 -0.0879080891112405 0.01526430976041582
-40.3133 65.51783333333333 1562.4000000000003 2.31472742203679e-26 1.388803208381652e-26 1.0
-44.58303333333333 58.676633333333335 1399.2300000000002 0.9975987482516915 -0.06650421672921741 0.019337182935766976
-39.477833333333336 71.08789999999999 1562.4000000000003 1.3987689098783465e-25 1.1723855251392358e-25 1.0
-42.01936666666666 80.47206666666666 1511.1166666666668 -0.9915479782189108 0.0002883222659610335 0.12974021643369435
-40.833333333333336 92.56943333333334 1558.33 0.0 0.0 1.0
-46.82769999999999 81.98880000000001 1315.1666666666667 -0.9521490797595386 -0.2375052054890898 -0.19236269721193122
-43.45643333333333 -102.5347 1518.7900000000002 0.599821543349603 0.7999225778481336 0.018384384202274652
-40.4775 -104.536 1648.4800000000002 4.523034488702532e-28 -2.7859950219839945e-26 1.0
-37.433166666666665 -104.25999999999999 1669.9566666666667 0.8908007742935103 0.4453007450019775 0.09045013553757925
-47.548833333333334 -77.6254 1268.7033333333331 0.8095713344384234 0.5780470344753517 0.1022539993831143
-42.45393333333333 -84.18206666666667 1488.5633333333333 -0.9742097505961446 0.16293378667761677 0.15610234784362007
-42.679766666666666 -81.99003333333333 1484.8700000000001 -0.9992914255735214 -0.03729467734284729 -0.005074821881863403
-41.98023333333334 -76.63366666666666 1481.1899999999998 -1.0986723949113558e-25 3.604964613111882e-26 1.0
-38.7001 -87.87373333333333 1666.8499999999997 0.0 0.0 1.0
-39.04943333333333 -69.39976666666666 1640.9533333333336 0.9912795630370129 -0.099137001650568 -0.08681407033934169
-39.24373333333333 -58.3982 1615.8466666666666 -0.9929069151308977 0.08275499899678382 0.0853666681222033
-39.45993333333334 -58.0018 1612.9466666666667 -0.9681729147294874 0.2502269228500439 0.00526253410504327
-40.42646666666666 -49.75096666666667 1597.1533333333334 -0.8744317216173857 0.4371902431921899 0.21031846206838056
-33.87536666666667 -44.76783333333333 1784.4966666666667 -0.933466297680709 -1.7257388873666268e-15 0.35866512388894184
-41.355133333333335 -31.763833333333334 1559.6866666666665 -0.8530577250964217 0.5118428245430451 0.10153541558055297
-40.17463333333333 -25.3625 1567.86 -0.7068013284538824 0.7068013284538889 0.029389865458095892
-41.8596 -16.4335 1517.5 -0.8819218897046018 0.44096094485230086 0.16663500705082965
-40.3826 6.464316666666666 1559.6866666666665 0.5132680463506153 0.8554330567697896 -0.0692112561720742
-43.58886666666667 9.069946666666667 1464.2766666666666 -0.704232271387518 0.7042412724262708 0.09000632282125695
-44.64763333333334 8.902183333333333 1458.3266666666668 0.5921487225683045 -0.7895451179427561 -0.16117815327607074
-40.07143333333333 15.2525 1577.506666666667 0.9413911936302014 -0.17115650647787972 0.2906683175817282
-42.938700000000004 38.51513333333333 1551.6033333333332 0.4680528397272269 -0.702051030759688 0.5367037259350254
-40.895466666666664 43.44156666666667 1544.9233333333334 0.9838279591550484 -3.264194422211909e-15 0.17911601487531215
-40.99916666666667 44.444433333333336 1546.25 0.0 0.0 1.0
-41.33343333333333 44.88196666666666 1533.05 0.7674431404597477 -0.5755706643579657 -0.2823994272157964
-45.12583333333333 57.184333333333335 1402.5033333333333 0.9369953849682847 -0.06246413627263903 0.34371191458523664
-40.45256666666666 76.93650000000001 1562.4000000000003 -3.778700946297283e-28 -1.407532750252068e-26 1.0
-42.01936666666666 80.47206666666666 1511.1166666666668 -0.9915479782189107 0.0002883222659714141 0.12974021643369335
-40.833333333333336 92.56943333333334 1558.33 0.0 0.0 1.0
-46.451899999999995 82.4028 1316.1266666666668 0.990467773461194 -0.13206111797134729 0.03915930100222703
-46.50033333333334 84.15743333333333 1314.2 -0.941009888913088 0.1254667958733186 0.31425860704372255
-48.357466666666674 87.4721 1276.8333333333333 -0.9654621327729389 0.24136356371445278 0.0981147302528374
-39.15173333333334 -80.29633333333334 1654.5666666666666 -0.9636532876364786 0.17521329238993938 0.20167459779874086
-38.70850000000001 -77.63703333333335 1654.5666666666666 -0.9683173316114916 0.17606131782730144 0.17709872293643045
-39.780033333333336 -73.78333333333333 1640.9533333333331 -0.9701005561881547 0.19401789818985865 0.14581483486059446
-39.04943333333333 -69.39976666666666 1640.9533333333336 0.9912795630370133 -0.09913700165056746 -0.08681407033934099
-39.6041 -59.73153333333334 1612.9466666666667 -0.9929146784053293 0.08270174287833441 0.0853279739131736
-40.60443333333333 -48.711099999999995 1595.7300000000002 4.615188527617009e-27 -1.4199940038637668e-27 1.0
-40.60443333333333 -48.711099999999995 1595.7300000000002 4.615188527617006e-27 -1.4199940038637653e-27 1.0
-38.937099999999994 -34.76063333333334 1588.6766666666665 -0.8271815597384372 0.5169884748365247 0.22021258845690458
-41.355133333333335 -31.763833333333334 1559.6866666666665 -0.8530577250964212 0.5118428245430454 0.10153541558055303
-41.09636666666666 -32.04243333333333 1587.2699999999998 2.2239961321975486e-28 7.412750961805103e-28 1.0
-41.8596 -16.433500000000002 1517.5 -0.8819218897046018 0.44096094485230086 0.16663500705082965
-40.530499999999996 -9.40761 1587.2699999999998 2.727154681996823e-26 5.382450020262783e-26 1.0
-41.837 -5.584416666666667 1585.87 -0.804681715148537 0.447041886136928 0.3906928324716833
-42.46916666666667 6.123456666666667 1477.53 0.0 0.0 1.0
-39.006 4.044558666666667 1538.3 0.0 0.0 1.0
-40.3826 6.464316666666666 1559.6866666666665 0.5132680463506152 0.8554330567697899 -0.06921125617207431
-43.58886666666666 9.069946666666667 1464.2766666666666 -0.7042322713875178 0.704241272426271 0.09000632282125715
-41.64736666666667 15.004800000000001 1509.84 -0.7696895513399467 0.5986403732089315 0.2218280823574487
-44.057566666666666 46.52656666666667 1493.5266666666666 -0.8602846235368233 0.5097852393444212 -0.005419986407491475
-39.7563 52.42816666666667 1562.4000000000003 -4.4428051385174375e-29 -4.073095828515065e-28 1.0
-40.3133 54.377700000000004 1562.4000000000003 1.0281275452210537e-28 -3.085490637852761e-28 1.0
-39.89556666666667 60.36553333333333 1562.4000000000003 0.0 0.0 1.0
-40.8703 66.63186666666667 1562.4000000000003 0.0 0.0 1.0
-40.8703 66.63186666666667 1562.4000000000003 0.0 0.0 1.0
-46.861066666666666 58.844433333333335 1356.9366666666667 -0.9930713956029489 0.09546311880487139 0.06852733894774025
-42.51806666666666 80.26903333333333 1507.3099999999997 -0.9915044428394986 -0.001763183150615202 0.13006087426552532
-41.1111 91.73610000000001 1558.33 0.0 0.0 1.0
-40.833333333333336 92.56943333333334 1558.33 0.0 0.0 1.0
-41.52776666666667 93.54163333333332 1558.33 0.0 0.0 1.0
-47.0169 82.16423333333333 1312.2833333333335 -0.9893383667873527 -3.699462265277281e-05 0.1456351421667577
-44.5315 -94.74443333333333 1318.07 -0.06865731264231069 0.9955163900646865 0.06506374207890764
-39.14576666666667 -88.468 1666.8499999999997 0.0 0.0 1.0
-38.7001 -87.87373333333333 1666.8499999999997 0.0 0.0 1.0
-43.17133333333334 -21.75616666666667 1530.43 0.0 0.0 1.0
-43.49726666666667 -13.389866666666668 1494.756666666667 0.8153462860929108 -0.5435641907286057 -0.19937001858868655
-43.49726666666667 -13.389866666666668 1494.756666666667 0.8153462860929105 -0.543564190728606 -0.19937001858868658
-38.53403333333333 -14.45026666666667 1566.49 0.0 0.0 1.0
-43.90833333333333 9.0556 1461.89 -0.7042290676298918 0.7042380686276961 0.09005644341559087
-42.708866666666665 12.453826666666666 1578.89 0.0 0.0 1.0
-41.681266666666666 15.259066666666667 1508.57 -0.7280326018742467 0.6471445508830361 0.22621330834106118
-44.0306 30.308899999999998 1494.756666666667 -0.2865952667580074 -0.9171048536256233 0.27709536359930403
-42.0358 32.205400000000004 1521.36 0.20837911205308152 -0.6251885223818084 0.7521419129007638
-45.832766666666664 62.91963333333334 1364.1666666666667 -0.9883418801921893 0.11944521488996991 0.0944095784232571
-42.51806666666666 80.26903333333333 1507.3099999999997 -0.9915044428394987 -0.0017631831506134846 0.130060874265525
-47.737966666666665 71.7026 1330.7733333333333 -0.9877935706377466 0.15200529919080624 0.034033084265817574
-46.81433333333334 85.8057 1301.8133333333333 -0.638389903145158 0.08512436378619327 0.7649916171124436
-41.76246666666667 107.057 1548.9233333333334 0.6216288509260887 -0.6216288509260905 0.4766079556539304
-40.93486666666667 -103.077 1559.6866666666665 -0.5762028525574224 -0.768285835485965 0.2787958889516165
-43.563233333333336 -83.8931 1481.1933333333334 -0.9743227041341436 0.17211517773389834 0.14516071714606105
-43.594033333333336 -82.90136666666666 1479.97 -0.9768665032825943 0.1628087999986041 0.13865471289304165
-39.740033333333336 -90.54783333333334 1666.8499999999997 -2.7385877042737536e-27 -1.2449903449695362e-27 1.0
-39.14576666666667 -88.468 1666.8499999999997 0.0 0.0 1.0
-39.15173333333334 -80.29633333333334 1654.5666666666666 -0.9636532876364786 0.17521329238993938 0.2016745977987406
-40.176899999999996 -66.19330000000001 1630.55 -0.9713203747512846 0.19472539803569214 0.13645053665290424
-41.17333333333334 -50.56 1595.7300000000002 2.4233809367724724e-18 -1.2116904681089102e-18 1.0
-32.53333333333333 -63.3778 1994.67 0.0 0.0 1.0
-41.355133333333335 -31.763833333333334 1559.6866666666665 -0.8530577250964213 0.5118428245430454 0.10153541558055314
-39.894466666666666 -10.06156 1578.89 0.0 0.0 1.0
-44.60423333333333 -3.5933333333333333 1465.4733333333334 0.9783926279328646 -0.19567503272611414 -0.06677684609396396
-44.661 -2.1519166666666667 1463.0866666666668 -0.8236546085675379 0.5493578758240629 0.14070895513622902
-40.35276666666667 0.776014 1583.07 0.0 0.0 1.0
-40.3382 6.541876666666667 1513.6633333333332 -0.465130384625522 0.8527396764193 0.23767366189466832
-44.848800000000004 8.397403333333335 1460.7 -0.598289580877439 0.7977330688969121 0.0753095492073404
-39.78613333333333 18.5645 1571.99 -0.9342938419751879 -1.6547301252445977e-16 0.3565038805500472
-41.75926666666667 32.37376666666667 1548.9233333333334 0.3594984576123378 -0.8987461440308457 0.2510303319601765
-42.42466666666667 41.88113333333333 1533.05 0.7392638043281774 -0.554436591534411 0.3822160299855764
-43.43713333333333 47.70513333333333 1497.256666666667 0.7067331918989515 -0.7067331918989552 -0.032502168183588795
-47.97626666666667 66.94226666666667 1325.8500000000001 -0.8893709273081116 0.44468546365405537 0.1061799984643417
-31.822233333333333 146.933 1994.67 0.0 0.0 1.0
-38.88833333333333 -126.78800000000001 1721.1933333333334 0.9871502297279272 -1.2638105694485387e-15 0.15979494343720746
-38.88833333333333 -126.78800000000001 1721.1933333333334 0.9871502297279272 -1.2638105694485387e-15 0.15979494343720746
-42.3276 -103.09033333333332 1514.9433333333334 -0.7068707039468222 -0.7066868983332713 -0.03045382776967346
-38.020399999999995 -105.372 1585.8700000000001 0.6226137447221586 0.7781984192610328 0.08221523668201722
-48.939699999999995 -78.05919999999999 1281.3966666666668 0.8882102711885854 0.44443845537048055 0.11643441734728122
-41.27356666666667 -77.2341 1633.4866666666667 -0.9747518340714206 0.17724603400337777 0.13580392264023697
-32.53333333333333 -63.3778 1994.67 0.0 0.0 1.0
-43.12056666666667 -44.184400000000004 1591.49 0.0 0.0 1.0
-42.6531 -43.78143333333333 1587.2766666666666 0.29521886806087894 -0.8866716783614628 0.3558920548881644
-42.6667 -38.24563333333334 1574.74 0.0 0.0 1.0
-42.588166666666666 -29.689399999999996 1590.0833333333333 0.5934420883754409 0.7629798946086553 0.25629703113294316
-44.26666666666667 -15.4 1496.0 0.0 0.0 1.0
-44.67696666666666 -5.29974 1467.8700000000001 -0.9693453635636253 0.19386561215098888 0.15094929798785386
-39.929 8.247639999999999 1529.13 -0.45271798980786976 -0.2587002840405145 0.8532998211306966
-44.0528 8.168366666666666 1466.6733333333334 0.7771084117699011 -0.6213301482250886 -0.10025648738635795
-44.703599999999994 12.491603333333336 1499.756666666667 -0.39449931407686223 0.3384818548035231 0.8542835156794563
-42.24563333333333 29.964933333333335 1574.74 0.0 0.0 1.0
-41.517900000000004 32.75846666666666 1547.5866666666668 0.6999418635828349 -0.6999418635828364 0.14199568728793954
-43.17053333333333 40.0374 1530.4399999999998 -0.9918068746874363 -0.000436165157044565 0.12774557950354257
-43.43713333333333 47.70513333333333 1497.256666666667 0.7067331918989497 -0.7067331918989568 -0.032502168183589135
-45.12583333333333 57.184333333333335 1402.5033333333333 0.9369953849682845 -0.06246413627263869 0.34371191458523753
-42.89603333333333 65.3516 1565.1266666666668 0.5760643385713391 -0.8064955755215866 -0.13309682374298204
-47.97626666666667 66.94226666666667 1325.8500000000001 -0.889370927308111 0.44468546365405615 0.10617999846434169
-47.97626666666667 66.94226666666667 1325.8500000000001 -0.889370927308111 0.44468546365405615 0.10617999846434169
-47.929066666666664 69.29063333333333 1327.8133333333333 0.993747876783904 0.11042680531270188 -0.01646444824199828
-47.929066666666664 69.29063333333333 1327.8133333333333 0.9937478767839041 0.1104268053127019 -0.016464448241998476
-42.9591 85.43083333333334 1562.4000000000003 1.7353254075244002e-26 -4.396270317488e-26 1.0
-42.9591 85.43083333333334 1562.4000000000003 1.7353254075243993e-26 -4.396270317487998e-26 1.0
-48.3279 76.02313333333333 1311.3233333333335 0.9655113557181368 -0.24135204243076933 -0.09765763459055005
-41.666666666666664 93.40276666666666 1558.33 0.0 0.0 1.0
-48.69566666666666 79.24636666666667 1300.87 0.0 0.0 1.0
-44.25973333333334 102.71833333333335 1554.29 0.0 0.0 1.0
-48.18513333333334 86.42913333333333 1288.7333333333333 0.7422373492306688 -0.041232086551214894 0.6688674251641079
-43.61756666666667 112.11033333333334 1546.25 0.0 0.0 1.0
-48.5956 -95.35343333333333 1324.92 0.9953211686158829 0.00026926911137865737 0.09662141998159135
-39.96086666666667 -103.35566666666666 1627.5666666666666 -0.6589572278465302 -0.6586542590061554 0.3632491417221358
-39.740033333333336 -90.54783333333334 1666.8499999999997 -2.7385877042737546e-27 -1.2449903449695364e-27 1.0
-40.704 -89.93586666666666 1663.7633333333333 -3.669954078457924e-17 0.9709609406365466 0.23923806502768882
-41.05736666666667 -77.813 1636.4633333333334 -0.9810642386158553 0.1783938632573663 0.07542273703071307
-40.902166666666666 -64.70823333333333 1618.76 0.9070214157129021 -0.4186116164556579 -0.04556825656686889
-43.59113333333334 -60.08886666666666 1595.7300000000002 8.854803743095168e-28 -1.4689895340072192e-27 1.0
-41.88443333333333 -51.6978 1595.7300000000002 -3.550983669197235e-26 2.219390800921486e-26 1.0
-42.451566666666665 -37.058366666666664 1571.9799999999998 -0.9922217301913503 -1.3608821883989665e-15 0.12448308373463048
-42.451566666666665 -37.058366666666664 1571.9799999999998 -0.9922217301913502 -1.4658792805435993e-15 0.12448308373463046
-44.708666666666666 -14.658433333333335 1488.5633333333335 -0.9007434084827406 0.43085383636842384 0.0550116693212127
-41.44990000000001 -11.9517 1550.2666666666667 -0.0665224765515684 -0.9977845936186566 0.0008153837737153263
-44.67696666666666 -5.29974 1467.8700000000001 -0.9693453635636252 0.19386561215098877 0.1509492979878539
-42.04343333333333 -4.44409 1583.0766666666666 -0.7970913781517273 -0.5318106005258029 0.28604688434689385
-44.661 -2.1519166666666667 1463.0866666666668 -0.8236546085675379 0.5493578758240629 0.14070895513622902
-42.9741 4.61153 1499.75 0.0 0.0 1.0
-43.954633333333334 22.903833333333335 1543.5966666666666 -0.03970645994214165 0.6749713064461416 0.7367748180504352
-43.78946666666667 23.368433333333332 1574.74 0.0 0.0 1.0
-44.4164 34.29696666666667 1523.9433333333334 0.22608038176881626 -0.6782966796669941 0.6991432437862768
-42.851800000000004 35.83723333333333 1543.5966666666666 -0.442114265851699 0.44209639759539116 0.7804394602809311
-44.59456666666667 37.924366666666664 1527.83 -0.599786347097199 0.7997069657723507 -0.026927805907250326
-40.8303 40.20890000000001 1552.9466666666667 0.1588364570933525 -0.8735622954241447 0.46006509964496456
-43.4206 59.40663333333333 1566.49 0.0 0.0 1.0
-49.322466666666664 49.2665 1349.7766666666666 0.7015245057166474 -0.4384588858841603 0.561798160613075
-49.47386666666667 54.8064 1332.743333333333 0.03406012548053805 0.3489051872949668 0.9365388823380021
-49.6037 83.21616666666667 1286.8966666666668 -0.9879377241630518 0.054881007796391 0.14480030441536534
-50.95036666666667 101.55933333333333 1502.2666666666667 0.10555563914400472 -0.914815539248039 0.3898339854286953
-38.88833333333333 -126.78800000000001 1721.1933333333334 0.9871502297279273 -9.716282274955014e-16 0.15979494343720735
-45.21333333333333 -101.00836666666667 1530.46 -0.4856883181044929 -0.8741113164397816 -0.006021970503136145
-39.96086666666667 -103.35566666666666 1627.5666666666666 -0.6589572278465315 -0.6586542590061527 0.36324914172213846
-49.65696666666667 -78.7968 1289.6833333333334 0.8882233008321894 0.44441025524107497 0.11644265925910693
-42.1859 -97.49756666666667 1663.7633333333333 -0.8331389254837474 0.4165225992631076 0.36385224356446083
-41.383766666666666 -78.76216666666666 1634.9800000000002 -0.986362166482129 0.1407773201983371 0.08527263717310271
-41.6349 -77.3842 1630.5199999999998 1.0 0.0 0.0
-41.6349 -77.3842 1630.5199999999998 1.0 0.0 0.0
-41.6349 -77.3842 1630.5199999999998 1.0 0.0 0.0
-40.902166666666666 -64.70823333333333 1618.76 0.907021415712902 -0.41861161645565814 -0.04556825656686929
-44.240833333333335 -57.73546666666667 1585.87 -0.47344475879637343 -0.6087146898810517 0.6366447099373864
-41.88443333333333 -51.6978 1595.7300000000002 -3.55098366919721e-26 2.2193908009214697e-26 1.0
-42.9998 -46.10536666666667 1584.47 -0.913743332859424 0.4060948227804216 0.01265371747312674
-43.3246 -41.50483333333333 1570.5999999999997 4.846731954339561e-27 -9.03997114450322e-28 1.0
-42.6667 -38.24563333333333 1574.74 0.0 0.0 1.0
-42.6667 -38.24563333333333 1574.74 0.0 0.0 1.0
-39.89443333333333 -30.60683333333333 1578.89 0.0 0.0 1.0
-45.089200000000005 -21.231399999999997 1512.3866666666665 0.8942202156460721 -0.44716543638482187 0.020329250666564713
-42.79396666666667 -9.266133333333334 1587.2699999999998 3.1058253742883087e-29 -2.826297760845337e-28 1.0
-46.42453333333333 2.5181613333333335 1448.91 0.0 0.0 1.0
-44.995866666666664 12.44872 1493.5133333333333 0.5950518723844596 0.7933936589335656 0.12821767091847364
-46.23586666666667 19.730233333333334 1521.36 -0.7926983216749098 0.5945359104045029 0.13474576822026804
-49.095333333333336 31.230633333333333 1463.08 0.0 0.0 1.0
-43.65539999999999 32.256 1504.78 -0.3465795906877657 -0.8664777146622566 0.35930343348258365
-44.11866666666666 47.6789 1566.49 0.0 0.0 1.0
-43.281 52.1466 1566.49 0.0 0.0 1.0
-43.281 52.1466 1566.49 0.0 0.0 1.0
-43.93386666666667 75.26546666666667 1562.4000000000003 7.405709359166838e-28 -1.4811418718333626e-27 1.0
-42.4021 76.24023333333332 1562.4000000000003 -3.024057080656719e-27 3.5177193321086805e-27 1.0
-44.3516 79.443 1562.4000000000003 -2.8929937170406018e-28 -1.157197486816242e-28 1.0
-42.3299 84.72656666666666 1559.6866666666665 0.3145642094618616 0.9436926283855849 0.10243818260951666
-48.3279 76.02313333333333 1311.3233333333335 0.9655113557181364 -0.24135204243076994 -0.09765763459055184
-49.602000000000004 72.2205 1301.8133333333333 0.971567379043455 -0.08447778360782855 0.22117941146349981
-34.48886666666667 -140.889 1994.67 0.0 0.0 1.0
-43.42273333333333 -102.12233333333334 1508.5999999999997 -0.7796216853270965 -0.6234277696260379 0.059395654949175876
-43.533366666666666 -101.69966666666666 1555.64 -0.5998259744657813 -0.7997839613136918 0.023546031121081903
-40.704 -89.93586666666666 1663.7633333333333 1.8349770392289622e-16 0.9709609406365467 0.2392380650276888
-41.81456666666667 -76.8789 1629.043333333333 -0.9926793335077706 7.605915386404003e-17 0.1207797202620051
-44.63013333333333 -38.503033333333335 1562.4000000000003 -1.407223066930765e-26 1.370121831711016e-26 1.0
-45.089200000000005 -21.231399999999997 1512.3866666666665 0.8942202156460721 -0.44716543638482187 0.020329250666564713
-45.639433333333336 -10.951703333333333 1471.4766666666667 -0.9597625560302634 0.2665995797361415 0.08820714328651655
-39.483200000000004 -11.5073 1546.25 0.0 0.0 1.0
-41.1153 -7.599606666666666 1563.7633333333333 0.040722403582422684 0.5293931961312229 0.8473986840539929
-42.3943 -6.54708 1580.2833333333335 -0.9278372256673609 -0.2651021810975499 0.2623717138778813
-42.9741 4.61153 1499.75 0.0 0.0 1.0
-46.42453333333333 2.5181613333333335 1448.91 0.0 0.0 1.0
-44.194266666666664 4.43942 1581.6766666666665 0.8763783011725144 -0.47802726568598064 -0.058745267849949864
-44.848800000000004 8.397403333333335 1460.7 -0.598289580877439 0.7977330688969121 0.0753095492073404
-41.5599 37.11763333333334 1556.9833333333333 0.1394127833322641 0.6505892712096771 0.7465237277075742
-44.940799999999996 39.3232 1518.78 0.0 0.0 1.0
-44.940799999999996 39.32320000000001 1518.78 0.0 0.0 1.0
-44.11866666666666 47.6789 1566.49 0.0 0.0 1.0
-43.281 52.1466 1566.49 0.0 0.0 1.0
-43.4206 59.40663333333333 1566.49 0.0 0.0 1.0
-41.98433333333333 67.18886666666667 1562.4000000000003 2.571098612987397e-27 -3.547877315384628e-26 1.0
-50.59726666666668 76.18763333333332 1278.6433333333332 -0.9931849319354846 -0.047293205882178085 0.10652250303899673
-43.8932 111.14566666666666 1546.25 0.0 0.0 1.0
-43.61756666666667 112.11033333333332 1546.25 0.0 0.0 1.0
-34.48886666666667 -140.889 1994.67 0.0 0.0 1.0
-42.63243333333333 -102.722 1535.6766666666665 -0.5691647032585979 -0.8220909197174635 -0.014766864347156268
-49.65696666666667 -78.7968 1289.6833333333334 0.8882233008321895 0.4444102552410749 0.11644265925910703
-42.22223333333333 -95.62963333333335 1662.22 0.0 0.0 1.0
-45.291000000000004 -62.57493333333334 1583.07 0.0 0.0 1.0
-32.53333333333333 -63.3778 1994.67 0.0 0.0 1.0
-44.4128 -46.44456666666667 1571.9800000000002 -0.9457532427675468 0.2702198083414277 0.18036645745423852
-43.97163333333333 -43.1915 1591.49 0.0 0.0 1.0
-43.333333333333336 -28.819466666666667 1558.33 0.0 0.0 1.0
-45.430733333333336 -25.345633333333335 1533.05 -0.7034652867135603 0.7035510228850061 0.10075985602644488
-45.43893333333333 -18.084533333333333 1497.25 0.9108845414766364 -0.40483757398961706 -0.07997431328307032
-46.5805 0.3242446666666667 1447.7433333333336 -0.6880408306655902 -0.5160186349565629 0.5102201326041244
-43.693000000000005 5.840330000000001 1578.8999999999999 -0.9923370287274801 -0.002425344387293337 0.12353679257986008
-43.78946666666666 23.368433333333332 1574.74 0.0 0.0 1.0
-46.577866666666665 28.758566666666667 1470.2766666666666 -0.20893826882872552 0.6312754216786576 0.7468842894339712
-46.46246666666667 41.954 1487.3266666666666 0.9425384684323153 -0.3141926457970082 -0.11359672905652472
-43.4206 59.40663333333333 1566.49 0.0 0.0 1.0
-49.107733333333336 63.8503 1322.9266666666665 -0.9522633113184125 0.30066573804093244 -0.05286492112160331
-48.994400000000006 64.2001 1327.8133333333333 0.9093271028581215 -0.4041263926072466 -0.09902564721277723
-48.994400000000006 64.2001 1327.8133333333333 0.9093271028581211 -0.40412639260724675 -0.09902564721277729
-42.9591 85.43083333333334 1562.4000000000003 1.7353254075243982e-26 -4.396270317487995e-26 1.0
-50.012766666666664 78.68923333333333 1284.1333333333332 -0.9880149389397881 -0.04704702258308358 0.14701380240601264
-42.93833333333333 105.99666666666667 1551.6033333333332 -0.637811234971954 0.6378112349719557 0.43173331709181273
-49.6429 -96.36906666666665 1335.71 0.0 0.0 1.0
-49.6429 -96.36906666666665 1335.71 0.0 0.0 1.0
-49.6429 -96.36906666666665 1335.71 0.0 0.0 1.0
-47.8662 -100.91726666666666 1471.49 -0.9110433967871395 -0.3643007771563844 0.19309291269698325
-42.528866666666666 -101.98566666666666 1551.6133333333335 0.4228174840742838 0.9061970645181554 0.005679385509949375
-42.22223333333333 -95.62963333333335 1662.22 0.0 0.0 1.0
-43.9823 -75.26726666666667 1610.0466666666664 0.9552179422667241 -0.2387975453915647 -0.1747409942935222
-44.20846666666667 -49.86913333333333 1587.2766666666666 -0.9444507883828629 0.314732078622076 0.0946384013454162
-44.1645 -45.14436666666666 1570.5999999999997 1.5702246461040813e-26 -5.421129179739167e-27 1.0
-44.63013333333333 -38.50303333333334 1562.4000000000003 -5.517588562063812e-26 5.591365549475216e-26 1.0
-45.75363333333333 -34.17903333333334 1536.9866666666667 0.8877295508730738 -0.44385128615601727 -0.12219770981626596
-44.708666666666666 -14.658433333333335 1488.5633333333335 -0.9007434084827405 0.4308538363684239 0.055011669321212764
-45.639433333333336 -10.951703333333333 1471.4766666666667 -0.9597625560302634 0.2665995797361415 0.08820714328651658
-46.42453333333333 2.5181613333333335 1448.91 0.0 0.0 1.0
-46.677 8.527610000000001 1483.6366666666665 -0.9448813401718813 -8.99636748518728e-18 0.3274129701080728
-48.84543333333334 6.369226666666666 1444.256666666667 -0.6223909221277386 -0.7779852894751809 0.08583955622673266
-44.2096 5.82422 1574.743333333333 -0.9923366798675816 0.0034382150798693547 0.12351555556467102
-46.677 8.52761 1483.6366666666665 -0.9448813401718812 -1.0206021016752717e-16 0.3274129701080728
-46.575300000000006 33.77736666666667 1569.2300000000002 0.6363008212653635 -0.3636066538173751 0.6803759741178075
-42.6943 35.854933333333335 1550.26 0.0 0.0 1.0
-46.0237 37.4281 1518.78 0.0 0.0 1.0
-42.7225 41.1169 1566.49 0.0 0.0 1.0
-44.926700000000004 41.85293333333333 1567.86 0.9329167088305492 2.205616728815425e-15 0.3600922303865723
-45.4338 40.843066666666665 1514.9433333333334 -0.9768350298871371 0.15642531744697147 0.1460289164755059
-46.62180000000001 41.9219 1486.0933333333332 -0.9425403910543345 0.3141867249555822 0.11359715266162079
-48.26069999999999 40.3898 1459.5166666666667 0.9570181263141276 -0.2835702481442106 0.060862305852035434
-48.596466666666664 40.8957 1450.1066666666668 0.927825144186374 -0.36807819850525086 -0.060489185815839404
-43.97906666666666 69.04013333333333 1566.49 0.0 0.0 1.0
-51.690666666666665 68.68183333333333 1270.4933333333333 -0.8258261184923975 -0.24276402486935603 0.5089959236035306
-52.08509999999999 73.92906666666667 1273.19 0.0 0.0 1.0
-51.9716 75.51773333333334 1273.19 0.0 0.0 1.0
-44.8579 110.181 1546.25 0.0 0.0 1.0
-49.73956666666666 -96.08343333333333 1336.7066666666667 0.9953293999214964 1.673257346153025e-17 0.09653696520977657
-42.666666666666664 -96.66666666666667 1662.22 0.0 0.0 1.0
-42.7352 -95.15686666666666 1659.1533333333334 -0.9406451082711115 0.3135247890394507 0.1299576351869989
-43.08803333333333 -88.16303333333333 1650.0 -0.9555275846714897 0.23889544513821528 0.17290460151217316
-43.30256666666667 -87.11996666666666 1646.9733333333334 -0.9621724494827444 0.2405567555623545 0.1278930209577105
-45.0624 -70.23173333333332 1600.0 0.0 0.0 1.0
-45.291000000000004 -62.57493333333334 1583.07 0.0 0.0 1.0
