ply
format ascii 1.0
comment VCGLIB generated
element vertex 938
property float x
property float y
property float z
property float nx
property float ny
property float nz
element face 0
property list uchar int vertex_indices
end_header
10.434776666666666 -61.7971 2601.74 0.0 0.0 1.0
5.12 -55.35999999999999 2393.6 0.0 0.0 1.0
4.780880000000001 -51.739666666666665 2384.06 0.0 0.0 1.0
4.780880000000001 -51.739666666666665 2384.06 0.0 0.0 1.0
4.78088 -41.965466666666664 2384.06 0.0 0.0 1.0
12.289833333333334 -35.82606666666667 2601.74 0.0 0.0 1.0
11.594209999999999 -31.884066666666666 2601.74 0.0 0.0 1.0
11.826066666666668 -23.304333333333332 2601.74 0.0 0.0 1.0
11.3623 -4.289856666666667 2601.74 0.0 0.0 1.0
11.362333333333334 1.5072466666666668 2601.74 0.0 0.0 1.0
11.362333333333334 1.5072466666666668 2601.74 0.0 0.0 1.0
12.753633333333333 6.144926666666667 2601.74 0.0 0.0 1.0
12.057966666666667 7.072463333333334 2601.74 0.0 0.0 1.0
11.362333333333334 15.6522 2601.74 0.0 0.0 1.0
11.5942 16.811600000000002 2601.74 0.0 0.0 1.0
-2.63736 17.875466666666668 2191.94 0.0 0.0 1.0
-2.7250633333333334 22.48176666666667 2183.94 0.0 0.0 1.0
-2.7250633333333334 22.48176666666667 2183.94 0.0 0.0 1.0
-3.6982966666666663 38.24816666666666 2183.94 0.0 0.0 1.0
13.4493 85.44923333333332 2601.74 0.0 0.0 1.0
13.4493 85.44923333333332 2601.74 0.0 0.0 1.0
-4.839856666666667 76.7734 2129.54 0.0 0.0 1.0
-4.080663333333333 87.0225 2129.54 0.0 0.0 1.0
-4.46026 94.6145 2129.54 0.0 0.0 1.0
-5.3710233333333335 102.99166666666667 2114.49 0.0 0.0 1.0
5.67604 -114.69866666666667 2403.21 0.0 0.0 1.0
4.390899999999999 -109.98666666666666 2403.21 0.0 0.0 1.0
4.81928 -109.34433333333334 2403.21 0.0 0.0 1.0
4.17671 -106.77366666666667 2403.21 0.0 0.0 1.0
5.03347 -100.1338 2403.21 0.0 0.0 1.0
4.693333333333334 -97.81333333333333 2393.6 0.0 0.0 1.0
3.1999999999999997 -92.90666666666668 2393.6 0.0 0.0 1.0
4.48 -84.58666666666666 2393.6 0.0 0.0 1.0
3.84 -79.68 2393.6 0.0 0.0 1.0
3.2000000000000006 -77.97333333333334 2393.6 0.0 0.0 1.0
3.6266666666666665 -67.73333333333333 2393.6 0.0 0.0 1.0
3.4133333333333336 -67.30666666666666 2393.6 0.0 0.0 1.0
3.4133333333333336 -64.32 2393.6 0.0 0.0 1.0
10.434776666666666 -60.637699999999995 2601.74 0.0 0.0 1.0
10.666643333333333 -45.10146666666666 2601.74 0.0 0.0 1.0
11.826066666666668 -43.71016666666666 2601.74 0.0 0.0 1.0
11.826066666666668 -23.304333333333332 2601.74 0.0 0.0 1.0
10.434776666666666 -18.898533333333333 2601.74 0.0 0.0 1.0
10.666643333333333 -6.14493 2601.74 0.0 0.0 1.0
11.3623 -4.289856666666666 2601.74 0.0 0.0 1.0
11.3623 -4.289856666666666 2601.74 0.0 0.0 1.0
10.666666666666666 10.318833333333332 2601.74 0.0 0.0 1.0
10.434776666666666 13.797133333333333 2601.74 0.0 0.0 1.0
11.130433333333334 17.739133333333335 2601.74 0.0 0.0 1.0
-2.63736 17.875466666666668 2191.94 0.0 0.0 1.0
-3.61416 22.954833333333337 2191.94 0.0 0.0 1.0
-3.6982966666666663 30.8516 2183.94 0.0 0.0 1.0
-4.08759 32.019466666666666 2183.94 0.0 0.0 1.0
-3.7276000000000002 52.85543333333334 2144.8 0.0 0.0 1.0
-6.548043333333333 58.9324 2129.54 0.0 0.0 1.0
-5.978646666666667 67.28349999999999 2129.54 0.0 0.0 1.0
-5.599050000000001 72.40809999999999 2129.54 0.0 0.0 1.0
-5.029653333333333 72.78769999999999 2129.54 0.0 0.0 1.0
-5.78885 75.82440000000001 2129.54 0.0 0.0 1.0
-5.219453333333333 78.8612 2129.54 0.0 0.0 1.0
-5.978646666666667 80.949 2129.54 0.0 0.0 1.0
-4.650056666666667 82.6572 2129.54 0.0 0.0 1.0
-4.27046 90.05930000000001 2129.54 0.0 0.0 1.0
-5.295509999999999 100.142 2121.99 0.0 0.0 1.0
-6.05201 100.7095 2121.99 0.0 0.0 1.0
3.1999999999999997 -98.45333333333333 2393.6 0.0 0.0 1.0
3.1999999999999997 -92.90666666666668 2393.6 0.0 0.0 1.0
3.6266666666666665 -78.82666666666667 2393.6 0.0 0.0 1.0
1.92 -74.34666666666668 2393.6 0.0 0.0 1.0
2.986666666666667 -68.37333333333333 2393.6 0.0 0.0 1.0
3.6266666666666665 -65.6 2393.6 0.0 0.0 1.0
3.4133333333333336 -63.25333333333333 2393.6 0.0 0.0 1.0
2.986666666666667 -62.4 2393.6 0.0 0.0 1.0
10.20291 -63.42026666666666 2601.74 0.0 0.0 1.0
10.20291 -39.7681 2601.74 0.0 0.0 1.0
10.20291 -39.7681 2601.74 0.0 0.0 1.0
10.4348 -28.869566666666667 2601.74 0.0 0.0 1.0
10.4348 -28.869566666666667 2601.74 0.0 0.0 1.0
10.20291 -28.4058 2601.74 0.0 0.0 1.0
10.434776666666666 -18.898533333333333 2601.74 0.0 0.0 1.0
10.898559999999998 -15.1884 2601.74 0.0 0.0 1.0
9.971026666666667 -10.782633333333331 2601.74 0.0 0.0 1.0
9.971026666666667 -10.086966666666667 2601.74 0.0 0.0 1.0
10.898566666666667 1.0434786666666669 2601.74 0.0 0.0 1.0
10.4348 2.43478 2601.74 0.0 0.0 1.0
10.4348 2.43478 2601.74 0.0 0.0 1.0
10.4348 2.4347800000000004 2601.74 0.0 0.0 1.0
10.666666666666666 10.318833333333332 2601.74 0.0 0.0 1.0
10.666666666666666 10.318833333333332 2601.74 0.0 0.0 1.0
10.434776666666666 13.797133333333333 2601.74 0.0 0.0 1.0
10.666666666666666 18.43476666666667 2601.74 0.0 0.0 1.0
10.666666666666666 18.43476666666667 2601.74 0.0 0.0 1.0
-2.83272 18.6569 2191.94 0.0 0.0 1.0
-3.61416 22.95483333333333 2191.94 0.0 0.0 1.0
-3.61416 22.95483333333333 2191.94 0.0 0.0 1.0
-4.08759 29.683733333333333 2183.94 0.0 0.0 1.0
-4.866176666666667 33.576633333333334 2183.94 0.0 0.0 1.0
-4.476883333333333 36.30166666666667 2183.94 0.0 0.0 1.0
-3.6982966666666663 38.24816666666666 2183.94 0.0 0.0 1.0
-3.6982966666666663 38.24816666666666 2183.94 0.0 0.0 1.0
9.97102 53.21736666666667 2601.74 0.0 0.0 1.0
9.97102 62.028999999999996 2601.74 0.0 0.0 1.0
11.130443333333332 68.05796666666667 2601.74 0.0 0.0 1.0
-6.737843333333333 56.6548 2129.54 0.0 0.0 1.0
-6.737843333333333 60.450799999999994 2129.54 0.0 0.0 1.0
-6.358243333333334 65.7651 2129.54 0.0 0.0 1.0
-5.978646666666667 67.28349999999999 2129.54 0.0 0.0 1.0
-5.978646666666667 72.2183 2129.54 0.0 0.0 1.0
-5.78885 75.82440000000001 2129.54 0.0 0.0 1.0
-5.78885 75.82440000000001 2129.54 0.0 0.0 1.0
-6.168446666666667 81.32860000000001 2129.54 0.0 0.0 1.0
-6.168446666666667 81.32860000000001 2129.54 0.0 0.0 1.0
2.4631900000000004 -106.13100000000001 2403.21 0.0 0.0 1.0
3.1999999999999997 -98.45333333333333 2393.6 0.0 0.0 1.0
2.0348083333333333 -95.85006666666668 2403.21 0.0 0.0 1.0
3.1999999999999997 -92.90666666666668 2393.6 0.0 0.0 1.0
1.92 -88.42666666666666 2393.6 0.0 0.0 1.0
1.92 -88.42666666666666 2393.6 0.0 0.0 1.0
2.56 -77.54666666666667 2393.6 0.0 0.0 1.0
2.7733333333333334 -67.09333333333332 2393.6 0.0 0.0 1.0
2.986666666666667 -62.4 2393.6 0.0 0.0 1.0
2.346666666666667 -58.34666666666667 2393.6 0.0 0.0 1.0
2.3466666666666667 -58.34666666666667 2393.6 0.0 0.0 1.0
9.04348 -54.6087 2601.74 0.0 0.0 1.0
9.73912 -46.028999999999996 2601.74 0.0 0.0 1.0
9.739136666666667 -39.07243333333333 2601.74 0.0 0.0 1.0
10.434786666666666 -34.666666666666664 2601.74 0.0 0.0 1.0
9.507246666666665 -32.347833333333334 2601.74 0.0 0.0 1.0
9.507246666666665 -32.347833333333334 2601.74 0.0 0.0 1.0
9.739136666666667 -27.94203333333333 2601.74 0.0 0.0 1.0
9.971003333333334 -21.681166666666666 2601.74 0.0 0.0 1.0
9.97102 -18.43476666666667 2601.74 0.0 0.0 1.0
9.97102 -18.43476666666667 2601.74 0.0 0.0 1.0
9.971003333333334 -7.768116666666667 2601.74 0.0 0.0 1.0
9.739136666666667 13.797133333333333 2601.74 0.0 0.0 1.0
-3.6982966666666663 28.12653333333333 2183.94 0.0 0.0 1.0
-4.476883333333333 36.30166666666667 2183.94 0.0 0.0 1.0
-4.476883333333333 36.30166666666667 2183.94 0.0 0.0 1.0
8.811596666666667 50.2029 2601.74 0.0 0.0 1.0
9.507253333333333 52.05793333333333 2601.74 0.0 0.0 1.0
9.275363333333333 53.91303333333334 2601.74 0.0 0.0 1.0
8.347826666666666 57.855066666666666 2601.74 0.0 0.0 1.0
10.20291 65.0435 2601.74 0.0 0.0 1.0
-6.737839999999999 64.43650000000001 2129.54 0.0 0.0 1.0
-5.978646666666667 67.28349999999999 2129.54 0.0 0.0 1.0
-6.737839999999999 72.5979 2129.54 0.0 0.0 1.0
-6.737839999999999 74.30606666666667 2129.54 0.0 0.0 1.0
-6.168446666666667 81.32860000000001 2129.54 0.0 0.0 1.0
12.75361 115.13 2601.74 0.0 0.0 1.0
-6.997636666666668 101.277 2121.99 0.0 0.0 1.0
-7.63251 102.04933333333332 2114.49 0.0 0.0 1.0
1.8206183333333332 -117.48333333333333 2403.21 0.0 0.0 1.0
1.8206183333333332 -117.48333333333335 2403.21 0.0 0.0 1.0
2.67738 -110.84333333333335 2403.21 0.0 0.0 1.0
2.4631900000000004 -106.13100000000001 2403.21 0.0 0.0 1.0
2.249 -105.70266666666667 2403.21 0.0 0.0 1.0
2.249 -105.70266666666667 2403.21 0.0 0.0 1.0
1.8206183333333332 -104.41766666666668 2403.21 0.0 0.0 1.0
2.0348083333333333 -95.85006666666668 2403.21 0.0 0.0 1.0
1.7066666666666668 -91.83999999999999 2393.6 0.0 0.0 1.0
1.28 -83.94666666666667 2393.6 0.0 0.0 1.0
1.0666666666666667 -75.2 2393.6 0.0 0.0 1.0
1.4933333333333334 -70.08 2393.6 0.0 0.0 1.0
1.7066666666666668 -68.15999999999998 2393.6 0.0 0.0 1.0
1.4933333333333334 -67.73333333333333 2393.6 0.0 0.0 1.0
2.346666666666667 -58.34666666666667 2393.6 0.0 0.0 1.0
9.04348 -56.0 2601.74 0.0 0.0 1.0
9.739136666666665 -39.07243333333333 2601.74 0.0 0.0 1.0
9.507246666666665 -32.347833333333334 2601.74 0.0 0.0 1.0
9.739136666666665 -27.94203333333333 2601.74 0.0 0.0 1.0
9.971003333333334 -21.681166666666666 2601.74 0.0 0.0 1.0
9.739136666666665 -16.115933333333334 2601.74 0.0 0.0 1.0
9.971026666666665 -10.782633333333331 2601.74 0.0 0.0 1.0
9.971026666666665 -10.086966666666667 2601.74 0.0 0.0 1.0
9.971026666666665 1.9710133333333335 2601.74 0.0 0.0 1.0
9.04348 13.101466666666667 2601.74 0.0 0.0 1.0
-0.7974996666666666 6.461756 2227.306666666667 0.9509043711003405 0.13584325319908624 0.27807820407675693
8.579713333333332 20.985500000000002 2601.74 0.0 0.0 1.0
7.884056666666667 28.637699999999995 2601.74 0.0 0.0 1.0
-5.450119999999999 33.187333333333335 2183.94 0.0 0.0 1.0
-5.450119999999999 33.187333333333335 2183.94 0.0 0.0 1.0
-5.060823333333333 37.08026666666667 2183.94 0.0 0.0 1.0
-5.060823333333333 37.08026666666667 2183.94 0.0 0.0 1.0
-6.737843333333333 56.6548 2129.54 0.0 0.0 1.0
-7.117439999999999 57.413999999999994 2129.54 0.0 0.0 1.0
-7.117439999999999 58.5528 2129.54 0.0 0.0 1.0
-7.117439999999999 59.5018 2129.54 0.0 0.0 1.0
-7.497036666666666 60.261 2129.54 0.0 0.0 1.0
-7.6868333333333325 77.7224 2129.54 0.0 0.0 1.0
-6.92764 80.5694 2129.54 0.0 0.0 1.0
-6.92764 80.5694 2129.54 0.0 0.0 1.0
-7.497033333333333 86.8327 2129.54 0.0 0.0 1.0
-8.446026666666667 92.33690000000001 2129.54 0.0 0.0 1.0
-7.63251 102.04933333333332 2114.49 0.0 0.0 1.0
9.043466666666665 -129.507 2601.74 0.0 0.0 1.0
1.3922383333333332 -111.05766666666666 2403.21 0.0 0.0 1.0
2.0348100000000002 -106.34533333333333 2403.21 0.0 0.0 1.0
0.7496666666666667 -100.34813333333334 2403.21 0.0 0.0 1.0
0.4266666666666667 -85.22666666666666 2393.6 0.0 0.0 1.0
1.28 -83.94666666666667 2393.6 0.0 0.0 1.0
0.8533333333333334 -79.89333333333333 2393.6 0.0 0.0 1.0
0.8533333333333334 -78.82666666666667 2393.6 0.0 0.0 1.0
1.7066666666666668 -77.97333333333334 2393.6 0.0 0.0 1.0
1.0666666666666667 -67.94666666666666 2393.6 0.0 0.0 1.0
1.4933333333333334 -67.73333333333333 2393.6 0.0 0.0 1.0
7.4202900000000005 -62.72463333333334 2601.74 0.0 0.0 1.0
7.884056666666666 -59.01453333333333 2601.74 0.0 0.0 1.0
7.884056666666666 -57.391333333333336 2601.74 0.0 0.0 1.0
8.57971 -54.144933333333334 2601.74 0.0 0.0 1.0
7.4202900000000005 -50.2029 2601.74 0.0 0.0 1.0
9.73912 -46.028999999999996 2601.74 0.0 0.0 1.0
8.347826666666668 -31.88403333333333 2601.74 0.0 0.0 1.0
9.04348 -28.173933333333334 2601.74 0.0 0.0 1.0
8.347826666666668 -25.855100000000004 2601.74 0.0 0.0 1.0
-2.16216 -6.28057 2310.42 0.0 0.0 1.0
-2.574 -1.9562403333333334 2310.42 0.0 0.0 1.0
-1.95624 2.9858433333333334 2310.42 0.0 0.0 1.0
-2.574 4.2213666666666665 2310.42 0.0 0.0 1.0
8.115943333333334 12.6377 2601.74 0.0 0.0 1.0
8.579713333333332 20.985500000000002 2601.74 0.0 0.0 1.0
8.579713333333332 20.985500000000002 2601.74 0.0 0.0 1.0
7.4202900000000005 26.087 2601.74 0.0 0.0 1.0
8.115943333333334 29.7971 2601.74 0.0 0.0 1.0
-5.450119999999999 33.187333333333335 2183.94 0.0 0.0 1.0
-5.839416666666666 34.7445 2183.94 0.0 0.0 1.0
8.115943333333334 50.89853333333334 2601.74 0.0 0.0 1.0
8.115943333333334 50.89853333333334 2601.74 0.0 0.0 1.0
8.347826666666666 54.6087 2601.74 0.0 0.0 1.0
8.347826666666666 57.855066666666666 2601.74 0.0 0.0 1.0
-8.446023333333335 54.187400000000004 2129.54 0.0 0.0 1.0
-8.446023333333335 63.48749999999999 2129.54 0.0 0.0 1.0
-8.446023333333335 69.5611 2129.54 0.0 0.0 1.0
-7.497033333333333 73.1673 2129.54 0.0 0.0 1.0
-7.6868333333333325 77.7224 2129.54 0.0 0.0 1.0
-8.066426666666667 85.88369999999999 2129.54 0.0 0.0 1.0
-7.497033333333333 86.2633 2129.54 0.0 0.0 1.0
-7.497033333333333 86.8327 2129.54 0.0 0.0 1.0
-8.888886666666666 98.06146666666666 2121.99 0.0 0.0 1.0
-7.63251 102.04933333333334 2114.49 0.0 0.0 1.0
0.10709500000000004 -117.055 2403.21 0.0 0.0 1.0
0.535475 -113.41366666666666 2403.21 0.0 0.0 1.0
1.8206183333333332 -104.41766666666668 2403.21 0.0 0.0 1.0
0.4266666666666667 -98.24 2393.6 0.0 0.0 1.0
0.4266666666666667 -98.24 2393.6 0.0 0.0 1.0
0.9638566666666667 -95.2075 2403.21 0.0 0.0 1.0
-0.10709666666666669 -92.63723333333333 2403.21 0.0 0.0 1.0
0.8533333333333334 -90.56 2393.6 0.0 0.0 1.0
0.0 -88.85333333333334 2393.6 0.0 0.0 1.0
1.28 -83.94666666666667 2393.6 0.0 0.0 1.0
1.28 -76.48 2393.6 0.0 0.0 1.0
0.4266666666666667 -74.56 2393.6 0.0 0.0 1.0
0.8533333333333334 -70.93333333333332 2393.6 0.0 0.0 1.0
1.0666666666666667 -67.94666666666666 2393.6 0.0 0.0 1.0
0.8533333333333334 -67.52 2393.6 0.0 0.0 1.0
7.884056666666666 -59.94206666666667 2601.74 0.0 0.0 1.0
7.884056666666666 -59.01453333333333 2601.74 0.0 0.0 1.0
7.884056666666666 -58.31886666666667 2601.74 0.0 0.0 1.0
7.4202900000000005 -56.92756666666667 2601.74 0.0 0.0 1.0
8.347826666666668 -54.6087 2601.74 0.0 0.0 1.0
7.4202900000000005 -50.2029 2601.74 0.0 0.0 1.0
7.652173333333333 -39.30436666666667 2601.74 0.0 0.0 1.0
7.652173333333333 -38.376799999999996 2601.74 0.0 0.0 1.0
7.884056666666667 -32.811566666666664 2601.74 0.0 0.0 1.0
8.347826666666668 -25.855100000000004 2601.74 0.0 0.0 1.0
-2.16216 -6.28057 2310.42 0.0 0.0 1.0
-2.574 7.310169999999999 2310.42 0.0 0.0 1.0
7.652173333333333 24.927566666666667 2601.74 0.0 0.0 1.0
7.1884033333333335 28.173933333333334 2601.74 0.0 0.0 1.0
-5.839416666666666 35.9124 2183.94 0.0 0.0 1.0
8.115943333333334 50.89853333333334 2601.74 0.0 0.0 1.0
-8.25623 60.8304 2129.54 0.0 0.0 1.0
-7.876630000000001 66.5243 2129.54 0.0 0.0 1.0
-8.066429999999999 73.92646666666667 2129.54 0.0 0.0 1.0
-8.446026666666668 74.68563333333333 2129.54 0.0 0.0 1.0
-8.825623333333334 77.153 2129.54 0.0 0.0 1.0
-8.825623333333334 96.13286666666666 2129.54 0.0 0.0 1.0
-8.888890000000002 101.466 2121.99 0.0 0.0 1.0
-8.699763333333335 101.844 2121.99 0.0 0.0 1.0
-0.107095 -116.62666666666667 2403.21 0.0 0.0 1.0
0.535475 -113.41366666666666 2403.21 0.0 0.0 1.0
0.321285 -112.557 2403.21 0.0 0.0 1.0
0.7496666666666667 -111.91433333333333 2403.21 0.0 0.0 1.0
0.7496666666666667 -100.34813333333334 2403.21 0.0 0.0 1.0
0.7496666666666667 -100.34813333333334 2403.21 0.0 0.0 1.0
0.4266666666666667 -98.24000000000001 2393.6 0.0 0.0 1.0
-0.64 -93.12 2393.6 0.0 0.0 1.0
0.0 -88.85333333333334 2393.6 0.0 0.0 1.0
-0.4266666666666667 -80.32 2393.6 0.0 0.0 1.0
-0.21333333333333335 -70.93333333333332 2393.6 0.0 0.0 1.0
-2.845849 -59.55203333333333 2365.22 0.0 0.0 1.0
6.95652 -33.7391 2601.74 0.0 0.0 1.0
-3.3074933333333334 -24.0827 2319.38 0.0 0.0 1.0
-3.100776666666667 -22.635666666666665 2319.38 0.0 0.0 1.0
-2.16216 -6.28057 2310.42 0.0 0.0 1.0
-2.98584 -3.6036033333333335 2310.42 0.0 0.0 1.0
-2.574 0.9266396666666666 2310.42 0.0 0.0 1.0
8.115943333333334 12.6377 2601.74 0.0 0.0 1.0
-3.867683333333334 16.386766666666666 2283.97 0.0 0.0 1.0
-3.8676833333333334 16.386766666666666 2283.97 0.0 0.0 1.0
6.724636666666666 24.695666666666668 2601.74 0.0 0.0 1.0
7.1884033333333335 28.173933333333334 2601.74 0.0 0.0 1.0
6.724636666666666 29.101466666666663 2601.74 0.0 0.0 1.0
6.724636666666666 29.101466666666663 2601.74 0.0 0.0 1.0
6.492753333333333 54.3768 2601.74 0.0 0.0 1.0
6.492753333333333 54.3768 2601.74 0.0 0.0 1.0
6.72464 57.6232 2601.74 0.0 0.0 1.0
-8.82562 52.47923333333333 2129.54 0.0 0.0 1.0
-8.82562 52.47923333333333 2129.54 0.0 0.0 1.0
-8.446023333333335 53.428200000000004 2129.54 0.0 0.0 1.0
-8.446023333333335 54.187400000000004 2129.54 0.0 0.0 1.0
-9.205216666666667 63.487500000000004 2129.54 0.0 0.0 1.0
-9.01542 64.24669999999999 2129.54 0.0 0.0 1.0
-9.395016666666669 65.3855 2129.54 0.0 0.0 1.0
-8.82562 68.9917 2129.54 0.0 0.0 1.0
-9.01542 71.8387 2129.54 0.0 0.0 1.0
-9.205220000000002 72.78769999999999 2129.54 0.0 0.0 1.0
-8.635823333333335 75.82440000000001 2129.54 0.0 0.0 1.0
-8.825623333333334 77.153 2129.54 0.0 0.0 1.0
-8.635823333333335 85.88369999999999 2129.54 0.0 0.0 1.0
-9.015416666666667 87.97149999999999 2129.54 0.0 0.0 1.0
-9.205216666666667 93.4757 2129.54 0.0 0.0 1.0
-9.01542 94.0451 2129.54 0.0 0.0 1.0
-9.395016666666669 97.0818 2129.54 0.0 0.0 1.0
-8.888886666666666 98.06146666666666 2121.99 0.0 0.0 1.0
-8.699763333333335 101.844 2121.99 0.0 0.0 1.0
9.043466666666665 -129.507 2601.74 0.0 0.0 1.0
0.10709500000000001 -117.055 2403.21 0.0 0.0 1.0
-0.107095 -116.62666666666667 2403.21 0.0 0.0 1.0
-0.7496649999999999 -109.12966666666667 2403.21 0.0 0.0 1.0
-0.10709499999999998 -95.2075 2403.21 0.0 0.0 1.0
-0.64 -93.12 2393.6 0.0 0.0 1.0
-0.8533333333333334 -88.85333333333334 2393.6 0.0 0.0 1.0
-1.28 -84.8 2393.6 0.0 0.0 1.0
-0.4266666666666667 -80.32 2393.6 0.0 0.0 1.0
-0.4266666666666667 -80.32 2393.6 0.0 0.0 1.0
-0.64 -79.04 2393.6 0.0 0.0 1.0
6.724640000000001 -63.652166666666666 2601.74 0.0 0.0 1.0
5.797103333333333 -57.15943333333333 2601.74 0.0 0.0 1.0
6.724636666666666 -56.92756666666667 2601.74 0.0 0.0 1.0
7.420289999999999 -52.057966666666665 2601.74 0.0 0.0 1.0
5.797103333333333 -49.27533333333333 2601.74 0.0 0.0 1.0
5.797103333333333 -48.5797 2601.74 0.0 0.0 1.0
6.492756666666668 -45.333333333333336 2601.74 0.0 0.0 1.0
6.26087 -38.1449 2601.74 0.0 0.0 1.0
6.260870000000001 -35.1304 2601.74 0.0 0.0 1.0
-3.5142166666666665 -18.91473333333333 2319.38 0.0 0.0 1.0
-3.5142166666666665 -18.91473333333333 2319.38 0.0 0.0 1.0
6.956523333333333 -15.884066666666667 2601.74 0.0 0.0 1.0
-3.8095233333333334 -8.33977 2310.42 0.0 0.0 1.0
-3.8095199999999996 -1.3384806666666667 2310.42 0.0 0.0 1.0
5.565216666666667 13.7971 2601.74 0.0 0.0 1.0
-3.867683333333334 16.386766666666666 2283.97 0.0 0.0 1.0
6.724636666666666 29.101466666666667 2601.74 0.0 0.0 1.0
6.028986666666667 30.028999999999996 2601.74 0.0 0.0 1.0
5.56522 40.23186666666667 2601.74 0.0 0.0 1.0
5.56522 45.7971 2601.74 0.0 0.0 1.0
5.797103333333333 48.11593333333334 2601.74 0.0 0.0 1.0
-9.227590000000001 49.36723333333333 2134.6066666666666 0.8880495292242594 -0.44404807707789484 -0.11911901144651771
6.028986666666667 58.55073333333333 2601.74 0.0 0.0 1.0
-9.96441 57.983399999999996 2129.54 0.0 0.0 1.0
-9.96441 58.7426 2129.54 0.0 0.0 1.0
-9.205220000000002 61.020199999999996 2129.54 0.0 0.0 1.0
-9.395016666666669 65.3855 2129.54 0.0 0.0 1.0
-9.20522 72.40809999999999 2129.54 0.0 0.0 1.0
-9.205220000000002 72.40809999999999 2129.54 0.0 0.0 1.0
-9.584816666666669 72.9775 2129.54 0.0 0.0 1.0
-9.584816666666667 73.3571 2129.54 0.0 0.0 1.0
-9.395016666666669 77.153 2129.54 0.0 0.0 1.0
-10.533806666666665 82.847 2129.54 0.0 0.0 1.0
-9.584813333333335 86.07350000000001 2129.54 0.0 0.0 1.0
-9.774613333333335 92.33690000000001 2129.54 0.0 0.0 1.0
-9.20522 94.8043 2129.54 0.0 0.0 1.0
-9.774613333333333 95.3737 2129.54 0.0 0.0 1.0
-9.395016666666669 97.0818 2129.54 0.0 0.0 1.0
-10.023633333333335 98.4397 2121.99 0.0 0.0 1.0
-9.078013333333333 101.65500000000002 2121.99 0.0 0.0 1.0
-1.1780466666666667 -118.12566666666667 2403.21 0.0 0.0 1.0
-0.7496649999999999 -109.12966666666667 2403.21 0.0 0.0 1.0
-1.3922366666666666 -108.48733333333332 2403.21 0.0 0.0 1.0
-0.9638566666666667 -105.70300000000002 2403.21 0.0 0.0 1.0
4.405796666666667 -110.72466666666666 2601.74 0.0 0.0 1.0
-1.3922366666666666 -95.85006666666668 2403.21 0.0 0.0 1.0
-0.64 -93.12 2393.6 0.0 0.0 1.0
-1.28 -84.8 2393.6 0.0 0.0 1.0
-0.8533333333333334 -79.25333333333333 2393.6 0.0 0.0 1.0
-0.64 -73.92 2393.6 0.0 0.0 1.0
-0.64 -73.92 2393.6 0.0 0.0 1.0
-0.21333333333333335 -70.93333333333332 2393.6 0.0 0.0 1.0
-0.64 -69.22666666666666 2393.6 0.0 0.0 1.0
3.9420300000000004 -72.69563333333333 2601.74 0.0 0.0 1.0
5.56522 -63.1884 2601.74 0.0 0.0 1.0
6.492753333333333 -55.536233333333335 2601.74 0.0 0.0 1.0
5.56522 -36.5217 2601.74 0.0 0.0 1.0
5.333333333333333 -17.73913333333333 2601.74 0.0 0.0 1.0
-4.22136 -1.7503203333333335 2310.42 0.0 0.0 1.0
-3.8095199999999996 -1.3384806666666667 2310.42 0.0 0.0 1.0
-3.6036 7.516090000000001 2310.42 0.0 0.0 1.0
5.797103333333333 25.159433333333336 2601.74 0.0 0.0 1.0
5.56522 31.652200000000004 2601.74 0.0 0.0 1.0
4.637683333333333 35.36233333333333 2601.74 0.0 0.0 1.0
5.56522 40.23186666666667 2601.74 0.0 0.0 1.0
5.56522 45.7971 2601.74 0.0 0.0 1.0
5.797103333333333 49.971000000000004 2601.74 0.0 0.0 1.0
5.333336666666667 51.130433333333336 2601.74 0.0 0.0 1.0
6.492753333333334 54.3768 2601.74 0.0 0.0 1.0
-10.366383333333333 48.41823333333334 2134.6066666666666 -0.8430142058053094 0.4215292331320682 0.33412595592909816
-10.344003333333333 58.363 2129.54 0.0 0.0 1.0
-9.774613333333335 61.77936666666667 2129.54 0.0 0.0 1.0
-10.533803333333333 63.1079 2129.54 0.0 0.0 1.0
-9.96441 65.0059 2129.54 0.0 0.0 1.0
-9.774610000000001 68.42229999999999 2129.54 0.0 0.0 1.0
-9.96441 73.1673 2129.54 0.0 0.0 1.0
-9.395016666666669 77.153 2129.54 0.0 0.0 1.0
-9.774613333333335 92.33690000000001 2129.54 0.0 0.0 1.0
-9.774610000000001 93.09610000000002 2129.54 0.0 0.0 1.0
-9.96441 97.27159999999999 2129.54 0.0 0.0 1.0
-2.0348100000000002 -114.91266666666667 2403.21 0.0 0.0 1.0
-0.4266666666666666 -98.45333333333333 2393.6 0.0 0.0 1.0
-1.92 -88.64 2393.6 0.0 0.0 1.0
-1.28 -84.8 2393.6 0.0 0.0 1.0
-2.33902 -72.6604 2387.24 -1.7190201081895294e-17 0.9952880511698488 0.09696233907308828
-3.8998666666666666 -58.498 2365.22 0.0 0.0 1.0
6.028986666666666 -62.028999999999996 2601.74 0.0 0.0 1.0
5.797103333333333 -57.15943333333333 2601.74 0.0 0.0 1.0
4.869566666666667 -49.7391 2601.74 0.0 0.0 1.0
5.333336666666667 -48.5797 2601.74 0.0 0.0 1.0
5.333336666666667 -45.7971 2601.74 0.0 0.0 1.0
5.56522 -37.68113333333333 2601.74 0.0 0.0 1.0
-3.3074966666666668 -20.361766666666668 2319.38 0.0 0.0 1.0
-6.486486666666667 -15.752900000000002 2310.42 0.0 0.0 1.0
-5.250966666666667 -5.25097 2310.42 0.0 0.0 1.0
-4.633203333333333 -2.3680800000000004 2310.42 0.0 0.0 1.0
-4.839123333333334 4.839123333333333 2310.42 0.0 0.0 1.0
-4.6332 5.250966666666667 2310.42 0.0 0.0 1.0
-4.6332 5.250966666666667 2310.42 0.0 0.0 1.0
-5.9033066666666665 18.625966666666667 2283.97 0.0 0.0 1.0
5.797103333333333 25.159433333333336 2601.74 0.0 0.0 1.0
5.333336666666667 29.565233333333328 2601.74 0.0 0.0 1.0
5.333336666666667 30.028999999999996 2601.74 0.0 0.0 1.0
4.4058 33.50726666666667 2601.74 0.0 0.0 1.0
5.101453333333334 34.4348 2601.74 0.0 0.0 1.0
4.869566666666667 41.6232 2601.74 0.0 0.0 1.0
5.56522 45.7971 2601.74 0.0 0.0 1.0
4.869566666666667 52.52173333333334 2601.74 0.0 0.0 1.0
5.333333333333333 57.391333333333336 2601.74 0.0 0.0 1.0
-9.395013333333333 54.187400000000004 2129.54 0.0 0.0 1.0
-9.96441 57.983399999999996 2129.54 0.0 0.0 1.0
-9.96441 58.7426 2129.54 0.0 0.0 1.0
-10.533803333333333 63.1079 2129.54 0.0 0.0 1.0
-9.96441 65.0059 2129.54 0.0 0.0 1.0
-10.913400000000001 67.4733 2129.54 0.0 0.0 1.0
-10.913400000000001 67.4733 2129.54 0.0 0.0 1.0
-10.533803333333333 73.1673 2129.54 0.0 0.0 1.0
-10.913400000000001 80.0 2129.54 0.0 0.0 1.0
-10.913400000000001 80.0 2129.54 0.0 0.0 1.0
-10.913400000000001 85.69393333333333 2129.54 0.0 0.0 1.0
-10.154206666666667 85.88373333333334 2129.54 0.0 0.0 1.0
-10.154206666666667 88.1613 2129.54 0.0 0.0 1.0
-10.154206666666667 92.7165 2129.54 0.0 0.0 1.0
-10.533803333333333 96.32266666666668 2129.54 0.0 0.0 1.0
-9.96441 97.27159999999999 2129.54 0.0 0.0 1.0
-10.590996666666667 101.27666666666666 2121.99 0.0 0.0 1.0
-2.0348083333333338 -118.12566666666667 2403.21 0.0 0.0 1.0
-2.0348100000000002 -114.91266666666667 2403.21 0.0 0.0 1.0
-2.4631900000000004 -114.27033333333333 2403.21 0.0 0.0 1.0
-1.8206183333333332 -108.70166666666667 2403.21 0.0 0.0 1.0
-2.67738 -107.41666666666667 2403.21 0.0 0.0 1.0
3.47826 -110.26100000000001 2601.74 0.0 0.0 1.0
-0.5354766666666667 -92.63723333333333 2403.21 0.0 0.0 1.0
-1.4933333333333332 -85.44 2393.6 0.0 0.0 1.0
-1.7066666666666668 -82.45333333333332 2393.6 0.0 0.0 1.0
-1.4933333333333332 -78.61333333333333 2393.6 0.0 0.0 1.0
3.47826 -79.18843333333332 2601.74 0.0 0.0 1.0
4.173913333333334 -39.536233333333335 2601.74 0.0 0.0 1.0
-4.754523333333333 -25.322999999999997 2319.38 0.0 0.0 1.0
5.33333 -23.536233333333332 2601.74 0.0 0.0 1.0
4.6376800000000005 -20.9855 2601.74 0.0 0.0 1.0
-4.633206666666666 -8.54569 2310.42 0.0 0.0 1.0
-5.4568900000000005 -7.310169999999999 2310.42 0.0 0.0 1.0
-5.250966666666667 -5.25097 2310.42 0.0 0.0 1.0
-5.250966666666667 -2.3680800000000004 2310.42 0.0 0.0 1.0
-5.045046666666667 -1.3384806666666667 2310.42 0.0 0.0 1.0
-4.839123333333334 4.839123333333333 2310.42 0.0 0.0 1.0
3.47826 13.333333333333334 2601.74 0.0 0.0 1.0
-4.681933333333333 15.776066666666665 2283.97 0.0 0.0 1.0
-6.200523333333333 16.366266666666665 2281.0766666666664 -0.9994765461015742 -5.649834068074536e-17 0.03235172009132542
-6.10687 18.218866666666667 2283.97 0.0 0.0 1.0
-5.9033066666666665 18.625966666666667 2283.97 0.0 0.0 1.0
4.637683333333334 43.47826666666666 2601.74 0.0 0.0 1.0
4.869566666666667 46.260866666666665 2601.74 0.0 0.0 1.0
4.869566666666667 53.44926666666667 2601.74 0.0 0.0 1.0
4.869566666666667 56.4638 2601.74 0.0 0.0 1.0
-10.533803333333333 63.1079 2129.54 0.0 0.0 1.0
-11.672600000000001 71.6489 2129.54 0.0 0.0 1.0
-10.913400000000001 72.9775 2129.54 0.0 0.0 1.0
-10.913400000000001 72.9775 2129.54 0.0 0.0 1.0
-11.672599999999997 75.0652 2129.54 0.0 0.0 1.0
-11.293 81.1388 2129.54 0.0 0.0 1.0
-11.1032 81.7082 2129.54 0.0 0.0 1.0
-11.293 82.4674 2129.54 0.0 0.0 1.0
-11.293 82.4674 2129.54 0.0 0.0 1.0
-11.4828 88.35110000000002 2129.54 0.0 0.0 1.0
-11.103200000000001 95.56349999999999 2129.54 0.0 0.0 1.0
-10.969263333333332 98.81796666666666 2121.99 0.0 0.0 1.0
-11.536633333333334 101.46566666666666 2121.99 0.0 0.0 1.0
3.942026666666667 128.81133333333335 2601.74 0.0 0.0 1.0
3.942026666666667 128.81133333333335 2601.74 0.0 0.0 1.0
-2.89157 -117.48333333333335 2403.21 0.0 0.0 1.0
-2.67738 -113.19966666666666 2403.21 0.0 0.0 1.0
-3.5341400000000003 -112.55733333333335 2403.21 0.0 0.0 1.0
-2.67738 -107.41666666666667 2403.21 0.0 0.0 1.0
-2.67738 -107.41666666666667 2403.21 0.0 0.0 1.0
2.78261 -110.72499999999998 2601.74 0.0 0.0 1.0
-2.4631883333333335 -96.70683333333334 2403.21 0.0 0.0 1.0
-3.626666666666667 -89.49333333333334 2393.6 0.0 0.0 1.0
-3.4133333333333336 -88.42666666666666 2393.6 0.0 0.0 1.0
-3.4133333333333336 -88.42666666666666 2393.6 0.0 0.0 1.0
-2.33902 -72.6604 2387.24 0.0 0.9952880511698486 0.09696233907308828
3.2463766666666665 -78.72466666666666 2601.74 0.0 0.0 1.0
3.7101466666666667 -74.55073333333333 2601.74 0.0 0.0 1.0
-3.8998666666666666 -58.498 2365.22 0.0 0.0 1.0
3.7101466666666667 -49.971000000000004 2601.74 0.0 0.0 1.0
4.173913333333334 -39.536233333333335 2601.74 0.0 0.0 1.0
5.10145 -35.362300000000005 2601.74 0.0 0.0 1.0
-6.201553333333333 -27.803633333333334 2319.38 0.0 0.0 1.0
-6.48649 -21.31273333333333 2310.42 0.0 0.0 1.0
-6.898329999999999 -11.222633333333334 2310.42 0.0 0.0 1.0
-5.66281 -5.4568900000000005 2310.42 0.0 0.0 1.0
-5.66281 -5.4568900000000005 2310.42 0.0 0.0 1.0
-5.250966666666667 -2.3680800000000004 2310.42 0.0 0.0 1.0
-6.28057 0.30888033333333337 2310.42 0.0 0.0 1.0
3.2463766666666665 7.536233333333333 2601.74 0.0 0.0 1.0
3.246376666666667 7.536233333333333 2601.74 0.0 0.0 1.0
3.0144933333333337 14.260866666666667 2601.74 0.0 0.0 1.0
3.0144933333333337 15.1884 2601.74 0.0 0.0 1.0
-6.310433333333333 18.4224 2283.97 0.0 0.0 1.0
2.78261 30.95653333333333 2601.74 0.0 0.0 1.0
3.478263333333333 33.0435 2601.74 0.0 0.0 1.0
3.478263333333333 34.89856666666666 2601.74 0.0 0.0 1.0
2.3188400000000002 38.84056666666667 2601.74 0.0 0.0 1.0
-11.4828 68.0427 2129.54 0.0 0.0 1.0
-11.672600000000001 75.0652 2129.54 0.0 0.0 1.0
-11.1032 80.5694 2129.54 0.0 0.0 1.0
-11.293 82.4674 2129.54 0.0 0.0 1.0
-11.293 85.69393333333333 2129.54 0.0 0.0 1.0
-11.293 86.07350000000001 2129.54 0.0 0.0 1.0
-11.293 93.8553 2129.54 0.0 0.0 1.0
-11.4828 94.8043 2129.54 0.0 0.0 1.0
-11.536633333333333 99.38526666666667 2121.99 0.0 0.0 1.0
3.942026666666667 128.81133333333335 2601.74 0.0 0.0 1.0
-3.31995 -116.41233333333334 2403.21 0.0 0.0 1.0
-3.5341399999999994 -115.341 2403.21 0.0 0.0 1.0
2.78261 -112.58 2601.74 0.0 0.0 1.0
2.78261 -110.72499999999998 2601.74 0.0 0.0 1.0
3.2463766666666665 -109.33333333333333 2601.74 0.0 0.0 1.0
-3.7483300000000006 -96.49263333333333 2403.21 0.0 0.0 1.0
-3.6266666666666665 -92.69333333333334 2393.6 0.0 0.0 1.0
-3.4133333333333336 -88.42666666666666 2393.6 0.0 0.0 1.0
2.0869566666666666 -87.7681 2601.74 0.0 0.0 1.0
2.0869573333333333 -84.52173333333333 2601.74 0.0 0.0 1.0
2.0869573333333333 -83.3623 2601.74 0.0 0.0 1.0
3.0144933333333337 -79.18843333333332 2601.74 0.0 0.0 1.0
3.7101466666666667 -71.07243333333334 2601.74 0.0 0.0 1.0
2.3188400000000002 -69.68113333333334 2601.74 0.0 0.0 1.0
-3.8998666666666666 -58.49799999999999 2365.22 0.0 0.0 1.0
-5.66929 -54.27823333333333 2355.91 0.0 0.0 1.0
3.7101466666666667 -52.9855 2601.74 0.0 0.0 1.0
2.78261 -49.739133333333335 2601.74 0.0 0.0 1.0
2.318843333333333 -44.8696 2601.74 0.0 0.0 1.0
-6.201553333333334 -28.010366666666666 2319.38 0.0 0.0 1.0
-6.8983300000000005 -19.253533333333333 2310.42 0.0 0.0 1.0
-6.898329999999999 -11.222633333333334 2310.42 0.0 0.0 1.0
3.246376666666667 7.536233333333333 2601.74 0.0 0.0 1.0
3.0144933333333337 14.260866666666667 2601.74 0.0 0.0 1.0
3.0144933333333337 15.1884 2601.74 0.0 0.0 1.0
2.0869566666666666 21.217366666666667 2601.74 0.0 0.0 1.0
3.246376666666667 31.884066666666666 2601.74 0.0 0.0 1.0
2.3188400000000002 49.971000000000004 2601.74 0.0 0.0 1.0
2.3188400000000002 49.971000000000004 2601.74 0.0 0.0 1.0
-12.8114 46.4057 2129.54 0.0 0.0 1.0
-12.8114 48.8731 2129.54 0.0 0.0 1.0
-12.4318 52.669000000000004 2129.54 0.0 0.0 1.0
-12.4318 52.669000000000004 2129.54 0.0 0.0 1.0
-12.8114 55.7058 2129.54 0.0 0.0 1.0
-12.4318 57.41400000000001 2129.54 0.0 0.0 1.0
-12.4318 58.363 2129.54 0.0 0.0 1.0
-12.6216 65.7651 2129.54 0.0 0.0 1.0
-12.4318 66.3345 2129.54 0.0 0.0 1.0
-12.6216 68.8019 2129.54 0.0 0.0 1.0
-11.672600000000001 75.0652 2129.54 0.0 0.0 1.0
-12.0522 79.2408 2129.54 0.0 0.0 1.0
-12.8114 90.43889999999999 2129.54 0.0 0.0 1.0
-12.6216 96.89203333333334 2129.54 0.0 0.0 1.0
-12.293133333333335 101.08733333333333 2121.99 0.0 0.0 1.0
-14.605399999999998 103.55733333333332 2114.49 0.0 0.0 1.0
-3.5341400000000003 -117.26933333333334 2403.21 0.0 0.0 1.0
-5.24766 -110.415 2403.21 0.0 0.0 1.0
2.78261 -110.72499999999998 2601.74 0.0 0.0 1.0
-4.48 -89.92 2393.6 0.0 0.0 1.0
2.0869566666666666 -87.7681 2601.74 0.0 0.0 1.0
2.5507266666666664 -77.79713333333335 2601.74 0.0 0.0 1.0
2.5507266666666664 -77.79713333333335 2601.74 0.0 0.0 1.0
-6.007906666666667 -67.9842 2365.22 0.0 0.0 1.0
3.014493333333333 -64.34783333333333 2601.74 0.0 0.0 1.0
-5.66929 -54.27823333333333 2355.91 0.0 0.0 1.0
2.5507266666666664 -49.04346666666667 2601.74 0.0 0.0 1.0
2.5507266666666664 -49.04346666666667 2601.74 0.0 0.0 1.0
1.6231906666666667 -45.56523333333333 2601.74 0.0 0.0 1.0
1.6231906666666667 -45.56523333333333 2601.74 0.0 0.0 1.0
-7.441863333333333 -38.75966666666667 2319.38 0.0 0.0 1.0
-7.8553 -33.79846666666666 2319.38 0.0 0.0 1.0
-7.028426666666667 -30.9044 2319.38 0.0 0.0 1.0
-7.028426666666667 -30.9044 2319.38 0.0 0.0 1.0
-6.8217066666666675 -28.2171 2319.38 0.0 0.0 1.0
-7.028426666666667 -28.010366666666666 2319.38 0.0 0.0 1.0
-7.64858 -25.7364 2319.38 0.0 0.0 1.0
-7.927930000000001 -23.7838 2310.42 0.0 0.0 1.0
-7.516090000000001 -15.546966666666668 2310.42 0.0 0.0 1.0
2.78261 6.608696666666667 2601.74 0.0 0.0 1.0
1.15942 10.782633333333331 2601.74 0.0 0.0 1.0
-6.921119999999999 17.811733333333333 2283.97 0.0 0.0 1.0
2.0869566666666666 21.217366666666667 2601.74 0.0 0.0 1.0
1.6231866666666666 22.3768 2601.74 0.0 0.0 1.0
1.6231906666666667 26.550733333333337 2601.74 0.0 0.0 1.0
2.08696 28.173933333333334 2601.74 0.0 0.0 1.0
2.0869573333333333 30.724633333333333 2601.74 0.0 0.0 1.0
2.5507266666666664 33.50726666666667 2601.74 0.0 0.0 1.0
1.6231906666666667 33.97103333333334 2601.74 0.0 0.0 1.0
2.31884 38.84056666666667 2601.74 0.0 0.0 1.0
3.014493333333333 52.28983333333334 2601.74 0.0 0.0 1.0
-12.8114 46.4057 2129.54 0.0 0.0 1.0
-12.8114 48.8731 2129.54 0.0 0.0 1.0
-12.4318 52.669000000000004 2129.54 0.0 0.0 1.0
-12.8114 55.7058 2129.54 0.0 0.0 1.0
-13.001200000000003 59.1222 2129.54 0.0 0.0 1.0
-13.191 61.9692 2129.54 0.0 0.0 1.0
-12.6216 65.7651 2129.54 0.0 0.0 1.0
-12.4318 66.3345 2129.54 0.0 0.0 1.0
-12.6216 68.8019 2129.54 0.0 0.0 1.0
-12.6216 68.8019 2129.54 0.0 0.0 1.0
-13.3808 71.6489 2129.54 0.0 0.0 1.0
-12.241999999999999 75.255 2129.54 0.0 0.0 1.0
-12.6216 81.32860000000001 2129.54 0.0 0.0 1.0
-13.191 82.847 2129.54 0.0 0.0 1.0
-13.001200000000003 88.54090000000001 2129.54 0.0 0.0 1.0
-13.001200000000003 90.05930000000001 2129.54 0.0 0.0 1.0
-13.001199999999999 90.05930000000001 2129.54 0.0 0.0 1.0
-13.001200000000003 91.3879 2129.54 0.0 0.0 1.0
-12.6216 96.89203333333334 2129.54 0.0 0.0 1.0
-12.6216 96.89203333333334 2129.54 0.0 0.0 1.0
-13.238766666666669 101.08733333333333 2121.99 0.0 0.0 1.0
-3.96252 -115.76966666666665 2403.21 0.0 0.0 1.0
-5.03347 -112.77133333333335 2403.21 0.0 0.0 1.0
-5.03347 -112.77133333333335 2403.21 0.0 0.0 1.0
-5.760000000000001 -103.57333333333334 2393.6 0.0 0.0 1.0
-4.3909 -95.85006666666668 2403.21 0.0 0.0 1.0
0.46376666666666666 -93.5652 2601.74 0.0 0.0 1.0
0.46376666666666666 -91.94203333333333 2601.74 0.0 0.0 1.0
2.0869566666666666 -87.7681 2601.74 0.0 0.0 1.0
-6.007906666666667 -67.9842 2365.22 0.0 0.0 1.0
1.8550700000000002 -67.82606666666668 2601.74 0.0 0.0 1.0
1.6231866666666666 -65.73913333333333 2601.74 0.0 0.0 1.0
-6.509186666666667 -54.69816666666666 2355.91 0.0 0.0 1.0
-6.089236666666667 -52.59843333333333 2355.91 0.0 0.0 1.0
-6.929133333333334 -51.548566666666666 2355.91 0.0 0.0 1.0
-7.441863333333334 -38.75966666666667 2319.38 0.0 0.0 1.0
-7.235143333333333 -30.49096666666667 2319.38 0.0 0.0 1.0
-7.64858 -30.284233333333333 2319.38 0.0 0.0 1.0
-7.028426666666667 -28.010366666666666 2319.38 0.0 0.0 1.0
-7.64858 -25.7364 2319.38 0.0 0.0 1.0
-7.927930000000001 -23.7838 2310.42 0.0 0.0 1.0
-7.516090000000001 -15.546966666666668 2310.42 0.0 0.0 1.0
-7.516090000000001 -15.546966666666668 2310.42 0.0 0.0 1.0
-7.10425 -9.163446666666667 2310.42 0.0 0.0 1.0
-6.28057 0.30888033333333337 2310.42 0.0 0.0 1.0
1.15942 10.782633333333331 2601.74 0.0 0.0 1.0
2.5507233333333335 16.115933333333334 2601.74 0.0 0.0 1.0
1.6231866666666666 22.3768 2601.74 0.0 0.0 1.0
1.6231866666666666 22.3768 2601.74 0.0 0.0 1.0
1.3913039999999999 38.84056666666667 2601.74 0.0 0.0 1.0
0.46376666666666666 44.4058 2601.74 0.0 0.0 1.0
0.23188266666666665 45.7971 2601.74 0.0 0.0 1.0
2.3188400000000002 49.971000000000004 2601.74 0.0 0.0 1.0
-13.001200000000003 47.5445 2129.54 0.0 0.0 1.0
-12.8114 48.8731 2129.54 0.0 0.0 1.0
-12.8114 55.7058 2129.54 0.0 0.0 1.0
-13.191 61.9692 2129.54 0.0 0.0 1.0
-13.3808 62.34876666666667 2129.54 0.0 0.0 1.0
-13.3808 62.34876666666667 2129.54 0.0 0.0 1.0
-13.191 64.0569 2129.54 0.0 0.0 1.0
-13.5706 72.0285 2129.54 0.0 0.0 1.0
-13.3808 72.5979 2129.54 0.0 0.0 1.0
-13.3808 72.5979 2129.54 0.0 0.0 1.0
-13.5706 79.2408 2129.54 0.0 0.0 1.0
-13.191 82.847 2129.54 0.0 0.0 1.0
-13.191 82.847 2129.54 0.0 0.0 1.0
-13.5706 84.74496666666666 2129.54 0.0 0.0 1.0
-13.3808 87.4021 2129.54 0.0 0.0 1.0
-13.001199999999999 90.05930000000001 2129.54 0.0 0.0 1.0
-13.3808 92.7165 2129.54 0.0 0.0 1.0
-13.3808 97.6512 2129.54 0.0 0.0 1.0
0.6956506666666668 129.507 2601.74 0.0 0.0 1.0
-5.67604 -113.19966666666666 2403.21 0.0 0.0 1.0
-6.10442 -110.629 2403.21 0.0 0.0 1.0
-5.973333333333333 -104.21333333333332 2393.6 0.0 0.0 1.0
-6.1866666666666665 -98.66666666666667 2393.6 0.0 0.0 1.0
-6.1866666666666665 -98.66666666666667 2393.6 0.0 0.0 1.0
-4.605090000000001 -96.06426666666668 2403.21 0.0 0.0 1.0
-5.12 -92.05333333333334 2393.6 0.0 0.0 1.0
-5.760000000000001 -89.92 2393.6 0.0 0.0 1.0
-5.760000000000001 -89.92 2393.6 0.0 0.0 1.0
-5.760000000000001 -89.92 2393.6 0.0 0.0 1.0
0.463768 -85.44926666666667 2601.74 0.0 0.0 1.0
0.463768 -85.44926666666667 2601.74 0.0 0.0 1.0
0.463768 -84.9855 2601.74 0.0 0.0 1.0
1.3913046666666666 -81.971 2601.74 0.0 0.0 1.0
1.3913046666666666 -80.8116 2601.74 0.0 0.0 1.0
-6.64032 -68.195 2365.22 0.0 0.0 1.0
-7.559056666666667 -59.10763333333333 2355.91 0.0 0.0 1.0
-8.682173333333333 -42.68733333333333 2319.38 0.0 0.0 1.0
1.6231906666666667 -45.56523333333333 2601.74 0.0 0.0 1.0
-7.441863333333334 -38.75966666666667 2319.38 0.0 0.0 1.0
-7.648583333333334 -31.937966666666664 2319.38 0.0 0.0 1.0
-7.8553 -31.731266666666667 2319.38 0.0 0.0 1.0
-7.64858 -30.284233333333333 2319.38 0.0 0.0 1.0
-8.33977 -16.7825 2310.42 0.0 0.0 1.0
-8.13385 -11.016733333333335 2310.42 0.0 0.0 1.0
-8.54569 -4.839126666666666 2310.42 0.0 0.0 1.0
-8.54569 -4.015443333333333 2310.42 0.0 0.0 1.0
1.3913039999999999 24.695666666666668 2601.74 0.0 0.0 1.0
-8.238563333333333 24.09396666666667 2340.556666666667 -0.9862894833239687 -9.28383133629503e-18 0.16502440754185219
0.695652 31.65216666666667 2601.74 0.0 0.0 1.0
0.695652 31.65216666666667 2601.74 0.0 0.0 1.0
0.695652 32.347833333333334 2601.74 0.0 0.0 1.0
0.463768 33.27536666666666 2601.74 0.0 0.0 1.0
0.695652 33.739133333333335 2601.74 0.0 0.0 1.0
0.695652 34.666666666666664 2601.74 0.0 0.0 1.0
0.695652 35.8261 2601.74 0.0 0.0 1.0
0.231884 36.75363333333333 2601.74 0.0 0.0 1.0
0.9275346666666667 39.30433333333333 2601.74 0.0 0.0 1.0
0.231884 39.7681 2601.74 0.0 0.0 1.0
-13.760399999999999 58.9324 2129.54 0.0 0.0 1.0
-13.760399999999999 61.5896 2129.54 0.0 0.0 1.0
-13.760400000000002 61.5896 2129.54 0.0 0.0 1.0
-13.9502 65.7651 2129.54 0.0 0.0 1.0
-14.3298 70.51010000000001 2129.54 0.0 0.0 1.0
-13.3808 71.6489 2129.54 0.0 0.0 1.0
-14.14 86.8327 2129.54 0.0 0.0 1.0
-13.760399999999999 89.1103 2129.54 0.0 0.0 1.0
-13.760399999999999 90.81850000000001 2129.54 0.0 0.0 1.0
-13.5706 91.3879 2129.54 0.0 0.0 1.0
-13.3808 92.7165 2129.54 0.0 0.0 1.0
-13.760399999999999 95.9431 2129.54 0.0 0.0 1.0
-13.9502 97.84100000000001 2129.54 0.0 0.0 1.0
-13.995266666666666 100.709 2121.99 0.0 0.0 1.0
-14.562633333333332 101.46566666666666 2121.99 0.0 0.0 1.0
0.6956506666666668 129.507 2601.74 0.0 0.0 1.0
-6.10442 -110.629 2403.21 0.0 0.0 1.0
-6.613333333333333 -103.14666666666666 2393.6 0.0 0.0 1.0
-0.463768 -103.30433333333333 2601.74 0.0 0.0 1.0
-0.6956506666666668 -101.44933333333334 2601.74 0.0 0.0 1.0
-0.6956506666666668 -98.66663333333332 2601.74 0.0 0.0 1.0
0.463768 -85.44926666666667 2601.74 0.0 0.0 1.0
-6.64032 -68.195 2365.22 0.0 0.0 1.0
0.9275366666666667 -72.46376666666667 2601.74 0.0 0.0 1.0
0.9275366666666667 -72.46376666666667 2601.74 0.0 0.0 1.0
-7.979003333333334 -59.527566666666665 2355.91 0.0 0.0 1.0
-7.559056666666667 -55.328066666666665 2355.91 0.0 0.0 1.0
-8.682173333333333 -41.0336 2319.38 0.0 0.0 1.0
-8.268733333333332 -36.8992 2319.38 0.0 0.0 1.0
-8.68217 -35.865633333333335 2319.38 0.0 0.0 1.0
-8.68217 -35.865633333333335 2319.38 0.0 0.0 1.0
-8.268733333333332 -28.4238 2319.38 0.0 0.0 1.0
-8.268733333333332 -28.4238 2319.38 0.0 0.0 1.0
-8.475453333333332 -25.943133333333336 2319.38 0.0 0.0 1.0
-8.54569 -23.371966666666665 2310.42 0.0 0.0 1.0
-8.54569 -23.371966666666665 2310.42 0.0 0.0 1.0
-8.75161 -16.7825 2310.42 0.0 0.0 1.0
-8.54569 -16.16473333333333 2310.42 0.0 0.0 1.0
-8.751610000000001 -13.281866666666666 2310.42 0.0 0.0 1.0
-8.75161 -4.839126666666666 2310.42 0.0 0.0 1.0
-8.54569 -4.015443333333333 2310.42 0.0 0.0 1.0
0.4637693333333333 10.087 2601.74 0.0 0.0 1.0
0.463768 33.27536666666666 2601.74 0.0 0.0 1.0
0.46376666666666666 44.4058 2601.74 0.0 0.0 1.0
-0.231884 44.869566666666664 2601.74 0.0 0.0 1.0
-15.089 41.4709 2129.54 0.0 0.0 1.0
-14.3298 52.669000000000004 2129.54 0.0 0.0 1.0
-14.899199999999999 58.9324 2129.54 0.0 0.0 1.0
-13.9502 62.15899999999999 2129.54 0.0 0.0 1.0
-14.8992 66.90390000000001 2129.54 0.0 0.0 1.0
-14.14 73.7367 2129.54 0.0 0.0 1.0
-14.14 73.7367 2129.54 0.0 0.0 1.0
-14.14 76.7734 2129.54 0.0 0.0 1.0
-13.760399999999999 82.847 2129.54 0.0 0.0 1.0
-13.9502 88.35109999999999 2129.54 0.0 0.0 1.0
-14.3298 96.32266666666668 2129.54 0.0 0.0 1.0
-13.9502 97.84100000000001 2129.54 0.0 0.0 1.0
-14.3298 98.2206 2129.54 0.0 0.0 1.0
-14.709400000000002 99.92866666666667 2129.54 0.0 0.0 1.0
-14.751766666666667 101.08733333333333 2121.99 0.0 0.0 1.0
-14.605399999999998 103.55733333333335 2114.49 0.0 0.0 1.0
0.6956506666666668 129.50700000000003 2601.74 0.0 0.0 1.0
-2.3188406666666666 -129.971 2601.74 0.0 0.0 1.0
-5.67604 -113.19966666666666 2403.21 0.0 0.0 1.0
-6.10442 -110.629 2403.21 0.0 0.0 1.0
-7.466666666666666 -106.34666666666668 2393.6 0.0 0.0 1.0
-7.039999999999999 -104.21333333333332 2393.6 0.0 0.0 1.0
-6.186666666666667 -98.66666666666667 2393.6 0.0 0.0 1.0
-0.6956506666666668 -104.0 2601.74 0.0 0.0 1.0
-0.463768 -103.30433333333333 2601.74 0.0 0.0 1.0
-1.1594173333333335 -98.20286666666665 2601.74 0.0 0.0 1.0
-8.818886666666666 -65.19686666666666 2355.91 0.0 0.0 1.0
-8.608926666666667 -63.937033333333325 2355.91 0.0 0.0 1.0
-9.238833333333332 -58.05773333333334 2355.91 0.0 0.0 1.0
-7.769030000000001 -51.54856666666666 2355.91 0.0 0.0 1.0
-8.682173333333333 -42.68733333333333 2319.38 0.0 0.0 1.0
-9.715766666666665 -26.149866666666668 2319.38 0.0 0.0 1.0
-10.193063333333335 -11.016766666666667 2310.42 0.0 0.0 1.0
-0.46376733333333336 5.21739 2601.74 0.0 0.0 1.0
0.4637693333333333 10.087 2601.74 0.0 0.0 1.0
0.6956493333333333 14.492766666666668 2601.74 0.0 0.0 1.0
-8.958333333333334 24.479166666666668 2337.5 0.0 0.0 1.0
-9.375 25.3125 2337.5 0.0 0.0 1.0
-0.6956533333333333 37.2174 2601.74 0.0 0.0 1.0
-0.4637666666666667 40.0 2601.74 0.0 0.0 1.0
-0.231884 44.869566666666664 2601.74 0.0 0.0 1.0
-15.581100000000001 38.47926666666667 2132.0733333333333 -0.6973426092001074 0.6973426092001086 0.1656096941243803
-15.4686 39.95256666666666 2129.54 0.0 0.0 1.0
-15.278799999999999 40.711733333333335 2129.54 0.0 0.0 1.0
-15.4686 44.5077 2129.54 0.0 0.0 1.0
-14.7094 64.43650000000001 2129.54 0.0 0.0 1.0
-15.278799999999999 66.7141 2129.54 0.0 0.0 1.0
-15.278799999999999 66.7141 2129.54 0.0 0.0 1.0
-14.8992 68.6121 2129.54 0.0 0.0 1.0
-15.4686 69.3713 2129.54 0.0 0.0 1.0
-14.7094 70.6999 2129.54 0.0 0.0 1.0
-15.278799999999999 77.72240000000001 2129.54 0.0 0.0 1.0
-15.4686 79.4306 2129.54 0.0 0.0 1.0
-15.4686 79.4306 2129.54 0.0 0.0 1.0
-14.8992 85.88373333333334 2129.54 0.0 0.0 1.0
-14.8992 86.4531 2129.54 0.0 0.0 1.0
-14.709400000000002 99.92866666666667 2129.54 0.0 0.0 1.0
-15.13 101.844 2121.99 0.0 0.0 1.0
-2.3188366666666664 -126.95633333333335 2601.74 0.0 0.0 1.0
-2.3188366666666664 -126.95633333333335 2601.74 0.0 0.0 1.0
-7.466666666666666 -106.34666666666668 2393.6 0.0 0.0 1.0
-7.466666666666666 -106.34666666666668 2393.6 0.0 0.0 1.0
-7.466666666666666 -102.29333333333334 2393.6 0.0 0.0 1.0
-1.6231873333333333 -104.23200000000001 2601.74 0.0 0.0 1.0
-0.9275333333333333 -100.2898 2601.74 0.0 0.0 1.0
-0.9275333333333333 -98.66663333333332 2601.74 0.0 0.0 1.0
-1.1594173333333335 -98.20286666666665 2601.74 0.0 0.0 1.0
-2.086953333333333 -95.88403333333333 2601.74 0.0 0.0 1.0
-0.9275366666666667 -90.08696666666667 2601.74 0.0 0.0 1.0
-9.868766666666666 -67.29656666666666 2355.91 0.0 0.0 1.0
-8.188979999999999 -56.167966666666665 2355.91 0.0 0.0 1.0
-7.769030000000001 -51.9685 2355.91 0.0 0.0 1.0
-8.88889 -38.13953333333333 2319.38 0.0 0.0 1.0
-10.193076666666665 -21.518666666666665 2310.42 0.0 0.0 1.0
-10.193063333333335 -11.016766666666664 2310.42 0.0 0.0 1.0
-14.201799999999999 13.180100000000001 2292.72 0.0 0.0 1.0
-11.919233333333333 14.646466666666667 2266.67 0.0 0.0 1.0
-12.525300000000001 16.26263333333333 2266.67 0.0 0.0 1.0
-0.9275366666666667 20.753600000000002 2601.74 0.0 0.0 1.0
-10.83956 20.129066666666663 2316.3933333333334 0.704700203767332 -0.7047058854588888 0.0823846940267681
-11.782960000000001 20.56843333333333 2319.38 0.0 0.0 1.0
-9.375 25.3125 2337.5 0.0 0.0 1.0
-1.15942 32.8116 2601.74 0.0 0.0 1.0
-1.3913039999999999 36.75363333333333 2601.74 0.0 0.0 1.0
-1.1594173333333333 39.536233333333335 2601.74 0.0 0.0 1.0
-1.1594173333333335 39.536233333333335 2601.74 0.0 0.0 1.0
-15.8482 42.2301 2129.54 0.0 0.0 1.0
-15.8482 42.2301 2129.54 0.0 0.0 1.0
-15.4686 44.5077 2129.54 0.0 0.0 1.0
-15.4686 44.5077 2129.54 0.0 0.0 1.0
-15.4686 44.8873 2129.54 0.0 0.0 1.0
-15.4686 51.530233333333335 2129.54 0.0 0.0 1.0
-15.8482 65.57530000000001 2129.54 0.0 0.0 1.0
-15.8482 65.57530000000001 2129.54 0.0 0.0 1.0
-15.278799999999999 66.71409999999999 2129.54 0.0 0.0 1.0
-15.278799999999999 86.07353333333333 2129.54 0.0 0.0 1.0
-15.089 92.3369 2129.54 0.0 0.0 1.0
-16.038 93.4757 2129.54 0.0 0.0 1.0
-15.8865 101.844 2121.99 0.0 0.0 1.0
-14.605399999999998 103.55733333333335 2114.49 0.0 0.0 1.0
-2.3188406666666666 -129.971 2601.74 0.0 0.0 1.0
-8.96 -107.83999999999999 2393.6 0.0 0.0 1.0
-7.68 -103.78666666666668 2393.6 0.0 0.0 1.0
-8.106666666666667 -101.44 2393.6 0.0 0.0 1.0
-8.533333333333333 -100.58666666666666 2393.6 0.0 0.0 1.0
-2.318843333333333 -85.44923333333332 2601.74 0.0 0.0 1.0
-2.318843333333333 -85.44923333333332 2601.74 0.0 0.0 1.0
-10.434786666666666 -71.98946666666667 2365.22 0.0 0.0 1.0
-9.448833333333333 -62.677166666666665 2355.91 0.0 0.0 1.0
-9.86874 -58.687666666666665 2355.91 0.0 0.0 1.0
-2.78261 -52.7536 2601.74 0.0 0.0 1.0
-1.391306 -44.4058 2601.74 0.0 0.0 1.0
-11.5762 -35.86566666666667 2319.38 0.0 0.0 1.0
-11.369466666666666 -33.59173333333333 2319.38 0.0 0.0 1.0
-11.428566666666667 -23.57783333333333 2310.42 0.0 0.0 1.0
-11.428566666666667 -18.018033333333335 2310.42 0.0 0.0 1.0
-11.222666666666667 -11.634500000000001 2310.42 0.0 0.0 1.0
-13.079833333333333 -2.7376400000000003 2275.29 0.0 0.0 1.0
-3.2463766666666665 -0.8115953333333333 2601.74 0.0 0.0 1.0
-2.5507266666666664 0.11594133333333338 2601.74 0.0 0.0 1.0
-12.471466666666666 7.401773333333334 2275.29 0.0 0.0 1.0
-12.525266666666667 12.222233333333334 2266.67 0.0 0.0 1.0
-9.375 25.3125 2337.5 0.0 0.0 1.0
-2.31884 33.04346666666667 2601.74 0.0 0.0 1.0
-1.3913039999999999 37.68116666666666 2601.74 0.0 0.0 1.0
-16.038 39.573 2129.54 0.0 0.0 1.0
-16.2278 42.4199 2129.54 0.0 0.0 1.0
-15.8482 45.456700000000005 2129.54 0.0 0.0 1.0
-17.366533333333333 49.8221 2129.54 0.0 0.0 1.0
-17.55633333333333 55.3262 2129.54 0.0 0.0 1.0
-16.2278 59.5018 2129.54 0.0 0.0 1.0
-16.2278 59.5018 2129.54 0.0 0.0 1.0
-16.607366666666664 59.881400000000006 2129.54 0.0 0.0 1.0
-15.8482 65.57530000000001 2129.54 0.0 0.0 1.0
-16.038 69.3713 2129.54 0.0 0.0 1.0
-16.41756666666667 71.4591 2129.54 0.0 0.0 1.0
-16.038 78.8612 2129.54 0.0 0.0 1.0
-16.797166666666666 81.5184 2129.54 0.0 0.0 1.0
-16.607366666666664 97.08186666666667 2129.54 0.0 0.0 1.0
-15.6584 97.46143333333333 2129.54 0.0 0.0 1.0
-15.8865 101.844 2121.99 0.0 0.0 1.0
-8.6747 -116.62666666666667 2403.21 0.0 0.0 1.0
-8.6747 -116.62666666666667 2403.21 0.0 0.0 1.0
-9.531456666666667 -114.48466666666667 2403.21 0.0 0.0 1.0
-8.674696666666668 -111.91433333333333 2403.21 0.0 0.0 1.0
-8.533333333333333 -100.58666666666666 2393.6 0.0 0.0 1.0
-3.246376666666667 -104.46366666666667 2601.74 0.0 0.0 1.0
-2.3188400000000002 -98.43476666666668 2601.74 0.0 0.0 1.0
-2.3188400000000002 -97.971 2601.74 0.0 0.0 1.0
-2.5507266666666664 -86.60866666666668 2601.74 0.0 0.0 1.0
-2.78261 -85.68113333333334 2601.74 0.0 0.0 1.0
-9.868766666666666 -67.29656666666666 2355.91 0.0 0.0 1.0
