ply
format ascii 1.0
comment VCGLIB generated
element vertex 707
property float x
property float y
property float z
property float nx
property float ny
property float nz
element face 0
property list uchar int vertex_indices
end_header
14.502933333333333 27.52436666666667 1749.71 0.0 0.0 1.0
13.760933333333332 34.4412 1744.61 0.0 0.0 1.0
13.5146 36.89313333333333 1742.9166666666667 -0.9898910210657428 0.14139134910270496 0.011146874554706336
15.160333333333332 38.173 1744.61 0.0 0.0 1.0
14.745066666666666 48.54903333333334 1760.0 0.0 0.0 1.0
11.1925 77.59626666666666 1685.63 0.0 0.0 1.0
36.593700000000005 102.28733333333332 2183.94 0.0 0.0 1.0
12.689979999999998 109.10243333333334 1962.07 0.5916518007450727 -0.6751239641151192 0.4406311152796635
20.48243666666667 133.42666666666665 2080.226666666667 -0.4364596489690787 -0.7254827124254519 0.5321445375023572
11.722686666666666 103.91333333333334 1765.2 -0.30690009320740597 -0.9513442235360043 0.027504565693037566
36.788333333333334 133.43066666666664 2183.94 0.0 0.0 1.0
4.74707 112.16866666666665 1590.0833333333333 0.2146784044722484 0.8051032992915563 0.5529212060710823
21.4511 -136.6983333333333 1887.7 0.0 0.0 1.0
20.441633333333336 -134.67933333333335 1887.7 0.0 0.0 1.0
19.27116666666667 -118.87400000000001 1871.9533333333331 7.789065643086631e-16 0.9979911363575257 0.06335370353669019
18.691599999999998 -112.23266666666666 1864.17 0.0 0.0 1.0
21.01766666666667 -104.92233333333333 1864.17 0.0 0.0 1.0
19.710166666666666 -104.265 1858.39 0.0 0.0 1.0
19.710166666666666 -104.265 1858.39 0.0 0.0 1.0
20.02076666666667 -89.9688 1864.17 0.0 0.0 1.0
19.047633333333334 -78.26089999999999 1858.39 0.0 0.0 1.0
22.3023 -70.86663333333333 1932.4199999999998 0.9726854115255901 -0.194537082305118 0.1266428593072081
20.232266666666668 -65.97250000000001 1852.6433333333334 -0.6622092704322863 0.463016434373589 0.5891474040115148
19.811899999999998 -66.7921 1875.86 0.0 0.0 1.0
15.363166666666666 -53.5721 1786.2699999999998 -3.934859633341395e-28 -2.1642551865210658e-27 1.0
14.639000000000001 -44.54996666666667 1775.67 0.0 0.0 1.0
14.2012 -35.897400000000005 1770.41 0.0 0.0 1.0
14.990166666666667 -26.745566666666665 1770.41 0.0 0.0 1.0
14.516799999999998 -26.272199999999998 1770.41 0.0 0.0 1.0
14.117633333333332 -19.372533333333333 1760.0 0.0 0.0 1.0
14.832366666666665 -11.282066666666665 1770.41 0.0 0.0 1.0
14.516766666666667 -10.8087 1770.41 0.0 0.0 1.0
14.237966666666665 3.697146666666667 1765.1899999999998 -1.087771429204498e-26 -2.7195438079183624e-26 1.0
13.608666666666666 4.798426666666667 1765.1899999999998 -4.534309751572924e-27 2.321568192863647e-27 1.0
14.191033333333332 22.690066666666667 1749.71 0.0 0.0 1.0
12.983466666666667 34.7522 1744.61 0.0 0.0 1.0
13.567266666666669 41.559466666666665 1749.71 0.0 0.0 1.0
14.745066666666666 48.54903333333334 1760.0 0.0 0.0 1.0
14.709933333333334 52.15336666666666 1765.1899999999998 0.0 0.0 1.0
14.709933333333334 52.15336666666666 1765.1899999999998 0.0 0.0 1.0
29.681500000000003 74.04586666666665 2122.0066666666667 -4.466647027938058e-05 -0.9831984589537877 0.18253982665655047
-13.1474 57.4897 1288.75 -0.8513484106407546 -0.4788959915311485 0.21416001726479963
10.7418 74.74183333333333 1685.63 0.0 0.0 1.0
7.5232133333333335 81.3445 1669.9733333333334 -0.22742160150324794 -0.924547148050724 0.3057645927849897
9.53989 80.9014 1685.63 0.0 0.0 1.0
9.820956666666667 89.2977 1682.4766666666667 0.9456885574850242 0.17194093951636222 0.2758794402635406
10.786546666666666 102.09733333333334 1680.9000000000003 7.258617140518457e-26 -3.9402616797326147e-26 1.0
10.786546666666666 104.045 1680.9000000000003 2.5370370594782495e-26 1.0016042976019957e-26 1.0
20.273400000000002 -134.511 1887.7 0.0 0.0 1.0
-11.936686666666667 -75.8117 1227.9533333333336 0.9514263657906086 -0.3078157665386255 -0.006109365655566014
18.69156666666667 -100.43643333333334 1864.17 0.0 0.0 1.0
19.023866666666667 -96.61473333333333 1864.17 0.0 0.0 1.0
19.023866666666667 -96.61473333333333 1864.17 0.0 0.0 1.0
20.02076666666667 -89.9688 1864.17 0.0 0.0 1.0
51.30723333333333 -83.12196666666667 2051.6666666666665 -0.1183295766054247 0.24542439590251755 0.9621668136016047
19.811900000000005 -66.7921 1875.86 0.0 0.0 1.0
21.719399999999997 -65.10433333333333 1846.9233333333334 0.6092559912120561 0.5818034373830648 0.538805992377094
16.3914 -60.4281 1829.97 0.0 0.0 1.0
14.690600000000002 -55.96803333333333 1791.62 0.0 0.0 1.0
13.650800000000002 -51.98413333333334 1780.95 0.0 0.0 1.0
13.689433333333334 -47.24036666666667 1775.67 0.0 0.0 1.0
14.832366666666667 -38.57986666666667 1770.41 0.0 0.0 1.0
14.2012 -35.897400000000005 1770.41 0.0 0.0 1.0
14.516799999999998 -26.272199999999998 1770.41 0.0 0.0 1.0
14.117633333333332 -19.372533333333333 1760.0 0.0 0.0 1.0
14.990133333333333 -1.9723866666666663 1770.41 0.0 0.0 1.0
13.333366666666668 7.29412 1760.0 0.0 0.0 1.0
14.310833333333335 13.216033333333334 1754.84 0.0 0.0 1.0
14.310866666666668 19.78493333333333 1754.84 0.0 0.0 1.0
12.163733333333333 29.55163333333333 1749.71 0.0 0.0 1.0
14.117633333333336 49.0196 1760.0 0.0 0.0 1.0
29.681500000000003 74.04586666666665 2122.0066666666667 -4.466647027938058e-05 -0.9831984589537875 0.18253982665655047
11.709166666666667 64.43813333333334 1695.18 0.0 0.0 1.0
10.047213333333334 65.64683333333333 1695.18 0.0 0.0 1.0
9.53989 80.9014 1685.63 0.0 0.0 1.0
8.135593333333334 79.32206666666666 1690.4000000000003 -4.138603838515333e-27 6.155188014579043e-27 1.0
14.933933333333334 110.85133333333334 1891.6933333333334 -3.8005404011268917e-16 0.9939392567791742 0.10993067739836479
10.723026666666664 100.05043333333333 1731.1599999999999 -0.8312748135808543 0.4848747112322173 0.27180636253331103
20.105166666666666 -135.016 1887.7 0.0 0.0 1.0
18.333333333333332 -118.41666666666667 1870.0 0.0 0.0 1.0
19.333333333333332 -116.08333333333333 1870.0 0.0 0.0 1.0
18.691600000000005 -112.23266666666666 1864.17 0.0 0.0 1.0
19.023866666666667 -100.935 1864.17 0.0 0.0 1.0
19.023866666666667 -96.61473333333333 1864.17 0.0 0.0 1.0
18.6916 -87.14436666666666 1864.17 0.0 0.0 1.0
16.5 -72.58333333333333 1870.0 0.0 0.0 1.0
19.811900000000005 -66.7921 1875.86 0.0 0.0 1.0
22.302300000000002 -70.86663333333333 1932.42 0.9726854115255901 -0.19453708230511788 0.1266428593072081
14.690599999999998 -55.96803333333333 1791.62 0.0 0.0 1.0
13.650800000000002 -51.98413333333334 1780.95 0.0 0.0 1.0
14.2012 -35.897400000000005 1770.41 0.0 0.0 1.0
13.57 -34.16173333333333 1770.41 0.0 0.0 1.0
13.803933333333333 -20.627466666666663 1760.0 0.0 0.0 1.0
14.516766666666667 -10.8087 1770.41 0.0 0.0 1.0
12.97936666666667 1.9665666666666664 1765.1899999999998 1.2464206077656015e-26 1.7674941266253415e-26 1.0
13.1367 3.69715 1765.1899999999998 -3.854120729481893e-27 1.1333593628829365e-27 1.0
13.333366666666668 7.2941199999999995 1760.0 0.0 0.0 1.0
13.333366666666668 7.2941199999999995 1760.0 0.0 0.0 1.0
12.993833333333333 12.290266666666668 1756.5600000000002 0.0 -0.9825638530420374 0.1859254546725252
13.567266666666669 22.846 1749.71 0.0 0.0 1.0
33.479299999999995 36.690999999999995 2183.94 0.0 0.0 1.0
12.3197 40.62376666666666 1749.71 0.0 0.0 1.0
11.652000000000001 45.1222 1754.84 0.0 0.0 1.0
12.462183333333334 55.2363 1804.2233333333334 -0.3161784641331638 -0.9485435933245374 0.017211344554337413
10.355623333333334 55.455099999999995 1721.1933333333334 -0.6814955310742958 0.6813917801234978 0.2669626998400611
9.140696666666665 67.76203333333332 1695.18 0.0 0.0 1.0
-4.331713333333334 74.51683333333334 1387.3766666666668 0.7162007020975782 -0.633213350402374 0.2934235968478611
15.734686666666668 108.70299999999999 1877.8266666666666 -0.2026813070944037 -0.9628614952491638 0.17837608786227072
10.438086666666667 102.77013333333332 1761.7300000000002 0.5505510426728373 -0.2752901457598016 0.7881046155551933
2.384824 114.83266666666667 1621.68 0.0 0.0 1.0
19.9369 -134.84766666666667 1887.7 0.0 0.0 1.0
17.5 -125.41666666666667 1870.0 0.0 0.0 1.0
18.333333333333332 -118.41666666666667 1870.0 0.0 0.0 1.0
19.333333333333332 -116.08333333333333 1870.0 0.0 0.0 1.0
17.860833333333336 -101.267 1864.17 0.0 0.0 1.0
18.691566666666667 -96.94703333333332 1864.17 0.0 0.0 1.0
18.525433333333336 -75.68013333333333 1864.17 0.0 0.0 1.0
16.3914 -60.4281 1829.97 0.0 0.0 1.0
13.689433333333334 -47.24036666666667 1775.67 0.0 0.0 1.0
13.766 -23.205533333333335 1765.1899999999998 2.256340459755163e-28 -1.0798333704985131e-27 1.0
12.898133333333334 -14.9555 1775.67 0.0 0.0 1.0
12.97936666666667 1.9665666666666664 1765.1899999999998 1.2464206077656003e-26 1.7674941266253398e-26 1.0
12.9794 3.0678466666666666 1765.1899999999998 1.0 0.0 0.0
13.1367 3.69715 1765.1899999999998 -3.854120729481893e-27 1.1333593628829365e-27 1.0
13.176499999999999 6.823530000000001 1760.0 0.0 0.0 1.0
16.97445 4.9011700000000005 1633.6599999999999 -0.49005298748552373 -0.8575943426494285 0.15614100330216799
13.147649999999999 12.266166666666669 1555.6499999999999 0.2853732394783865 -0.9422728698097536 0.1751683561894175
11.921566666666669 12.9412 1760.0 0.0 0.0 1.0
12.163733333333333 29.55163333333333 1749.71 0.0 0.0 1.0
33.479299999999995 36.690999999999995 2183.94 0.0 0.0 1.0
12.983466666666667 34.752199999999995 1744.61 0.0 0.0 1.0
13.019600000000002 46.9804 1760.0 0.0 0.0 1.0
8.638483333333333 81.50233333333334 1685.63 0.0 0.0 1.0
7.286383333333333 88.41316666666667 1685.63 0.0 0.0 1.0
12.242633333333332 100.48213333333335 1727.83 -0.935985693388187 -0.3509946350205701 0.027084090522141127
8.389516666666667 112.58433333333335 1680.9000000000003 -8.132669543775842e-26 -1.0446133493977702e-26 1.0
8.389516666666667 112.58433333333335 1680.9000000000003 -8.132669543775842e-26 -1.0446133493977702e-26 1.0
17.5 -125.41666666666667 1870.0 0.0 0.0 1.0
18.691600000000005 -112.23266666666666 1864.17 0.0 0.0 1.0
19.047633333333334 -105.42433333333334 1858.39 0.0 0.0 1.0
17.22566666666667 -82.56726666666667 1858.39 0.0 0.0 1.0
17.22566666666667 -80.24843333333332 1858.39 0.0 0.0 1.0
17.3913 -78.59213333333334 1858.39 0.0 0.0 1.0
18.053833333333333 -78.09526666666667 1858.39 0.0 0.0 1.0
22.302300000000002 -70.86663333333333 1932.42 0.9726854115255901 -0.19453708230511782 0.1266428593072081
17.471266666666665 -68.96553333333334 1875.86 0.0 0.0 1.0
14.690599999999998 -55.96803333333333 1791.62 0.0 0.0 1.0
14.089533333333334 -53.5721 1786.2699999999998 1.4164308364707676e-28 2.1247945410165206e-28 1.0
13.056366666666667 -47.873400000000004 1775.67 0.0 0.0 1.0
33.284666666666666 -49.537733333333335 2183.94 0.0 0.0 1.0
12.4655 -30.374733333333335 1770.41 0.0 0.0 1.0
12.507399999999999 -24.3068 1765.1899999999998 -2.719444578028996e-27 4.532701059612807e-28 1.0
13.056400000000002 -16.221566666666668 1775.67 0.0 0.0 1.0
12.507399999999999 1.9665666666666664 1765.1899999999998 -5.212108456254287e-27 6.798744272070208e-27 1.0
12.862766666666667 7.92157 1760.0 0.0 0.0 1.0
11.921566666666669 12.9412 1760.0 0.0 0.0 1.0
11.450983333333333 16.549033333333337 1760.0 0.0 0.0 1.0
18.20356666666667 17.005959999999998 1791.62 0.0 0.0 1.0
11.182789999999999 25.728266666666666 1754.84 0.0 0.0 1.0
11.182789999999999 25.728266666666666 1754.84 0.0 0.0 1.0
12.3615 36.929066666666664 1744.61 0.0 0.0 1.0
11.652000000000001 45.1222 1754.84 0.0 0.0 1.0
11.921566666666669 46.82353333333333 1760.0 0.0 0.0 1.0
9.198089999999999 54.647333333333336 1734.49 0.0 0.0 1.0
9.195386666666666 55.862066666666664 1719.54 0.0 0.0 1.0
10.620836666666667 57.53583333333333 1714.61 0.0 0.0 1.0
20.8304 68.13536666666666 1751.42 0.3599097579896266 -4.639222567684217e-16 0.9329871200096218
-4.347123333333333 62.87103333333334 1455.96 0.0 0.0 1.0
-4.080996666666667 63.2867 1453.61 0.4455966658756682 0.8911818856515219 0.08507912815188931
-15.306233333333333 57.620900000000006 1249.2733333333333 -0.7020803383855186 0.43681060552223283 0.562387493953925
36.593700000000005 102.28733333333332 2183.94 0.0 0.0 1.0
7.200886666666666 92.89426666666667 1653.0466666666664 0.4271288940773054 0.07717573133437933 0.9008911223545838
9.288406666666667 113.78266666666667 1680.9000000000003 0.0 0.0 1.0
-4.392968666666667 105.408 1537.0 -0.04302285851702322 0.9879260306653608 0.1488327637948331
34.257933333333334 160.876 2183.94 0.0 0.0 1.0
17.666666666666668 -119.75 1870.0 0.0 0.0 1.0
18.333333333333332 -118.41666666666667 1870.0 0.0 0.0 1.0
18.119466666666668 -106.473 1856.4700000000003 1.3846374216755804e-16 -0.980383793041068 0.1970979917259651
28.525066666666664 -118.48199999999999 2012.5566666666666 -0.8442997235534331 -0.5214635149059532 0.12342519770907985
18.3593 -95.61786666666667 1864.17 0.0 0.0 1.0
17.22566666666667 -82.56726666666667 1858.39 0.0 0.0 1.0
16.531666666666666 -76.51089999999999 1864.17 0.0 0.0 1.0
16.3914 -60.4281 1829.97 0.0 0.0 1.0
33.28466666666667 -71.14353333333332 2183.94 0.0 0.0 1.0
12.8159 -54.049733333333336 1786.2699999999998 3.150513623840732e-18 -3.1503360345572035e-18 1.0
12.5816 -43.9169 1775.67 0.0 0.0 1.0
18.115686666666665 -44.520100000000006 1826.2700000000002 0.3174634123348305 0.8089096050000391 0.49485576966163214
12.4655 -30.374733333333335 1770.41 0.0 0.0 1.0
11.9921 -30.216933333333333 1770.41 0.0 0.0 1.0
12.307699999999999 -25.641033333333336 1770.41 0.0 0.0 1.0
12.507399999999999 -24.3068 1765.1899999999998 -2.719444578028996e-27 4.532701059612807e-28 1.0
12.423333333333332 -14.797233333333333 1775.67 0.0 0.0 1.0
12.423333333333332 -14.797233333333333 1775.67 0.0 0.0 1.0
11.7903 -11.315546666666664 1775.67 0.0 0.0 1.0
12.14991 -3.3925066666666672 1770.41 0.0 0.0 1.0
12.507399999999999 1.9665666666666664 1765.1899999999998 -5.212108456254281e-27 6.798744272070196e-27 1.0
12.163733333333333 29.55163333333333 1749.71 0.0 0.0 1.0
10.44834 42.0273 1749.71 0.0 0.0 1.0
12.078433333333331 49.490166666666674 1760.0 0.0 0.0 1.0
13.739766666666666 53.77346666666667 1741.2366666666667 -4.826051476533611e-17 -0.9995238752298383 0.030854867452747976
9.198089999999999 54.647333333333336 1734.49 0.0 0.0 1.0
9.195386666666666 55.862066666666664 1719.54 0.0 0.0 1.0
33.4793 83.60096666666668 2183.94 0.0 0.0 1.0
33.4793 83.60096666666666 2183.94 0.0 0.0 1.0
16.596466666666668 109.27 1881.7733333333333 -0.21325476241883257 -0.9610467075942882 0.1758170416309685
2.918406666666666 103.52999999999999 1634.9800000000002 0.5971243730506388 0.8007207788109861 0.04784054231725674
7.4366200000000005 114.85466666666666 1685.63 0.0 0.0 1.0
0.6693733333333333 105.129 1503.5433333333333 0.5728876209430636 -0.8115355098882834 0.11493428540066165
17.245 -139.39 1887.7 0.0 0.0 1.0
16.833333333333332 -119.75 1870.0 0.0 0.0 1.0
28.525066666666664 -118.48199999999999 2012.5566666666666 -0.8442997235534331 -0.5214635149059533 0.12342519770907975
17.0301 -101.267 1864.17 0.0 0.0 1.0
15.5 -96.58333333333333 1870.0 0.0 0.0 1.0
9.781366666666667 -102.29906666666666 1911.8333333333333 0.22701098602141748 -0.3566715761686227 0.9062292198880888
16.36553333333333 -87.3105 1864.17 0.0 0.0 1.0
15.5 -78.41666666666667 1870.0 0.0 0.0 1.0
17.471266666666665 -68.96553333333334 1875.86 0.0 0.0 1.0
13.737933333333332 -39.333666666666666 1761.75 0.1960046964859419 -0.9800701916957207 -0.03231993664856225
13.096633333333335 -34.47729999999999 1770.41 0.0 0.0 1.0
12.423333333333334 -14.797233333333333 1775.67 0.0 0.0 1.0
12.265066666666668 -14.322466666666665 1775.67 0.0 0.0 1.0
10.7768 7.630286666666667 1765.1899999999998 -6.476005911553668e-28 5.180694965035708e-28 1.0
9.51266 34.69783333333333 1749.71 0.0 0.0 1.0
11.228066666666665 40.15593333333333 1749.71 0.0 0.0 1.0
10.087986666666666 47.78103333333333 1754.84 0.0 0.0 1.0
-4.347123333333333 62.87103333333334 1455.96 0.0 0.0 1.0
-12.3138 61.046533333333336 1316.1466666666665 -0.8763676767291801 -0.47179069455781275 -0.09691870672350027
6.478343333333334 78.87006666666666 1690.4000000000003 6.817030964547747e-26 2.124307455092226e-25 1.0
33.47933333333333 110.46233333333333 2183.94 0.0 0.0 1.0
7.286383333333333 88.41316666666667 1685.63 0.0 0.0 1.0
10.438086666666667 102.77013333333332 1761.7300000000002 0.5505510426728373 -0.2752901457598016 0.7881046155551933
7.4366200000000005 114.85466666666666 1685.63 0.0 0.0 1.0
32.31146666666667 158.15099999999998 2183.94 0.0 0.0 1.0
17.245 -139.39 1887.7 0.0 0.0 1.0
19.095666666666666 -134.00633333333334 1887.7 0.0 0.0 1.0
18.102966666666667 -132.33966666666666 1897.676666666667 0.6917625174646165 -0.691675861458492 0.2074828236425098
17.886166666666668 -125.447 1824.39 0.0 0.0 1.0
14.963433333333334 -126.31133333333334 1875.86 0.0 0.0 1.0
16.0 -107.08333333333333 1870.0 0.0 0.0 1.0
16.03323333333333 -100.93456666666667 1864.17 0.0 0.0 1.0
15.8671 -87.47663333333334 1864.17 0.0 0.0 1.0
16.365533333333335 -87.3105 1864.17 0.0 0.0 1.0
16.63533333333333 -69.29993333333333 1875.86 0.0 0.0 1.0
-4.273786666666667 -44.91479999999999 1588.7766666666666 0.6460389550329031 -0.6461407628405651 0.4063690233959857
11.269866666666667 -51.8254 1780.95 0.0 0.0 1.0
12.739866666666666 -47.55686666666667 1775.67 0.0 0.0 1.0
33.28466666666666 -49.537733333333335 2183.94 0.0 0.0 1.0
33.28466666666666 -49.537733333333335 2183.94 0.0 0.0 1.0
10.682486666666668 -39.0109 1775.67 0.0 0.0 1.0
11.518733333333335 -30.216933333333333 1770.41 0.0 0.0 1.0
11.091446666666668 4.0118 1765.1899999999998 0.0 1.0 0.0
10.666633333333332 11.686266666666667 1760.0 0.0 0.0 1.0
10.666633333333333 11.686266666666667 1760.0 0.0 0.0 1.0
13.059633333333332 18.3773 1754.84 0.0 0.0 1.0
10.136439999999999 39.22026666666667 1749.71 0.0 0.0 1.0
11.921566666666665 46.82353333333333 1760.0 0.0 0.0 1.0
7.8701066666666675 57.9943 1714.61 0.0 0.0 1.0
33.4793 83.60096666666668 2183.94 0.0 0.0 1.0
-0.1488766666666669 63.665600000000005 1629.043333333333 0.20105218617829884 -0.9717535142065682 0.1235844895612379
5.534226666666666 66.84756666666667 1632.0199999999998 -0.821669121685602 0.568826340657898 -0.036006230601891086
6.72332 69.42396666666667 1695.18 0.0 0.0 1.0
6.72332 69.42396666666667 1695.18 0.0 0.0 1.0
-4.347123333333333 62.87103333333334 1455.96 0.0 0.0 1.0
-12.3138 61.046533333333336 1316.1466666666665 -0.8763676767291807 -0.47179069455781136 -0.09691870672349932
7.586856666666667 82.7042 1685.63 0.0 0.0 1.0
7.586856666666667 82.7042 1685.63 0.0 0.0 1.0
36.204366666666665 116.10700000000001 2183.94 0.0 0.0 1.0
-5.727876666666667 77.81623333333333 1444.25 0.8766205265616043 -0.21915229633240427 0.4283791818273735
7.490636666666667 101.04866666666668 1680.9000000000003 -8.905684168234068e-28 -2.2656365296214145e-27 1.0
7.4366200000000005 114.85466666666666 1685.63 0.0 0.0 1.0
16.706433333333333 -135.91033333333334 1883.74 -0.9686567428120582 -0.16143744291019715 0.18879106607928
15.833333333333334 -124.91666666666667 1870.0 0.0 0.0 1.0
15.833333333333334 -124.91666666666667 1870.0 0.0 0.0 1.0
17.0 -118.75 1870.0 0.0 0.0 1.0
16.199366666666666 -113.728 1864.17 0.0 0.0 1.0
15.833333333333334 -106.91666666666667 1870.0 0.0 0.0 1.0
-0.06800999999999983 -82.04753333333333 1761.7300000000002 -1.1193910516018273e-15 0.472824260846833 0.8811567501611992
15.2025 -90.13499999999999 1864.17 0.0 0.0 1.0
15.5 -78.41666666666667 1870.0 0.0 0.0 1.0
12.712763333333333 -67.04533333333335 1828.11 -0.7030060210153187 0.09585792668991745 0.7046941125814232
11.701500000000001 -54.84576666666667 1786.2699999999998 9.639046884236776e-27 -1.4162714505733392e-26 1.0
10.682486666666668 -39.0109 1775.67 0.0 0.0 1.0
11.518733333333335 -29.901366666666664 1770.41 0.0 0.0 1.0
9.309673333333334 2.4457566666666666 1770.41 0.0 0.0 1.0
10.619473333333334 7.78761 1765.1899999999998 -1.5110604215250066e-28 6.04385751638777e-28 1.0
10.666633333333333 11.686266666666667 1760.0 0.0 0.0 1.0
9.824546666666668 27.99223333333333 1749.71 0.0 0.0 1.0
9.462373333333332 46.0606 1754.84 0.0 0.0 1.0
6.46903 61.7312 1708.0866666666668 0.5304829403468642 0.7957128063872897 0.2922823630536213
-15.51896 53.84 1219.5866666666666 -0.5737369778201238 0.16679634862197326 0.8018758372517582
6.478343333333334 78.87006666666666 1690.4000000000003 6.817030964547721e-26 2.1243074550922176e-25 1.0
-5.727876666666667 77.81623333333333 1444.25 0.8766205265616043 -0.21915229633240427 0.4283791818273735
11.645226666666666 97.59123333333334 1731.1599999999999 0.8205612814763437 -0.47862560961072753 0.31240472014145404
-5.727876666666667 77.81623333333333 1444.25 0.8766205265616043 -0.21915229633240427 0.4283791818273735
5.483566666666667 98.17840000000001 1685.63 0.0 0.0 1.0
17.245 -139.39 1887.7 0.0 0.0 1.0
15.465000000000002 -134.16933333333336 1875.86 0.0 0.0 1.0
15.465000000000002 -134.16933333333336 1875.86 0.0 0.0 1.0
15.833333333333334 -124.91666666666667 1870.0 0.0 0.0 1.0
16.199366666666666 -113.728 1864.17 0.0 0.0 1.0
15.333333333333334 -107.91666666666667 1870.0 0.0 0.0 1.0
15.333333333333334 -107.91666666666667 1870.0 0.0 0.0 1.0
15.368666666666668 -100.76856666666667 1864.17 0.0 0.0 1.0
15.8671 -87.47663333333333 1864.17 0.0 0.0 1.0
15.6322 -69.6343 1875.86 0.0 0.0 1.0
11.269866666666667 -51.8254 1780.95 0.0 0.0 1.0
11.269866666666667 -51.8254 1780.95 0.0 0.0 1.0
9.34813 -35.72206666666667 1777.43 -0.6962734676278586 0.6962392503133864 0.17451121625996133
9.940826666666666 -24.6943 1770.41 0.0 0.0 1.0
9.940826666666666 -24.6943 1770.41 0.0 0.0 1.0
11.157266666666667 -9.258163333333332 1775.67 0.0 0.0 1.0
10.049453333333334 -6.409496666666667 1775.67 0.0 0.0 1.0
9.67552 7.1583066666666655 1765.1899999999998 -8.159150013798328e-27 -1.6318645776267723e-26 1.0
8.470586666666668 16.86276666666667 1760.0 0.0 0.0 1.0
10.25641 23.747533333333333 1770.41 0.0 0.0 1.0
10.25641 23.747533333333333 1770.41 0.0 0.0 1.0
10.25641 24.063100000000002 1770.41 0.0 0.0 1.0
10.244376666666666 25.728266666666666 1754.84 0.0 0.0 1.0
9.044833333333333 38.284600000000005 1749.71 0.0 0.0 1.0
9.512679999999998 42.495133333333335 1749.71 0.0 0.0 1.0
10.373826666666666 55.87886666666666 1804.2233333333334 -2.4605716342939856e-16 0.9894323165816782 0.14499548580495153
9.195386666666666 55.862066666666664 1719.54 0.0 0.0 1.0
6.400003333333333 60.723800000000004 1709.71 0.0 0.0 1.0
6.400003333333333 60.723800000000004 1709.71 0.0 0.0 1.0
-17.305666666666667 57.72233333333333 1281.3733333333332 0.14406269108659145 0.3846966739516071 0.9117315449667519
-14.251799999999998 61.3221 1294.3100000000002 0.870137966054404 0.48946539256342164 -0.05730226447044538
-8.272026666666667 80.59496666666668 1498.506666666667 -0.7041079901925656 -6.93043529746475e-16 0.7100929081092037
-6.71755 82.57843333333334 1522.6500000000003 0.0 0.0 1.0
-11.834626666666665 78.22166666666668 1421.3833333333334 -0.4739245895289923 -0.8729139233320572 0.11583076401721422
7.490636666666667 101.04866666666668 1680.9000000000003 -8.905684168234064e-28 -2.265636529621414e-27 1.0
6.985916666666667 113.95300000000002 1685.63 0.0 0.0 1.0
-0.7791933333333335 112.795 1592.9033333333334 -0.2069064834933346 -0.966014913861575 0.15493512605421697
13.4172 -131.40466666666666 1881.76 0.0 0.0 1.0
15.5 -107.25 1870.0 0.0 0.0 1.0
15.368666666666668 -100.76856666666667 1864.17 0.0 0.0 1.0
15.5 -96.58333333333333 1870.0 0.0 0.0 1.0
14.5 -82.58333333333333 1870.0 0.0 0.0 1.0
15.6322 -68.2968 1875.86 0.0 0.0 1.0
10.905499999999998 -55.96019999999999 1786.2699999999998 -3.0809950929063453e-27 3.399718723207002e-27 1.0
10.4762 -49.12696666666667 1780.95 0.0 0.0 1.0
9.574673333333335 -43.6004 1775.67 0.0 0.0 1.0
11.632033333333334 -15.113766666666669 1775.67 0.0 0.0 1.0
9.891193333333334 -6.567756666666667 1775.67 0.0 0.0 1.0
9.309666666666667 -3.2347133333333336 1770.41 0.0 0.0 1.0
9.67552 7.1583066666666655 1765.1899999999998 -8.159150013798328e-27 -1.6318645776267723e-26 1.0
8.313726666666666 13.725466666666668 1760.0 0.0 0.0 1.0
10.25641 23.747533333333333 1770.41 0.0 0.0 1.0
8.680353333333333 25.25903333333333 1754.84 0.0 0.0 1.0
8.732943333333333 33.4503 1749.71 0.0 0.0 1.0
8.732943333333333 33.4503 1749.71 0.0 0.0 1.0
8.265106666666666 34.697833333333335 1749.71 0.0 0.0 1.0
9.462373333333332 45.1222 1754.84 0.0 0.0 1.0
9.462373333333332 45.1222 1754.84 0.0 0.0 1.0
8.993166666666665 46.5298 1754.84 0.0 0.0 1.0
5.47172 53.51656666666667 1779.1899999999998 0.09442054330538693 0.897072498399787 0.43167776595127033
5.606063333333334 67.5 1700.0 0.0 0.0 1.0
5.606063333333334 67.5 1700.0 0.0 0.0 1.0
34.257933333333334 101.50870000000002 2183.94 0.0 0.0 1.0
-14.327800000000002 64.05936666666666 1308.506666666667 -0.7660581669042211 0.46489234974366167 0.443880601140849
4.58216 86.46013333333333 1685.63 0.0 0.0 1.0
-11.834626666666665 78.22166666666668 1421.3833333333334 -0.4739245895289924 -0.872913923332057 0.11583076401721461
12.185763333333334 96.49029999999999 1753.14 -0.7520206257224954 -0.6332822634959817 0.18280742115502915
5.483566666666667 98.17840000000001 1685.63 0.0 0.0 1.0
-8.142906666666667 96.9787 1535.6733333333332 0.019378566276803337 -0.3100622563881248 0.950518736444769
-0.42779999999999996 113.18033333333334 1594.3166666666668 -0.33832298121699356 -0.9302078387023769 0.14230578764441845
14.629033333333334 -132.83166666666668 1875.86 0.0 0.0 1.0
14.160499999999999 -111.35166666666667 1846.9233333333334 -0.9168377829512669 0.38199513704946914 0.1161386887456656
13.833333333333334 -112.58333333333333 1870.0 0.0 0.0 1.0
15.2025 -103.26033333333334 1864.17 0.0 0.0 1.0
11.573483333333334 -104.572 1881.7733333333333 -0.33344876903761245 0.9289376441276213 0.16089366597205082
14.0 -96.75 1870.0 0.0 0.0 1.0
14.5 -82.58333333333333 1870.0 0.0 0.0 1.0
13.707166666666666 -75.84633333333333 1864.17 0.0 0.0 1.0
-6.753466666666667 -47.59726666666666 1457.1433333333334 1.320283693445154e-16 -0.9970346271457855 0.07695422192618304
10.109476666666666 -55.800999999999995 1786.2699999999998 1.1065268223908862e-26 7.524835197987237e-27 1.0
10.952399999999999 -52.77776666666667 1780.95 0.0 0.0 1.0
10.4762 -49.12696666666667 1780.95 0.0 0.0 1.0
9.574673333333335 -43.6004 1775.67 0.0 0.0 1.0
9.625246666666667 -25.956633333333333 1770.41 0.0 0.0 1.0
9.643506666666667 -24.10996666666667 1773.9166666666667 0.9504365200551076 0.27155819401321774 0.15141521921463774
8.88889 -17.857133333333334 1780.95 0.0 0.0 1.0
8.994083333333334 -2.76134 1770.41 0.0 0.0 1.0
9.360850000000001 4.641100000000001 1765.1899999999998 6.2329301484672846e-28 9.490936082209816e-28 1.0
9.203540000000002 7.472956666666666 1765.1899999999998 5.439318095417016e-27 5.43931809541701e-27 1.0
9.046213333333332 7.78761 1765.1899999999998 -5.439318095417026e-27 4.53276507951418e-28 1.0
8.10916 29.863533333333333 1749.71 0.0 0.0 1.0
8.576996666666666 31.423000000000002 1749.71 0.0 0.0 1.0
8.265106666666666 33.76216666666667 1749.71 0.0 0.0 1.0
2.264614 110.79766666666667 1588.676666666667 0.7276579633175256 -0.48512162934757197 0.4849442165442818
-2.034530333333333 108.84133333333334 1578.9166666666667 -0.6080050744737893 -0.7903180888342946 -0.0756779219814492
-12.031330000000002 83.81856666666668 1217.1166666666668 0.4218200145599694 0.9061651103008623 -0.03053961673061905
3.55763 114.06666666666666 1633.4866666666667 0.2775372805814208 -0.2929504928049418 0.9149606913156496
15.029033333333333 -124.83266666666667 1822.54 -0.0900027530210412 0.9896429763024678 0.1118314978162519
14.963433333333333 -126.31133333333334 1875.86 0.0 0.0 1.0
12.157233333333332 -116.711 1843.1233333333337 -0.9724481198053703 0.1944896239610742 0.12852408512990893
13.833333333333334 -112.58333333333333 1870.0 0.0 0.0 1.0
12.789966666666666 -102.90533333333333 1875.86 0.0 0.0 1.0
13.0426 -91.46416666666669 1864.17 0.0 0.0 1.0
14.5 -82.58333333333333 1870.0 0.0 0.0 1.0
13.707166666666666 -75.84633333333333 1864.17 0.0 0.0 1.0
15.6322 -69.6343 1875.86 0.0 0.0 1.0
-6.753466666666667 -47.59726666666666 1457.1433333333334 3.7958156186548176e-16 -0.9970346271457855 0.07695422192618305
9.416413333333333 -42.8091 1775.67 0.0 0.0 1.0
9.732946666666665 -39.48566666666667 1775.67 0.0 0.0 1.0
9.41643 -36.95353333333333 1775.67 0.0 0.0 1.0
10.72976 -32.5838 1770.41 0.0 0.0 1.0
9.467463333333333 -29.2702 1770.41 0.0 0.0 1.0
9.625246666666667 -25.956633333333333 1770.41 0.0 0.0 1.0
8.625123333333333 -6.09298 1775.67 0.0 0.0 1.0
8.52071 1.499013 1770.41 0.0 0.0 1.0
9.046213333333332 7.78761 1765.1899999999998 -5.439318095417026e-27 4.53276507951418e-28 1.0
8.731563333333332 9.046216666666668 1765.1899999999998 -1.8133134897995294e-26 -1.0879942407832357e-26 1.0
9.411753333333333 12.941166666666666 1760.0 0.0 0.0 1.0
33.479299999999995 36.691 2183.94 0.0 0.0 1.0
7.17349 39.22026666666667 1749.71 0.0 0.0 1.0
7.329433333333334 41.71536666666666 1749.71 0.0 0.0 1.0
6.72332 69.42396666666666 1695.18 0.0 0.0 1.0
4.369113333333334 79.62333333333333 1690.4000000000003 -7.41434576711524e-28 -1.4827953380337798e-27 1.0
-8.227563333333334 82.49589999999999 1477.5366666666669 0.6597085056322896 0.6598410859392548 0.3597143712765946
-17.2286 60.820600000000006 1258.0566666666666 0.830000206793219 -0.39425025190661533 0.39454580924752464
8.13467 102.63966666666666 1824.57 -0.13144402546959 0.9632174274545202 0.23438143189307042
14.8896 -138.54899999999998 1887.7 0.0 0.0 1.0
14.963433333333333 -126.31133333333334 1875.86 0.0 0.0 1.0
12.544133333333335 -90.3011 1864.17 0.0 0.0 1.0
12.5441 -85.81516666666666 1864.17 0.0 0.0 1.0
14.333333333333334 -81.91666666666667 1870.0 0.0 0.0 1.0
12.544133333333335 -79.16926666666667 1864.17 0.0 0.0 1.0
13.541000000000002 -76.51093333333334 1864.17 0.0 0.0 1.0
13.707166666666666 -75.84633333333333 1864.17 0.0 0.0 1.0
14.629066666666667 -71.13900000000001 1875.86 0.0 0.0 1.0
15.598233333333333 -70.15570000000001 1871.9533333333331 -0.26223172483120194 -0.9615163243810735 0.0819809760905747
13.5849 -65.99579999999999 1881.76 0.0 0.0 1.0
-6.753466666666667 -47.59726666666666 1457.1433333333334 1.320283693445154e-16 -0.9970346271457855 0.07695422192618304
10.427876666666666 -55.1642 1786.2699999999998 -1.6599580838364905e-28 -1.6600797306809852e-28 1.0
9.416413333333333 -42.8091 1775.67 0.0 0.0 1.0
9.0999 -40.593466666666664 1775.67 0.0 0.0 1.0
9.467463333333333 -29.2702 1770.41 0.0 0.0 1.0
9.643506666666667 -23.478800000000003 1773.9166666666667 0.9323564592641929 0.266392369097583 0.24443105071760918
8.625123333333333 -6.09298 1775.67 0.0 0.0 1.0
8.6785 -3.7080866666666665 1770.41 0.0 0.0 1.0
8.205126666666667 0.7100583333333333 1770.41 0.0 0.0 1.0
8.10226 9.203540000000002 1765.1899999999998 -2.3797520870907676e-27 5.099411134799279e-27 1.0
7.529410000000001 16.54903333333333 1760.0 0.0 0.0 1.0
8.265106666666666 27.99223333333333 1749.71 0.0 0.0 1.0
7.79727 28.771933333333333 1749.71 0.0 0.0 1.0
7.79727 34.23 1749.71 0.0 0.0 1.0
7.17349 34.38596666666667 1749.71 0.0 0.0 1.0
7.017543333333333 38.596466666666664 1749.71 0.0 0.0 1.0
8.680353333333334 46.0606 1754.84 0.0 0.0 1.0
5.996053333333333 52.30766666666667 1770.41 0.0 0.0 1.0
4.13793 58.9272 1719.54 0.0 0.0 1.0
30.170299999999997 82.43310000000001 2183.94 0.0 0.0 1.0
3.615816666666667 74.9529 1690.4000000000003 -2.2137085230670474e-29 1.0928538932409156e-29 1.0
4.369113333333334 78.11673333333333 1690.4000000000003 -4.69577419160919e-27 3.8307692360471245e-27 1.0
4.369113333333334 79.62333333333333 1690.4000000000003 -7.41434576711524e-28 -1.4827953380337798e-27 1.0
-17.305666666666667 57.72233333333333 1281.3733333333332 0.14406269108659145 0.3846966739516071 0.9117315449667519
3.8309866666666665 85.85916666666667 1685.63 0.0 0.0 1.0
5.483566666666667 98.17840000000001 1685.63 0.0 0.0 1.0
2.8625233333333333 109.153 1690.4000000000003 4.043990674490946e-28 -8.109951246901048e-27 1.0
-0.07226933333333337 115.98899999999999 1621.68 0.0 0.0 1.0
-12.031330000000002 83.81856666666668 1217.1166666666668 0.42182001455996976 0.9061651103008622 -0.03053961673061853
27.6399 160.48666666666668 2183.94 0.0 0.0 1.0
13.3754 -137.70766666666665 1887.7 0.0 0.0 1.0
14.629033333333332 -132.83166666666668 1875.86 0.0 0.0 1.0
14.766066666666667 -127.718 1862.2600000000002 0.19549399177920934 0.9779160525685571 0.07390732918298175
12.5 -113.41666666666667 1870.0 0.0 0.0 1.0
12.333333333333334 -94.25 1870.0 0.0 0.0 1.0
12.544133333333335 -91.29803333333332 1864.17 0.0 0.0 1.0
12.544133333333335 -91.29803333333332 1864.17 0.0 0.0 1.0
11.5723 -74.54926666666667 1881.76 0.0 0.0 1.0
13.5849 -65.99579999999999 1881.76 0.0 0.0 1.0
10.158743333333334 -51.19050000000001 1780.95 0.0 0.0 1.0
8.4127 -18.968233333333334 1780.95 0.0 0.0 1.0
8.4127 -18.968233333333334 1780.95 0.0 0.0 1.0
7.6755700000000004 -9.099903333333332 1775.67 0.0 0.0 1.0
7.731756666666667 3.0769233333333332 1770.41 0.0 0.0 1.0
7.731756666666667 3.0769233333333332 1770.41 0.0 0.0 1.0
8.574236666666666 7.000979999999999 1765.1899999999998 -1.1583800563336522e-27 5.036391415941099e-28 1.0
7.15831 11.720773333333334 1765.1899999999998 9.270602726100996e-29 5.713247085976036e-29 1.0
7.5294099999999995 16.54903333333333 1760.0 0.0 0.0 1.0
7.585533333333333 24.7898 1754.84 0.0 0.0 1.0
6.549706666666668 39.22026666666667 1749.71 0.0 0.0 1.0
7.329433333333334 41.71536666666666 1749.71 0.0 0.0 1.0
7.329433333333334 41.71536666666666 1749.71 0.0 0.0 1.0
7.843126666666667 49.0196 1760.0 0.0 0.0 1.0
11.405626666666668 55.50203333333334 1802.41 0.0 0.0 1.0
9.19809 54.647333333333336 1734.49 0.0 0.0 1.0
-11.482633333333334 46.238566666666664 1392.7133333333331 0.9924981296698685 9.604967427127916e-16 0.12225981597324719
6.036296666666668 57.535833333333336 1714.61 0.0 0.0 1.0
30.170299999999997 82.43310000000001 2183.94 0.0 0.0 1.0
4.067796666666666 80.07533333333333 1690.4000000000003 7.41434576711524e-28 -4.1008549597199576e-33 1.0
4.582160000000001 86.46013333333333 1685.63 0.0 0.0 1.0
2.5612066666666666 89.56686666666667 1690.4000000000003 -1.6307156775978155e-27 -2.707740319508654e-27 1.0
-1.148499 104.34340000000002 1611.493333333333 -0.9758302380555466 -0.18766186364842283 0.11197486962911192
3.2300466666666665 107.493 1685.63 0.0 0.0 1.0
19.55510333333333 113.24356666666667 1983.6533333333334 -0.2819134775429317 0.13186387412451978 0.9503350513795247
20.48243666666667 133.42666666666665 2080.226666666667 -0.43645964896907863 -0.7254827124254519 0.5321445375023574
11.4051 -120.205 1841.2300000000002 4.873093217036198e-27 -8.218471890209837e-28 1.0
12.5 -113.41666666666667 1870.0 0.0 0.0 1.0
12.166666666666666 -95.75 1870.0 0.0 0.0 1.0
12.333333333333334 -94.25 1870.0 0.0 0.0 1.0
12.544133333333335 -91.29803333333332 1864.17 0.0 0.0 1.0
11.617966666666666 -89.37776666666666 1862.2433333333336 0.890593523418299 0.4452967617091467 0.09248767516121739
12.211833333333333 -87.31049999999999 1864.17 0.0 0.0 1.0
11.713366666666667 -83.98753333333333 1864.17 0.0 0.0 1.0
11.713366666666667 -83.98753333333333 1864.17 0.0 0.0 1.0
13.5849 -65.99579999999999 1881.76 0.0 0.0 1.0
12.77764 -56.17573333333333 1758.28 0.5488246362204178 -0.8233244303644518 0.1446665166601339
26.666666666666668 -76.00973333333333 2183.94 0.0 0.0 1.0
8.783383333333333 -37.27003333333334 1775.67 0.0 0.0 1.0
12.169000000000002 -46.434266666666666 2104.72 -0.32619322339919343 0.9192708476456241 0.220315886121132
8.4127 -18.968233333333334 1780.95 0.0 0.0 1.0
7.9920866666666655 -6.25124 1775.67 0.0 0.0 1.0
8.520710000000001 -3.07692 1770.41 0.0 0.0 1.0
7.787606666666666 8.259586666666666 1765.1899999999998 -3.324164315552408e-27 -6.3461400241040874e-27 1.0
7.630283333333334 8.888889999999998 1765.1899999999998 2.311790864265413e-26 -1.7678504111900703e-26 1.0
6.745096666666666 15.607833333333332 1760.0 0.0 0.0 1.0
7.058823333333334 16.2353 1760.0 0.0 0.0 1.0
6.647116666666666 32.61 1754.84 0.0 0.0 1.0
6.647116666666666 33.0792 1754.84 0.0 0.0 1.0
7.17349 34.38596666666667 1749.71 0.0 0.0 1.0
6.549706666666668 39.22026666666667 1749.71 0.0 0.0 1.0
6.549706666666666 40.46783333333334 1749.71 0.0 0.0 1.0
5.996053333333333 52.30766666666667 1770.41 0.0 0.0 1.0
10.373826666666668 55.87886666666666 1804.2233333333334 -2.1735049436263543e-15 0.9894323165816781 0.14499548580495253
3.8968466666666663 60.13373333333334 1714.61 0.0 0.0 1.0
4.4190499999999995 62.85713333333334 1709.71 0.0 0.0 1.0
4.4190499999999995 62.85713333333334 1709.71 0.0 0.0 1.0
5.606063333333334 67.5 1700.0 0.0 0.0 1.0
3.3145000000000002 77.66476666666667 1690.4000000000003 -3.707172883557615e-28 -1.8534921221147418e-27 1.0
4.067796666666667 80.07533333333333 1690.4000000000003 -7.41434576711524e-28 4.1008549597199576e-33 1.0
3.76648 82.18456666666667 1690.4000000000003 -4.646712707621681e-26 -9.145344120287257e-27 1.0
3.76648 82.18456666666667 1690.4000000000003 -4.6467127076216973e-26 -9.145344120287291e-27 1.0
3.8309866666666665 85.85916666666667 1685.63 0.0 0.0 1.0
3.5305166666666667 108.69466666666666 1685.63 0.0 0.0 1.0
3.5305166666666667 108.69466666666666 1685.63 0.0 0.0 1.0
-0.07226933333333337 115.98899999999999 1621.68 0.0 0.0 1.0
13.4172 -131.40466666666666 1881.76 0.0 0.0 1.0
14.5 -126.25 1870.0 0.0 0.0 1.0
11.4051 -120.205 1841.2300000000002 4.873093217036304e-27 -8.218471890210016e-28 1.0
12.5 -113.41666666666667 1870.0 0.0 0.0 1.0
11.5 -111.25 1870.0 0.0 0.0 1.0
12.789966666666666 -102.90533333333333 1875.86 0.0 0.0 1.0
11.381133333333333 -89.96883333333334 1864.17 0.0 0.0 1.0
22.968400000000003 -103.455 2183.94 0.0 0.0 1.0
13.960299999999998 -67.62803333333333 1875.86 0.0 0.0 1.0
9.365083333333333 -47.53966666666667 1780.95 0.0 0.0 1.0
6.726013333333334 -45.34126666666666 1775.67 0.0 0.0 1.0
7.6755700000000004 -41.543 1775.67 0.0 0.0 1.0
6.129356666666666 -33.03483333333333 1786.2699999999998 -7.082391436476272e-29 4.957585034492354e-29 1.0
6.031746666666667 -27.222199999999997 1780.95 0.0 0.0 1.0
7.517309999999999 -10.36596 1775.67 0.0 0.0 1.0
7.6755700000000004 -7.6755700000000004 1775.67 0.0 0.0 1.0
7.9920866666666655 -6.25124 1775.67 0.0 0.0 1.0
7.573963333333334 0.23668633333333333 1770.41 0.0 0.0 1.0
7.573963333333334 0.23668633333333333 1770.41 0.0 0.0 1.0
6.785010000000001 4.02367 1770.41 0.0 0.0 1.0
6.431373333333333 17.647066666666664 1760.0 0.0 0.0 1.0
6.490713333333335 25.415433333333336 1754.84 0.0 0.0 1.0
5.7087 29.4819 1754.84 0.0 0.0 1.0
6.647116666666666 32.61 1754.84 0.0 0.0 1.0
6.647116666666666 33.0792 1754.84 0.0 0.0 1.0
6.393763333333333 39.6881 1749.71 0.0 0.0 1.0
5.395893333333333 44.653 1754.84 0.0 0.0 1.0
6.036296666666668 57.535833333333336 1714.61 0.0 0.0 1.0
4.4190499999999995 62.85713333333334 1709.71 0.0 0.0 1.0
4.870046666666667 66.086 1734.5 -0.44448397128679357 0.8888920947352663 0.11092719768510897
4.088576666666667 66.11333333333333 1731.1499999999999 -0.44442964860283746 0.8889169654126686 0.11094555441427624
2.3286366666666667 89.16433333333333 1685.63 0.0 0.0 1.0
-6.66045 84.41656666666667 1523.9433333333334 0.479481277044414 0.25818299267100525 0.8387128514928702
10.438086666666667 102.77013333333333 1761.7300000000002 0.5505510426728373 -0.27529014575980154 0.7881046155551932
2.478873333333333 105.54 1685.63 0.0 0.0 1.0
-0.39945999999999976 126.48700000000001 1786.28 0.5082262035408002 0.8524657294772886 0.1225083919625891
11.139233333333332 -139.15599999999998 1893.67 0.0 0.0 1.0
11.907766666666667 -130.063 1881.76 0.0 0.0 1.0
10.783686666666666 -106.416 1875.86 0.0 0.0 1.0
11.452433333333332 -103.574 1875.86 0.0 0.0 1.0
11.0 -101.25 1870.0 0.0 0.0 1.0
11.0 -101.25 1870.0 0.0 0.0 1.0
12.166666666666666 -95.75 1870.0 0.0 0.0 1.0
12.333333333333334 -94.25 1870.0 0.0 0.0 1.0
10.218093333333334 -93.95636666666667 1864.17 0.0 0.0 1.0
11.7134 -90.79956666666668 1864.17 0.0 0.0 1.0
11.214966666666667 -89.30426666666666 1864.17 0.0 0.0 1.0
11.547266666666667 -80.49843333333332 1864.17 0.0 0.0 1.0
13.4492 -57.845866666666666 1862.2433333333336 -0.6890998746268973 -0.654641079022417 0.3107835588404899
6.567753333333333 -46.60733333333334 1775.67 0.0 0.0 1.0
6.726013333333334 -45.34126666666666 1775.67 0.0 0.0 1.0
28.380866666666666 -56.70256666666668 2114.6133333333332 -0.9360270214601991 -0.3462444978651399 -0.06299335516120044
-9.87081 -43.9357 1602.89 0.7441774486166757 -0.6466029999604223 0.16764392447254828
11.185953333333332 -42.73543333333333 1833.7333333333333 0.8190604107113102 -0.47790516765433255 0.3174061976942225
6.129356666666666 -37.1741 1786.2699999999998 4.05776992985813e-28 -1.807580778304026e-27 1.0
7.30159 -20.079366666666665 1780.95 0.0 0.0 1.0
6.092976666666668 -11.157266666666667 1775.67 0.0 0.0 1.0
6.78501 4.02367 1770.41 0.0 0.0 1.0
6.78501 4.02367 1770.41 0.0 0.0 1.0
6.27451 16.392166666666665 1760.0 0.0 0.0 1.0
5.552296666666666 28.230700000000002 1754.84 0.0 0.0 1.0
5.7087 29.4819 1754.84 0.0 0.0 1.0
5.614036666666667 38.752433333333336 1749.71 0.0 0.0 1.0
5.614036666666667 42.65106666666667 1749.71 0.0 0.0 1.0
-7.632723333333334 45.34866666666667 1489.8066666666666 -0.919022650575395 0.3937667783447852 0.018576652048862274
-11.482633333333334 46.238566666666664 1392.7133333333331 0.9924981296698685 1.0160078939440494e-15 0.12225981597324719
-11.482633333333334 46.238566666666664 1392.7133333333331 0.9924981296698685 1.0160078939440494e-15 0.12225981597324719
4.97623 63.159333333333336 1717.8966666666665 -0.9533195617157912 -0.25422039288918674 0.1629533831783791
1.8885733333333334 74.25873333333332 1695.18 0.0 0.0 1.0
2.3286366666666667 89.16433333333333 1685.63 0.0 0.0 1.0
13.9452 110.50566666666667 1885.72 -4.735379095184671e-16 -0.9292299796643079 0.3695018875365456
6.7122 101.4549 1712.9766666666667 0.5018170190128063 -2.044231579967394e-14 0.8649738027415055
6.2098 103.88533333333334 1717.9066666666665 -0.8186151014682196 3.140675302611148e-16 0.5743425072621533
2.478873333333333 105.54 1685.63 0.0 0.0 1.0
-1.650483333333333 107.83966666666667 1610.0466666666664 0.9756342967639204 -0.1393656816277412 0.1694547897299027
26.666666666666668 160.876 2183.94 0.0 0.0 1.0
26.666666666666668 160.876 2183.94 0.0 0.0 1.0
12.365933333333333 -136.52999999999997 1887.7 0.0 0.0 1.0
19.545466666666666 -120.96833333333332 1899.6933333333334 0.7391550271457065 0.5722166778881408 0.3552716135464381
21.411200000000004 -114.93900000000001 2183.94 0.0 0.0 1.0
11.214966666666667 -89.30426666666666 1864.17 0.0 0.0 1.0
11.0488 -83.65523333333333 1864.17 0.0 0.0 1.0
11.381099999999998 -77.00936666666666 1864.17 0.0 0.0 1.0
12.712763333333333 -67.04533333333335 1828.11 -0.7030060210153187 0.0958579266899174 0.7046941125814232
25.109499999999997 -78.3455 2183.94 0.0 0.0 1.0
3.0651333333333333 -59.386966666666666 1719.54 0.0 0.0 1.0
2.2953386666666664 -58.3559 1716.2533333333333 -0.14040670892826757 0.9829615177097866 0.11862803542841625
7.517309999999999 -40.90996666666666 1775.67 0.0 0.0 1.0
6.031746666666667 -27.222199999999997 1780.95 0.0 0.0 1.0
21.605833333333333 -30.65693333333334 2183.94 0.0 0.0 1.0
6.507936666666667 -17.222233333333335 1780.95 0.0 0.0 1.0
5.618200000000001 0.712166 1775.67 0.0 0.0 1.0
5.647060000000001 16.862766666666662 1760.0 0.0 0.0 1.0
5.333333333333333 21.254900000000003 1760.0 0.0 0.0 1.0
5.395893333333333 29.9511 1754.84 0.0 0.0 1.0
5.146199999999999 38.284600000000005 1749.71 0.0 0.0 1.0
5.395893333333333 44.653 1754.84 0.0 0.0 1.0
8.660269999999999 55.55349999999999 1798.8133333333333 -2.341256630212149e-16 -0.9867626528320788 0.16217110400992532
-7.632723333333334 45.34866666666667 1489.8066666666666 -0.9190226505753948 0.39376677834478546 0.018576652048862143
2.452106666666667 58.00763333333333 1719.54 0.0 0.0 1.0
-15.306233333333333 57.620900000000006 1249.2733333333333 -0.7020803383855186 0.4368106055222328 0.5623874939539247
1.95857 78.7194 1690.4000000000003 -1.7580059852331255e-27 3.515078722431721e-27 1.0
1.80791 80.07533333333333 1690.4000000000003 1.383980588958938e-28 2.965541466170967e-29 1.0
1.6572500000000001 90.16950000000001 1690.4000000000003 7.080228610177505e-26 -9.452243523743383e-26 1.0
-9.28237 86.32363333333332 1477.5366666666669 -0.92529860484241 0.3701009414448431 0.08275134451071149
2.478873333333333 105.54 1685.63 0.0 0.0 1.0
23.163033333333335 139.26999999999998 2183.94 0.0 0.0 1.0
1.6572516666666666 109.153 1690.4000000000003 1.927620324559629e-27 -8.871528175870934e-27 1.0
-1.650483333333333 107.83966666666667 1610.0466666666664 0.9756342967639203 -0.13936568162774135 0.16945478972990285
-1.5663466666666668 114.23566666666666 1597.1533333333334 -0.32908920225880794 -0.9048198690857333 0.27018753017920344
26.666666666666668 160.876 2183.94 0.0 0.0 1.0
12.365933333333333 -136.52999999999997 1887.7 0.0 0.0 1.0
10.566049999999999 -127.21166666666666 1881.76 0.0 0.0 1.0
10.566049999999999 -125.87 1881.76 0.0 0.0 1.0
10.282133333333332 -117.116 1875.86 0.0 0.0 1.0
10.114933333333333 -115.44433333333332 1875.86 0.0 0.0 1.0
11.5 -111.25 1870.0 0.0 0.0 1.0
9.947753333333333 -108.92333333333333 1875.86 0.0 0.0 1.0
10.950866666666665 -105.58 1875.86 0.0 0.0 1.0
10.333333333333334 -99.25 1870.0 0.0 0.0 1.0
10.833333333333334 -97.75 1870.0 0.0 0.0 1.0
10.218093333333334 -93.95636666666667 1864.17 0.0 0.0 1.0
11.0488 -83.65523333333333 1864.17 0.0 0.0 1.0
10.5504 -81.8276 1864.17 0.0 0.0 1.0
10.456996666666667 -79.5849 1862.2433333333336 -0.8857990926890427 -0.4429217612989442 0.1384928906446459
10.716533333333333 -78.50466666666667 1864.17 0.0 0.0 1.0
25.109499999999997 -78.3455 2183.94 0.0 0.0 1.0
3.0651333333333333 -59.386966666666666 1719.54 0.0 0.0 1.0
5.269463333333333 -56.6068 1791.62 0.0 0.0 1.0
6.726013333333333 -45.34126666666666 1775.67 0.0 0.0 1.0
-13.611326666666665 -41.28636666666666 1413.57 0.011318692503269771 0.7244864875829516 0.6891960653614718
6.031746666666667 -20.714299999999998 1780.95 0.0 0.0 1.0
5.396826666666667 -14.206366666666668 1780.95 0.0 0.0 1.0
5.143423333333334 -1.6617199999999999 1775.67 0.0 0.0 1.0
5.2071000000000005 8.599603333333334 1770.41 0.0 0.0 1.0
4.4837766666666665 13.1367 1765.1899999999998 -3.4000972997575945e-27 -1.2922566342610939e-26 1.0
5.42773 14.709933333333332 1765.1899999999998 1.0 0.0 0.0
5.42773 14.709933333333332 1765.1899999999998 1.0 0.0 0.0
5.176469999999999 17.647066666666664 1760.0 0.0 0.0 1.0
5.019606666666666 18.431366666666666 1760.0 0.0 0.0 1.0
5.333333333333333 21.254900000000003 1760.0 0.0 0.0 1.0
5.239493333333333 29.1691 1754.84 0.0 0.0 1.0
5.395893333333333 29.9511 1754.84 0.0 0.0 1.0
4.9902533333333325 38.75243333333333 1749.71 0.0 0.0 1.0
4.9902533333333325 38.75243333333333 1749.71 0.0 0.0 1.0
4.36647 40.31186666666667 1749.71 0.0 0.0 1.0
5.333333333333333 49.64706666666667 1760.0 0.0 0.0 1.0
26.53206666666667 75.1672 2127.023333333333 0.5869340674469284 7.541480809546805e-16 0.8096347327469373
26.53206666666667 75.1672 2127.023333333333 0.5869340674469284 7.541480809546805e-16 0.8096347327469373
-18.461566666666666 46.43876666666667 1278.63 0.0 0.0 1.0
-18.461566666666666 46.666666666666664 1278.63 0.0 0.0 1.0
4.0885766666666665 66.11333333333334 1731.1500000000003 -0.44442964860283746 0.8889169654126688 0.11094555441427602
3.3145000000000002 74.9529 1690.4000000000003 -5.08453609635753e-29 1.4159840456031154e-29 1.0
1.95857 78.7194 1690.4000000000003 -1.758005985233126e-27 3.5150787224317214e-27 1.0
2.10923 79.47269999999999 1690.4000000000003 -4.669353434134042e-27 7.112563975421245e-27 1.0
2.3286366666666667 89.16433333333333 1685.63 0.0 0.0 1.0
13.9452 110.50566666666667 1885.72 -4.735379095184671e-16 -0.9292299796643079 0.3695018875365456
2.028166666666667 106.44133333333333 1685.63 0.0 0.0 1.0
1.6572516666666666 109.153 1690.4000000000003 1.9276203245596285e-27 -8.871528175870933e-27 1.0
-1.7977266666666665 109.03899999999999 1612.9466666666667 0.8929527983280169 0.4462170271812707 0.059377307211367206
-0.07226933333333337 115.98899999999999 1621.68 0.0 0.0 1.0
-0.22243 -107.28500000000001 1663.7733333333333 0.8318295769593131 0.5545727530787886 0.022552526206682896
-0.22243 -107.28500000000001 1663.7733333333333 0.831829576959315 0.5545727530787858 0.02255252620668292
9.780553333333332 -113.438 1875.86 0.0 0.0 1.0
10.114933333333333 -104.74399999999999 1875.86 0.0 0.0 1.0
10.666666666666666 -100.08333333333333 1870.0 0.0 0.0 1.0
10.5 -91.41666666666667 1870.0 0.0 0.0 1.0
10.5 -91.41666666666667 1870.0 0.0 0.0 1.0
6.97436 -82.78973333333333 1841.2300000000002 -7.082420341534814e-27 -7.882127061807374e-27 1.0
10.566023333333334 -76.0587 1881.76 0.0 0.0 1.0
