ply
format ascii 1.0
comment VCGLIB generated
element vertex 621
property float x
property float y
property float z
property float nx
property float ny
property float nz
element face 0
property list uchar int vertex_indices
end_header
99.8974 13.846166666666667 2301.54 0.0 0.0 1.0
99.48716666666667 19.384600000000002 2301.54 0.0 0.0 1.0
99.07690000000001 55.076933333333336 2301.54 0.0 0.0 1.0
84.53233333333333 60.7279 2119.49 0.9557113332114882 -0.294064028894571 0.01192453275449586
87.48200000000001 68.39326666666666 2152.52 0.0 0.0 1.0
87.48200000000001 68.39326666666666 2152.52 0.0 0.0 1.0
87.48200000000001 68.39326666666666 2152.52 0.0 0.0 1.0
92.62663333333334 85.52500000000002 2213.5733333333333 -0.9486613149842942 0.3162204383281013 -0.00680763070777226
94.58116666666668 95.1789 2241.22 0.9701279466824733 -0.24256105422016766 0.00398773635650845
94.61856666666667 95.42056666666667 2246.813333333333 -0.97013716443817 0.242524211134019 -0.003986124645398165
93.13133333333333 123.73733333333332 2266.67 0.0 0.0 1.0
81.11693333333334 141.6496666666667 2089.8799999999997 -0.8446301682733167 0.49265061095846324 0.2095119432510739
79.088 145.67933333333332 2046.986666666667 -0.766497901085458 0.6388726192892683 -0.06574757755276842
77.64783333333334 -137.64666666666665 2030.7699999999998 -0.9879885446131562 5.525988649319626e-17 0.15452713584732441
77.2881 -135.50266666666667 2028.47 0.0 0.0 1.0
77.64783333333334 -132.577 2030.7699999999998 -0.9879885446131563 -9.704222762133408e-17 0.1545271358473246
23.802933333333332 -76.0613 1338.7033333333334 0.9991194889786554 -1.8644397872664475e-05 0.04195529043418578
33.3228 -75.78563333333334 1454.7833333333335 -0.9472144631277419 0.3157471661967361 0.055574165583964524
25.2154 -62.46406666666667 1356.92 0.0 0.0 1.0
25.2154 -62.46406666666667 1356.92 0.0 0.0 1.0
25.2154 -62.46406666666667 1356.92 0.0 0.0 1.0
25.2154 -61.617533333333334 1356.92 0.0 0.0 1.0
28.2389 -57.65706666666667 1392.71 0.9754127686855274 -0.2167648657596063 0.03978597312437718
29.441633333333332 -57.0816 1393.79 -7.979870765911653e-17 0.8941620971290994 0.4477433908587495
99.48726666666666 -76.41026666666666 2301.54 0.0 0.0 1.0
99.28190000000001 -59.79486666666667 2301.54 0.0 0.0 1.0
99.48713333333335 -52.6154 2301.54 0.0 0.0 1.0
99.48726666666666 -22.2564 2301.54 0.0 0.0 1.0
97.64103333333333 -15.282033333333331 2301.54 0.0 0.0 1.0
99.48713333333335 -3.79487 2301.54 0.0 0.0 1.0
78.66743333333334 13.114133333333333 2116.99 0.4495033522953347 0.05619164593242844 0.891509526142408
99.07689999999998 20.615366666666667 2301.54 0.0 0.0 1.0
89.8039 25.588233333333335 2200.0 0.0 0.0 1.0
78.85583333333334 37.25533333333333 2127.023333333333 0.31778794494545176 -0.5720227658617872 0.7561750970398176
80.0 54.3448 2063.45 0.0 0.0 1.0
86.9224 65.86256666666667 2157.7000000000003 0.9743863435048353 -0.2248494035270779 0.0037415671575397975
89.89089999999999 79.80606666666667 2176.0 0.0 0.0 1.0
93.28376666666666 88.52536666666667 2224.54 0.0 0.0 1.0
93.10176666666666 87.84143333333334 2227.306666666667 -0.8943586360332023 0.447179318016602 -0.012380940636171445
94.61856666666667 95.42056666666667 2246.813333333333 -0.9701371644381699 0.2425242111340194 -0.0039861246453983005
94.39800000000001 104.53733333333334 2275.29 0.0 0.0 1.0
93.90736666666668 129.66833333333332 2260.9633333333336 -0.5878279204048474 -0.7836786194721056 -0.20076393444741752
81.11500000000001 142.81066666666666 2085.02 0.0 0.0 1.0
81.67246666666666 144.85466666666667 2085.02 0.0 0.0 1.0
79.08673333333333 147.12333333333333 2049.32 0.0 0.0 1.0
75.8613 -146.59266666666664 2019.3499999999997 -0.9879979226605334 3.0102577329963163e-15 0.1544671642080301
75.8613 -146.59266666666664 2019.3499999999997 -0.9879979226605338 -2.588314484436621e-15 0.15446716420802903
76.2186 -137.023 2021.6333333333332 -0.9879765184752922 -0.0002876141625411796 0.15460373934525062
76.1929 -122.903 2035.3866666666665 -0.7526725147615141 0.6453362438373619 0.13048071854670013
23.240799999999997 -73.90536666666667 1340.7 0.9434763706121787 0.290289528302474 0.15995101704708722
24.127066666666664 -68.66213333333333 1360.02 -0.6579024171375049 -0.6583637657272889 0.36567958857722993
25.16343333333333 -66.71866666666666 1367.2533333333333 0.9035713782166919 0.225892844554171 0.3640483309216143
28.9509 -60.20146666666667 1397.0433333333333 -0.5144985675772155 0.8574899666401701 -0.001476845433160716
97.43593333333332 -80.71796666666667 2301.54 0.0 0.0 1.0
97.43593333333332 -80.71796666666667 2301.54 0.0 0.0 1.0
99.28190000000001 -59.79486666666667 2301.54 0.0 0.0 1.0
96.82053333333333 -43.38463333333333 2301.54 0.0 0.0 1.0
96.61539999999998 -30.666633333333333 2301.54 0.0 0.0 1.0
97.64106666666667 -28.2051 2301.54 0.0 0.0 1.0
97.64103333333333 -15.282033333333331 2301.54 0.0 0.0 1.0
97.84616666666666 -10.974333333333334 2301.54 0.0 0.0 1.0
99.07693333333333 0.7179486666666667 2301.54 0.0 0.0 1.0
99.28213333333333 3.9999990000000003 2301.54 0.0 0.0 1.0
78.66743333333334 13.114133333333333 2116.99 0.4495033522953347 0.05619164593242844 0.891509526142408
89.8039 25.588233333333335 2200.0 0.0 0.0 1.0
90.61426666666667 27.814566666666668 2205.4133333333334 -0.9999884067845135 5.821801754935362e-15 0.0048152151114863725
90.61426666666667 27.814566666666668 2205.4133333333334 -0.9999884067845135 6.3214021160166825e-15 0.0048152151114862615
97.43593333333332 50.76923333333334 2301.54 0.0 0.0 1.0
78.9398 54.18933333333333 1983.6533333333334 0.6208093247551336 -0.7668821070504593 0.16275016492441002
87.0983 67.2422 2152.52 0.0 0.0 1.0
89.77380000000001 77.67496666666666 2191.96 -0.0007635627741989362 -0.7125803800285495 0.7015900647602258
91.87419999999999 91.27043333333334 2258.11 0.0 0.0 1.0
95.26713333333333 103.51143333333334 2283.97 0.0 0.0 1.0
95.85926666666667 106.63166666666666 2281.0766666666664 -0.9771589865730079 -4.189055890017737e-17 0.2125095643956103
93.58683333333333 116.29933333333334 2275.29 0.0 0.0 1.0
96.4885 124.07100000000001 2283.97 0.0 0.0 1.0
96.4885 124.07100000000001 2283.97 0.0 0.0 1.0
96.4885 124.07100000000001 2283.97 0.0 0.0 1.0
94.65646666666667 131.196 2283.97 0.0 0.0 1.0
95.0636 135.67433333333332 2283.97 0.0 0.0 1.0
71.87646666666666 131.94133333333332 2023.9333333333332 0.7670070006834512 0.5796053615134147 0.2752415045146357
83.17800000000001 143.458 2097.2033333333334 -0.945933248380645 0.3153017222151682 0.0761256433548509
79.0741 140.44366666666667 2080.193333333333 -0.8297081077267976 0.528007177244108 -0.1810880359138214
99.70176666666667 158.3083333333333 2232.84 0.0 0.0 1.0
75.5064 -143.91333333333333 2017.08 -0.9879979226605337 -6.79292290268794e-17 0.1544671642080295
75.5064 -140.30966666666666 2017.08 -0.9879979226605334 7.415062346327218e-17 0.15446716420802953
74.43986666666666 -123.49566666666665 2012.5566666666666 -0.955582423040515 -0.23887343447421042 0.17263173253638425
97.84616666666666 -135.89766666666665 2301.54 0.0 0.0 1.0
23.654833333333332 -73.64020000000001 1333.74 0.9503452582413103 0.3094009314543045 0.033390923219730896
25.16343333333333 -66.71866666666666 1367.2533333333333 0.9035713782166919 0.225892844554171 0.3640483309216143
95.38463333333334 -89.53846666666668 2301.54 0.0 0.0 1.0
96.0 -72.51283333333333 2301.54 0.0 0.0 1.0
98.46153333333332 -67.17946666666667 2301.54 0.0 0.0 1.0
96.82053333333334 -31.6923 2301.54 0.0 0.0 1.0
97.64106666666667 -28.2051 2301.54 0.0 0.0 1.0
97.4359 -16.3077 2301.54 0.0 0.0 1.0
85.41063333333334 9.951703333333333 2168.12 0.0 0.0 1.0
97.43593333333332 50.76923333333334 2301.54 0.0 0.0 1.0
97.43593333333332 50.76923333333334 2301.54 0.0 0.0 1.0
97.23076666666668 54.87180000000001 2301.54 0.0 0.0 1.0
84.20276666666666 59.48013333333333 2142.2466666666664 -0.9362045547896501 -4.4310348784772693e-16 0.3514555897849873
85.55116666666667 63.065599999999996 2147.3733333333334 -0.9887173436072466 8.416589097056352e-17 0.1497932390003974
89.27156666666667 75.2651 2213.5733333333333 0.9902951464543296 -3.0816999470261393e-18 0.13898029683735053
92.91103333333335 93.71983333333333 2263.816666666667 0.24143209837826043 0.9657483120097262 0.09508280456020632
93.80739999999999 132.68733333333333 2278.183333333333 0.9030741117841207 0.41048577902345224 0.1263272490194836
96.12196666666667 134.17966666666666 2289.8033333333333 0.9899131205854567 -0.1414161600836365 -0.008572243578097622
79.08673333333333 147.1233333333333 2049.32 0.0 0.0 1.0
74.4465 -125.68766666666666 2010.3033333333333 -0.9879841527370564 -5.35029312083781e-16 0.1545552132425212
74.4465 -125.68766666666666 2010.3033333333333 -0.9879841527370564 -5.35029312083781e-16 0.1545552132425212
78.18343333333333 -122.77766666666668 2042.3366666666668 -0.5188641628016708 0.8302137246452437 0.20377721160814985
96.41026666666666 -135.28233333333333 2301.54 0.0 0.0 1.0
27.745166666666666 -59.90736666666667 1395.9566666666667 -0.9313981025552482 0.2794244253938944 0.23328001425277572
27.542999999999996 -59.02973333333333 1404.6899999999998 -4.9620009664871006e-26 9.542270409498198e-27 1.0
97.02566666666667 -79.6923 2301.54 0.0 0.0 1.0
96.41026666666666 -78.66666666666667 2301.54 0.0 0.0 1.0
96.41026666666666 -44.0 2301.54 0.0 0.0 1.0
96.41026666666669 -37.23080000000001 2301.54 0.0 0.0 1.0
96.61539999999998 -30.666633333333333 2301.54 0.0 0.0 1.0
95.58973333333334 -21.4359 2301.54 0.0 0.0 1.0
97.64103333333333 -15.282033333333331 2301.54 0.0 0.0 1.0
96.61539999999998 -12.0 2301.54 0.0 0.0 1.0
97.23076666666667 -5.435896666666667 2301.54 0.0 0.0 1.0
88.06966666666666 13.878300000000001 2208.14 -0.9053413193568287 0.42249524979443626 -0.043068078275837425
83.31683333333334 14.902276666666667 2186.6066666666666 -0.22003741186800177 0.6286906240303406 0.7458764218252057
89.8039 25.588233333333335 2200.0 0.0 0.0 1.0
80.0 54.3448 2063.45 0.0 0.0 1.0
82.4593 55.63956666666667 2119.49 -0.9403226572535681 0.2893290677255613 0.17911446291309346
85.39460000000001 62.16256666666667 2162.9 0.9457640384724499 -0.2182445200976225 0.24062359190162735
86.618 67.83456666666667 2183.94 0.0 0.0 1.0
92.5729 97.43986666666667 2275.29 0.0 0.0 1.0
93.99243333333334 106.76800000000001 2275.29 0.0 0.0 1.0
96.18549999999999 123.02033333333334 2298.6 -0.9894776404782724 -4.138711954481395e-15 0.1446858631434006
96.18549999999999 123.02033333333334 2298.6 -0.9894776404782724 -4.139004008626755e-15 0.1446858631434006
95.0636 135.67433333333332 2283.97 0.0 0.0 1.0
81.11500000000001 142.81066666666666 2085.02 0.0 0.0 1.0
74.77476666666666 146.75666666666666 2021.62 0.0 0.0 1.0
73.74383333333333 -127.72833333333335 2005.8133333333333 -0.9879656704275919 -1.4790070508719448e-15 0.15467331397677864
74.77413333333334 -123.87266666666666 2021.6333333333332 0.8942980199669671 0.447435406124676 -0.00571041410132319
74.60673333333334 -122.87733333333334 2017.08 0.9694986003649817 0.24235215592418277 0.036577266289902814
94.359 -129.74366666666666 2301.54 0.0 0.0 1.0
25.079633333333334 -67.18533333333333 1369.3433333333332 0.944353087598957 -0.3146265860114116 0.09595497546828967
24.874066666666664 -66.431 1371.4333333333334 -0.9970893119792004 -3.4030456453916476e-17 0.07624240248605113
24.8318 -64.40366666666667 1372.4800000000002 -4.200592191231668e-26 -3.66642373117264e-27 1.0
27.542999999999996 -59.02973333333333 1404.6899999999998 -4.9620009664871035e-26 9.542270409498208e-27 1.0
27.542999999999996 -59.02973333333333 1404.6899999999998 -4.9620009664871006e-26 9.542270409498198e-27 1.0
95.1795 -90.15386666666666 2301.54 0.0 0.0 1.0
95.79486666666666 -77.84616666666666 2301.54 0.0 0.0 1.0
96.0 -72.51283333333333 2301.54 0.0 0.0 1.0
96.41023333333334 -51.79486666666667 2301.54 0.0 0.0 1.0
94.76923333333333 -41.94873333333334 2301.54 0.0 0.0 1.0
96.0 -22.051266666666663 2301.54 0.0 0.0 1.0
96.0 -7.076923333333333 2301.54 0.0 0.0 1.0
87.98566666666666 22.834699999999998 2238.4333333333334 -0.6089998409720059 0.719723712655612 0.33334212325671275
89.62406666666668 85.5138 2249.62 0.0 0.0 1.0
92.478 87.84906666666666 2258.11 0.0 0.0 1.0
94.15383333333334 93.84603333333332 2301.54 0.0 0.0 1.0
95.7133 115.21199999999999 2289.8033333333333 0.9912851941807258 1.6040147319926537e-16 0.1317333055763828
95.7133 125.61399999999999 2289.8033333333333 0.9912851941807257 -1.2908181115176605e-16 0.13173330557638313
95.73436666666667 129.85933333333332 2292.72 0.0 0.0 1.0
74.77476666666666 146.75666666666666 2021.62 0.0 0.0 1.0
74.77476666666666 146.75666666666666 2021.62 0.0 0.0 1.0
71.30900000000001 -138.80233333333334 1990.25 -0.987999245086817 2.7412029794162884e-17 0.15445870551017693
75.48326666666667 -122.84566666666666 2028.4866666666667 -0.5143006073247526 0.8574435402956673 -0.016895576658496052
96.41026666666666 -135.28233333333333 2301.54 0.0 0.0 1.0
23.2805 -76.6151 1356.9233333333334 -0.9686595675234757 -0.24239233244037492 -0.05426416330643774
22.762766666666664 -74.0853 1354.8733333333332 -0.9687214546733882 -0.24217200079795598 -0.054143007720203515
22.429066666666667 -71.18436666666666 1345.7333333333333 -0.9911920697138499 -0.1239119018782717 0.04673458579343297
23.240799999999997 -73.90536666666667 1340.7 0.9434763706121787 0.290289528302474 0.15995101704708722
24.78963333333333 -63.596466666666664 1373.53 -0.9860095607107037 -0.1642976101661103 -0.02813256975091719
24.78963333333333 -63.596466666666664 1373.53 -0.9860095607107038 -0.16429761016611014 -0.028132569750917293
24.699966666666665 -63.10286666666667 1378.8066666666666 0.980039287523692 -0.17285733616333734 0.09820049004241
27.466166666666666 -58.9115 1416.8933333333334 0.9780094437706357 -0.1956070478480973 0.07235613814738735
95.38459999999999 -71.28206666666667 2301.54 0.0 0.0 1.0
94.5641 -64.71793333333333 2301.54 0.0 0.0 1.0
93.94873333333334 -55.0769 2301.54 0.0 0.0 1.0
95.17946666666667 -31.6923 2301.54 0.0 0.0 1.0
95.79486666666666 -31.0769 2301.54 0.0 0.0 1.0
95.17946666666667 -22.2564 2301.54 0.0 0.0 1.0
95.58973333333331 -12.615400000000001 2301.54 0.0 0.0 1.0
96.0 -9.1282 2301.54 0.0 0.0 1.0
80.5797 38.703833333333336 2155.11 -0.17363549599826905 0.983890901688923 0.0425371379290305
76.61906666666665 43.34380000000001 2109.523333333333 -0.03452562901304765 -0.6559624389092374 0.7540034878443855
96.82053333333333 53.64103333333333 2301.54 0.0 0.0 1.0
80.93763333333334 55.611333333333334 2097.2033333333334 -0.8720755289191325 0.46510142564292206 0.15220031447187204
86.618 67.83456666666667 2183.94 0.0 0.0 1.0
88.49383333333333 72.19753333333334 2216.3 0.0 0.0 1.0
90.07406666666668 78.5185 2216.3 0.0 0.0 1.0
94.65646666666667 131.196 2283.97 0.0 0.0 1.0
71.12233333333334 142.86233333333334 1992.46 -0.9013191697946362 0.3004209457821747 0.3120432814467429
75.48876666666666 -148.0066666666667 2023.9033333333334 0.9528150129658094 -5.1037626875384095e-15 0.3035515624518581
82.5926 -147.68499999999997 2077.78 0.0 0.0 1.0
68.49400000000001 -143.45266666666666 1985.8466666666666 -0.23834881782143066 0.9538139517687244 0.18283540809825652
71.30900000000001 -138.80233333333334 1990.25 -0.9879992450868171 1.3534241986348429e-17 0.15445870551017693
23.2805 -76.6151 1356.9233333333334 -0.9686595675234757 -0.24239233244037492 -0.05426416330643774
22.254833333333334 -70.6752 1349.7833333333333 0.9873159463227921 0.1234273360348021 0.09986448245538236
24.74716666666667 -66.58496666666667 1374.58 0.9922043530480132 -0.0763202193933115 0.09851774410901855
27.466166666666666 -58.9115 1416.8933333333334 0.9780094437706356 -0.1956070478480974 0.07235613814738719
94.76923333333332 -79.48716666666667 2301.54 0.0 0.0 1.0
95.79486666666666 -77.84616666666666 2301.54 0.0 0.0 1.0
94.76923333333333 -72.3077 2301.54 0.0 0.0 1.0
93.94873333333334 -66.7692 2301.54 0.0 0.0 1.0
94.56410000000001 -50.974333333333334 2301.54 0.0 0.0 1.0
93.53846666666668 -49.1282 2301.54 0.0 0.0 1.0
94.5641 -42.564099999999996 2301.54 0.0 0.0 1.0
94.7692 -32.51283333333333 2301.54 0.0 0.0 1.0
95.58973333333331 -12.615400000000001 2301.54 0.0 0.0 1.0
84.44446666666666 5.3140133333333335 2168.12 0.0 0.0 1.0
84.44446666666666 5.3140133333333335 2168.12 0.0 0.0 1.0
86.65876666666668 9.694046666666667 2197.3133333333335 -0.9694771955574479 0.24234972797457352 0.037156111808370855
86.65876666666668 9.694046666666667 2197.3133333333335 -0.9694771955574482 0.24234972797457355 0.037156111808370675
88.0587 27.5056 2260.9633333333336 0.3119423696853423 0.9358443310716863 0.1639736137190397
66.00573333333334 43.7284 2040.0033333333333 0.041031270679907236 -0.9847054152659439 0.1693271389125717
82.29186666666668 54.450966666666666 2139.693333333333 -0.8877025352746128 0.443843500259542 0.12242204108894109
86.618 67.83456666666667 2183.94 0.0 0.0 1.0
91.01483333333333 83.20503333333333 2246.813333333333 -0.9565410040391903 0.2732974297254838 0.10167508297091202
91.01483333333333 83.20503333333333 2246.813333333333 -0.9565410040391903 0.2732974297254838 0.10167508297091202
93.58683333333333 116.29933333333334 2275.29 0.0 0.0 1.0
94.24936666666667 133.43533333333335 2283.97 0.0 0.0 1.0
81.11693333333334 140.16299999999998 2089.8799999999997 0.8600120602510888 -0.5016224648718016 0.09356366259726863
76.8589 136.44266666666667 2072.986666666667 0.9486924732062397 -0.31619274724080465 -0.0021766658312042542
78.16973333333334 143.98166666666668 2054.013333333334 -0.596090835424003 0.7947757346759672 0.11404932044422961
71.27820000000001 141.75599999999997 1996.8933333333334 0.9437331558015417 -0.31455805749309873 0.10208309902737013
68.87996666666668 -143.83833333333334 1981.4733333333334 -0.8135544610018771 0.5422261663624672 0.21004743153822958
69.59283333333333 -125.69099999999999 1979.28 -0.987988404224433 -3.6534972019542063e-16 0.15452803343748994
69.59283333333333 -125.69099999999999 1979.28 -0.987988404224433 -3.6534972019542063e-16 0.15452803343748994
24.40676666666667 -64.77706666666667 1383.0566666666666 -0.8891986837410991 -0.4445993418705498 -0.10796817142737428
93.7436 -85.84616666666666 2301.54 0.0 0.0 1.0
94.7692 -32.51283333333333 2301.54 0.0 0.0 1.0
95.17946666666667 -22.2564 2301.54 0.0 0.0 1.0
93.53846666666668 -17.7436 2301.54 0.0 0.0 1.0
76.77613333333333 0.08605333333333309 2134.6266666666666 -0.6561779823129145 -0.7546055439693149 -0.0009636070396311571
94.76923333333332 -1.9487176666666663 2301.54 0.0 0.0 1.0
84.44446666666666 5.314013333333334 2168.12 0.0 0.0 1.0
86.65876666666668 9.694046666666667 2197.3133333333335 -0.969477195557448 0.24234972797457355 0.03715611180837078
85.915 14.315266666666666 2216.32 0.20190097995494097 0.9087449157019424 0.365265208415891
87.82636666666667 16.9639 2252.4500000000003 0.8473557930061082 -0.37661127042116016 0.37436895043626345
91.3693 34.01616666666666 2278.183333333333 0.9734406994648201 -0.064899602383913 0.21954782220703492
82.6907 42.02236666666667 2157.7 0.9451554334424003 0.3150554473956037 0.08614680319468855
81.70213333333334 41.67933333333333 2129.556666666667 -0.2364787406352647 -0.7141307184815398 0.6588589546698133
80.93763333333334 55.611333333333334 2097.2033333333334 -0.8720755289191324 0.4651014256429222 0.15220031447187166
85.3436 65.24650000000001 2221.7933333333335 -0.20918848124632097 0.9762011892996162 0.05719630515927099
88.30656666666668 68.32806666666666 2219.0466666666666 -0.9831264327100717 0.16385670965785706 0.08132278897621394
89.71003333333333 78.7848 2269.5433333333335 0.13883122785505606 0.971772783657939 0.19074471713250157
92.26053333333333 88.7867 2292.72 0.0 0.0 1.0
94.15383333333334 93.84603333333332 2301.54 0.0 0.0 1.0
94.6379 99.52016666666667 2281.0766666666664 0.810327809585088 -0.5402627740052636 0.22690301019856665
92.77566666666667 100.07606666666668 2275.29 0.0 0.0 1.0
93.58683333333333 116.29933333333334 2275.29 0.0 0.0 1.0
93.13133333333333 123.73733333333332 2266.67 0.0 0.0 1.0
93.13133333333333 123.73733333333332 2266.67 0.0 0.0 1.0
94.21453333333334 134.72299999999998 2278.183333333333 -0.8738995957551869 -0.3972247146395893 0.28019996898361305
64.79303333333333 127.38333333333333 1983.6533333333334 -0.4645687240221373 -0.8709430643557258 0.16010646242766502
76.8589 136.44266666666667 2072.986666666667 0.9486924732062398 -0.3161927472408044 -0.002176665831204143
68.70156666666666 141.90333333333334 1981.4733333333334 -0.5763995638889733 0.8073382481060015 -0.12636651413144742
68.91313333333333 -124.359 1974.9333333333334 -0.9880013112915985 -0.0002773378594633703 0.15444523938857208
35.34976666666667 -106.69733333333333 1716.2633333333333 -0.3354832055399813 0.6564258443030594 0.6756893737003967
93.94873333333334 -131.38466666666667 2301.54 0.0 0.0 1.0
91.89743333333332 -127.69233333333334 2301.54 0.0 0.0 1.0
24.4442 -65.24743333333333 1385.1933333333334 0.9991935703913808 0.000536808936871253 0.04014873254151804
24.40676666666667 -64.77706666666667 1383.0566666666666 -0.889198683741099 -0.44459934187054995 -0.10796817142737437
25.9153 -61.9437 1411.3266666666666 -0.14823080040430406 -0.601802307300585 0.784768509013449
26.835333333333335 -60.822466666666664 1420.256666666667 0.9993006660461575 2.2566397849184086e-16 0.03739222967015348
93.7436 -85.84616666666666 2301.54 0.0 0.0 1.0
93.7436 -85.84616666666666 2301.54 0.0 0.0 1.0
94.76923333333333 -72.30770000000001 2301.54 0.0 0.0 1.0
93.94873333333334 -66.76920000000001 2301.54 0.0 0.0 1.0
93.94873333333334 -66.76920000000001 2301.54 0.0 0.0 1.0
93.33333333333333 -63.89743333333333 2301.54 0.0 0.0 1.0
93.12823333333334 -54.871766666666666 2301.54 0.0 0.0 1.0
92.92309999999999 -40.9231 2301.54 0.0 0.0 1.0
92.71796666666667 -28.820533333333334 2301.54 0.0 0.0 1.0
93.53846666666668 -17.7436 2301.54 0.0 0.0 1.0
80.00563333333332 -4.365406666666667 2178.646666666667 -0.1789484995464175 -0.7873736440585007 0.589932351335408
83.69616666666666 -6.32966 2183.9600000000005 0.9782148395312243 -0.19563320321616295 0.06945054010073974
95.1795 0.1025646666666667 2301.54 0.0 0.0 1.0
90.95056666666666 23.219266666666666 2275.29 0.0 0.0 1.0
92.27626666666667 34.06186666666667 2295.66 0.981935177501331 0.16366253702736222 0.09496252502538755
77.9203 50.5332 2119.49 0.5247960629848738 -0.7497133805923124 0.4031363779621269
88.20106666666668 67.10296666666666 2244.0066666666667 -0.9397726046221672 0.3417329004641112 -0.006787955660870962
89.86166666666668 75.97486666666667 2258.11 0.0 0.0 1.0
91.06920000000001 82.01259999999999 2258.11 0.0 0.0 1.0
91.55893333333334 103.11800000000001 2275.29 0.0 0.0 1.0
91.46036666666667 132.15866666666668 2255.28 -0.5999062516148922 -0.7997811719362623 0.02150735431494161
77.96683333333333 137.898 2075.3833333333337 -0.8436461484284868 0.536877026120691 0.0049229123069837975
70.61136666666667 143.256 1988.0566666666666 -0.5959114040695863 -0.7942738064003992 0.1184006713073675
67.8947 -137.10533333333333 1968.42 0.0 0.0 1.0
67.8947 -137.10533333333333 1968.42 0.0 0.0 1.0
67.8947 -137.10533333333333 1968.42 0.0 0.0 1.0
67.71926666666667 -127.105 1968.42 0.0 0.0 1.0
68.23343333333334 -124.78466666666668 1970.5866666666668 -0.9879986992937713 1.3098577144899818e-16 0.15446219664958874
22.40973333333333 -71.62936666666667 1351.8166666666666 0.9655933077985983 0.24138999108422096 0.09674934696896263
24.278000000000002 -67.3974 1386.2600000000002 -0.9965443235399556 0.08303041198066015 0.0023155791100456734
24.3155 -66.2645 1388.4000000000003 1.0 0.0 0.0
24.3155 -66.2645 1388.4000000000003 1.0 0.0 0.0
24.3155 -66.2645 1388.4000000000003 1.0 0.0 0.0
26.835333333333335 -60.822466666666664 1420.256666666667 0.9993006660461575 1.7015282726058303e-16 0.03739222967015348
26.835333333333335 -60.822466666666664 1420.256666666667 0.9993006660461575 2.2857464627494103e-17 0.037392229670153584
92.92309999999999 -87.89743333333332 2301.54 0.0 0.0 1.0
92.3077 -78.25643333333333 2301.54 0.0 0.0 1.0
93.12823333333334 -54.871766666666666 2301.54 0.0 0.0 1.0
93.12823333333334 -54.871766666666666 2301.54 0.0 0.0 1.0
92.71796666666667 -50.15383333333333 2301.54 0.0 0.0 1.0
92.51283333333333 -49.743599999999994 2301.54 0.0 0.0 1.0
93.33333333333333 -42.564099999999996 2301.54 0.0 0.0 1.0
92.92309999999999 -40.9231 2301.54 0.0 0.0 1.0
92.10256666666668 -38.6667 2301.54 0.0 0.0 1.0
93.53846666666668 -17.7436 2301.54 0.0 0.0 1.0
83.91866666666667 -7.732526666666666 2197.3133333333335 -0.924083471523816 0.36964218587361936 0.09713079881822084
77.8842 -0.6536800000000001 2142.286666666667 0.6853679270229072 0.7281963956541526 0.0009021998799356622
90.95056666666666 23.219266666666666 2275.29 0.0 0.0 1.0
81.15246666666667 58.57373333333334 2165.5099999999998 0.06334988650406723 0.8867672971145397 0.4578542919402365
88.62159999999999 67.86970000000001 2249.62 0.0 0.0 1.0
90.13943333333333 83.04183333333333 2275.29 0.0 0.0 1.0
90.34223333333334 85.67806666666667 2275.29 0.0 0.0 1.0
92.26053333333333 88.7867 2292.72 0.0 0.0 1.0
90.545 92.97846666666668 2275.29 0.0 0.0 1.0
92.16733333333333 107.17366666666665 2275.29 0.0 0.0 1.0
92.16733333333333 107.17366666666665 2275.29 0.0 0.0 1.0
88.61183333333334 121.85366666666668 2246.813333333333 -0.9894592982859806 -1.516683437046618e-16 0.14481124623251773
91.4286 123.609 2249.62 0.0 0.0 1.0
89.02570000000001 133.833 2249.6433333333334 -0.21118595421145755 0.9710891760388001 0.11129377756227188
69.84230000000001 138.705 1999.1166666666668 0.9196109665967667 -0.38319749294912225 0.08646011515414243
105.59769999999999 158.87366666666665 2298.6 0.5268094728838426 0.49168028091832977 0.6933413882323197
67.2217 -132.433 1964.1200000000001 -0.9879725763731224 3.1646021486402343e-17 0.15462919625560675
67.71926666666667 -131.31566666666666 1968.42 0.0 0.0 1.0
66.55093333333333 -129.34766666666667 1959.8333333333333 -0.9879829237025023 -1.8988462844669257e-16 0.15456306956144297
91.89746666666667 -131.58966666666666 2301.54 0.0 0.0 1.0
91.28203333333333 -121.128 2301.54 0.0 0.0 1.0
24.191766666666666 -65.02706666666667 1388.4000000000003 4.102896634185525e-26 5.860942566468528e-27 1.0
26.835933333333333 -61.2232 1423.64 -0.9998221164398682 -9.06936419121119e-16 0.018860951134610338
92.92309999999999 -87.89743333333332 2301.54 0.0 0.0 1.0
93.12823333333334 -85.64103333333333 2301.54 0.0 0.0 1.0
92.3077 -78.25643333333333 2301.54 0.0 0.0 1.0
92.71796666666667 -54.256400000000006 2301.54 0.0 0.0 1.0
92.3077 -50.15383333333333 2301.54 0.0 0.0 1.0
92.92309999999999 -41.743599999999994 2301.54 0.0 0.0 1.0
92.3077 -29.2308 2301.54 0.0 0.0 1.0
92.3077 -29.2308 2301.54 0.0 0.0 1.0
92.3077 -29.2308 2301.54 0.0 0.0 1.0
83.97266666666667 4.465777666666667 2227.306666666667 -0.7214213573528129 -0.6659226413540034 0.18999542333259573
89.32826666666666 19.569100000000002 2275.29 0.0 0.0 1.0
92.2912 30.01 2298.6 0.9802825065481942 -0.19606287319371857 0.02460807003024449
91.63426666666665 37.241366666666664 2289.8033333333333 -0.977647409795928 -0.16294787993295434 0.13286658927160105
82.36383333333333 48.04443333333334 2213.5733333333333 0.8969378277698076 0.06406775993350994 0.4374904058978682
87.36103333333334 64.17523333333334 2232.86 0.0006985081198148781 0.9830777961831467 0.1831872231846273
88.6216 67.86970000000001 2249.62 0.0 0.0 1.0
88.6216 67.86970000000001 2249.62 0.0 0.0 1.0
87.24526666666668 65.10693333333333 2258.11 0.0 0.0 1.0
89.93663333333335 80.20280000000001 2275.29 0.0 0.0 1.0
90.83013333333332 84.9042 2292.72 0.0 0.0 1.0
92.90733333333333 90.24383333333333 2298.6 -0.8561454198959939 0.5136761219636656 0.056141443831464674
90.545 92.97846666666665 2275.29 0.0 0.0 1.0
90.545 92.97846666666665 2275.29 0.0 0.0 1.0
90.89843333333333 93.51856666666667 2263.816666666667 -0.2400553023434828 -0.9602410142829557 0.1425154247989299
91.27043333333332 99.522 2258.11 0.0 0.0 1.0
90.53273333333334 106.83633333333334 2272.4166666666665 -0.9895900067875724 3.48432405437479e-16 0.143915316996393
87.38260000000001 121.19766666666668 2238.4133333333334 -0.9894663988434247 2.221281471476842e-16 0.14476272158199052
87.38260000000001 121.19766666666668 2238.4133333333334 -0.9894663988434247 2.221281471476842e-16 0.14476272158199052
89.52486666666665 127.53899999999999 2227.306666666667 -5.201316070089477e-17 0.8341933140295726 0.5514721342265253
87.59053333333334 135.131 2241.2 0.0 0.0 1.0
87.59053333333334 135.131 2241.2 0.0 0.0 1.0
73.74716666666666 133.977 2063.45 0.0 0.0 1.0
73.74716666666666 133.977 2063.45 0.0 0.0 1.0
70.6724 138.37800000000001 2014.8266666666666 -0.7140130090473752 -0.1799059333976232 0.6766234388782604
65.8824 -124.35733333333333 1955.5600000000002 1.0 0.0 0.0
65.8824 -124.35733333333333 1955.5600000000002 1.0 0.0 0.0
65.8824 -122.266 1955.5600000000002 1.0 0.0 0.0
65.8824 -122.266 1955.5600000000002 1.0 0.0 0.0
69.39106666666667 -124.37066666666665 1983.6533333333334 0.9707228584488995 4.4513903516612826e-15 0.24020227327150342
91.89743333333332 -127.69233333333334 2301.54 0.0 0.0 1.0
24.024600000000003 -64.33423333333333 1389.4766666666667 0.9828381185344097 0.16379899860816835 0.08484763291160752
92.3077 -78.25643333333333 2301.54 0.0 0.0 1.0
91.89743333333335 -49.743599999999994 2301.54 0.0 0.0 1.0
90.87180000000001 -44.82053333333334 2301.54 0.0 0.0 1.0
90.87180000000001 -33.33333333333333 2301.54 0.0 0.0 1.0
83.91866666666667 -7.732526666666666 2197.3133333333335 -0.9240834715238158 0.3696421858736196 0.09713079881822083
86.6415 11.773573333333333 2258.11 0.0 0.0 1.0
88.6314 15.756366666666667 2252.4500000000003 0.9134102733899446 -0.4059694951240471 -0.02950324548982484
94.15383333333334 26.7692 2301.54 0.0 0.0 1.0
90.38169999999998 40.0 2283.97 0.0 0.0 1.0
90.38169999999998 40.0 2283.97 0.0 0.0 1.0
90.38169999999998 40.0 2283.97 0.0 0.0 1.0
80.95103333333334 48.80733333333333 2134.6066666666666 0.7508924088441177 -0.37543963412990794 0.5433283275006735
89.88756666666666 72.53973333333333 2263.816666666667 -0.965444676838754 0.2574582857649055 -0.04039563162904715
91.03446666666666 87.35629999999999 2292.72 0.0 0.0 1.0
90.66666666666667 96.1006 2258.11 0.0 0.0 1.0
87.41850000000001 108.17033333333332 2249.62 0.0 0.0 1.0
86.79153333333333 109.563 2241.2 0.0 0.0 1.0
86.9749 121.84199999999998 2235.6266666666666 -0.9894663988434245 4.50961439212021e-16 0.14476272158199094
86.9749 122.24166666666666 2235.6266666666666 -0.9894663988434247 -1.3527386379099583e-17 0.1447627215819907
87.59053333333334 135.131 2241.2 0.0 0.0 1.0
65.39053333333334 134.91766666666663 1974.92 0.0 0.0 1.0
65.59896666666667 137.08266666666668 1970.5866666666668 -0.8920008600615263 0.44598630715457543 -0.07369314405099824
65.55026666666667 -126.65666666666668 1953.4366666666665 -0.9879862932625898 1.0853238637084015e-16 0.15454152945162772
91.28203333333333 -121.128 2301.54 0.0 0.0 1.0
23.881433333333334 -67.65423333333334 1399.2233333333334 0.9991997416691645 5.001328714277191e-16 0.03999845307352507
23.881433333333334 -67.65423333333334 1399.2233333333334 0.9991997416691645 5.27888447043348e-16 0.03999845307352507
90.25643333333333 -71.89743333333332 2301.54 0.0 0.0 1.0
91.28206666666667 -64.5128 2301.54 0.0 0.0 1.0
91.6923 -50.15383333333333 2301.54 0.0 0.0 1.0
90.8718 -44.82053333333334 2301.54 0.0 0.0 1.0
91.48716666666667 -40.51283333333333 2301.54 0.0 0.0 1.0
90.87176666666666 -39.28206666666667 2301.54 0.0 0.0 1.0
90.8718 -33.333333333333336 2301.54 0.0 0.0 1.0
91.89743333333332 -29.025666666666666 2301.54 0.0 0.0 1.0
92.71793333333333 -16.71796666666667 2301.54 0.0 0.0 1.0
84.18653333333333 4.879723333333334 2235.6266666666666 -0.5538128952648792 -0.8307139316844989 -0.05661837814361763
85.43396666666668 13.9874 2258.11 0.0 0.0 1.0
80.0 43.802633333333326 2160.29 0.0 0.0 1.0
87.5816 65.3381 2238.4133333333334 -0.9397940367129903 0.341740693892568 -0.0006831519074421667
90.01276666666666 74.89143333333332 2292.72 0.0 0.0 1.0
89.1603 80.5089 2283.97 0.0 0.0 1.0
90.1642 84.67416666666666 2281.0766666666664 0.9908917517971919 4.6021042168240223e-17 0.1346608191728092
90.13943333333333 88.92266666666667 2275.29 0.0 0.0 1.0
85.1741 98.40796666666667 2232.84 0.0 0.0 1.0
87.218 105.96466666666667 2249.62 0.0 0.0 1.0
87.218 105.96466666666667 2249.62 0.0 0.0 1.0
87.41850000000001 108.17033333333332 2249.62 0.0 0.0 1.0
86.39203333333334 108.56433333333332 2241.2 0.0 0.0 1.0
86.79153333333333 109.563 2241.2 0.0 0.0 1.0
85.35616666666665 119.851 2224.56 -0.9894729123751906 1.726458478792303e-05 0.1447181929741133
60.16989999999999 126.17366666666668 1951.3133333333335 0.630181980647848 0.4951035051193713 0.598116368681938
84.53699999999999 151.20166666666665 2124.5066666666667 0.3857636520276241 -0.3375410708069855 0.8586340491110189
73.00926666666668 -144.12199999999999 2012.5566666666666 -0.7247477699477404 -3.158869993767723e-16 0.6890142741306432
62.35613333333333 -137.4333333333333 1940.7633333333333 -0.7196232168252793 0.4579695249673508 0.5219256077327648
63.89823333333333 -127.18400000000001 1942.8733333333332 -0.9879936279245212 -8.906321691935659e-06 0.1544946313022566
90.46153333333332 -127.69233333333334 2301.54 0.0 0.0 1.0
88.61536666666666 -124.0 2301.54 0.0 0.0 1.0
23.712766666666667 -66.83229999999999 1400.3166666666666 0.9928732667884299 0.11031598062674218 0.04508947233259487
89.64103333333333 -81.74356666666667 2301.54 0.0 0.0 1.0
90.25639999999999 -38.46156666666667 2301.54 0.0 0.0 1.0
89.64103333333333 -22.461566666666666 2301.54 0.0 0.0 1.0
92.10253333333333 -13.641033333333333 2301.54 0.0 0.0 1.0
83.91866666666668 -7.732526666666666 2197.3133333333335 -0.9240834715238159 0.36964218587361924 0.09713079881822095
84.39450000000001 3.29588 2241.2 0.0 0.0 1.0
84.39450000000001 3.29588 2241.2 0.0 0.0 1.0
88.7315 17.969633333333334 2278.1833333333334 -0.7063331130047907 0.7063331130047941 0.04676608756265749
88.90426666666667 33.48003333333333 2269.5433333333335 -0.8852101890987978 0.1041408589931714 0.4533846078153019
88.34603333333332 70.73790000000001 2283.97 0.0 0.0 1.0
90.01276666666666 74.89143333333332 2292.72 0.0 0.0 1.0
90.01276666666666 74.89143333333332 2292.72 0.0 0.0 1.0
89.93663333333332 80.20280000000001 2275.29 0.0 0.0 1.0
90.83013333333332 84.9042 2292.72 0.0 0.0 1.0
88.38353333333333 93.46563333333334 2238.4133333333334 -0.264876321338777 0.9270671246857171 0.265305636428995
84.76576666666666 96.57846666666666 2227.306666666667 -0.8943313617066028 0.4471656808533001 0.014637941625042328
86.39203333333334 108.56433333333332 2241.2 0.0 0.0 1.0
84.1511 118.81433333333332 2216.32 -0.9894760533593967 -3.142318364540813e-05 0.14469671330370945
66.81313333333334 137.933 1972.7533333333333 0.9578609231956947 0.2737004656350032 0.0871235153438706
64.3137 139.69500000000002 1955.5600000000002 1.4586003443987026e-26 -1.9385458016372733e-27 1.0
66.10266666666666 -144.24433333333334 1974.9333333333334 -0.8714976910174712 0.17455759610955118 0.45828094024481447
62.58689999999999 -131.637 1934.4866666666667 -0.9879990704343188 -9.83406254982019e-16 0.15445982267542002
62.58689999999999 -131.637 1934.4866666666667 -0.9879990704343188 -9.830731622740009e-16 0.15445982267542002
88.41026666666669 -130.564 2301.54 0.0 0.0 1.0
23.49983333333334 -65.9369 1402.5033333333333 0.9922169953272736 0.11024306373773278 0.05789560502694189
23.455866666666665 -64.36256666666667 1403.5966666666666 -0.9805459282219275 0.19611962864910573 -0.0081715302076827
61.292399999999994 -81.96526666666666 1926.2133333333331 -0.9879817824747753 -7.287007715457858e-05 0.15457034705246012
90.05130000000001 -73.94869999999999 2301.54 0.0 0.0 1.0
89.43589999999999 -70.46156666666667 2301.54 0.0 0.0 1.0
89.02566666666667 -57.1282 2301.54 0.0 0.0 1.0
88.61539999999998 -55.692299999999996 2301.54 0.0 0.0 1.0
90.05129999999998 -50.35896666666667 2301.54 0.0 0.0 1.0
89.23079999999999 -48.71796666666666 2301.54 0.0 0.0 1.0
90.05130000000001 -44.20513333333333 2301.54 0.0 0.0 1.0
90.05130000000001 -33.128233333333334 2301.54 0.0 0.0 1.0
89.43593333333332 -21.2308 2301.54 0.0 0.0 1.0
89.43593333333332 -21.2308 2301.54 0.0 0.0 1.0
85.22133333333333 2.1063993333333335 2252.4500000000003 -0.8870159180928479 -0.44350486225436936 0.1284764500079095
87.25366666666666 3.3211366666666664 2260.9633333333336 0.9742214837091964 -0.22481766905113112 -0.01869535669273006
89.01386666666667 10.959800000000001 2298.6 0.8944263403614591 -0.4472131701807354 -0.0013791607969285545
85.82206666666666 34.020900000000005 2252.4500000000003 -0.8996611042672845 0.2998870347557615 0.31729743751560147
78.25873333333334 45.42573333333333 2173.3733333333334 -0.8426178749736414 0.5266429605942243 0.11243802217868717
86.06826666666666 58.557433333333336 2269.5433333333335 -0.4411160123025398 0.8821592451937098 0.16495978240034728
87.24526666666667 65.10693333333334 2258.11 0.0 0.0 1.0
89.10166666666665 79.79876666666667 2269.5433333333335 -0.14033429900878475 -0.9822937857527969 0.12411769814636238
88.01253333333334 89.00753333333334 2246.813333333333 0.49674133307970175 0.8279159857599633 0.26039041559417825
85.1741 98.40796666666665 2232.84 0.0 0.0 1.0
85.1741 98.40796666666667 2232.84 0.0 0.0 1.0
83.35803333333332 111.50633333333333 2216.3 0.0 0.0 1.0
83.15390000000001 121.47733333333333 2210.846666666667 -0.9816819012375075 -0.07551596019421848 0.17492279593768717
73.74716666666666 133.977 2063.45 0.0 0.0 1.0
68.0335 135.26333333333332 2003.5766666666666 0.9209183449886621 -0.3837422712742048 0.0682002280103094
64.3137 139.69500000000002 1955.5600000000002 1.4586003443987026e-26 -1.9385458016372733e-27 1.0
67.40496666666667 -144.83533333333332 1990.25 -0.2320222541957897 0.9284965841054634 0.2899306242230896
61.611866666666664 -133.10366666666667 1928.2533333333333 -0.9879597218304055 3.931244445974043e-16 0.15471130547179585
62.261199999999995 -132.52866666666668 1932.4033333333334 -0.9879990704343187 -8.98478671788041e-16 0.1544598226754199
61.9355 -127.05366666666667 1930.32 0.0 0.0 1.0
61.9355 -127.05366666666667 1930.32 0.0 0.0 1.0
90.46153333333332 -127.69233333333334 2301.54 0.0 0.0 1.0
23.448400000000003 -65.7685 1406.8966666666668 -0.9973160440706988 2.1587199354548878e-16 0.07321685761606729
23.448400000000003 -65.7685 1406.8966666666668 -0.997316044070699 3.264555504675523e-16 0.0732168576160673
23.455866666666665 -64.36256666666667 1403.5966666666666 -0.9805459282219277 0.19611962864910587 -0.008171530207682614
88.61540000000001 -81.9487 2301.54 0.0 0.0 1.0
89.64103333333333 -81.74356666666667 2301.54 0.0 0.0 1.0
89.2308 -75.58973333333334 2301.54 0.0 0.0 1.0
89.64103333333333 -65.94870000000002 2301.54 0.0 0.0 1.0
89.2308 -48.71796666666666 2301.54 0.0 0.0 1.0
90.05130000000001 -44.20513333333333 2301.54 0.0 0.0 1.0
89.23076666666667 -38.051300000000005 2301.54 0.0 0.0 1.0
90.05130000000001 -33.128233333333334 2301.54 0.0 0.0 1.0
82.15973333333334 -10.322326666666667 2205.4133333333334 0.7060284389150467 -0.7060284389150459 -0.05520585916698841
81.9975 -8.289636666666667 2241.2 0.0 0.0 1.0
84.84846666666667 0.9090933333333332 2266.67 0.0 0.0 1.0
89.01386666666667 10.959800000000001 2298.6 0.8944263403614591 -0.4472131701807354 -0.0013791607969285545
88.0587 27.505599999999998 2260.9633333333336 0.3119423696853423 0.9358443310716864 0.1639736137190397
88.0587 27.5056 2260.9633333333336 0.31194236968534217 0.9358443310716865 0.1639736137190394
85.82206666666666 34.020900000000005 2252.4500000000003 -0.8996611042672874 0.29988703475575723 0.31729743751559725
89.9498 41.1169 2278.1833333333334 -0.8919350643910463 -0.44596295060405206 0.07462497972038444
88.1847 61.279500000000006 2295.66 -0.8941953482095192 0.4471159073609124 0.02240635234224486
85.6352 61.4843 2258.11 0.0 0.0 1.0
87.10763333333334 63.66043333333332 2278.183333333333 -0.9880481646712252 0.1520170200882497 0.025527434130988888
88.34603333333332 70.73790000000001 2283.97 0.0 0.0 1.0
88.34603333333332 70.7379 2283.97 0.0 0.0 1.0
84.36776666666667 94.98643333333332 2227.306666666667 -0.8853811391738704 0.442690569586932 0.14186365987798838
83.15390000000001 121.47733333333333 2210.846666666667 -0.9816819012375075 -0.07551596019421848 0.17492279593768717
81.96656666666667 131.59366666666668 2205.4133333333334 -0.98951673347925 -1.4917762431254384e-16 0.1444182611879638
63.59709999999999 136.52833333333334 1957.6966666666667 0.9682556911418287 -0.16137080506711304 0.19089363489506805
95.00626666666666 160.69366666666664 2244.0266666666666 0.42417827798303165 0.8983245496903243 0.11439314625897032
61.611866666666664 -133.10366666666667 1928.253333333333 -0.9879597218304055 3.931244445974043e-16 0.15471130547179585
60.32153333333333 -84.78413333333333 1920.0066666666664 -0.9879989023089184 -2.2302699466377833e-14 0.15446089808224195
88.41026666666669 -76.82053333333333 2301.54 0.0 0.0 1.0
88.41026666666669 -67.79486666666668 2301.54 0.0 0.0 1.0
88.61539999999998 -55.692299999999996 2301.54 0.0 0.0 1.0
89.23079999999999 -48.71796666666666 2301.54 0.0 0.0 1.0
89.2308 -43.3846 2301.54 0.0 0.0 1.0
88.82053333333333 -21.641066666666664 2301.54 0.0 0.0 1.0
86.73470000000002 -2.959453333333333 2289.8033333333333 -0.7806268780091765 0.6245004836879033 0.024916324031058947
89.01386666666667 10.959800000000001 2298.6 0.8944263403614592 -0.44721317018073536 -0.0013791607969286467
89.32826666666666 19.569100000000002 2275.29 0.0 0.0 1.0
86.03776666666668 15.3962 2258.11 0.0 0.0 1.0
93.7436 51.79486666666666 2301.54 0.0 0.0 1.0
88.1847 61.279500000000006 2295.66 -0.8941953482095192 0.44711590736091233 0.02240635234224497
82.37333333333333 93.5317 2216.32 -0.9895897468071627 3.091600991341956e-05 0.14391710134079083
80.98256666666667 96.29766666666667 2202.7066666666665 -0.9794131770627235 0.19588596539070854 0.04877004366260056
81.37616666666666 96.8045 2205.4133333333334 -0.9921088626322934 0.11023224353992395 0.059739912710113245
82.17066666666666 97.75456666666666 2213.5733333333333 -0.9973278334270422 -7.599691874595348e-18 0.07305609263929988
81.96656666666667 131.59366666666668 2205.4133333333334 -0.98951673347925 -1.4917762431254384e-16 0.1444182611879638
57.8778 131.79 1924.12 0.0 0.0 1.0
64.75206666666666 -145.39966666666666 2061.0866666666666 1.3843162000225803e-17 0.8224885936075695 0.5687816042959215
60.00203333333334 -130.69133333333332 1917.9633333333331 -0.9880002354822851 -3.709075676001956e-05 0.15445236583239874
61.59139999999999 -121.37633333333333 1930.32 0.0 0.0 1.0
87.58973333333334 -131.58966666666666 2301.54 0.0 0.0 1.0
87.58973333333334 -130.76933333333332 2301.54 0.0 0.0 1.0
88.61536666666666 -124.0 2301.54 0.0 0.0 1.0
60.0 -90.68376666666667 1917.95 0.0 0.0 1.0
60.0 -90.68376666666667 1917.95 0.0 0.0 1.0
60.0 -90.68376666666667 1917.95 0.0 0.0 1.0
88.0 -90.15383333333334 2301.54 0.0 0.0 1.0
88.0 -90.15383333333334 2301.54 0.0 0.0 1.0
87.38459999999999 -88.10256666666668 2301.54 0.0 0.0 1.0
88.0 -38.66666666666667 2301.54 0.0 0.0 1.0
88.82053333333333 -21.641066666666664 2301.54 0.0 0.0 1.0
87.17946666666667 -18.358966666666664 2301.54 0.0 0.0 1.0
81.9975 -8.289636666666667 2241.2 0.0 0.0 1.0
86.1069 -2.748091333333333 2283.97 0.0 0.0 1.0
86.51403333333333 -0.5089046666666667 2283.97 0.0 0.0 1.0
85.45453333333334 6.16161 2266.67 0.0 0.0 1.0
84.62893333333334 15.194933333333333 2258.11 0.0 0.0 1.0
84.7754 20.382833333333334 2230.0733333333333 0.543613734279503 -0.642449584981435 0.5401320566860254
81.58026666666666 28.34566666666667 2216.3 0.0 0.0 1.0
81.58026666666666 28.34566666666667 2216.3 0.0 0.0 1.0
81.38566666666667 47.9552 2219.0466666666666 -0.9897025083678906 -0.07069388841517302 0.12446412764747908
86.0775 60.45816666666666 2272.4166666666665 -0.9760849404660561 0.1501764076977366 0.15717899212801673
87.34853333333335 61.32566666666667 2289.8033333333333 -0.8695436294211188 0.4347895453012665 0.2342048842997641
84.78733333333334 82.88116666666667 2232.86 -0.7156653247366724 0.4955935466202956 0.4921485339995132
81.77926666666667 87.51353333333333 2219.0466666666666 0.9939311655821659 -0.06626356861713566 0.0878064778851731
81.77413333333334 95.07100000000001 2210.846666666667 -0.9820277385513311 0.10911213972198193 0.15400020026301628
79.80463333333334 108.59366666666666 2197.3133333333335 -0.9406840544611845 -0.313579122036876 0.12954398444176882
80.00070000000001 107.87233333333334 2194.6266666666666 -0.8856339826594266 0.4428925573691912 0.13963749992670388
79.02676666666666 112.34666666666668 2186.6066666666666 -0.46141695061606475 0.6920859210481879 0.5550779004527685
60.978833333333334 125.12066666666665 2033.07 -0.6322335584120832 0.7024724091286891 0.3268229521170913
62.47566666666666 132.22266666666667 1966.2700000000002 -0.6964650892774334 0.696233595658008 0.1737675449987653
67.40496666666667 -144.83533333333332 1990.25 -0.2320222541957897 0.9284965841054634 0.2899306242230896
58.40663333333333 -126.24900000000001 1907.7600000000002 -0.9879937776644292 -3.293053393405246e-18 0.15449367396877664
74.17826666666666 -122.27366666666666 2040.0033333333333 0.24635371433215816 0.9239505079973132 0.292618020986843
58.40663333333333 -116.21366666666667 1907.7600000000002 -0.9879937776644266 -1.96582048977428e-14 0.15449367396879096
87.58973333333334 -131.58966666666666 2301.54 0.0 0.0 1.0
87.58973333333334 -130.76933333333332 2301.54 0.0 0.0 1.0
88.61536666666666 -124.0 2301.54 0.0 0.0 1.0
86.5641 -80.71793333333333 2301.54 0.0 0.0 1.0
86.76920000000001 -78.25643333333333 2301.54 0.0 0.0 1.0
86.35896666666667 -70.05129999999998 2301.54 0.0 0.0 1.0
86.35896666666667 -60.0 2301.54 0.0 0.0 1.0
86.56406666666668 -58.35896666666667 2301.54 0.0 0.0 1.0
87.38463333333334 -51.589733333333335 2301.54 0.0 0.0 1.0
85.94870000000002 -25.948733333333333 2301.54 0.0 0.0 1.0
86.97433333333333 -17.538466666666668 2301.54 0.0 0.0 1.0
86.97433333333333 -17.538466666666668 2301.54 0.0 0.0 1.0
81.39753333333334 -7.871513333333333 2235.6266666666666 -0.8346007847584612 -0.48684851617543856 0.2577208807573313
83.9995 -8.101526666666667 2244.0066666666667 0.8938769478736303 -0.4469366093702327 -0.03509514588605785
84.68193333333333 -7.837143333333333 2283.97 0.0 0.0 1.0
86.51403333333333 -0.5089046666666667 2283.97 0.0 0.0 1.0
86.31046666666667 3.3587786666666664 2283.97 0.0 0.0 1.0
81.58026666666666 28.34566666666667 2216.3 0.0 0.0 1.0
79.02319999999999 32.13676666666667 2191.94 0.0 0.0 1.0
79.02319999999999 32.13676666666667 2191.94 0.0 0.0 1.0
81.38566666666667 47.9552 2219.0466666666666 -0.9897025083678906 -0.07069388841517302 0.12446412764747908
85.6352 61.4843 2258.11 0.0 0.0 1.0
85.4492 58.61406666666667 2263.816666666667 -0.44660117839240626 0.8931286723798612 -0.05355895846168691
87.73536666666666 66.8702 2283.97 0.0 0.0 1.0
80.1961 92.84313333333334 2200.0 0.0 0.0 1.0
80.00070000000001 107.87233333333334 2194.6266666666666 -0.8856339826594266 0.4428925573691912 0.13963749992670388
68.19146666666667 134.3216666666667 2008.0666666666666 -0.8164292680749601 0.5762553101866675 0.03705492831260802
56.28953333333333 132.10999999999999 1913.8633333333335 0.8618732971412698 -0.5069877929029611 0.011738718934381512
63.14226666666667 -143.93233333333333 1970.5866666666668 -0.8512260164479887 -0.42561300822399667 0.30703067624035324
57.458333333333336 -130.93266666666668 1901.6966666666667 -0.987987424465246 4.997325082009402e-17 0.1545342974828876
58.0892 -118.81099999999999 1905.7300000000002 1.0 0.0 0.0
58.0892 -118.81099999999999 1905.7300000000002 1.0 0.0 0.0
58.0892 -118.81099999999999 1905.7300000000002 1.0 0.0 0.0
87.1795 -128.10233333333335 2301.54 0.0 0.0 1.0
57.77376666666667 -93.06400000000001 1903.7133333333334 -0.9879874244652462 3.488989358513611e-18 0.15453429748288766
57.77376666666667 -91.37086666666666 1903.7133333333334 -0.9879874244652462 -4.102486200357884e-16 0.15453429748288736
57.458333333333336 -83.8098 1901.6966666666667 -0.987987424465246 -2.54983566167214e-16 0.15453429748288788
86.7692 -78.25643333333333 2301.54 0.0 0.0 1.0
87.17946666666667 -76.82053333333333 2301.54 0.0 0.0 1.0
86.76923333333332 -48.71796666666666 2301.54 0.0 0.0 1.0
86.97436666666665 -45.02563333333333 2301.54 0.0 0.0 1.0
86.56410000000001 -40.102533333333334 2301.54 0.0 0.0 1.0
88.61540000000001 -33.5385 2301.54 0.0 0.0 1.0
78.42556666666667 -10.9225 2208.12 0.0 0.0 1.0
86.1069 -5.19084 2283.97 0.0 0.0 1.0
83.60676666666666 3.901889333333333 2246.813333333333 -0.8901803505994879 -0.4450870674598725 0.09734703789301405
