ply
format ascii 1.0
comment VCGLIB generated
element vertex 526
property float x
property float y
property float z
property float nx
property float ny
property float nz
element face 0
property list uchar int vertex_indices
end_header
154.71633333333332 -6.311780666666667 2886.186666666667 0.6167964073145552 0.3947448898177441 0.6809836003066699
92.12436666666667 -11.750156666666667 2075.4166666666665 -0.9201156072690095 0.3067100431307322 0.2435492120757658
152.9226666666667 12.006346666666667 2836.02 0.0 0.0 1.0
95.28186666666666 -1.8991933333333335 2241.22 -0.7771186271520749 0.6244788809322801 0.07818418384073245
160.7843333333333 19.439500000000002 2928.56 -0.449200689432387 0.8235449383380085 0.346399300159966
163.9226666666667 31.0351 2938.146666666667 0.8553907811256696 0.49525645279508057 0.1517486656615179
146.4176666666667 61.682233333333336 2796.26 0.0 0.0 1.0
152.12866666666665 65.3831 2805.013333333334 -0.935931140758649 0.350970284171401 0.02920204422399412
156.02566666666667 87.3077 2876.92 0.0 0.0 1.0
139.90166666666667 75.93956666666666 2683.4466666666667 0.7953941709733433 0.5964604434484289 0.10762458911852511
166.26666666666668 89.73333333333333 2992.0 0.0 0.0 1.0
147.923 133.25366666666667 2766.1133333333332 -0.7068998550157028 0.7068998550157037 0.024190699815336513
161.81233333333333 151.83399999999997 2909.5733333333333 0.9817160157501987 0.07010322661670297 0.17697231997542154
142.909 174.42433333333335 2720.0 0.0 0.0 1.0
148.02466666666666 178.1483333333333 2770.3700000000003 1.747010889838467e-28 3.9980259657683877e-28 1.0
124.63266666666665 169.83033333333333 2535.59 0.0 0.0 1.0
159.23066666666668 198.49266666666668 2928.56 -0.7695911029386292 -0.25654853938012345 0.5847327434132875
136.19833333333332 190.2793333333333 2643.9 0.6994065315813711 0.6995712140705649 0.14639200806448568
128.049 176.31433333333334 2560.92 -0.7946561073449002 0.3972989986045404 0.4589936565654038
81.56176666666666 -136.92766666666668 2030.8033333333333 -0.3633391719019894 0.8679202627739495 0.3386725020251501
68.01626666666665 -110.509 1763.7666666666667 -0.8136107955618531 -0.5765551606873952 -0.07497746348030448
55.53916666666667 -83.80226666666665 1708.1433333333334 -0.03401800507519672 -0.9983539653848945 0.04617504879218518
145.37266666666667 -117.10133333333334 2711.7933333333335 0.514879626567013 0.800923863548686 0.3056467486240594
103.59710000000001 -90.90643333333334 2289.85 -0.3413706313585872 0.9386693345210101 -0.04864126309753138
111.75666666666666 -88.05076666666668 2400.0333333333333 0.7819785202189755 0.37041087799846195 0.5013036758059429
164.631 -85.94853333333333 2962.4233333333336 -0.3827811029777156 0.8947340460279251 0.23006436943095296
155.83766666666668 -76.35773333333333 2919.02 0.0 0.0 1.0
147.79866666666666 -63.773599999999995 2822.64 0.0 0.0 1.0
136.8166666666667 -61.6216 2695.5 0.0 0.0 1.0
100.29193333333335 -39.697399999999995 2266.69 0.7963083113683314 -0.4480114130631753 0.4064220060612534
161.72266666666667 -34.6819 2982.0733333333337 0.8493525826297298 -0.42466295391052883 0.3134670093585482
67.54520000000001 -14.9683 1758.29 -0.7908358526120058 0.5272270229977267 0.3108220076577529
153.97433333333333 6.7948699999999995 2876.92 0.0 0.0 1.0
155.0 8.84615 2876.92 0.0 0.0 1.0
156.39266666666666 26.9243 2890.82 0.0 0.0 1.0
132.385 34.74263333333334 2539.186666666667 0.8677182480213648 -0.09641787897774094 0.48761525269844336
128.273 78.8555 2560.92 0.6971719637094888 -0.6974438716516574 -0.16590147351064005
136.325 85.94753333333334 2616.92 0.8245342645172761 -0.5495321633178872 0.13475031768466286
105.48633333333333 82.9477 2295.7033333333334 -0.857141413293799 -0.5143147945693258 0.028087180417778697
129.47366666666667 114.503 2624.56 0.0 0.0 1.0
147.923 133.25366666666667 2766.1133333333332 -0.706899855015703 0.7068998550157035 0.024190699815336655
163.184 151.64200000000002 2977.11 0.0 0.0 1.0
163.06666666666666 173.73333333333335 2992.0 0.0 0.0 1.0
155.917 178.2456666666667 2863.16 0.0 0.0 1.0
157.30766666666668 184.23066666666668 2876.92 0.0 0.0 1.0
130.387 172.97033333333334 2575.6199999999994 0.5910164581802537 -0.8058607169994376 0.03588942681655372
147.06233333333333 199.188 2791.9266666666667 -0.9540077195431106 -0.293563486538418 0.06074331587558962
118.13233333333334 162.04866666666666 2422.6966666666667 -0.7755272485077589 0.03610193274188781 0.6302809986619341
56.20763333333334 105.52906666666667 1704.8500000000001 0.5742630790553629 -0.10734694668085336 0.8116024575321049
104.7131 -160.10366666666667 2281.0766666666664 -0.4910172817425192 0.2209457164284338 0.8426654255528191
154.77700000000002 -207.51700000000002 2858.6133333333332 0.9474618924953158 0.3157518845037735 0.051153784820974046
125.63600000000001 -180.8456666666667 2528.4566666666665 -0.389740279485163 0.9092657075818968 0.14607664961389127
78.0734 -113.29666666666667 1881.8100000000002 -0.790775812782157 0.6046988323553019 0.09493648438220911
101.46406666666667 -108.09966666666666 2219.0666666666666 -0.6848493527556181 -0.6848493527556143 -0.24892313685237658
60.48726666666666 -83.75143333333334 1742.9366666666665 -0.024539500078967047 -0.3961904976208079 0.9178403469726372
153.46166666666667 -128.58966666666666 2876.92 0.0 0.0 1.0
145.37266666666667 -117.10133333333334 2711.7933333333335 0.514879626567013 0.800923863548686 0.3056467486240594
163.6 -110.0 2992.0 0.0 0.0 1.0
78.68316666666666 -68.7364 1951.3666666666666 0.9245088939107943 0.36977952737824543 -0.09244677502088143
155.80966666666666 -97.14273333333334 2849.52 0.0 0.0 1.0
97.78906666666666 -72.9249 2227.346666666667 -0.7458855192001224 0.6648110376643166 -0.04100093227303806
121.235 -77.87206666666667 2507.2766666666666 -0.49237118239031064 -0.6219429536439642 0.6088986624752835
136.8166666666667 -61.6216 2695.5 0.0 0.0 1.0
129.69166666666666 -39.58886666666667 2636.12 0.0 0.0 1.0
91.35393333333333 -19.40533333333333 2104.576666666667 -0.8514860783953907 0.26888992188185395 0.4501884807602357
164.93333333333334 -23.599999999999998 2992.0 0.0 0.0 1.0
166.32866666666666 3.5624066666666665 2957.513333333334 0.22043681865149214 -0.9552265233813283 0.19735728517495893
142.69966666666667 23.034633333333332 2796.3033333333333 -0.2825253299250667 0.8129271160484153 0.5092434996580109
162.231 40.79266666666666 2942.9633333333336 -0.9767644845113935 0.2123459619849519 0.02898851886310392
122.33566666666667 29.274266666666666 2479.5699999999997 -0.5981470073808272 -0.690134971612763 0.407349823270382
60.597833333333334 40.1506 1763.46 -0.34289055181988387 0.04472375591375551 0.9383101060574922
159.60266666666666 73.82136666666666 2952.646666666667 0.9721144660290747 -0.12148732819978461 0.20058487984861895
145.25333333333333 77.05073333333333 2757.6 0.0 0.0 1.0
142.88366666666667 87.44190000000002 2783.26 0.0 0.0 1.0
161.99333333333334 97.93776666666668 2982.0733333333337 0.9738259482824151 0.22471386401175164 0.03415701644995854
150.89766666666665 118.077 2876.92 0.0 0.0 1.0
161.19066666666666 145.03799999999998 2972.2000000000003 0.7244812769899017 -0.6439833573243551 0.2457891673372387
153.87566666666666 152.472 2863.16 0.0 0.0 1.0
71.919 98.81826666666666 1868.0566666666666 0.11423577904854151 -0.5711788952427074 0.8128375338371704
52.46016666666667 93.16816666666666 1639.5266666666666 -0.893472699367799 -0.4255891989048431 0.1434585977205706
76.15716666666667 117.75233333333334 1907.9166666666667 0.9936517154457882 0.039652652077038775 0.10528027153697807
150.25733333333335 203.93233333333333 2840.52 0.26606386523409997 -0.8644883267889792 0.4264621348517145
137.19933333333333 -197.18366666666668 2736.596666666667 -0.1202575475932384 -0.7214904235395504 0.6819015258727468
42.90436666666667 -91.65896666666667 1478.78 -0.7861043255944716 0.617661540537235 0.023112996837939832
161.188 -184.42233333333334 2962.3799999999997 -1.1269053842455984e-27 -4.829267831706201e-28 1.0
99.89926666666666 -96.58666666666666 2200.02 0.9834304693735327 -0.1788265506954291 -0.029758640327275054
164.908 -123.83833333333332 2972.2000000000003 -0.31616717205523326 0.9485015161657004 -0.019575319817676334
153.83633333333333 -117.61000000000001 2822.64 0.0 0.0 1.0
107.41833333333334 -90.48393333333333 2304.5466666666666 0.9908847903747032 0.12374024771881376 0.053251134246770054
149.46033333333332 -96.6348 2849.52 0.0 0.0 1.0
76.85913333333333 -50.69853333333333 1911.8333333333333 -0.7224536347068496 0.10317850203070425 0.6836775134649097
102.07333333333332 -59.96426666666667 2241.2833333333333 -0.9969125574290597 -0.05863601638429084 0.05222231728707951
131.05066666666667 -49.437466666666666 2597.986666666666 0.7902892762076947 0.3718858983177733 0.4869740635223817
138.50766666666667 -33.33363333333333 2740.773333333333 -0.7457567938069654 -0.39248105829007857 0.5383357905380761
161.72266666666667 -34.6819 2982.0733333333337 0.8493525826297299 -0.4246629539105293 0.31346700935854804
99.44256666666666 -2.1923666666666666 2331.433333333333 -0.2870575520883764 0.29631944029773977 0.9109296081973971
162.0 -3.3333333333333335 2992.0 0.0 0.0 1.0
158.7006666666667 4.315666666666666 2938.146666666667 -0.8364996890213325 -0.3718060805082474 0.40252764968919624
156.02 5.17413 2977.11 0.0 0.0 1.0
128.66133333333335 38.427933333333335 2605.5266666666666 -0.08854918475599609 0.8854282072086883 0.4562630072208973
151.42733333333334 48.61756666666667 2909.5733333333333 0.7162556680564354 -0.3582661607311961 0.5988515475908517
158.82466666666667 69.12456666666667 2942.963333333333 -0.9635038213786219 0.1204112365982119 0.23908475545229116
99.1838 77.83496666666666 2307.5066666666667 0.16060374569559424 -0.9865016345719388 0.03195249372799717
136.91166666666666 106.70233333333333 2699.5633333333335 -0.48841549042863075 -0.8683193062183996 0.08644010156031448
90.72683333333333 81.1228 2094.7566666666667 0.5027499096248182 0.7820531960602789 0.3682870170181676
147.79866666666666 110.31466666666667 2822.64 0.0 0.0 1.0
43.40526666666667 54.499500000000005 1501.03 0.9685003195680868 0.046336393714382695 0.24466317584397432
149.60433333333333 152.01266666666666 2845.02 -0.7070524009254168 0.706897752543762 0.01929947652611356
144.79099999999997 150.53966666666668 2757.6399999999994 -0.7518482775209867 0.3748732056243587 0.5423967618760668
80.4853 116.43133333333333 2061.1666666666665 -0.4545414858705008 -0.6643492969114628 0.5933228879083313
154.72866666666667 212.09033333333332 2886.186666666667 -0.9907867419641966 -7.75623628694034e-17 0.13543128127568121
154.72866666666667 212.09033333333332 2886.186666666667 -0.9907867419641966 -1.0525400866501254e-16 0.13543128127568121
81.87056666666668 -154.59633333333332 2127.1266666666666 0.12572533152956133 0.9842314954017978 0.12442469397560497
165.29866666666666 -205.3743333333333 2967.2899999999995 -0.760431609713083 0.15207096123946148 0.631362169991896
161.83666666666667 -201.545 2919.066666666667 -0.315290835203042 0.5989306116241795 0.7361207860782457
150.243 -180.94299999999998 2881.5533333333333 0.8120015530714454 0.5075339574080782 0.2882061066099332
49.54593333333333 -88.97743333333335 1648.51 -0.6330391799679166 -0.6330391799679179 0.44555896719861204
96.06036666666667 -113.106 2160.31 0.6916903077521447 -0.16298320704391725 0.7035630692293499
100.00526666666666 -104.354 2210.8866666666668 -0.9393069922587522 -0.34155017642858054 -0.03233962392207753
133.59433333333334 -114.33066666666667 2542.7833333333333 0.48931182855920885 -0.7562804667609607 0.4342968915705788
153.46166666666667 -128.58966666666666 2876.92 0.0 0.0 1.0
160.00400000000002 -127.86233333333332 2967.2900000000004 -0.9237625563187863 0.3695050225275119 0.10064182962528193
131.42366666666666 -107.39866666666667 2628.4133333333334 0.2833560497259278 -0.7557058732358 0.5904388048228492
95.4522 -92.2086 2127.0399999999995 -0.9313916119349104 -0.24510487472739192 0.2691342891609297
130.77599999999998 -99.79303333333333 2643.9 0.6685976788648955 -0.6683851932859638 0.325942291230455
108.20366666666666 -64.31146666666666 2301.56 0.22140798394959965 0.9597166922996924 0.17298085201753252
139.46366666666665 -34.981366666666666 2774.6666666666665 0.7171469148461835 -0.12365580488281865 0.6858640859859796
153.97433333333333 6.7948699999999995 2876.92 0.0 0.0 1.0
142.74933333333334 30.696933333333334 2766.1133333333332 -0.8996623600185096 -3.875879318637443e-17 0.43658634651798867
144.815 37.1605 2770.3700000000003 1.0 0.0 0.0
151.42733333333334 48.61756666666667 2909.5733333333333 0.7162556680564354 -0.3582661607311961 0.5988515475908517
144.41933333333333 44.3939 2774.6666666666665 0.995786779641609 1.2783076369343804e-16 0.0916989067055523
118.36066666666666 53.00546666666667 2452.46 0.0 0.0 1.0
154.31566666666666 72.56909999999999 2831.56 0.8126045345957215 -0.20316118008091297 0.5462594669775542
43.40526666666667 54.499500000000005 1501.03 0.9685003195680868 0.046336393714382806 0.24466317584397432
128.273 78.8555 2560.92 0.6971719637094886 -0.6974438716516574 -0.16590147351064002
153.47866666666667 96.73356666666666 2867.7466666666664 0.7949901308832729 -0.5963334630784652 -0.11125238249602347
142.38733333333334 92.15506666666666 2783.26 0.0 0.0 1.0
150.89766666666665 118.077 2876.92 0.0 0.0 1.0
141.96166666666667 111.28266666666666 2753.383333333333 -0.4235849824365972 0.8474573359603214 0.3199872284657978
66.85123333333333 85.83613333333334 1746.3099999999997 -0.6400404954625701 0.4266974750059786 0.6389659059695987
127.70766666666667 126.74933333333333 2616.92 0.24332263855059488 0.6994546473827371 0.6719801260628676
147.06233333333333 199.188 2791.9266666666667 -0.9540077195431106 -0.29356348653841796 0.060743315875589565
156.14633333333333 210.97866666666664 2881.5533333333333 0.2421022724631871 0.9685665035539566 0.05714383485052698
132.658 -166.08566666666664 2679.4166666666665 -0.7018909518908891 -0.6433592790154359 0.3056761844803093
155.686 -153.072 2933.33 0.0 0.0 1.0
36.61536666666667 -82.14163333333333 1547.5866666666668 0.6247513197375641 -0.7383462153554446 0.25402884630778244
123.05733333333335 -93.141 2496.81 0.9174768684134498 -0.3567455890014293 -0.17597948929995294
132.144 -82.86563333333334 2571.93 0.8934648392020719 0.12760198718749913 0.4306254915531791
162.8 -100.66666666666667 2992.0 0.0 0.0 1.0
66.64566666666667 -30.093366666666668 1772.1833333333334 0.9528228853134104 -0.03607432603416626 0.3013755003715606
162.0 -3.3333333333333335 2992.0 0.0 0.0 1.0
153.97433333333333 6.7948699999999995 2876.92 0.0 0.0 1.0
149.51433333333333 5.3074433333333335 2904.85 0.0 0.0 1.0
148.1593333333333 26.579633333333334 2827.1 -0.9537928707380198 0.23853905209175713 0.18269723686058603
147.547 31.8239 2822.64 0.0 0.0 1.0
105.04476666666666 38.137566666666665 2292.7433333333333 -0.9026647808901249 0.07234331872735728 0.42422015225127485
146.4176666666667 61.682233333333336 2796.26 0.0 0.0 1.0
142.64866666666668 74.4341 2707.73 -0.5907878343731381 -0.805550214724346 0.04537164658966991
128.273 78.8555 2560.92 0.6971719637094888 -0.6974438716516574 -0.16590147351064005
161.73333333333332 90.0 2992.0 0.0 0.0 1.0
165.94066666666666 93.33330000000001 2962.3799999999997 -4.10731841506578e-28 2.0641478596038426e-29 1.0
161.19466666666668 98.14766666666667 2972.2000000000003 -0.9584040018905414 -0.221155194035446 0.1804221419652784
148.80499999999998 107.29566666666666 2822.64 0.0 0.0 1.0
141.32066666666668 106.78933333333333 2757.6 0.0 0.0 1.0
31.69416666666667 82.39280000000001 1405.8066666666666 0.9072286119656289 -0.0333625975965914 0.4193127504769274
160.66666666666666 154.26666666666668 2992.0 0.0 0.0 1.0
149.60433333333333 152.01266666666666 2845.02 -0.7070524009254168 0.706897752543762 0.01929947652611356
161.46666666666667 173.46666666666667 2992.0 0.0 0.0 1.0
161.46666666666667 173.46666666666667 2992.0 0.0 0.0 1.0
117.98299999999999 163.94933333333336 2387.29 0.310772052662834 -0.9324874604886179 0.18408657559750807
147.06233333333333 199.188 2791.9266666666667 -0.9540077195431107 -0.29356348653841796 0.060743315875589676
153.38966666666667 -209.22266666666667 2854.066666666667 -0.5686709078038505 0.7961392709253906 0.2068227741520071
157.73333333333332 -206.79999999999998 2992.0 0.0 0.0 1.0
56.70543333333333 -107.2999 1659.17 0.937767925106562 0.13211333493301425 0.32115009788915033
45.09793333333332 -93.47823333333334 1600.16 -0.6778868356024431 -0.5870887431821835 0.44248869561342513
133.95100000000002 -172.18566666666666 2770.41 0.11562981609183669 -0.7323469627024469 0.6710422280684494
153.46166666666667 -128.58966666666666 2876.92 0.0 0.0 1.0
110.46833333333335 -86.79623333333332 2316.44 -0.856744097669633 0.5048942518365552 0.10522046174889817
155.87733333333333 -112.97933333333333 2890.82 0.0 0.0 1.0
155.87733333333333 -112.97933333333333 2890.82 0.0 0.0 1.0
76.91613333333333 -60.7285 1873.92 -0.5807691140978197 0.4244081987637913 0.6946833213285805
149.29766666666666 -88.21153333333332 2791.9266666666667 0.35030648433662526 -0.934098565678715 0.06888567796487943
109.92200000000001 -71.11496666666666 2322.4066666666668 -0.651216485931413 -0.751440774225106 -0.10608417074717179
100.29193333333335 -39.697399999999995 2266.69 0.7963083113683312 -0.44801141306317543 0.4064220060612532
71.77113333333334 -37.383766666666666 1828.13 -0.9486133555291905 -0.30602236085004425 0.08051718059777878
38.12766666666666 -12.975259333333334 1475.1166666666668 -0.9898190019414866 -0.09970491937383442 -0.10157397525063352
160.66666666666666 -20.4 2992.0 0.0 0.0 1.0
150.76966666666667 0.6259766666666667 2800.6366666666668 -0.570983791086439 0.8156225537412237 0.09347384738632623
147.22733333333335 21.9084 2809.4300000000003 0.989927014556463 -0.1290549305204812 0.0582179590820743
126.42199999999998 28.598033333333337 2597.986666666666 0.8152838327066163 -0.4693903459956328 0.3390943455932435
156.39266666666666 26.9243 2890.82 0.0 0.0 1.0
146.28933333333336 40.3774 2822.64 0.0 0.0 1.0
95.31866666666667 38.9335 2213.5933333333332 0.3217558719345359 0.777574798245387 0.5402319798098704
160.38833333333332 86.343 2904.85 0.0 0.0 1.0
85.47086666666667 68.04173333333334 2230.0933333333332 -0.3043618612046673 0.5853111201545825 0.7515149699556348
90.32453333333335 88.32716666666666 2165.5099999999998 -0.4047243723593904 -0.21501418632692706 0.8888009237711598
157.64333333333335 133.83566666666664 2919.066666666667 0.5490114057653442 -0.8235994378418571 -0.14237430360194
142.2826666666667 130.89466666666667 2778.963333333333 0.5196991485484258 -0.8445438540328378 0.12906770941409945
151.83399999999997 160.63766666666666 2863.16 0.0 0.0 1.0
53.37996666666667 86.12023333333333 1627.6133333333335 0.924154643972433 0.34765091823717564 -0.15835729561038392
37.148066666666665 81.53163333333335 1512.4899999999998 0.8933775412351866 0.03526701903542912 0.4479205355695666
142.83933333333334 176.667 2770.3700000000003 -3.53558681981027e-26 2.2500963983954516e-26 1.0
116.642 161.36166666666668 2356.0033333333336 -0.40054513606817643 0.9155377870920353 0.036798836649346994
136.19833333333332 190.2793333333333 2643.9 0.6994065315813713 0.6995712140705648 0.14639200806448574
123.80033333333334 -185.37266666666665 2553.6333333333337 0.28169104175626525 0.9577001080359291 -0.05882737510921132
42.5063 -96.17373333333332 1499.75 0.0 0.0 1.0
116.90533333333333 -149.487 2429.2899999999995 0.9043638306255865 -0.3723365104956111 0.2085463612920809
161.188 -184.42233333333334 2962.3799999999997 -1.1269053842455982e-27 -4.8292678317061985e-28 1.0
144.22966666666667 -142.03099999999998 2900.1733333333336 -0.2523684686548061 -0.9373420739406231 0.24020822727275515
146.519 -132.14266666666666 2854.066666666667 -0.7837180556649116 0.6095330889399113 -0.11939607494461812
123.34533333333333 -94.14936666666667 2500.2900000000004 -0.9165146883122705 0.35862039609826224 0.17717854726288781
148.97333333333333 -95.72946666666667 2778.963333333333 0.8761268525331577 -0.3982492081939754 0.27166027763221845
155.83766666666668 -76.35773333333333 2919.02 0.0 0.0 1.0
115.056 -54.62853333333334 2496.81 0.0808895616542182 -0.9706990073257998 0.2262748682290978
121.921 -46.4407 2535.59 0.0 0.0 1.0
147.63333333333335 -53.88033333333333 2805.013333333334 0.0786373102009041 0.9437314793648597 0.32122744014199706
36.06636666666666 -31.452733333333338 1473.9099999999999 -0.9393932906441079 0.17396155659514892 0.2954278631406109
70.70746666666668 -33.97206666666667 1911.8333333333333 -0.1927793050231977 -0.5464464290734321 0.8150045642250523
61.42776666666666 -17.602143333333334 1727.8633333333335 0.9546998383823497 3.6531306726476114e-17 0.2975705270901592
131.041 -32.2172 2707.69 0.0 0.0 1.0
160.66666666666666 -20.400000000000002 2992.0 0.0 0.0 1.0
160.66666666666666 -20.400000000000002 2992.0 0.0 0.0 1.0
40.5892 -2.9694766666666665 1542.4399999999998 0.8708803604000827 0.4543923681433691 0.18733652511585455
55.203100000000006 -2.8599433333333333 1731.1866666666665 0.09233245998848578 0.9748022020455033 0.20306497413318794
55.12206666666666 -0.82943 1706.5 0.36090303447932015 0.9303375864051412 -0.06496903128010349
162.0 -3.3333333333333335 2992.0 0.0 0.0 1.0
44.9266 -3.484603333333333 1521.5566666666666 0.9004352319197082 0.40555127797798446 0.15730401790203768
149.51433333333333 5.3074433333333335 2904.85 0.0 0.0 1.0
148.1593333333333 26.579633333333334 2827.1 -0.9537928707380197 0.23853905209175716 0.18269723686058603
141.791 43.708866666666665 2778.963333333333 0.8560371412402185 -0.513646824455062 0.058028894048610405
146.00266666666667 47.44223333333334 2854.066666666667 0.8916359080583987 -0.0990179220210246 0.44179277787160937
59.863166666666665 36.966566666666665 1889.6899999999998 0.2965563923327467 -0.8896626486578111 0.3472098468502213
156.2206666666667 68.8798 2933.376666666667 -0.9636597342147946 0.08767280165048345 0.2523358803337855
162.375 80.00776666666667 2957.513333333334 0.6892901175727733 -0.6892901175727734 0.2230656128430041
138.73666666666665 76.75996666666667 2695.5333333333333 0.554315702493626 0.8315372949764437 -0.03577469821335481
154.62766666666667 93.3076 2872.3333333333335 2.5508767298216626e-17 0.9573366085259495 0.28897511653433583
103.49066666666666 81.23443333333333 2281.1199999999994 -0.8933376144475205 -0.3654570602456539 0.26151298960055064
107.82656666666666 79.55376666666666 2469.3366666666666 0.45551765546449635 0.2699300563432399 0.8483168218552923
106.86546666666668 90.5979 2422.6966666666667 0.11018730888105853 -0.793266802182397 0.5988209561437076
150.08566666666664 143.84933333333333 2854.066666666667 -0.9124904474828637 -0.10729794251979602 0.39477630980536527
160.13333333333333 151.06666666666666 2992.0 0.0 0.0 1.0
69.27333333333333 93.71756666666668 1899.6933333333334 -0.1482760543792527 0.9885060666581019 0.029495217881019522
160.66666666666666 154.26666666666668 2992.0 0.0 0.0 1.0
122.28733333333332 141.14333333333335 2503.77 0.0 0.0 1.0
161.46666666666667 173.4666666666667 2992.0 0.0 0.0 1.0
85.62169999999999 136.79733333333334 2216.32 -0.1528723262980653 -0.9499089265878391 0.27258591864026455
148.33333333333334 175.76933333333332 2876.92 0.0 0.0 1.0
129.27533333333335 182.145 2601.74 0.0 0.0 1.0
135.99133333333336 194.03233333333333 2736.596666666667 0.27157081966676316 -0.9309330893523005 0.2441574759340867
137.10500000000002 -192.14466666666667 2744.99 0.5082452408518441 -0.5588163553660708 0.655294633067319
54.917899999999996 -113.43066666666665 1732.82 -0.26384309557871755 0.13192154778935858 0.9555017143596863
154.47133333333332 -190.2363333333333 2886.186666666667 0.8048952420527532 0.5174060903538455 0.29057630148652513
118.80900000000001 -143.359 2439.14 0.7204662974087136 -0.6003987962072093 0.34705849623818924
159.20533333333333 -179.16466666666668 2967.2899999999995 0.6485701882839893 -0.6485701882839843 0.3983885311332993
163.86666666666667 -142.79999999999998 2992.0 0.0 0.0 1.0
163.86666666666667 -142.79999999999998 2992.0 0.0 0.0 1.0
159.99633333333335 -130.34333333333333 2957.513333333334 0.8917536269592488 -0.35670145078369697 0.27845923187035954
109.50600000000001 -62.41243333333333 2307.46 0.6604637872393354 -0.37740351461933636 0.6491179961289366
155.83766666666668 -76.35773333333333 2919.02 0.0 0.0 1.0
114.19733333333333 -52.47560000000001 2500.2900000000004 -0.13768689306607193 -0.9638288186285437 0.2282023835522262
98.36353333333334 -51.618066666666664 2181.3133333333335 0.7685279614065769 0.5692899371638961 0.2920166775719812
76.73203333333333 -41.100366666666666 1983.6533333333334 -0.20528268477858824 -0.6500618351321965 0.731627384557642
143.77766666666665 -36.066900000000004 2800.6366666666668 -0.3394315912273287 -0.9257262735100843 0.16678447592631793
121.86099999999999 -31.483000000000004 2532.023333333333 0.343934521071205 0.9171615412065238 0.2013051230028553
41.623866666666665 -1.2764999999999997 1557.0533333333333 0.4419214106116853 -0.7584145495937564 0.47907498140424526
158.67466666666667 10.176176666666667 2967.2900000000004 0.9265471830596089 0.2647016656546159 0.2672888807338898
124.94266666666668 57.12643333333333 2579.31 0.0 0.0 1.0
125.69566666666667 61.123533333333334 2583.0333333333333 0.9745570924564719 1.5280501497637747e-17 0.2241394064924497
141.32066666666668 106.78933333333333 2757.6 0.0 0.0 1.0
153.07199999999997 121.17666666666666 2933.33 0.0 0.0 1.0
142.778 114.93400000000001 2800.6366666666668 -0.8582154312400261 -0.42903597047445013 -0.2817701361403346
124.236 114.13666666666666 2605.5266666666666 0.446275240510208 0.892678794775597 0.0629521966697252
147.044 116.85533333333335 2822.64 0.0 0.0 1.0
159.06666666666666 154.0 2992.0 0.0 0.0 1.0
124.173 140.10500000000002 2521.4166666666665 -0.3407248837625802 0.9245194662327668 0.17079317943541
68.8696 100.94866666666667 1848.8433333333335 0.890290523678271 0.4451653128706633 -0.09597201501184861
51.2691 96.91493333333334 1648.51 -0.6721332695248714 -0.672202399124321 0.310452577069854
143.17766666666668 182.55466666666666 2796.26 0.0 0.0 1.0
31.69416666666667 82.39280000000001 1405.8066666666666 0.9072286119656291 -0.03336259759659151 0.41931275047692745
149.85366666666667 199.15466666666666 2919.02 0.0 0.0 1.0
124.627 170.045 2472.7566666666667 -0.19540714011196758 -0.838070895642845 0.509365510679376
135.47400000000002 -203.7776666666667 2783.2966666666666 -0.17586238126958054 -0.9490521511480161 0.26148123690910585
156.93333333333334 -198.53333333333333 2992.0 0.0 0.0 1.0
158.439 -167.66466666666668 2919.066666666667 0.0926672697201699 -0.9731228965271497 0.2108188923631367
134.84466666666665 -140.49433333333334 2753.383333333333 0.7268004739891333 -0.684064559729522 -0.06177984405311014
30.961133333333333 -71.30069999999999 1435.03 -0.6722292081905281 0.6722292081905301 0.3101866910605103
140.52466666666666 -118.17866666666667 2800.6366666666668 0.8060502593311432 -0.2303880756513942 0.5451644834633345
145.516 -82.96233333333333 2876.9666666666667 -0.5072798653960142 0.8118860743154489 0.28897775086752053
91.79203333333334 -47.3254 2189.3133333333335 0.72711839875141 0.609154426411153 0.31659077526182716
138.59 -63.19053333333333 2732.4566666666665 -0.8577895795407185 0.2863777624597282 0.4268311310107508
73.78903333333334 -45.87479999999999 1909.79 -0.9357418810019651 -0.07964059013434945 0.3435760593259616
135.4523333333333 -50.77349999999999 2770.41 -0.1849128166604047 0.7090087049457533 0.6805247288275873
141.643 -42.6432 2840.52 0.6418520220386892 -0.45847004861666524 0.6146797510299803
43.0331 -23.487966666666665 1592.9433333333334 -0.6612239999433899 0.7405639000694895 0.11978285274917745
156.93333333333334 -32.13333333333333 2992.0 0.0 0.0 1.0
93.23676666666667 5.700483333333334 2168.12 0.0 0.0 1.0
100.36099999999999 -0.7535566666666665 2419.4133333333334 0.4727745491791537 0.059099213451891425 0.8791993565840547
112.32066666666667 11.147336666666666 2476.15 0.6051381448994801 -0.30249527916114066 0.7364132207346901
146.00266666666667 47.44223333333334 2854.066666666667 0.8916359080583988 -0.09901792202102465 0.44179277787160914
146.4176666666667 61.682233333333336 2796.26 0.0 0.0 1.0
156.35000000000002 72.94630000000001 2919.066666666667 0.352327286833122 0.7633887511497371 0.5413899681106548
147.79866666666666 110.31466666666665 2822.64 0.0 0.0 1.0
141.32066666666668 106.78933333333333 2757.6 0.0 0.0 1.0
63.995466666666665 80.77239999999999 1751.4399999999998 -0.5730525837579888 0.8022791472535233 0.1672091687990015
153.072 121.17666666666668 2933.33 0.0 0.0 1.0
129.71466666666666 128.867 2675.4233333333336 0.7890866279273451 0.31563465117093814 0.5269886721803911
163.44933333333333 142.88566666666668 2977.11 0.0 0.0 1.0
149.46033333333332 146.92066666666668 2849.52 0.0 0.0 1.0
158.53333333333333 156.13333333333333 2992.0 0.0 0.0 1.0
156.91466666666668 154.48533333333333 2890.8633333333332 -0.0723204928018491 -0.8690938077388783 0.4893318911238418
77.52789999999999 99.64049999999999 1932.4333333333332 -0.7624756499192786 -0.11707546880898578 0.6363365602284139
156.53733333333332 176.63666666666666 2987.036666666667 0.6974191567710725 0.6974191567710675 0.16496375219259393
148.33333333333334 175.76933333333332 2876.92 0.0 0.0 1.0
154.428 188.524 2977.11 0.0 0.0 1.0
131.44466666666668 184.46566666666664 2703.626666666667 -0.5963927736687062 -0.695791569280159 0.40023711926107125
133.112 -203.16966666666667 2791.9266666666667 0.05213465347039071 -0.9640728967947033 0.26047154849117676
156.93333333333334 -198.53333333333333 2992.0 0.0 0.0 1.0
118.50033333333334 -155.384 2406.44 0.16804498255479408 -0.8819910519620354 0.4402870292173744
142.55133333333333 -153.51366666666667 2736.596666666667 -0.3933902508073756 -0.565452214227231 0.7249192396365487
121.37266666666665 -129.222 2528.4566666666665 -0.6977678179127413 0.6343002139270071 0.3328412698230864
117.64566666666667 -114.33633333333334 2493.3633333333332 0.7845798780263801 0.19508823386641735 0.5885363166389926
109.04833333333333 -100.2971 2422.6966666666667 -0.49688332323261647 0.8583294199628093 0.12797488003361657
127.31566666666667 -95.69323333333334 2647.79 0.0 0.0 1.0
122.17033333333332 -80.10226666666667 2432.5466666666666 -0.19061352368484122 -0.953078545662149 0.23517604126902797
105.90513333333332 -83.19406666666667 2390.42 -0.376627394407818 -0.17840244998265053 0.9090238564645956
54.13303333333332 -40.566766666666666 1682.4766666666667 -0.2441591401167268 0.5397217093320744 0.8056592274486306
142.53233333333336 -51.30096666666666 2800.6366666666668 -0.5942955585316422 -0.7924823965974819 -0.13705633948371257
46.0958 -20.199133333333332 1601.5 0.46448743021431294 0.8824548601237492 0.07432931465362715
117.37766666666668 -14.093133333333334 2489.883333333333 0.4224513565638398 -0.7296536187306663 0.5377178144813644
156.02 5.17413 2977.11 0.0 0.0 1.0
128.66966666666667 6.8161466666666675 2683.41 0.0 0.0 1.0
83.70956666666666 22.287033333333337 2026.1866666666665 0.3373715647687053 0.4428011506751651 0.8307271322439547
142.84233333333333 24.385899999999996 2749.1666666666665 0.6125672001870517 0.7875881035572198 -0.06683116331576774
140.41533333333334 100.54699999999998 2728.28 2.2748442254615634e-16 0.9997637888239161 0.02173399540921645
145.68633333333332 108.13233333333334 2818.2233333333334 -0.8109057681038205 -0.5406635410568543 0.22386328557361984
47.95426666666666 67.22796666666666 1637.9566666666667 0.7609235269057809 0.634105349988438 0.13749833205282136
152.80466666666666 116.726 2881.5533333333333 0.9270487238226798 -0.23172451442211833 0.29476162076256524
63.8288 81.9817 1770.4533333333336 0.7484486535187441 -0.6548592705517403 0.10480433587605623
152.67966666666666 165.109 2928.56 -0.6719256625854173 -0.6719256625854174 0.3114992903977405
102.80380000000001 136.55133333333333 2380.9066666666663 -0.03698351264517576 0.9992863834281136 0.007677479246785623
153.10999999999999 173.65233333333333 2863.16 0.0 0.0 1.0
126.31133333333332 170.68566666666666 2579.3433333333332 0.7570710573217427 -0.631103945129688 0.16897107624526175
123.26266666666668 170.61633333333333 2560.92 -0.4093410046763349 0.900574155359864 0.14630834763757153
153.811 198.14700000000002 2962.4233333333336 -0.9034451603819117 0.2872535823565335 0.31823296750311736
125.63600000000001 -180.8456666666667 2528.4566666666665 -0.389740279485163 0.9092657075818968 0.14607664961389127
129.48966666666666 -168.704 2675.423333333333 -0.05876505082076844 -0.9980195973658594 0.022439966036534864
108.81133333333332 -138.96633333333332 2301.56 0.8690308399188212 0.45745846778508226 0.18845994142446515
130.52166666666668 -137.29533333333333 2667.4733333333334 -0.9812631406112459 -0.13087782601581788 0.14139888095429637
72.5288 -102.86013333333334 1934.5166666666664 -0.7565428205553519 -0.0990376272556201 0.6464011982149549
136.54966666666667 -131.05366666666666 2740.773333333333 0.9987112086649333 -0.04993896226991398 0.009056585141893643
151.469 -129.04333333333332 2858.6133333333332 -0.19600283324836876 0.9798435063957418 -0.038595237176487045
140.52466666666666 -118.17866666666667 2800.6366666666668 0.8060502593311429 -0.23038807565139446 0.5451644834633346
134.725 -95.64173333333333 2699.5633333333335 0.4654844990557093 0.6516731317948867 0.5988708629040984
125.23366666666668 -72.62273333333333 2583.0333333333333 0.9559577415258607 0.28679217394451 0.062410298677039955
162.79999999999998 -82.0 2992.0 0.0 0.0 1.0
130.34433333333334 -57.52376666666667 2683.4466666666667 -0.6201564909862702 0.7751444958402672 0.12065213324319589
131.27266666666665 -55.1515 2720.0 0.0 0.0 1.0
129.69166666666666 -39.58886666666667 2636.12 0.0 0.0 1.0
124.63766666666668 -49.50723333333334 2601.74 0.0 0.0 1.0
153.69466666666665 -40.85386666666667 2947.78 0.0 0.0 1.0
153.73333333333332 -39.86666666666667 2992.0 0.0 0.0 1.0
91.35393333333333 -19.40533333333333 2104.576666666667 -0.8514860783953907 0.26888992188185395 0.4501884807602357
152.408 -38.109433333333335 2938.146666666667 -0.9739338623862989 0.12177083672676063 0.19137579528292087
91.54933333333334 -11.924883333333332 2107.04 0.0 0.0 1.0
37.72436666666666 -3.3349926666666665 1480.0533333333333 0.9892455273617484 0.13988694268901147 -0.04271919779089103
157.12433333333334 11.596376666666666 2928.56 0.7268335955300285 0.3230618658709925 0.6060890654259025
140.594 27.155199999999997 2757.6399999999994 -0.528785037615183 -0.845943491808158 0.06903616922838635
133.861 35.4466 2715.896666666667 -0.8702219467114953 0.19330879390703845 0.4531506081424382
97.95006666666666 54.9373 2412.9266666666667 0.16322436490685283 0.91988483185004 0.3566086129540037
134.09533333333334 68.59576666666666 2667.4733333333334 -0.552312279667107 0.8284413563613355 -0.0929304298877092
159.06666666666666 84.13333333333333 2992.0 0.0 0.0 1.0
88.00363333333333 61.714133333333336 2160.31 -0.6778739789520262 0.677975314847092 0.28431732468798754
88.00363333333333 61.714133333333336 2160.31 -0.6778739789520262 0.677975314847092 0.28431732468798754
147.26066666666668 86.55086666666666 2886.186666666667 0.7026222994636812 -0.7026677501590336 -0.11216031910979503
142.88366666666667 87.44189999999999 2783.26 0.0 0.0 1.0
142.38733333333334 92.15506666666666 2783.26 0.0 0.0 1.0
140.41533333333334 100.54699999999998 2728.28 1.0833945623760696e-15 0.9997637888239161 0.021733995409217163
129.025 110.26799999999999 2663.5166666666664 -0.7386113239066002 0.6461713058680187 0.19213525358392367
129.47366666666667 114.50299999999999 2624.56 0.0 0.0 1.0
156.98866666666666 129.18066666666667 2942.963333333333 -0.6608169856682132 -0.7208773991291764 0.20894182653822785
158.0 154.79999999999998 2992.0 0.0 0.0 1.0
157.73333333333332 156.13333333333333 2992.0 0.0 0.0 1.0
132.96966666666665 164.485 2720.0 0.0 0.0 1.0
51.15806666666666 89.98133333333332 1614.4399999999998 -0.960938672037952 -0.2750747059575966 0.03050860082466857
156.93333333333334 -203.6 2992.0 0.0 0.0 1.0
139.932 -168.19866666666667 2831.56 0.6885630828265579 -0.6197340155995319 0.37657752306433007
136.54966666666667 -131.05366666666666 2740.773333333333 0.9987112086649333 -0.049938962269914094 0.009056585141893532
131.42366666666666 -107.39866666666667 2628.4133333333334 0.28335604972592765 -0.7557058732357999 0.590438804822849
93.46856666666667 -86.48693333333334 2275.31 0.7873226692014763 0.19696900938308487 0.5842313102736868
73.77796666666667 -58.81843333333334 1961.9833333333336 0.41926752785611926 -0.2671316629118 0.8676724121207235
135.186 -40.77869999999999 2732.4566666666665 -0.7545726936108788 0.5653151195062107 0.3332249476172239
148.95266666666666 -16.380979999999997 2849.52 0.0 0.0 1.0
116.724 -16.1849 2472.7566666666667 -0.6083293063962227 -0.24369548809746483 0.7553462544160982
69.1373 -17.13932 2012.5566666666666 0.3863643362289716 0.05681822269900689 0.9205945303224825
68.42989999999999 -2.0825546666666668 1868.0566666666666 3.4686587488308835e-18 0.9457726698619878 0.3248292735301538
128.66966666666667 6.8161466666666675 2683.41 0.0 0.0 1.0
97.78359999999999 6.499866666666667 2328.4266666666667 -0.24792399908034563 0.3105010403807375 0.9176724876569464
115.89666666666666 12.88348 2557.2933333333335 0.5873184083595984 -0.7927922153654123 0.1629036232192198
129.593 42.8356 2707.69 0.0 0.0 1.0
145.57633333333334 69.91716666666666 2867.7466666666664 -0.7239584004404961 0.6096612294605602 0.322796251100096
138.86299999999997 75.82183333333333 2757.6 0.0 0.0 1.0
103.49066666666666 81.23443333333333 2281.12 -0.8933376144475206 -0.365457060245654 0.2615129896005506
129.025 110.26799999999999 2663.5166666666664 -0.7386113239066002 0.6461713058680187 0.19213525358392367
139.85266666666666 121.29766666666667 2791.9266666666667 -0.8690096405237155 -0.4344321727413331 0.23683524223410501
120.67699999999998 117.55966666666666 2500.2900000000004 0.6985136943314845 -0.6985136943314837 0.15542598773295238
75.10863333333333 98.67706666666668 1920.0566666666666 0.9298367895589711 -0.1887411988278574 0.31588020616633933
132.72733333333335 159.63633333333334 2720.0 0.0 0.0 1.0
102.80380000000001 136.55133333333333 2380.9066666666663 -0.036983512645175756 0.9992863834281136 0.0076774792467856215
158.0 175.6 2992.0 0.0 0.0 1.0
132.96966666666665 164.485 2720.0 0.0 0.0 1.0
149.85366666666664 199.15466666666669 2919.02 0.0 0.0 1.0
141.80100000000002 199.81033333333335 2836.02 0.0 0.0 1.0
154.26666666666668 -206.26666666666665 2992.0 0.0 0.0 1.0
93.3747 -140.31266666666667 2097.22 -0.4864640678775716 0.3995806226743883 0.776973639608934
144.69266666666667 -172.47833333333332 2886.186666666667 -0.3146940271181078 0.9440820813543197 0.09837018329699035
126.57766666666667 -143.05200000000002 2659.56 0.0 0.0 1.0
118.211 -132.1786666666667 2590.48 0.0 0.0 1.0
137.62 -134.93033333333332 2744.99 -0.902748027479177 0.38676350883237576 0.1883082237134742
127.5 -136.78566666666666 2671.43 0.0 0.0 1.0
80.24393333333332 -51.649566666666665 1928.28 0.05323997863823017 0.9746513889244675 0.21730203575256132
134.78633333333335 -64.96963333333332 2787.5933333333337 -0.417255403034419 0.8941358846818621 0.1625390671893033
154.89666666666665 -61.62676666666666 2863.16 0.0 0.0 1.0
149.85833333333332 -51.184066666666666 2952.646666666667 0.844388799017844 -0.08045101929415943 0.5296557274189845
149.18866666666668 -52.23083333333333 2923.7899999999995 -0.9749566153621606 0.2166616521927777 -0.05017296713027549
127.24933333333333 -39.28423333333333 2711.7933333333335 0.4882743027050624 0.6658453159769177 0.5641260679223072
147.843 -39.085 2933.33 0.0 0.0 1.0
132.477 -21.896033333333335 2744.9499999999994 6.0646618803352945e-28 -7.799095919608343e-29 1.0
36.612966666666665 0.6038600000000001 1499.756666666667 0.2850704167398801 0.9396553278533993 0.18916321612954098
111.18466666666666 8.925633333333332 2472.73 0.0 0.0 1.0
130.965 32.309333333333335 2715.896666666667 -0.6794906236176467 0.15094024394470465 0.7179899269304651
104.89410000000002 32.044333333333334 2281.1199999999994 0.8255930116394802 -0.4253340305040271 0.37079258572314083
123.68466666666667 66.51686666666667 2586.7566666666667 0.9270708883779021 0.2727304314551338 0.25721135216102714
30.80496666666667 35.02146666666667 1444.36 0.63326805205878 -0.7645176370664105 0.12035097363989433
47.95426666666666 67.22796666666666 1637.9566666666667 0.7609235269057807 0.6341053499884383 0.13749833205282103
158.0 175.6 2992.0 0.0 0.0 1.0
124.656 167.188 2643.9 -0.4061161102934653 0.9137612481603011 0.010492202849483882
111.698 160.736 2412.9266666666667 0.771104403964816 -0.5608233629446986 0.30145506093191543
129.12933333333334 181.50166666666664 2695.5 0.0 0.0 1.0
141.043 195.26066666666668 2836.02 0.0 0.0 1.0
134.45533333333333 -180.88566666666668 2707.73 -0.5266935449622414 0.5256688845739514 0.6680315362959185
148.95466666666667 -175.53233333333333 2881.5533333333333 0.8451337541402536 0.5282429290381023 -0.08190449031675688
140.63766666666666 -161.64733333333334 2840.52 -0.6453408462455233 -0.7530158742297707 0.12846122109448518
146.519 -132.14266666666666 2854.066666666667 -0.7837180556649117 0.6095330889399113 -0.11939607494461814
154.10733333333334 -139.1386666666667 2942.963333333333 -0.6145561381046538 0.7821945771608838 -0.10243240004022096
155.271 -122.03633333333335 2947.78 0.0 0.0 1.0
130.77599999999998 -99.79303333333333 2643.9 0.6685976788648956 -0.6683851932859638 0.325942291230455
149.817 -101.1169 2854.066666666667 0.8041167637782419 0.26812102306000146 0.5305726596839168
137.326 -98.6512 2827.1 0.5738330351369906 0.8033388781908248 0.1592554381255971
160.4 -104.39999999999999 2992.0 0.0 0.0 1.0
149.46033333333335 -96.6348 2849.52 0.0 0.0 1.0
123.54 -64.0708 2647.79 0.0 0.0 1.0
142.53233333333336 -51.30096666666666 2800.6366666666668 -0.5942955585316433 -0.7924823965974811 -0.1370563394837118
158.8 -21.733333333333334 2992.0 0.0 0.0 1.0
90.55130000000001 -14.065453333333332 2210.8866666666668 -0.9417759096314559 0.3354238512843232 0.023430237460081823
76.8695 -3.76725 2047.0466666666664 0.2723762039129802 0.9533809996610048 0.1299071708079969
148.726 16.325599999999998 2840.52 0.8249308457036998 0.21705994308994875 0.5218947028974016
104.283 22.591700000000003 2359.013333333333 0.9877212906958153 0.047040036069243236 0.1489761286676386
142.9283333333333 65.66976666666667 2796.26 0.0 0.0 1.0
106.15626666666668 85.712 2412.9266666666667 -0.3937624882086909 -0.590829803735937 0.7041812592628794
153.07199999999997 121.17666666666666 2933.33 0.0 0.0 1.0
136.56633333333332 146.62033333333335 2753.383333333333 -0.5295652142912151 0.7564631066490617 0.38382841490899267
125.76233333333333 142.71433333333334 2640.0099999999998 0.9686962333176717 -0.06920661172364781 0.238407324656536
137.983 169.75966666666667 2774.6666666666665 0.8072062434186692 -0.5870770984903079 0.06130710410810281
127.01466666666666 168.749 2683.4466666666667 -0.6420462772990069 -0.48155505348477096 0.5965578834193427
119.13433333333334 167.96533333333335 2590.48 0.0 0.0 1.0
129.12933333333334 181.50166666666664 2695.5 0.0 0.0 1.0
73.38343333333334 143.12599999999998 2023.9166666666667 0.42242405578821285 -0.844844866404299 0.32832159356603213
119.52533333333334 -187.66066666666666 2663.5166666666664 0.6094651241474086 0.7313324385730022 0.30611293134862755
156.93333333333334 -198.53333333333333 2992.0 0.0 0.0 1.0
137.75666666666666 -164.42333333333332 2836.02 0.0 0.0 1.0
119.23633333333333 -142.56466666666668 2628.4133333333334 0.5684331313260526 0.40600713444649683 0.7155710880055196
145.17466666666667 -149.02333333333334 2895.4966666666664 -0.7640829980153787 0.5518224656119111 0.3341693262252271
88.00083333333333 -113.19299999999998 2165.5099999999998 0.3884189353568021 -0.43698910044864264 0.8112775460626126
103.1518 -101.75076666666666 2416.1566666666663 -0.32231712910378535 0.9210202863572888 0.21870825408436498
155.271 -122.03633333333335 2947.78 0.0 0.0 1.0
127.63133333333333 -101.23016666666666 2720.036666666667 -0.6043036569338898 0.7464005577398889 0.2787531123089217
47.51743333333334 -52.310766666666666 1651.5266666666666 0.603379685230104 0.5810358573125766 0.5461961991525205
124.484 -85.54573333333333 2647.79 0.0 0.0 1.0
125.83166666666666 -74.81763333333333 2643.9 0.967200937072373 0.24181090741902056 0.0777806684177564
126.24633333333333 -74.5946 2695.5 0.0 0.0 1.0
119.07 -63.73833333333332 2586.7566666666667 -0.5761466147898422 -0.7977099659701435 0.17808393655273222
128.05466666666666 -54.487500000000004 2675.423333333333 -0.6389502539966865 -0.7188651598524225 0.27381646201045096
27.7902 -16.863513333333334 1409.13 -0.2715706502256753 -0.7496779054504114 0.6035167106348326
122.31099999999999 12.918509999999998 2659.56 0.0 0.0 1.0
125.43766666666666 30.79896666666667 2647.8233333333333 -0.6324438896011928 -0.7378023080024141 0.23592897408420443
126.34100000000001 35.6741 2659.56 0.0 0.0 1.0
107.77666666666669 32.17373333333333 2352.83 0.6622229260997594 0.03153823920072359 0.7486428625292507
129.593 42.8356 2707.69 0.0 0.0 1.0
80.64489999999999 41.67293333333333 2082.6733333333336 0.9564912000584002 0.28695326291165113 0.05274854609558828
121.08466666666668 52.83176666666666 2583.0333333333333 0.7382098079310222 -0.46981057086432965 0.48407055991722553
126.57800000000002 69.09626666666666 2659.56 0.0 0.0 1.0
159.06666666666666 84.13333333333333 2992.0 0.0 0.0 1.0
131.19766666666666 87.91103333333332 2728.28 -0.7530447516639274 0.11154578455075405 0.648445171113465
126.24900000000001 83.0931 2667.4733333333334 -0.8279500325838504 -8.349144807623334e-16 0.5608018754822431
126.24900000000001 83.0931 2667.4733333333334 -0.8279500325838504 -8.349144807623334e-16 0.5608018754822431
83.11956666666667 73.57093333333334 2119.523333333333 -0.8387256490569939 0.5271286218079776 0.1366554122043705
129.47366666666667 114.50299999999999 2624.56 0.0 0.0 1.0
128.307 137.38866666666664 2715.896666666667 -0.6732258726277547 0.10099545232545575 0.7325072307043631
121.93799999999999 139.677 2636.12 0.0 0.0 1.0
133.96233333333333 165.91166666666666 2822.64 0.0 0.0 1.0
112.46866666666666 152.30100000000002 2503.77 0.0 0.0 1.0
140.60299999999998 196.91099999999997 2827.1 -0.8955291921279899 -0.3980569244750302 0.19894258197799192
113.22933333333333 169.47933333333333 2337.5 0.0 0.0 1.0
93.52336666666667 -153.41166666666666 2219.0666666666666 -0.2526208893009587 0.6736108762147486 0.6945725834885735
131.06133333333332 -162.75066666666666 2683.41 0.0 0.0 1.0
152.404 -145.19733333333332 2938.146666666667 -0.5090489489397525 -0.8000135394266248 0.3175649607834869
130.54533333333333 -62.42423333333334 2720.0 0.0 0.0 1.0
120.472 -46.13570000000001 2647.79 0.0 0.0 1.0
121.91833333333334 -32.856633333333335 2605.5266666666666 -0.8541070432550851 -0.4270617068063985 0.2968492163399827
146.06666666666666 2.955561 2890.8633333333332 0.8950223824499517 -0.2682257761857455 0.3563563776659074
128.07133333333334 23.3815 2663.5166666666664 -0.9998375236107071 1.1559744777697829e-17 0.01802571441050481
137.92233333333334 37.08526666666666 2783.26 0.0 0.0 1.0
125.16466666666668 50.513266666666674 2605.5266666666666 0.3090701056665046 -0.8321157663258754 0.46049866581261334
105.42503333333333 75.52076666666666 2390.443333333333 0.25298510710098043 -0.9613148318586794 0.1089602204183916
114.94466666666666 92.78713333333333 2605.5266666666666 0.4568244403522043 -0.4327897802964502 0.7771772235261696
84.20003333333334 82.42816666666666 2094.7566666666667 0.0929348231759865 -0.975794878573713 0.197958262243738
150.89766666666665 118.077 2876.92 0.0 0.0 1.0
111.08166666666666 112.204 2500.2900000000004 0.21175498370341986 -0.8822333600349611 0.42050460796308403
127.44733333333333 137.29733333333334 2695.5 0.0 0.0 1.0
148.33333333333334 175.76933333333332 2876.92 0.0 0.0 1.0
147.96133333333333 167.12 2904.85 0.0 0.0 1.0
119.30433333333333 187.24633333333335 2601.74 0.0 0.0 1.0
127.88133333333333 -158.21333333333334 2679.4166666666665 -0.5354664368096729 -0.8030130815431448 -0.26162126427516486
95.57083333333333 -116.04466666666667 2343.6133333333332 -0.42928352191119795 0.22594817144713716 0.8744501596061454
96.88826666666667 -94.36203333333333 2269.5433333333335 0.9650207871110723 -0.1340273476963655 0.22532543245937356
