ply
format ascii 1.0
comment VCGLIB generated
element vertex 866
property float x
property float y
property float z
property float nx
property float ny
property float nz
element face 0
property list uchar int vertex_indices
end_header
40.8889 39.199999999999996 1994.67 0.0 0.0 1.0
41.24443333333333 49.51113333333333 1994.67 0.0 0.0 1.0
41.24443333333333 49.51113333333333 1994.67 0.0 0.0 1.0
41.6 53.06666666666666 1994.67 0.0 0.0 1.0
41.06666666666666 66.57780000000001 1994.67 0.0 0.0 1.0
17.927699999999998 57.841566666666665 1608.67 -0.5936192733079657 0.7914976121590555 0.1454224477301766
41.95556666666667 73.6889 1994.67 0.0 0.0 1.0
41.95556666666667 73.6889 1994.67 0.0 0.0 1.0
23.071166666666667 65.24346666666666 1680.9000000000003 0.0 0.0 1.0
22.738433333333333 65.19356666666668 1695.18 0.0 0.0 1.0
41.244433333333326 96.80003333333333 1994.67 0.0 0.0 1.0
41.599999999999994 99.82223333333333 1994.67 0.0 0.0 1.0
40.8889 102.13333333333333 1994.67 0.0 0.0 1.0
41.599999999999994 108.88900000000001 1994.67 0.0 0.0 1.0
25.895966666666666 105.202 1729.4800000000002 0.0 1.0 0.0
25.4864 105.25466666666667 1727.82 -2.5873977995485855e-16 0.9994970813114765 0.03171095157574581
41.95556666666667 130.9333333333333 1994.67 0.0 0.0 1.0
41.77779999999999 131.64433333333332 1994.67 0.0 0.0 1.0
41.77776666666667 133.422 1994.67 0.0 0.0 1.0
42.4889 139.1113333333333 1994.67 0.0 0.0 1.0
41.95556666666667 141.77766666666665 1994.67 0.0 0.0 1.0
41.6 143.55533333333332 1994.67 0.0 0.0 1.0
41.244433333333326 144.79999999999998 1994.67 0.0 0.0 1.0
31.233400000000003 -131.7023333333333 1829.97 0.0 0.0 1.0
30.2548 -123.87333333333333 1829.97 0.0 0.0 1.0
31.0703 -118.98033333333335 1829.97 0.0 0.0 1.0
31.0703 -118.00200000000001 1829.97 0.0 0.0 1.0
31.0703 -118.00200000000001 1829.97 0.0 0.0 1.0
31.0703 -118.002 1829.97 0.0 0.0 1.0
31.396500000000003 -106.09566666666666 1829.97 0.0 0.0 1.0
30.907200000000003 -104.302 1829.97 0.0 0.0 1.0
30.581 -99.40873333333333 1829.97 0.0 0.0 1.0
30.2548 -86.52396666666668 1829.97 0.0 0.0 1.0
31.722700000000003 -83.7513 1829.97 0.0 0.0 1.0
30.4179 -73.9653 1829.97 0.0 0.0 1.0
30.7441 -56.02450000000001 1829.97 0.0 0.0 1.0
31.5596 -32.7013 1829.97 0.0 0.0 1.0
41.24446666666666 -25.333299999999998 1994.67 0.0 0.0 1.0
41.599999999999994 -23.022233333333332 1994.67 0.0 0.0 1.0
31.070300000000003 -17.5331 1829.97 0.0 0.0 1.0
40.8889 6.311109999999999 1994.67 0.0 0.0 1.0
27.676199999999998 25.4431 1789.8366666666668 0.6837520259313772 0.683823398794211 0.25469339664834434
40.53333333333333 37.777766666666665 1994.67 0.0 0.0 1.0
18.415533333333332 33.35276666666667 1727.83 -0.8089542232572416 0.3733697164031055 0.4540794198676454
18.411166666666666 35.9954 1693.5866666666668 0.6982306478171528 -0.6982306478171524 -0.15794912123110721
41.42223333333333 53.6 1994.67 0.0 0.0 1.0
41.42223333333333 53.6 1994.67 0.0 0.0 1.0
40.71113333333333 64.08890000000001 1994.67 0.0 0.0 1.0
40.53333333333333 67.2889 1994.67 0.0 0.0 1.0
40.711099999999995 81.86666666666666 1994.67 0.0 0.0 1.0
41.42223333333333 91.46663333333333 1994.67 0.0 0.0 1.0
40.8889 102.13333333333333 1994.67 0.0 0.0 1.0
41.599999999999994 108.88900000000001 1994.67 0.0 0.0 1.0
39.644466666666666 115.11099999999999 1994.67 0.0 0.0 1.0
24.422433333333334 103.88799999999999 1717.9066666666665 -0.994295758243524 -1.502288791373399e-14 0.10665807582614535
24.422433333333334 103.88799999999999 1717.9066666666665 -0.994295758243524 -1.502288791373399e-14 0.10665807582614535
25.12523333333333 106.74366666666667 1729.4800000000002 1.0578467856557506e-25 1.888603682190025e-26 1.0
25.587666666666667 107.66866666666665 1729.4800000000002 -8.02620828381781e-27 3.068325076190382e-26 1.0
41.77779999999999 131.64433333333332 1994.67 0.0 0.0 1.0
40.17776666666666 -146.75566666666666 1994.67 0.0 0.0 1.0
30.254833333333334 -130.39733333333334 1829.97 0.0 0.0 1.0
30.4179 -125.178 1829.97 0.0 0.0 1.0
30.581 -116.20833333333333 1829.97 0.0 0.0 1.0
30.9072 -105.76966666666665 1829.97 0.0 0.0 1.0
30.0917 -88.318 1829.97 0.0 0.0 1.0
30.2548 -87.01323333333333 1829.97 0.0 0.0 1.0
30.744100000000003 -70.8665 1829.97 0.0 0.0 1.0
30.091733333333337 -66.6259 1829.97 0.0 0.0 1.0
40.53333333333333 -57.5111 1994.67 0.0 0.0 1.0
30.581 -50.15290000000001 1829.97 0.0 0.0 1.0
40.355533333333334 -48.622233333333334 1994.67 0.0 0.0 1.0
40.355533333333334 -39.555566666666664 1994.67 0.0 0.0 1.0
40.355533333333334 -39.555566666666664 1994.67 0.0 0.0 1.0
40.355533333333334 -7.377776666666667 1994.67 0.0 0.0 1.0
40.355533333333334 -7.377776666666667 1994.67 0.0 0.0 1.0
40.35556666666667 5.244443333333334 1994.67 0.0 0.0 1.0
39.466633333333334 9.511113333333332 1994.67 0.0 0.0 1.0
41.599999999999994 15.0222 1994.67 0.0 0.0 1.0
39.82223333333334 22.4889 1994.67 0.0 0.0 1.0
39.82223333333334 23.555566666666664 1994.67 0.0 0.0 1.0
40.17776666666666 33.155566666666665 1994.67 0.0 0.0 1.0
40.17776666666666 33.155566666666665 1994.67 0.0 0.0 1.0
41.244433333333326 49.51113333333333 1994.67 0.0 0.0 1.0
39.64443333333333 60.8889 1994.67 0.0 0.0 1.0
41.06666666666666 66.57780000000001 1994.67 0.0 0.0 1.0
11.627913333333332 70.0 1739.53 0.0 0.0 1.0
14.693233333333334 59.12200000000001 1592.9099999999999 -0.6971393741619483 0.5703908117490634 0.43433974589637975
40.711099999999995 80.97776666666665 1994.67 0.0 0.0 1.0
40.711099999999995 81.86666666666667 1994.67 0.0 0.0 1.0
40.711099999999995 81.86666666666667 1994.67 0.0 0.0 1.0
40.711099999999995 95.73336666666667 1994.67 0.0 0.0 1.0
40.711099999999995 100.35566666666666 1994.67 0.0 0.0 1.0
40.53333333333333 146.22233333333335 1994.67 0.0 0.0 1.0
39.82223333333334 -140.711 1994.67 0.0 0.0 1.0
39.82223333333334 -140.71099999999998 1994.67 0.0 0.0 1.0
29.765533333333334 -115.719 1829.97 0.0 0.0 1.0
39.46666666666667 -123.82233333333333 1994.67 0.0 0.0 1.0
38.04443333333334 -120.44466666666666 1994.67 0.0 0.0 1.0
30.581 -102.997 1829.97 0.0 0.0 1.0
30.4179 -73.9653 1829.97 0.0 0.0 1.0
30.4179 -73.9653 1829.97 0.0 0.0 1.0
39.8222 -38.844433333333335 1994.67 0.0 0.0 1.0
40.8889 -24.622200000000003 1994.67 0.0 0.0 1.0
31.2334 -19.4903 1829.97 0.0 0.0 1.0
28.405533333333334 -14.8952 1826.25 0.4751283832426599 0.8710551749775489 0.124562841899372
39.46666666666667 -14.488900000000001 1994.67 0.0 0.0 1.0
39.64443333333333 -8.444443333333334 1994.67 0.0 0.0 1.0
28.623866666666668 -1.5494393333333332 1829.97 0.0 0.0 1.0
39.64443333333333 3.6444433333333337 1994.67 0.0 0.0 1.0
40.1778 5.955556666666666 1994.67 0.0 0.0 1.0
27.676199999999998 25.4431 1789.8366666666668 0.6837520259313775 0.6838233987942105 0.25469339664834445
39.46666666666667 40.97776666666666 1994.67 0.0 0.0 1.0
39.46666666666667 40.97776666666666 1994.67 0.0 0.0 1.0
38.93333333333334 43.288900000000005 1994.67 0.0 0.0 1.0
38.755566666666674 45.77776666666667 1994.67 0.0 0.0 1.0
40.35556666666667 55.199999999999996 1994.67 0.0 0.0 1.0
39.46666666666667 55.3778 1994.67 0.0 0.0 1.0
40.53333333333333 67.2889 1994.67 0.0 0.0 1.0
41.42223333333333 72.8 1994.67 0.0 0.0 1.0
39.644466666666666 92.17776666666667 1994.67 0.0 0.0 1.0
40.17776666666666 96.2667 1994.67 0.0 0.0 1.0
40.53333333333333 101.06666666666666 1994.67 0.0 0.0 1.0
38.93333333333334 124.53333333333332 1994.67 0.0 0.0 1.0
38.755566666666674 127.2 1994.67 0.0 0.0 1.0
19.435033333333333 116.23333333333333 1690.4000000000003 0.0 0.0 1.0
39.82223333333334 -140.71099999999998 1994.67 0.0 0.0 1.0
29.276233333333334 -125.99366666666667 1829.97 0.0 0.0 1.0
39.46666666666667 -123.82233333333333 1994.67 0.0 0.0 1.0
29.9286 -104.79100000000001 1829.97 0.0 0.0 1.0
29.276233333333334 -76.738 1829.97 0.0 0.0 1.0
29.276233333333334 -76.738 1829.97 0.0 0.0 1.0
30.0917 -71.84506666666667 1829.97 0.0 0.0 1.0
28.623833333333334 -63.3639 1829.97 0.0 0.0 1.0
29.276233333333334 -62.0591 1829.97 0.0 0.0 1.0
29.439333333333334 -56.84 1829.97 0.0 0.0 1.0
39.1111 -59.46666666666667 1994.67 0.0 0.0 1.0
30.581 -50.15290000000001 1829.97 0.0 0.0 1.0
38.755566666666674 -50.04443333333334 1994.67 0.0 0.0 1.0
39.46666666666667 -14.488900000000001 1994.67 0.0 0.0 1.0
27.80836666666666 -5.300713333333333 1829.97 0.0 0.0 1.0
28.1301 2.8455266666666668 1824.39 0.0 0.0 1.0
39.46666666666667 4.711110000000001 1994.67 0.0 0.0 1.0
39.111133333333335 22.844466666666666 1994.67 0.0 0.0 1.0
39.111133333333335 22.844466666666666 1994.67 0.0 0.0 1.0
39.46666666666667 32.622233333333334 1994.67 0.0 0.0 1.0
39.288900000000005 59.4667 1994.67 0.0 0.0 1.0
39.82223333333334 62.844433333333335 1994.67 0.0 0.0 1.0
14.693233333333334 59.12200000000001 1592.9099999999999 -0.6971393741619482 0.5703908117490635 0.4343397458963799
39.82223333333334 83.64446666666667 1994.67 0.0 0.0 1.0
38.93336666666667 84.53336666666667 1994.67 0.0 0.0 1.0
38.755566666666674 116.0 1994.67 0.0 0.0 1.0
40.0 130.39999999999998 1994.67 0.0 0.0 1.0
40.53333333333333 146.22233333333335 1994.67 0.0 0.0 1.0
39.46666666666667 -141.42233333333334 1994.67 0.0 0.0 1.0
30.2548 -123.87333333333333 1829.97 0.0 0.0 1.0
39.46666666666667 -123.82233333333333 1994.67 0.0 0.0 1.0
28.297666666666668 -111.96733333333333 1829.97 0.0 0.0 1.0
28.950033333333334 -105.28033333333333 1829.97 0.0 0.0 1.0
29.602433333333334 -99.89786666666667 1829.97 0.0 0.0 1.0
28.460733333333334 -94.35270000000001 1829.97 0.0 0.0 1.0
28.460733333333334 -94.35270000000001 1829.97 0.0 0.0 1.0
29.6024 -87.6656 1829.97 0.0 0.0 1.0
28.950033333333334 -87.33943333333333 1829.97 0.0 0.0 1.0
28.950033333333334 -86.52396666666668 1829.97 0.0 0.0 1.0
38.57776666666667 -59.644466666666666 1994.67 0.0 0.0 1.0
39.1111 -59.46666666666667 1994.67 0.0 0.0 1.0
38.755566666666674 -50.04443333333334 1994.67 0.0 0.0 1.0
39.466633333333334 -47.911100000000005 1994.67 0.0 0.0 1.0
39.999966666666666 -40.8 1994.67 0.0 0.0 1.0
39.8222 -38.844433333333335 1994.67 0.0 0.0 1.0
38.22220000000001 -20.000033333333334 1994.67 0.0 0.0 1.0
39.46666666666667 -14.488900000000001 1994.67 0.0 0.0 1.0
28.1301 2.8455266666666668 1824.39 0.0 0.0 1.0
39.28886666666667 8.444446666666666 1994.67 0.0 0.0 1.0
39.466633333333334 9.511113333333332 1994.67 0.0 0.0 1.0
27.676199999999998 25.4431 1789.8366666666668 0.6837520259313766 0.6838233987942116 0.25469339664834423
38.39996666666667 35.8222 1994.67 0.0 0.0 1.0
38.39996666666667 35.8222 1994.67 0.0 0.0 1.0
38.57776666666667 52.53333333333333 1994.67 0.0 0.0 1.0
38.57776666666667 52.53333333333333 1994.67 0.0 0.0 1.0
39.64443333333333 61.95556666666666 1994.67 0.0 0.0 1.0
22.738433333333333 65.19356666666667 1695.18 0.0 0.0 1.0
39.1111 96.80003333333333 1994.67 0.0 0.0 1.0
38.22223333333334 104.089 1994.67 0.0 0.0 1.0
13.056733333333334 66.5896 1565.2833333333335 -0.9947277512954998 0.0373007572944111 0.09552672038682122
39.82223333333334 131.111 1994.67 0.0 0.0 1.0
38.93333333333333 132.71099999999998 1994.67 0.0 0.0 1.0
21.165233333333333 114.995 1714.61 0.0 0.0 1.0
20.62323333333333 115.505 1695.18 0.0 0.0 1.0
20.62323333333333 115.505 1695.18 0.0 0.0 1.0
28.623900000000003 -119.14366666666668 1829.97 0.0 0.0 1.0
28.623900000000003 -119.14366666666668 1829.97 0.0 0.0 1.0
28.623900000000003 -119.14366666666668 1829.97 0.0 0.0 1.0
29.765533333333334 -115.719 1829.97 0.0 0.0 1.0
28.297666666666668 -111.96733333333333 1829.97 0.0 0.0 1.0
29.276233333333334 -101.03966666666666 1829.97 0.0 0.0 1.0
28.950033333333334 -86.52396666666668 1829.97 0.0 0.0 1.0
28.78696666666666 -85.54540000000001 1829.97 0.0 0.0 1.0
28.950066666666668 -77.3904 1829.97 0.0 0.0 1.0
29.276233333333334 -76.738 1829.97 0.0 0.0 1.0
28.297666666666668 -60.7543 1829.97 0.0 0.0 1.0
38.4 -60.711099999999995 1994.67 0.0 0.0 1.0
37.68886666666666 -21.600000000000005 1994.67 0.0 0.0 1.0
38.93333333333333 -8.8 1994.67 0.0 0.0 1.0
38.93333333333333 -8.8 1994.67 0.0 0.0 1.0
38.4 4.888890000000001 1994.67 0.0 0.0 1.0
26.829266666666665 15.691066666666666 1824.39 0.0 0.0 1.0
39.111133333333335 22.844466666666666 1994.67 0.0 0.0 1.0
38.400000000000006 31.911133333333336 1994.67 0.0 0.0 1.0
38.93333333333333 41.33333333333333 1994.67 0.0 0.0 1.0
38.4 42.4 1994.67 0.0 0.0 1.0
38.22223333333333 43.82223333333334 1994.67 0.0 0.0 1.0
38.75556666666667 45.77776666666666 1994.67 0.0 0.0 1.0
38.4 54.31113333333334 1994.67 0.0 0.0 1.0
20.71126666666667 65.21563333333334 1684.0533333333333 -1.0373384514009359e-17 0.9984165306638269 0.056253278101882104
37.86666666666667 88.62223333333333 1994.67 0.0 0.0 1.0
38.4 97.6889 1994.67 0.0 0.0 1.0
38.044466666666665 100.53333333333335 1994.67 0.0 0.0 1.0
39.644466666666666 115.111 1994.67 0.0 0.0 1.0
38.222233333333335 117.60000000000001 1994.67 0.0 0.0 1.0
38.57776666666667 123.46666666666665 1994.67 0.0 0.0 1.0
38.57776666666667 126.48866666666667 1994.67 0.0 0.0 1.0
20.0941 116.42500000000001 1688.8100000000002 1.5173910960285837e-18 0.999667702591176 0.025777594846691742
28.460766666666668 -129.908 1829.97 0.0 0.0 1.0
28.297666666666668 -105.76966666666668 1829.97 0.0 0.0 1.0
27.482199999999995 -82.2834 1829.97 0.0 0.0 1.0
29.439333333333334 -73.80220000000001 1829.97 0.0 0.0 1.0
38.222233333333335 -60.0 1994.67 0.0 0.0 1.0
38.222233333333335 -59.82223333333334 1994.67 0.0 0.0 1.0
37.5111 -53.6 1994.67 0.0 0.0 1.0
37.6889 -53.06666666666666 1994.67 0.0 0.0 1.0
38.755566666666674 -50.04443333333334 1994.67 0.0 0.0 1.0
26.992900000000002 -40.8563 1829.97 0.0 0.0 1.0
27.482199999999995 -27.155999999999995 1829.97 0.0 0.0 1.0
37.155566666666665 -18.577766666666665 1994.67 0.0 0.0 1.0
27.319100000000002 -4.322119999999999 1829.97 0.0 0.0 1.0
26.9919 10.1626 1824.39 0.0 0.0 1.0
37.155566666666665 24.977766666666668 1994.67 0.0 0.0 1.0
37.333333333333336 39.9111 1994.67 0.0 0.0 1.0
38.22223333333333 45.06666666666666 1994.67 0.0 0.0 1.0
38.57776666666667 52.53333333333333 1994.67 0.0 0.0 1.0
37.6889 55.20000000000001 1994.67 0.0 0.0 1.0
37.8667 58.044466666666665 1994.67 0.0 0.0 1.0
39.46666666666667 67.11110000000001 1994.67 0.0 0.0 1.0
20.71126666666667 65.21563333333334 1684.0533333333333 -1.0788319894569735e-15 0.998416530663827 0.05625327810188151
37.33336666666667 84.53333333333333 1994.67 0.0 0.0 1.0
38.40003333333333 84.71113333333334 1994.67 0.0 0.0 1.0
37.86666666666667 88.62223333333333 1994.67 0.0 0.0 1.0
37.51113333333333 92.88889999999999 1994.67 0.0 0.0 1.0
38.222233333333335 94.4889 1994.67 0.0 0.0 1.0
38.044466666666665 98.93333333333334 1994.67 0.0 0.0 1.0
37.86666666666667 100.17766666666667 1994.67 0.0 0.0 1.0
38.044466666666665 100.53333333333335 1994.67 0.0 0.0 1.0
38.222233333333335 104.089 1994.67 0.0 0.0 1.0
38.222233333333335 104.089 1994.67 0.0 0.0 1.0
37.6889 127.37766666666666 1994.67 0.0 0.0 1.0
36.97776666666667 138.57766666666666 1994.67 0.0 0.0 1.0
20.63993333333333 104.4579 1624.6266666666668 -0.922091205188397 -0.36881217974406305 0.11715538991716136
38.04443333333333 145.689 1994.67 0.0 0.0 1.0
36.44443333333333 -146.93366666666668 1994.67 0.0 0.0 1.0
24.098233333333337 -126.72566666666667 1807.99 -0.09940458147395909 0.9950398605543243 -0.003795403801718995
26.829799999999995 -126.483 1829.97 0.0 0.0 1.0
37.333333333333336 -130.22199999999998 1994.67 0.0 0.0 1.0
28.297666666666668 -105.76966666666668 1829.97 0.0 0.0 1.0
27.971466666666668 -88.6442 1829.97 0.0 0.0 1.0
27.482199999999995 -82.2834 1829.97 0.0 0.0 1.0
27.645266666666668 -71.1927 1829.97 0.0 0.0 1.0
26.666700000000002 -65.8104 1829.97 0.0 0.0 1.0
27.971466666666668 -57.98166666666666 1829.97 0.0 0.0 1.0
37.5111 -53.6 1994.67 0.0 0.0 1.0
37.6889 -53.06666666666666 1994.67 0.0 0.0 1.0
36.44443333333333 -35.288900000000005 1994.67 0.0 0.0 1.0
27.319100000000002 -27.971500000000002 1829.97 0.0 0.0 1.0
38.2222 -24.977766666666668 1994.67 0.0 0.0 1.0
37.3333 -23.9111 1994.67 0.0 0.0 1.0
37.15553333333333 -21.599999999999998 1994.67 0.0 0.0 1.0
37.15553333333333 -21.599999999999998 1994.67 0.0 0.0 1.0
37.5111 -19.288899999999998 1994.67 0.0 0.0 1.0
37.86663333333333 -13.955566666666668 1994.67 0.0 0.0 1.0
37.3333 -13.066666666666668 1994.67 0.0 0.0 1.0
37.3333 -13.066666666666668 1994.67 0.0 0.0 1.0
27.808366666666668 -1.0601426666666667 1829.97 0.0 0.0 1.0
38.4 4.888890000000001 1994.67 0.0 0.0 1.0
26.8293 9.024393333333334 1824.39 0.0 0.0 1.0
26.829266666666665 15.691066666666666 1824.39 0.0 0.0 1.0
37.86666666666667 23.9111 1994.67 0.0 0.0 1.0
36.97776666666667 31.022199999999998 1994.67 0.0 0.0 1.0
36.97776666666667 31.022199999999998 1994.67 0.0 0.0 1.0
38.39996666666667 35.8222 1994.67 0.0 0.0 1.0
37.333333333333336 48.800000000000004 1994.67 0.0 0.0 1.0
12.1048 62.07063333333334 1561.1066666666666 -0.9984969366651929 0.03744209593555126 0.040024454052219466
36.44443333333333 81.15553333333332 1994.67 0.0 0.0 1.0
18.8102 74.56093333333332 1695.18 0.0 0.0 1.0
37.86666666666667 88.62223333333333 1994.67 0.0 0.0 1.0
37.86666666666667 100.17766666666667 1994.67 0.0 0.0 1.0
19.8353 90.48523333333333 1679.33 0.7909919726060383 -0.4896620964108935 0.36682793052233237
37.333333333333336 123.64433333333334 1994.67 0.0 0.0 1.0
37.5111 126.66633333333334 1994.67 0.0 0.0 1.0
21.165233333333333 114.995 1714.61 0.0 0.0 1.0
19.7167 115.505 1695.18 0.0 0.0 1.0
36.97776666666667 138.57766666666666 1994.67 0.0 0.0 1.0
36.44443333333333 -146.93366666666668 1994.67 0.0 0.0 1.0
26.829799999999995 -126.483 1829.97 0.0 0.0 1.0
28.297666666666668 -111.96733333333334 1829.97 0.0 0.0 1.0
26.177399999999995 -93.3741 1829.97 0.0 0.0 1.0
28.297666666666668 -87.01323333333333 1829.97 0.0 0.0 1.0
26.666700000000002 -76.4118 1829.97 0.0 0.0 1.0
26.503599999999995 -44.1182 1829.97 0.0 0.0 1.0
37.15553333333333 -38.48886666666667 1994.67 0.0 0.0 1.0
37.15553333333333 -21.600000000000005 1994.67 0.0 0.0 1.0
27.319100000000002 -4.32212 1829.97 0.0 0.0 1.0
26.8293 9.024393333333334 1824.39 0.0 0.0 1.0
36.0889 43.644466666666666 1994.67 0.0 0.0 1.0
36.9778 55.9111 1994.67 0.0 0.0 1.0
12.9018 55.17106666666667 1572.1000000000001 -0.9851974069200174 0.16518703963354914 0.04581824238420772
18.8102 74.56093333333332 1695.18 0.0 0.0 1.0
35.9111 92.35556666666666 1994.67 0.0 0.0 1.0
37.333333333333336 100.889 1994.67 0.0 0.0 1.0
36.800000000000004 118.13333333333333 1994.67 0.0 0.0 1.0
37.333333333333336 127.37766666666666 1994.67 0.0 0.0 1.0
38.2222 132.35533333333333 1994.67 0.0 0.0 1.0
21.165233333333333 114.995 1714.61 0.0 0.0 1.0
36.800000000000004 -143.91133333333332 1994.67 0.0 0.0 1.0
26.503599999999995 -130.39733333333334 1829.97 0.0 0.0 1.0
25.688100000000002 -124.03666666666668 1829.97 0.0 0.0 1.0
26.829799999999995 -83.0989 1829.97 0.0 0.0 1.0
34.84446666666667 -88.62223333333333 1994.67 0.0 0.0 1.0
26.666700000000002 -76.41179999999999 1829.97 0.0 0.0 1.0
26.014300000000002 -64.99490000000002 1829.97 0.0 0.0 1.0
26.666700000000002 -60.7543 1829.97 0.0 0.0 1.0
36.622233333333334 -54.666666666666664 1994.67 0.0 0.0 1.0
36.622233333333334 -54.666666666666664 1994.67 0.0 0.0 1.0
26.503599999999995 -44.1182 1829.97 0.0 0.0 1.0
26.177399999999995 -41.3456 1829.97 0.0 0.0 1.0
36.44443333333333 -35.288900000000005 1994.67 0.0 0.0 1.0
26.829799999999995 -29.276266666666668 1829.97 0.0 0.0 1.0
26.829799999999995 -25.688100000000002 1829.97 0.0 0.0 1.0
36.266666666666666 -19.466666666666665 1994.67 0.0 0.0 1.0
27.319100000000002 -4.32212 1829.97 0.0 0.0 1.0
35.02223333333333 0.2666653333333333 1994.67 0.0 0.0 1.0
25.691100000000002 5.609756666666667 1824.39 0.0 0.0 1.0
26.8293 9.024393333333334 1824.39 0.0 0.0 1.0
36.0889 25.866666666666664 1994.67 0.0 0.0 1.0
36.0889 25.866666666666664 1994.67 0.0 0.0 1.0
25.691066666666668 25.7724 1824.39 0.0 0.0 1.0
25.691066666666668 25.7724 1824.39 0.0 0.0 1.0
36.444433333333336 31.37776666666667 1994.67 0.0 0.0 1.0
36.0889 43.644466666666666 1994.67 0.0 0.0 1.0
36.80003333333334 51.82223333333334 1994.67 0.0 0.0 1.0
36.2667 52.35556666666667 1994.67 0.0 0.0 1.0
36.0889 54.13333333333333 1994.67 0.0 0.0 1.0
36.0889 54.13333333333333 1994.67 0.0 0.0 1.0
36.0889 56.26666666666667 1994.67 0.0 0.0 1.0
35.199999999999996 60.8889 1994.67 0.0 0.0 1.0
37.155566666666665 62.3111 1994.67 0.0 0.0 1.0
36.444433333333336 81.15553333333332 1994.67 0.0 0.0 1.0
37.33336666666667 84.53333333333333 1994.67 0.0 0.0 1.0
36.0889 123.64433333333334 1994.67 0.0 0.0 1.0
18.0791 116.23333333333333 1690.4000000000003 -1.9769401650146747e-27 -7.671831479499293e-42 1.0
34.4889 -114.57800000000002 1994.67 0.0 0.0 1.0
24.872599999999995 -98.104 1829.97 0.0 0.0 1.0
26.177399999999995 -93.3741 1829.97 0.0 0.0 1.0
26.666700000000002 -76.41179999999999 1829.97 0.0 0.0 1.0
26.340500000000002 -44.7706 1829.97 0.0 0.0 1.0
26.177399999999995 -41.3456 1829.97 0.0 0.0 1.0
35.733333333333334 -38.3111 1994.67 0.0 0.0 1.0
35.55556666666667 -34.93333333333333 1994.67 0.0 0.0 1.0
26.829799999999995 -29.276266666666668 1829.97 0.0 0.0 1.0
25.203266666666668 6.91057 1824.39 0.0 0.0 1.0
25.8537 9.837396666666667 1824.39 0.0 0.0 1.0
35.199999999999996 21.244433333333333 1994.67 0.0 0.0 1.0
35.2 22.133333333333336 1994.67 0.0 0.0 1.0
36.0889 25.866666666666664 1994.67 0.0 0.0 1.0
36.444433333333336 31.37776666666667 1994.67 0.0 0.0 1.0
16.997166666666665 32.71013333333333 1695.18 0.0 0.0 1.0
37.333333333333336 39.9111 1994.67 0.0 0.0 1.0
35.733333333333334 44.35556666666667 1994.67 0.0 0.0 1.0
36.0889 54.13333333333333 1994.67 0.0 0.0 1.0
14.693233333333334 59.12200000000001 1592.9099999999999 -0.697139374161948 0.5703908117490636 0.43433974589637997
20.9254 65.79790000000001 1695.18 0.0 0.0 1.0
36.444433333333336 81.15553333333332 1994.67 0.0 0.0 1.0
35.9111 92.35556666666666 1994.67 0.0 0.0 1.0
37.155566666666665 104.62233333333332 1994.67 0.0 0.0 1.0
35.02223333333333 112.26666666666667 1994.67 0.0 0.0 1.0
35.02223333333333 121.51100000000001 1994.67 0.0 0.0 1.0
19.7167 115.656 1695.18 0.0 0.0 1.0
18.0791 116.23333333333333 1690.4000000000003 -1.9769401650146747e-27 -7.654410578141673e-42 1.0
35.73329999999999 138.57766666666666 1994.67 0.0 0.0 1.0
35.555566666666664 146.22233333333335 1994.67 0.0 0.0 1.0
35.2 -146.40033333333335 1994.67 0.0 0.0 1.0
26.014300000000002 -125.99366666666667 1829.97 0.0 0.0 1.0
25.198799999999995 -117.34966666666666 1829.97 0.0 0.0 1.0
36.622233333333334 -118.84466666666667 1994.67 0.0 0.0 1.0
27.155999999999995 -106.42233333333333 1829.97 0.0 0.0 1.0
25.688100000000002 -83.9144 1829.97 0.0 0.0 1.0
34.84446666666667 -88.62223333333333 1994.67 0.0 0.0 1.0
25.524999999999995 -72.4975 1829.97 0.0 0.0 1.0
25.524999999999995 -72.3344 1829.97 0.0 0.0 1.0
25.524999999999995 -71.682 1829.97 0.0 0.0 1.0
26.014300000000002 -64.9949 1829.97 0.0 0.0 1.0
26.014300000000002 -64.99490000000002 1829.97 0.0 0.0 1.0
36.800000000000004 -52.35556666666667 1994.67 0.0 0.0 1.0
26.503599999999995 -44.1182 1829.97 0.0 0.0 1.0
26.177399999999995 -41.3456 1829.97 0.0 0.0 1.0
26.829799999999995 -25.688100000000002 1829.97 0.0 0.0 1.0
35.733333333333334 -20.53333333333333 1994.67 0.0 0.0 1.0
35.55556666666667 -19.8222 1994.67 0.0 0.0 1.0
34.84446666666667 -13.066666666666668 1994.67 0.0 0.0 1.0
27.155999999999995 -1.7125393333333332 1829.97 0.0 0.0 1.0
25.691100000000002 5.609756666666667 1824.39 0.0 0.0 1.0
25.203266666666668 6.91057 1824.39 0.0 0.0 1.0
25.040666666666667 10.3252 1824.39 0.0 0.0 1.0
35.2 22.133333333333336 1994.67 0.0 0.0 1.0
36.0889 43.644466666666666 1994.67 0.0 0.0 1.0
35.02223333333333 56.44446666666666 1994.67 0.0 0.0 1.0
35.199999999999996 60.8889 1994.67 0.0 0.0 1.0
34.31113333333334 72.26666666666667 1994.67 0.0 0.0 1.0
35.0222 92.53333333333335 1994.67 0.0 0.0 1.0
35.2 111.55566666666668 1994.67 0.0 0.0 1.0
34.48886666666667 117.59999999999998 1994.67 0.0 0.0 1.0
17.718866666666667 111.96900000000001 1691.993333333333 0.9959865329283317 -0.06640889701779161 0.060005704914462644
18.079099999999997 116.23333333333333 1690.4000000000003 3.953880330029349e-27 1.573378113982724e-41 1.0
25.688100000000002 -124.03666666666668 1829.97 0.0 0.0 1.0
25.688100000000002 -124.03666666666668 1829.97 0.0 0.0 1.0
25.198799999999995 -117.34966666666668 1829.97 0.0 0.0 1.0
36.622233333333334 -118.84466666666667 1994.67 0.0 0.0 1.0
25.361900000000002 -92.7217 1829.97 0.0 0.0 1.0
25.851199999999995 -86.85016666666667 1829.97 0.0 0.0 1.0
25.035700000000002 -86.0347 1829.97 0.0 0.0 1.0
25.361900000000002 -72.4975 1829.97 0.0 0.0 1.0
25.361900000000002 -72.3344 1829.97 0.0 0.0 1.0
34.666666666666664 -37.4222 1994.67 0.0 0.0 1.0
34.844433333333335 -34.93333333333333 1994.67 0.0 0.0 1.0
34.84446666666667 -13.066666666666668 1994.67 0.0 0.0 1.0
34.84446666666667 -13.066666666666668 1994.67 0.0 0.0 1.0
33.95556666666666 0.7999976666666666 1994.67 0.0 0.0 1.0
24.715433333333333 11.7886 1824.39 0.0 0.0 1.0
35.2 22.133333333333336 1994.67 0.0 0.0 1.0
34.31113333333334 72.6222 1994.67 0.0 0.0 1.0
16.543899999999997 74.86310000000002 1695.18 0.0 0.0 1.0
34.84446666666667 111.55566666666668 1994.67 0.0 0.0 1.0
35.02223333333333 112.26666666666667 1994.67 0.0 0.0 1.0
34.844433333333335 120.26666666666665 1994.67 0.0 0.0 1.0
34.31113333333334 123.46666666666665 1994.67 0.0 0.0 1.0
34.31113333333334 123.46666666666665 1994.67 0.0 0.0 1.0
17.811466666666664 111.92733333333335 1693.5866666666668 -0.979094300955628 0.17804392854890216 -0.0983601003612926
24.057100000000002 -131.04999999999998 1829.97 0.0 0.0 1.0
25.198799999999995 -117.34966666666668 1829.97 0.0 0.0 1.0
24.383300000000002 -91.58 1829.97 0.0 0.0 1.0
24.709500000000002 -84.4037 1829.97 0.0 0.0 1.0
24.872599999999995 -60.91740000000001 1829.97 0.0 0.0 1.0
24.383300000000002 -50.6422 1829.97 0.0 0.0 1.0
24.383300000000002 -50.6422 1829.97 0.0 0.0 1.0
24.709500000000002 -42.6504 1829.97 0.0 0.0 1.0
33.6 -36.355533333333334 1994.67 0.0 0.0 1.0
33.6 -16.9778 1994.67 0.0 0.0 1.0
23.739800000000002 -12.2764 1824.39 0.0 0.0 1.0
24.064999999999998 -8.536586666666667 1824.39 0.0 0.0 1.0
33.4222 -1.3333356666666667 1994.67 0.0 0.0 1.0
33.59996666666667 -0.6222233333333334 1994.67 0.0 0.0 1.0
33.77776666666666 2.399996666666667 1994.67 0.0 0.0 1.0
25.203266666666668 6.91057 1824.39 0.0 0.0 1.0
33.42223333333333 18.04446666666667 1994.67 0.0 0.0 1.0
24.878033333333335 25.7724 1824.39 0.0 0.0 1.0
16.99716666666667 32.71013333333334 1695.18 0.0 0.0 1.0
34.1333 54.6667 1994.67 0.0 0.0 1.0
33.6 60.8889 1994.67 0.0 0.0 1.0
33.955533333333335 92.17776666666667 1994.67 0.0 0.0 1.0
21.725966666666665 85.23466666666667 1676.2 0.3247781416830271 -0.5509804071499816 0.7687260562916806
34.48886666666667 117.59999999999998 1994.67 0.0 0.0 1.0
34.48886666666667 118.48899999999999 1994.67 0.0 0.0 1.0
34.3111 119.378 1994.67 0.0 0.0 1.0
33.06663333333333 132.35566666666668 1994.67 0.0 0.0 1.0
34.3111 137.68866666666665 1994.67 0.0 0.0 1.0
33.95556666666667 -146.40033333333335 1994.67 0.0 0.0 1.0
24.057100000000002 -131.04999999999998 1829.97 0.0 0.0 1.0
23.730900000000002 -111.478 1829.97 0.0 0.0 1.0
23.893999999999995 -97.9409 1829.97 0.0 0.0 1.0
23.893999999999995 -97.9409 1829.97 0.0 0.0 1.0
24.220199999999995 -72.6606 1829.97 0.0 0.0 1.0
24.057100000000002 -66.6259 1829.97 0.0 0.0 1.0
33.06666666666666 -59.46666666666667 1994.67 0.0 0.0 1.0
24.383300000000002 -40.2039 1829.97 0.0 0.0 1.0
33.599999999999994 -36.355533333333334 1994.67 0.0 0.0 1.0
33.6 -16.9778 1994.67 0.0 0.0 1.0
23.739800000000002 -12.2764 1824.39 0.0 0.0 1.0
22.9268 -10.3252 1824.39 0.0 0.0 1.0
24.064999999999998 -8.536586666666667 1824.39 0.0 0.0 1.0
24.39023333333333 10.9756 1824.39 0.0 0.0 1.0
24.2276 11.7886 1824.39 0.0 0.0 1.0
15.3075 19.530233333333335 1691.993333333333 -2.0867543411457608e-15 -0.8996792753883095 0.4365514877271254
23.414599999999997 25.7724 1824.39 0.0 0.0 1.0
33.42223333333333 50.044466666666665 1994.67 0.0 0.0 1.0
33.6 51.288900000000005 1994.67 0.0 0.0 1.0
33.77776666666667 52.8889 1994.67 0.0 0.0 1.0
32.888866666666665 56.26666666666667 1994.67 0.0 0.0 1.0
33.6 60.8889 1994.67 0.0 0.0 1.0
15.939566666666666 59.301233333333336 1695.18 0.0 0.0 1.0
33.06666666666666 75.28886666666666 1994.67 0.0 0.0 1.0
33.6 78.13333333333334 1994.67 0.0 0.0 1.0
34.3111 79.73333333333333 1994.67 0.0 0.0 1.0
16.543899999999997 74.86310000000002 1695.18 0.0 0.0 1.0
33.6 124.0 1994.67 0.0 0.0 1.0
33.06666666666666 -146.93366666666668 1994.67 0.0 0.0 1.0
23.730900000000002 -125.01533333333333 1829.97 0.0 0.0 1.0
23.567799999999995 -110.66266666666667 1829.97 0.0 0.0 1.0
23.404700000000002 -110.33633333333334 1829.97 0.0 0.0 1.0
34.4889 -114.57800000000002 1994.67 0.0 0.0 1.0
22.5892 -95.3313 1829.97 0.0 0.0 1.0
23.241599999999995 -89.6228 1829.97 0.0 0.0 1.0
31.822233333333333 -95.02223333333335 1994.67 0.0 0.0 1.0
23.730900000000002 -84.7299 1829.97 0.0 0.0 1.0
22.5892 -81.7941 1829.97 0.0 0.0 1.0
22.7523 -78.369 1829.97 0.0 0.0 1.0
23.730900000000002 -72.3344 1829.97 0.0 0.0 1.0
33.06666666666666 -59.46666666666667 1994.67 0.0 0.0 1.0
24.057100000000002 -51.6208 1829.97 0.0 0.0 1.0
23.893999999999995 -50.479099999999995 1829.97 0.0 0.0 1.0
23.567799999999995 -44.118233333333336 1829.97 0.0 0.0 1.0
23.241600000000002 -43.46586666666666 1829.97 0.0 0.0 1.0
32.8889 -36.5333 1994.67 0.0 0.0 1.0
34.13333333333333 -24.977766666666668 1994.67 0.0 0.0 1.0
33.599999999999994 -16.977800000000002 1994.67 0.0 0.0 1.0
32.53333333333333 0.6222213333333333 1994.67 0.0 0.0 1.0
33.244433333333326 3.8222199999999997 1994.67 0.0 0.0 1.0
33.42223333333333 18.04446666666667 1994.67 0.0 0.0 1.0
33.0667 18.5778 1994.67 0.0 0.0 1.0
33.0667 18.5778 1994.67 0.0 0.0 1.0
32.35556666666667 48.9778 1994.67 0.0 0.0 1.0
33.599999999999994 60.8889 1994.67 0.0 0.0 1.0
32.71113333333333 72.97776666666665 1994.67 0.0 0.0 1.0
32.71113333333333 72.97776666666665 1994.67 0.0 0.0 1.0
33.06666666666666 75.28886666666666 1994.67 0.0 0.0 1.0
32.1778 99.46666666666665 1994.67 0.0 0.0 1.0
33.244433333333326 119.91133333333333 1994.67 0.0 0.0 1.0
32.17776666666666 125.95533333333333 1994.67 0.0 0.0 1.0
32.8889 134.311 1994.67 0.0 0.0 1.0
32.71113333333333 135.37766666666667 1994.67 0.0 0.0 1.0
32.71113333333333 144.62233333333333 1994.67 0.0 0.0 1.0
32.71113333333333 144.62233333333333 1994.67 0.0 0.0 1.0
32.35556666666667 146.93366666666668 1994.67 0.0 0.0 1.0
33.06666666666666 -146.93366666666668 1994.67 0.0 0.0 1.0
23.567799999999995 -130.56066666666666 1829.97 0.0 0.0 1.0
23.567799999999995 -130.56066666666666 1829.97 0.0 0.0 1.0
23.567800000000002 -115.88199999999999 1829.97 0.0 0.0 1.0
23.567799999999995 -111.641 1829.97 0.0 0.0 1.0
23.404700000000002 -111.315 1829.97 0.0 0.0 1.0
23.241600000000002 -98.91943333333332 1829.97 0.0 0.0 1.0
23.567799999999995 -90.43830000000001 1829.97 0.0 0.0 1.0
23.241600000000002 -72.82366666666667 1829.97 0.0 0.0 1.0
23.730900000000002 -60.26503333333333 1829.97 0.0 0.0 1.0
23.730900000000002 -60.26503333333333 1829.97 0.0 0.0 1.0
32.53333333333333 -59.64443333333333 1994.67 0.0 0.0 1.0
23.404700000000002 -50.15290000000001 1829.97 0.0 0.0 1.0
22.9154 -49.0112 1829.97 0.0 0.0 1.0
23.241599999999995 -43.46586666666666 1829.97 0.0 0.0 1.0
23.241599999999995 -37.9205 1829.97 0.0 0.0 1.0
23.241599999999995 -37.9205 1829.97 0.0 0.0 1.0
23.241599999999995 -37.9205 1829.97 0.0 0.0 1.0
23.5772 -11.4634 1824.39 0.0 0.0 1.0
32.17776666666666 0.088889 1994.67 0.0 0.0 1.0
33.244433333333326 2.399996666666667 1994.67 0.0 0.0 1.0
23.252 7.560976666666668 1824.39 0.0 0.0 1.0
16.99716666666667 32.71013333333334 1695.18 0.0 0.0 1.0
32.0 47.73333333333333 1994.67 0.0 0.0 1.0
33.06663333333333 55.02223333333333 1994.67 0.0 0.0 1.0
32.5333 55.73333333333333 1994.67 0.0 0.0 1.0
32.17776666666666 56.6222 1994.67 0.0 0.0 1.0
15.939566666666666 59.301233333333336 1695.18 0.0 0.0 1.0
15.939566666666666 59.301233333333336 1695.18 0.0 0.0 1.0
32.53333333333333 74.57776666666666 1994.67 0.0 0.0 1.0
16.543899999999997 74.86310000000002 1695.18 0.0 0.0 1.0
32.5333 92.0 1994.67 0.0 0.0 1.0
32.888866666666665 114.933 1994.67 0.0 0.0 1.0
32.35556666666667 120.44466666666666 1994.67 0.0 0.0 1.0
32.355533333333334 124.71100000000001 1994.67 0.0 0.0 1.0
33.06663333333333 132.35566666666668 1994.67 0.0 0.0 1.0
32.35556666666667 133.7776666666667 1994.67 0.0 0.0 1.0
22.141033333333336 -126.39966666666668 1807.99 0.09927619751231379 -0.993754737098246 0.05094859274103089
23.078500000000002 -114.08766666666668 1829.97 0.0 0.0 1.0
23.404700000000002 -110.33633333333334 1829.97 0.0 0.0 1.0
22.9154 -108.70533333333333 1829.97 0.0 0.0 1.0
21.7737 -105.44333333333333 1829.97 0.0 0.0 1.0
23.241599999999995 -89.6228 1829.97 0.0 0.0 1.0
32.0 -95.91113333333334 1994.67 0.0 0.0 1.0
23.730900000000002 -84.7299 1829.97 0.0 0.0 1.0
22.5892 -81.7941 1829.97 0.0 0.0 1.0
22.7523 -78.369 1829.97 0.0 0.0 1.0
31.2889 -61.59996666666666 1994.67 0.0 0.0 1.0
31.8222 -60.0 1994.67 0.0 0.0 1.0
22.9154 -49.0112 1829.97 0.0 0.0 1.0
22.9154 -49.0112 1829.97 0.0 0.0 1.0
23.241599999999995 -43.46586666666666 1829.97 0.0 0.0 1.0
32.8889 -36.5333 1994.67 0.0 0.0 1.0
31.11113333333333 -24.266666666666666 1994.67 0.0 0.0 1.0
31.644433333333335 -3.6444433333333337 1994.67 0.0 0.0 1.0
32.711099999999995 -1.3333356666666667 1994.67 0.0 0.0 1.0
32.17776666666666 0.088889 1994.67 0.0 0.0 1.0
32.17776666666666 0.088889 1994.67 0.0 0.0 1.0
23.252 7.560976666666668 1824.39 0.0 0.0 1.0
31.11113333333334 10.755566666666667 1994.67 0.0 0.0 1.0
15.3075 19.53023333333333 1691.9933333333336 6.707424667968516e-15 -0.8996792753883109 0.43655148772712254
30.933333333333334 31.377766666666663 1994.67 0.0 0.0 1.0
31.644433333333335 44.17776666666666 1994.67 0.0 0.0 1.0
32.35556666666667 73.5111 1994.67 0.0 0.0 1.0
32.17776666666666 74.04443333333333 1994.67 0.0 0.0 1.0
30.755566666666667 83.64443333333334 1994.67 0.0 0.0 1.0
31.822233333333333 101.24456666666667 1994.67 0.0 0.0 1.0
31.822233333333333 112.8 1994.67 0.0 0.0 1.0
31.822233333333333 112.8 1994.67 0.0 0.0 1.0
32.1778 135.37766666666667 1994.67 0.0 0.0 1.0
32.35556666666667 145.867 1994.67 0.0 0.0 1.0
32.35556666666667 146.93366666666668 1994.67 0.0 0.0 1.0
21.9368 -125.34166666666665 1829.97 0.0 0.0 1.0
22.7523 -118.00233333333334 1829.97 0.0 0.0 1.0
30.22223333333333 -130.57766666666666 1994.67 0.0 0.0 1.0
21.9368 -108.21600000000001 1829.97 0.0 0.0 1.0
22.263 -99.40873333333333 1829.97 0.0 0.0 1.0
21.6106 -95.8206 1829.97 0.0 0.0 1.0
21.9368 -74.9439 1829.97 0.0 0.0 1.0
22.4261 -73.14983333333333 1829.97 0.0 0.0 1.0
21.9368 -67.1152 1829.97 0.0 0.0 1.0
22.0999 -65.9735 1829.97 0.0 0.0 1.0
22.915399999999995 -37.4312 1829.97 0.0 0.0 1.0
33.24446666666667 -19.11113333333333 1994.67 0.0 0.0 1.0
22.9268 -10.3252 1824.39 0.0 0.0 1.0
31.11113333333334 10.755566666666667 1994.67 0.0 0.0 1.0
15.3075 19.53023333333333 1691.9933333333336 -2.3848621041665837e-15 -0.8996792753883095 0.4365514877271254
33.0667 21.422233333333335 1994.67 0.0 0.0 1.0
20.4878 21.8699 1824.39 0.0 0.0 1.0
15.354399999999998 26.80073333333333 1722.8466666666666 0.6400547903110929 -0.2954148314828786 0.7092671871303263
16.72383333333333 24.592366666666663 1698.3999999999999 0.9743225622022499 -0.17714600371778905 0.13897783330610772
21.9512 25.609799999999996 1824.39 0.0 0.0 1.0
31.2889 32.79996666666667 1994.67 0.0 0.0 1.0
15.354399999999998 26.80073333333333 1722.8466666666666 0.640054790311093 -0.2954148314828786 0.7092671871303262
32.17776666666666 56.6222 1994.67 0.0 0.0 1.0
32.71113333333333 61.244433333333326 1994.67 0.0 0.0 1.0
32.53333333333333 75.8222 1994.67 0.0 0.0 1.0
30.933333333333337 85.06666666666666 1994.67 0.0 0.0 1.0
31.644466666666663 98.22223333333334 1994.67 0.0 0.0 1.0
31.288899999999998 103.02233333333334 1994.67 0.0 0.0 1.0
31.822233333333333 112.8 1994.67 0.0 0.0 1.0
32.35556666666667 120.44466666666666 1994.67 0.0 0.0 1.0
31.466666666666665 133.6 1994.67 0.0 0.0 1.0
21.6106 -95.1682 1829.97 0.0 0.0 1.0
31.111100000000004 -95.73333333333333 1994.67 0.0 0.0 1.0
22.7523 -78.36900000000001 1829.97 0.0 0.0 1.0
22.263 -76.2487 1829.97 0.0 0.0 1.0
22.0999 -73.9653 1829.97 0.0 0.0 1.0
21.4475 -69.3986 1829.97 0.0 0.0 1.0
21.9368 -68.2569 1829.97 0.0 0.0 1.0
22.0999 -65.9735 1829.97 0.0 0.0 1.0
30.933333333333334 -60.17776666666666 1994.67 0.0 0.0 1.0
30.577766666666662 -57.86666666666667 1994.67 0.0 0.0 1.0
21.1213 -33.3537 1829.97 0.0 0.0 1.0
31.644433333333335 -3.6444433333333337 1994.67 0.0 0.0 1.0
20.813 0.8943099999999999 1824.39 0.0 0.0 1.0
21.3008 2.682926666666667 1824.39 0.0 0.0 1.0
30.222199999999997 14.311100000000001 1994.67 0.0 0.0 1.0
20.569599999999998 21.78023333333333 1817.0166666666667 6.29357466134749e-17 0.9971207709883434 0.07582986261105634
22.131199999999996 48.11603333333333 1839.3466666666666 -0.6872380987478303 -0.6872380987478328 0.23538817145075802
21.5795 49.3128 1841.2300000000002 -5.285827958020778e-12 -5.285827958020768e-12 1.0
18.014033333333334 46.675533333333334 1797.03 0.4335160088587079 -0.8670320177174262 -0.24559998028514796
21.120433333333335 57.49973333333333 1829.9800000000002 0.997933240792928 0.04159844539741275 0.04897771188043451
31.111099999999997 80.9778 1994.67 0.0 0.0 1.0
30.9333 91.8222 1994.67 0.0 0.0 1.0
30.9333 91.8222 1994.67 0.0 0.0 1.0
30.9333 91.8222 1994.67 0.0 0.0 1.0
32.17776666666666 125.95533333333333 1994.67 0.0 0.0 1.0
32.355533333333334 137.86666666666667 1994.67 0.0 0.0 1.0
16.002533333333332 122.64933333333333 1742.9233333333332 -0.9854198844978753 0.13592628225891867 0.10233131010332581
20.7951 -124.363 1829.97 0.0 0.0 1.0
30.22223333333333 -130.57766666666666 1994.67 0.0 0.0 1.0
21.1213 -116.69733333333333 1829.97 0.0 0.0 1.0
21.2844 -99.57183333333334 1829.97 0.0 0.0 1.0
20.9582 -93.3741 1829.97 0.0 0.0 1.0
22.4261 -90.1121 1829.97 0.0 0.0 1.0
31.111099999999997 -95.73333333333333 1994.67 0.0 0.0 1.0
21.4475 -82.4465 1829.97 0.0 0.0 1.0
30.577766666666662 -57.86666666666667 1994.67 0.0 0.0 1.0
30.577766666666662 -57.86666666666667 1994.67 0.0 0.0 1.0
30.399999999999995 -54.666666666666664 1994.67 0.0 0.0 1.0
32.0 -52.71113333333333 1994.67 0.0 0.0 1.0
22.5892 -46.89090000000001 1829.97 0.0 0.0 1.0
20.632 -39.7146 1829.97 0.0 0.0 1.0
21.1213 -27.645300000000002 1829.97 0.0 0.0 1.0
21.1213 -27.645300000000002 1829.97 0.0 0.0 1.0
29.5111 -8.26667 1994.67 0.0 0.0 1.0
21.3008 2.682926666666667 1824.39 0.0 0.0 1.0
30.22223333333333 7.555553333333333 1994.67 0.0 0.0 1.0
30.22223333333333 7.555553333333333 1994.67 0.0 0.0 1.0
30.222199999999997 14.311100000000001 1994.67 0.0 0.0 1.0
30.22223333333333 16.977766666666664 1994.67 0.0 0.0 1.0
20.9756 25.284566666666667 1824.39 0.0 0.0 1.0
30.399999999999995 30.666666666666668 1994.67 0.0 0.0 1.0
30.399999999999995 30.666666666666668 1994.67 0.0 0.0 1.0
30.933333333333334 31.377766666666663 1994.67 0.0 0.0 1.0
31.644433333333335 44.17776666666666 1994.67 0.0 0.0 1.0
32.0 47.73333333333333 1994.67 0.0 0.0 1.0
21.5795 49.3128 1841.2300000000002 -5.285827958020778e-12 -5.285827958020768e-12 1.0
21.61123333333333 52.10096666666667 1829.9800000000002 -0.9692865084183966 -0.2152856486707895 -0.1188938773632654
18.253066666666665 48.006400000000006 1804.2233333333334 0.266296280723452 -0.5325925614469061 0.8033874870598122
25.809233333333328 59.764199999999995 1924.12 0.0 0.0 1.0
19.5126 80.2434 1839.3466666666666 -0.5421472024817675 0.27107360124088303 0.7953587326178624
19.6781 82.4987 1809.6766666666665 -0.9466017392598159 -0.3154686392113323 0.06651830503283929
31.644466666666663 98.22223333333334 1994.67 0.0 0.0 1.0
31.288899999999998 103.02233333333334 1994.67 0.0 0.0 1.0
20.813 105.77233333333334 1824.39 0.0 0.0 1.0
20.813 105.77233333333334 1824.39 0.0 0.0 1.0
31.466666666666665 133.6 1994.67 0.0 0.0 1.0
31.11113333333333 143.2 1994.67 0.0 0.0 1.0
16.002533333333332 122.64933333333333 1742.9233333333332 -0.9854198844978752 0.13592628225891887 0.1023313101033257
30.04443333333333 -147.289 1994.67 0.0 0.0 1.0
22.7523 -131.7023333333333 1829.97 0.0 0.0 1.0
21.1213 -108.54233333333333 1829.97 0.0 0.0 1.0
20.3058 -97.1254 1829.97 0.0 0.0 1.0
20.3058 -96.6361 1829.97 0.0 0.0 1.0
21.1213 -94.1896 1829.97 0.0 0.0 1.0
20.9582 -93.3741 1829.97 0.0 0.0 1.0
21.4475 -69.3986 1829.97 0.0 0.0 1.0
29.511133333333333 -65.15556666666667 1994.67 0.0 0.0 1.0
29.866699999999998 -64.44443333333334 1994.67 0.0 0.0 1.0
29.866699999999998 -63.73333333333333 1994.67 0.0 0.0 1.0
29.866699999999998 -63.73333333333333 1994.67 0.0 0.0 1.0
29.511133333333333 -62.13333333333333 1994.67 0.0 0.0 1.0
29.866666666666664 -60.35556666666667 1994.67 0.0 0.0 1.0
20.632 -33.842999999999996 1829.97 0.0 0.0 1.0
20.632 -32.8644 1829.97 0.0 0.0 1.0
21.1213 -27.645300000000002 1829.97 0.0 0.0 1.0
20.529566666666668 -25.826066666666662 1828.11 -0.9448071993679577 -0.31493573312265205 -0.09030415286671144
19.8374 -13.7398 1824.39 0.0 0.0 1.0
20.0 -12.9268 1824.39 0.0 0.0 1.0
21.4475 -2.85423 1829.97 0.0 0.0 1.0
30.044466666666665 7.91111 1994.67 0.0 0.0 1.0
30.044466666666665 7.91111 1994.67 0.0 0.0 1.0
30.222233333333335 10.755566666666667 1994.67 0.0 0.0 1.0
31.11113333333333 18.222199999999997 1994.67 0.0 0.0 1.0
25.809233333333335 59.764199999999995 1924.12 0.0 0.0 1.0
31.2889 73.5111 1994.67 0.0 0.0 1.0
19.5126 80.2434 1839.3466666666666 -0.5421472024817651 0.27107360124088725 0.7953587326178625
19.6781 82.4987 1809.6766666666665 -0.9466017392598164 -0.315468639211331 0.0665183050328398
17.670666666666666 94.2169 1802.41 0.0 0.0 1.0
20.4878 106.25999999999999 1824.39 0.0 0.0 1.0
14.531266666666667 118.42033333333335 1907.76 0.24286156870257114 0.3521528492664868 0.9038841901487278
29.15556666666667 142.489 1994.67 0.0 0.0 1.0
30.222233333333335 147.11133333333336 1994.67 0.0 0.0 1.0
20.3058 -109.521 1829.97 0.0 0.0 1.0
19.3272 -104.30166666666668 1829.97 0.0 0.0 1.0
20.7951 -98.75639999999999 1829.97 0.0 0.0 1.0
20.3058 -97.12540000000001 1829.97 0.0 0.0 1.0
19.9796 -82.7727 1829.97 0.0 0.0 1.0
20.632 -39.7146 1829.97 0.0 0.0 1.0
19.9796 -39.0622 1829.97 0.0 0.0 1.0
20.7951 -26.829799999999995 1829.97 0.0 0.0 1.0
19.8374 -13.7398 1824.39 0.0 0.0 1.0
28.977766666666668 -9.155556666666666 1994.67 0.0 0.0 1.0
19.187 -1.2195126666666667 1824.39 0.0 0.0 1.0
28.977766666666668 10.57779 1994.67 0.0 0.0 1.0
30.2222 14.311100000000001 1994.67 0.0 0.0 1.0
19.8374 25.284566666666667 1824.39 0.0 0.0 1.0
17.087833333333332 48.1334 1852.6433333333334 0.620580932819992 -0.7615461580468705 0.1868870112777218
24.569833333333335 55.85556666666667 1907.76 -0.9985021400440786 -1.1077391585978902e-16 0.05471267062934546
24.569833333333335 55.85556666666667 1907.7600000000002 -0.9985021400440786 8.006125673463533e-17 0.05471267062934546
24.569833333333335 55.85556666666667 1907.76 -0.9985021400440786 -1.1077391585978902e-16 0.05471267062934546
21.120433333333335 57.49973333333333 1829.9800000000002 0.997933240792928 0.041598445397412684 0.048977711880434434
22.9418 76.10583333333334 1899.68 0.0 0.0 1.0
28.444433333333336 86.4889 1994.67 0.0 0.0 1.0
19.6781 82.4987 1809.6766666666665 -0.946601739259816 -0.31546863921133206 0.06651830503283943
17.8152 90.5471 1714.62 -0.42631939284972076 -0.5682873808798098 0.7037764048424837
20.4878 106.25999999999999 1824.39 0.0 0.0 1.0
15.038733333333333 111.55033333333334 1739.53 0.0 0.0 1.0
19.001 -125.50466666666667 1829.97 0.0 0.0 1.0
28.8 -131.111 1994.67 0.0 0.0 1.0
19.1641 -110.01033333333334 1829.97 0.0 0.0 1.0
20.3058 -96.6361 1829.97 0.0 0.0 1.0
20.4689 -93.5372 1829.97 0.0 0.0 1.0
18.5117 -86.68706666666667 1829.97 0.0 0.0 1.0
19.4903 -73.9653 1829.97 0.0 0.0 1.0
20.1427 -66.29970000000002 1829.97 0.0 0.0 1.0
28.977800000000002 -65.15556666666667 1994.67 0.0 0.0 1.0
29.511133333333333 -61.06666666666666 1994.67 0.0 0.0 1.0
19.8165 -43.30276666666666 1829.97 0.0 0.0 1.0
19.8165 -43.30276666666666 1829.97 0.0 0.0 1.0
19.3272 -42.8135 1829.97 0.0 0.0 1.0
19.5122 -15.203266666666666 1824.39 0.0 0.0 1.0
28.8 -7.733336666666666 1994.67 0.0 0.0 1.0
18.8618 -1.5447156666666666 1824.39 0.0 0.0 1.0
19.4314 22.105433333333334 1817.0166666666667 -3.825736945879715e-17 -0.9999260639658141 0.012160041193797372
19.343433333333333 35.4917 1839.3466666666666 0.9792626724196801 -2.418588577262912e-16 0.202594714653335
20.2667 50.4615 1841.2300000000002 1.9998248887748013e-26 -9.999124443874001e-27 1.0
20.2667 50.4615 1841.2300000000002 1.9998248887748013e-26 -9.999124443874001e-27 1.0
25.123266666666666 59.4212 1924.12 0.0 0.0 1.0
28.0889 83.2889 1994.67 0.0 0.0 1.0
15.215666666666666 86.98036666666667 1760.0 0.0 0.0 1.0
17.102500000000003 94.73983333333335 1712.9766666666665 0.46822381490486825 -0.5384364510091062 0.700608769129141
15.038733333333333 111.55033333333334 1739.53 0.0 0.0 1.0
14.108533333333334 113.25600000000001 1739.53 0.0 0.0 1.0
28.088900000000006 146.75566666666668 1994.67 0.0 0.0 1.0
19.9796 -92.7217 1829.97 0.0 0.0 1.0
19.4903 -73.9653 1829.97 0.0 0.0 1.0
19.4903 -73.9653 1829.97 0.0 0.0 1.0
19.3272 -67.1152 1829.97 0.0 0.0 1.0
28.977800000000002 -64.80003333333333 1994.67 0.0 0.0 1.0
19.4903 -38.8991 1829.97 0.0 0.0 1.0
19.4903 -34.4954 1829.97 0.0 0.0 1.0
27.733333333333334 -23.022199999999998 1994.67 0.0 0.0 1.0
19.5122 -15.203266666666666 1824.39 0.0 0.0 1.0
19.8374 -13.7398 1824.39 0.0 0.0 1.0
15.354399999999998 26.80073333333333 1722.8466666666666 0.6400547903110929 -0.2954148314828786 0.7092671871303263
28.622233333333337 31.9111 1994.67 0.0 0.0 1.0
16.418900000000004 39.433633333333326 1824.3999999999999 0.7053807328580306 0.7052437905293268 0.07119843841331676
18.253066666666665 48.00639999999999 1804.2233333333334 0.2662962807234544 -0.5325925614469063 0.8033874870598113
20.2667 50.4615 1841.2300000000002 1.9998248887748013e-26 -9.999124443874001e-27 1.0
25.123266666666666 59.4212 1924.12 0.0 0.0 1.0
24.293733333333336 62.73503333333334 1947.08 0.43517685236544423 0.8704372159288023 -0.23013074608018014
27.377799999999997 76.88886666666667 1994.67 0.0 0.0 1.0
23.111100000000004 76.9524 1899.68 0.0 0.0 1.0
27.555566666666667 83.82223333333333 1994.67 0.0 0.0 1.0
15.0588 87.92156666666666 1760.0 0.0 0.0 1.0
17.670666666666666 94.2169 1802.41 0.0 0.0 1.0
26.844466666666666 121.86633333333334 1994.67 0.0 0.0 1.0
14.108533333333334 113.25600000000001 1739.53 0.0 0.0 1.0
18.198 115.56566666666667 1716.253333333333 0.5963596544213708 0.5970107020790824 0.5365942453860872
16.565933333333334 128.44766666666666 1877.8266666666666 0.8342226588535528 -0.5440126700082095 0.09012641303107416
27.022233333333332 -147.111 1994.67 0.0 0.0 1.0
17.6962 -128.44033333333334 1829.97 0.0 0.0 1.0
18.8379 -124.526 1829.97 0.0 0.0 1.0
17.8593 -117.34966666666666 1829.97 0.0 0.0 1.0
18.8379 -105.44333333333334 1829.97 0.0 0.0 1.0
18.3486 -104.628 1829.97 0.0 0.0 1.0
18.3486 -104.628 1829.97 0.0 0.0 1.0
19.3272 -67.1152 1829.97 0.0 0.0 1.0
18.6748 -39.2253 1829.97 0.0 0.0 1.0
18.6748 -31.233400000000003 1829.97 0.0 0.0 1.0
27.555533333333333 -21.422233333333335 1994.67 0.0 0.0 1.0
27.555533333333333 -21.422233333333335 1994.67 0.0 0.0 1.0
26.666666666666668 6.133333333333333 1994.67 0.0 0.0 1.0
28.977766666666668 10.577789999999998 1994.67 0.0 0.0 1.0
17.7236 20.7317 1824.39 0.0 0.0 1.0
18.374 21.7073 1824.39 0.0 0.0 1.0
18.8618 25.935000000000002 1824.39 0.0 0.0 1.0
27.022199999999998 59.82223333333334 1994.67 0.0 0.0 1.0
22.5243 65.329 1936.57 0.0 0.0 1.0
22.836399999999998 72.24223333333333 1955.573333333333 -0.8753388971765094 -0.4376850598251978 0.2054594935641211
27.7333 88.44446666666666 1994.67 0.0 0.0 1.0
28.622200000000003 93.60000000000001 1994.67 0.0 0.0 1.0
15.215666666666666 86.98036666666667 1760.0 0.0 0.0 1.0
17.957866666666668 103.918 1831.8400000000001 0.6662417110831487 0.6666504483292054 0.3342142458894708
18.6748 -126.32 1829.97 0.0 0.0 1.0
28.8 -131.111 1994.67 0.0 0.0 1.0
19.001 -82.7727 1829.97 0.0 0.0 1.0
17.8593 -82.1203 1829.97 0.0 0.0 1.0
18.6748 -43.46586666666666 1829.97 0.0 0.0 1.0
18.0224 -36.2895 1829.97 0.0 0.0 1.0
18.6748 -34.9847 1829.97 0.0 0.0 1.0
27.733333333333334 -23.022199999999998 1994.67 0.0 0.0 1.0
27.555533333333333 -21.422233333333335 1994.67 0.0 0.0 1.0
26.844466666666666 -12.711133333333331 1994.67 0.0 0.0 1.0
27.9111 -9.155556666666667 1994.67 0.0 0.0 1.0
27.733333333333334 -8.088890000000001 1994.67 0.0 0.0 1.0
17.2358 -0.24390233333333333 1824.39 0.0 0.0 1.0
26.666666666666668 6.133333333333333 1994.67 0.0 0.0 1.0
17.3984 13.4146 1824.39 0.0 0.0 1.0
17.7236 22.357699999999998 1824.39 0.0 0.0 1.0
17.8862 26.260199999999998 1824.39 0.0 0.0 1.0
26.844466666666666 31.2 1994.67 0.0 0.0 1.0
