ply
format ascii 1.0
comment VCGLIB generated
element vertex 682
property float x
property float y
property float z
property float nx
property float ny
property float nz
element face 0
property list uchar int vertex_indices
end_header
-49.249233333333336 -99.3793 1797.0 0.0 0.0 1.0
-49.98003333333333 -96.8463 1791.62 0.0 0.0 1.0
-49.3413 -94.13173333333333 1791.62 0.0 0.0 1.0
-49.3413 -94.13173333333333 1791.62 0.0 0.0 1.0
-49.751200000000004 -90.82589999999999 1786.2699999999998 -2.124824202004336e-26 1.0624121010021681e-26 1.0
-49.43283333333334 -87.1642 1786.2699999999998 -6.785668862163802e-18 1.3572048123879092e-17 1.0
-49.18163333333333 -86.30740000000002 1791.62 0.0 0.0 1.0
-49.27363333333333 -72.51740000000001 1786.2699999999998 3.1723330091560446e-26 -5.410126496802529e-26 1.0
-48.6368 -69.97013333333334 1786.2699999999998 -8.672492494878363e-28 -4.33473329378316e-28 1.0
-50.069633333333336 -67.26366666666667 1786.2699999999998 -2.9504238850015028e-28 2.951196214925338e-28 1.0
-49.592000000000006 -58.34826666666667 1786.2699999999998 -1.9834658650841674e-25 -7.083340534934041e-26 1.0
-49.592000000000006 -58.34826666666667 1786.2699999999998 -1.983465865084164e-25 -7.08334053493403e-26 1.0
-49.592033333333326 -54.36816666666667 1786.2699999999998 9.394994775556935e-28 -2.8903736754791423e-27 1.0
-49.863733333333336 -36.7376 1742.9166666666667 -0.9941207659273976 -1.2895369570559176e-16 0.10827697239914125
-49.77613333333333 -34.5067 1748.01 0.9412288702508251 0.31378766540104 -0.125002059377118
-49.23073333333334 4.970416666666666 1770.41 0.0 0.0 1.0
-54.915666666666674 5.354103333333334 1521.36 -0.8768820839756638 0.4384500163208985 0.19707712701047064
-49.47886666666667 11.720733333333333 1765.1899999999998 1.007295358327093e-27 5.237560263812217e-27 1.0
-49.1642 16.597833333333334 1765.1899999999998 -1.9477192668598655e-28 2.0976366287068344e-28 1.0
-50.4399 70.7722 1754.84 0.0 0.0 1.0
-50.127100000000006 71.55423333333333 1754.84 0.0 0.0 1.0
-51.31783333333334 84.10853333333334 1739.53 0.0 0.0 1.0
-50.23256666666666 88.2946 1739.53 0.0 0.0 1.0
-38.89430000000001 128.78733333333332 2155.11 -0.9521998158838582 0.2250697865180712 0.20654079942581885
-49.8751 101.21 1724.5 0.0 0.0 1.0
-50.04776666666667 116.98166666666667 1714.61 0.0 0.0 1.0
-50.89523333333333 119.695 1709.71 0.0 0.0 1.0
-49.523799999999994 -112.30166666666666 1780.95 0.0 0.0 1.0
-50.05003333333334 -106.74666666666667 1797.0 0.0 0.0 1.0
-49.98003333333333 -96.8463 1791.62 0.0 0.0 1.0
-49.751200000000004 -90.82589999999999 1786.2699999999998 -2.124824202004336e-26 1.0624121010021681e-26 1.0
-49.751200000000004 -90.82589999999999 1786.2699999999998 -2.124824202004336e-26 1.0624121010021681e-26 1.0
-48.9552 -85.09453333333333 1786.2699999999998 4.092214474003063e-27 2.07747143650656e-27 1.0
-52.0559 -77.84433333333334 1791.62 0.0 0.0 1.0
-49.592000000000006 -58.34826666666667 1786.2699999999998 -1.983465865084181e-25 -7.083340534934094e-26 1.0
-50.56379999999999 -24.134533333333334 1775.67 0.0 0.0 1.0
-49.93076666666667 -20.0198 1775.67 0.0 0.0 1.0
-51.85366666666667 -9.640283333333334 1555.6500000000003 -0.883641928067618 0.4417323941780243 0.15507880220936987
-50.177533333333336 -11.439833333333333 1770.41 0.0 0.0 1.0
-50.72206666666667 -9.258163333333334 1775.67 0.0 0.0 1.0
-54.41543333333334 7.51135 1518.7900000000002 -0.8443123184809896 -0.5358047807989101 -0.0070672296048670145
-50.10816666666667 12.350033333333334 1765.1899999999998 2.0145907166541736e-27 8.058704337139479e-28 1.0
-50.10816666666667 12.350033333333334 1765.1899999999998 2.0145907166541736e-27 8.058704337139479e-28 1.0
-57.47943333333333 2.1339813333333333 1496.1166666666668 0.8753281640569275 -0.45600600377202133 -0.1608077415194914
-50.2655 38.6234 1765.1899999999998 1.0 0.0 0.0
-50.2655 38.6234 1765.1899999999998 1.0 0.0 0.0
-50.2655 38.6234 1765.1899999999998 1.0 0.0 0.0
-50.73746666666667 42.08456666666667 1765.1899999999998 -1.4509766610957711e-26 -2.176311286488863e-26 1.0
-51.20943333333333 48.3776 1765.1899999999998 0.0 1.0 0.0
-50.45133333333334 66.09303333333332 1763.47 0.25898674306521835 -0.9496669798661935 0.17623420289005537
-50.4399 70.7722 1754.84 0.0 0.0 1.0
-50.21443333333334 79.14229999999999 1749.71 0.0 0.0 1.0
-51.162800000000004 85.96900000000001 1739.53 0.0 0.0 1.0
-50.5588 94.87473333333332 1729.4800000000002 -5.665913083578959e-27 2.833160753792701e-27 1.0
-50.5588 94.87473333333332 1729.4800000000002 -5.665913083578959e-27 2.8331607537927024e-27 1.0
-51.8732 97.829 1724.5 0.0 0.0 1.0
-51.22736666666666 120.34266666666667 1708.0866666666668 -0.7056862817566582 -0.7058406988861445 0.06160989803904709
-48.7643 -134.995 1864.17 0.0 0.0 1.0
-50.05003333333334 -103.544 1797.0 0.0 0.0 1.0
-49.88986666666667 -100.82066666666668 1797.0 0.0 0.0 1.0
-49.88986666666667 -100.18006666666668 1797.0 0.0 0.0 1.0
-50.77846666666667 -99.2414 1791.62 0.0 0.0 1.0
-49.43283333333333 -87.1642 1786.2699999999998 -9.695553789164308e-19 1.9392122677819003e-18 1.0
-50.5781 -80.62793333333333 1765.2 -0.8109875958028829 0.5792867272465785 0.08201223743934787
-50.865700000000004 -51.0249 1786.2699999999998 -7.082747340014547e-27 -2.656030252505434e-27 1.0
-50.706466666666664 -47.363200000000006 1786.2699999999998 -3.246516668575929e-27 -7.37850034959729e-27 1.0
-49.43286666666666 -40.358200000000004 1786.2699999999998 -4.7222434664270295e-27 -7.083488807789214e-27 1.0
-49.43286666666666 -40.358200000000004 1786.2699999999998 -4.722243466427055e-27 -7.083488807789248e-27 1.0
-52.063500000000005 -34.365066666666664 1780.95 0.0 0.0 1.0
-51.428599999999996 -31.031766666666666 1780.95 0.0 0.0 1.0
-51.03856666666667 -23.659766666666666 1775.67 0.0 0.0 1.0
-51.43983333333333 -5.601576666666666 1770.41 0.0 0.0 1.0
-54.72946666666667 5.744736666666667 1516.22 -0.9925958681827265 -1.9622037516317296e-16 0.12146374959871584
-54.72946666666667 5.744736666666667 1516.22 -0.9925958681827264 -3.123208747364025e-17 0.12146374959871564
-50.8948 22.261566666666667 1765.1899999999998 3.5131624451580784e-28 3.2620096093389745e-28 1.0
-50.73746666666667 42.08456666666667 1765.1899999999998 -1.4509766610957711e-26 -2.176311286488863e-26 1.0
-51.20943333333333 45.07373333333334 1765.1899999999998 6.0452236559600675e-27 2.4180382327606402e-27 1.0
-51.29410000000001 53.411766666666665 1760.0 0.0 0.0 1.0
-50.59629999999999 67.0186 1754.84 0.0 0.0 1.0
-51.221900000000005 68.739 1754.84 0.0 0.0 1.0
-50.4399 70.7722 1754.84 0.0 0.0 1.0
-49.590666666666664 78.05066666666666 1749.71 0.0 0.0 1.0
-51.700666666666656 78.44506666666666 1744.61 0.0 0.0 1.0
-50.6977 87.36436666666667 1739.53 0.0 0.0 1.0
-50.88126666666667 104.75099999999999 1719.54 0.0 0.0 1.0
-50.88126666666667 104.75099999999999 1719.54 0.0 0.0 1.0
-50.11496666666667 107.50933333333334 1719.54 0.0 0.0 1.0
-51.80949999999999 121.524 1709.71 0.0 0.0 1.0
-51.80949999999999 121.524 1709.71 0.0 0.0 1.0
-43.4872 168.923 2301.54 0.0 0.0 1.0
-50.217600000000004 -113.82266666666668 1777.43 -0.9587514670983017 0.2615177307037203 0.1113736991593187
-50.370366666666676 -102.42266666666667 1797.0 0.0 0.0 1.0
-49.98003333333333 -96.8463 1791.62 0.0 0.0 1.0
-51.08623333333333 -78.31316666666667 1744.6166666666668 0.12321384086214168 0.3503769798555773 0.9284688047572106
-51.3433 -78.08953333333334 1786.2699999999998 -3.305578696366595e-26 2.1249230678241778e-26 1.0
-51.3433 -78.08953333333334 1786.2699999999998 -3.3055786963666184e-26 2.124923067824194e-26 1.0
-51.02486666666666 -73.1542 1786.2699999999998 1.770686835003625e-27 -8.85380492184295e-27 1.0
-51.0249 -63.60196666666666 1786.2699999999998 -7.649070546149782e-26 8.498703647872826e-27 1.0
-50.22886666666667 -62.32833333333334 1786.2699999999998 -1.0622934718373679e-27 -7.082080043079485e-28 1.0
-50.865700000000004 -51.0249 1786.2699999999998 -7.082747340014547e-27 -2.656030252505434e-27 1.0
-51.19683333333333 -24.451066666666666 1775.67 0.0 0.0 1.0
-51.59766666666667 -13.648933333333332 1770.41 0.0 0.0 1.0
-51.1243 -13.491133333333332 1770.41 0.0 0.0 1.0
-50.966499999999996 -12.2288 1770.41 0.0 0.0 1.0
-47.950133333333326 9.531986666666667 1657.6266666666668 0.6774326188995587 0.010608202834816602 0.7355083363793374
-51.52406666666667 25.5654 1765.1899999999998 -2.5377492510049993e-26 1.8127987419751206e-26 1.0
-51.52406666666667 25.5654 1765.1899999999998 -2.5377492510049993e-26 1.8127987419751206e-26 1.0
-51.366733333333336 28.7119 1765.1899999999998 -1.128047879172721e-26 8.056996984525749e-28 1.0
-51.6814 29.18386666666667 1765.1899999999998 3.625904764015047e-27 4.0800072220423004e-27 1.0
-50.73746666666667 42.08456666666667 1765.1899999999998 -1.4509766610957706e-26 -2.176311286488862e-26 1.0
-51.209399999999995 43.34316666666666 1765.1899999999998 0.9995120760870788 6.0608564469687335e-18 0.031234752377721525
-51.052099999999996 44.2871 1765.1899999999998 2.0310599282503711e-25 -7.252731563570605e-26 1.0
-51.20943333333333 48.3776 1765.1899999999998 0.0 1.0 0.0
-51.29410000000001 53.411766666666665 1760.0 0.0 0.0 1.0
-51.70066666666667 78.44506666666666 1744.61 0.0 0.0 1.0
-51.16276666666667 79.14726666666667 1739.53 0.0 0.0 1.0
-51.31783333333333 84.10853333333334 1739.53 0.0 0.0 1.0
-52.95126666666666 114.995 1714.61 0.0 0.0 1.0
-52.11426666666667 122.13366666666666 1709.71 0.0 0.0 1.0
-49.7612 -136.324 1864.17 0.0 0.0 1.0
-49.7612 -136.324 1864.17 0.0 0.0 1.0
-51.33133333333333 -106.58633333333334 1797.0 0.0 0.0 1.0
-52.174033333333334 -89.25420000000001 1773.9166666666667 -0.3508067008135333 0.5262285244536243 0.7746084163728699
-51.25749999999999 -86.78643333333333 1791.62 0.0 0.0 1.0
-51.940666666666665 -83.46863333333334 1768.67 -0.6968032693105848 0.6968032693105627 0.17008941106427525
-51.8209 -65.35323333333334 1786.2699999999998 -2.0238236955761823e-27 1.5178450698415733e-27 1.0
-51.02486666666666 -53.73133333333333 1786.2699999999998 8.498407102571896e-28 4.248610449508396e-28 1.0
-50.865700000000004 -51.0249 1786.2699999999998 -7.082747340014547e-27 -2.656030252505434e-27 1.0
-53.1746 -39.444433333333336 1780.95 0.0 0.0 1.0
-54.12786666666667 -37.7525 1717.9166666666667 0.8866136607381082 -0.45468739346150844 -0.08470885915741076
-51.428599999999996 -31.031766666666666 1780.95 0.0 0.0 1.0
-51.43983333333333 -5.601576666666666 1770.41 0.0 0.0 1.0
-51.124233333333336 4.02367 1770.41 0.0 0.0 1.0
-52.94 6.05703 1765.1899999999998 -3.1476090278061066e-29 5.980747266915759e-29 1.0
-52.228766666666665 20.5917 1770.41 0.0 0.0 1.0
-51.366733333333336 28.7119 1765.1899999999998 -1.128047879172721e-26 8.056996984525745e-28 1.0
-52.3107 31.8584 1765.1899999999998 -4.496274096112093e-28 4.196243063470448e-28 1.0
-50.73746666666667 38.938066666666664 1765.1899999999998 -1.2088056550934836e-27 -1.2806953479692088e-31 1.0
-51.36676666666667 46.0177 1765.1899999999998 -3.8079491133521316e-26 -1.9944204835564525e-26 1.0
-51.52406666666667 47.119 1765.1899999999998 -1.377720901554912e-25 2.900570171179639e-26 1.0
-51.29409999999999 53.411766666666665 1760.0 0.0 0.0 1.0
-51.92156666666667 62.039233333333335 1760.0 0.0 0.0 1.0
-52.235299999999995 63.13726666666667 1760.0 0.0 0.0 1.0
-51.2219 67.3314 1754.84 0.0 0.0 1.0
-52.248066666666666 84.10853333333334 1739.53 0.0 0.0 1.0
-52.60893333333333 88.12426666666666 1736.17 -0.689323114929888 0.60316933783682 0.4012734642570432
-52.334300000000006 96.5994 1724.5 0.0 0.0 1.0
-52.334300000000006 99.2122 1724.5 0.0 0.0 1.0
-52.64563333333333 114.231 1714.61 0.0 0.0 1.0
-52.723800000000004 122.43833333333333 1709.71 0.0 0.0 1.0
-51.92433333333333 -123.39266666666667 1789.8366666666668 0.9576877550166281 -0.23934700231010217 -0.15983484093394396
-51.792766666666665 -121.35699999999999 1788.0533333333333 -0.9998755868518109 4.3831860211511486e-16 0.015773738229962177
-51.792766666666665 -121.35699999999999 1788.0533333333333 -0.9998755868518109 4.3831860211511486e-16 0.015773738229962177
-52.292300000000004 -114.43466666666667 1797.0 0.0 0.0 1.0
-52.292300000000004 -111.71166666666666 1797.0 0.0 0.0 1.0
-51.50246666666667 -90.02986666666668 1786.2699999999998 -2.0167379694357203e-25 -6.262159231990046e-25 1.0
-51.940666666666665 -83.46863333333334 1768.67 -0.6968032693105852 0.6968032693105625 0.17008941106427508
-51.940666666666665 -83.46863333333334 1768.67 -0.6968032693105856 0.696803269310562 0.17008941106427514
-52.4629 -27.2997 1775.67 0.0 0.0 1.0
-52.4629 -16.221566666666668 1775.67 0.0 0.0 1.0
-52.071000000000005 -6.390533333333334 1770.41 0.0 0.0 1.0
-57.40443333333334 -1.8049786666666667 1508.5866666666668 -0.870708248629927 0.4813205327873402 0.10098361493388947
-52.38656666666666 2.4457596666666666 1770.41 0.0 0.0 1.0
-50.73746666666667 11.4061 1765.1899999999998 -2.8488467806328157e-27 4.66186187380649e-27 1.0
-52.228766666666665 20.5917 1770.41 0.0 0.0 1.0
-52.31073333333333 24.3068 1765.1899999999998 1.0877714292044843e-26 -7.251809528029935e-27 1.0
-52.31073333333333 24.3068 1765.1899999999998 1.0877714292044858e-26 -7.251809528029943e-27 1.0
-51.6814 29.18386666666667 1765.1899999999998 3.625904764015047e-27 4.0800072220423004e-27 1.0
-52.94 31.0718 1765.1899999999998 0.0 0.0 1.0
-52.46803333333333 34.69023333333333 1765.1899999999998 0.0 0.0 1.0
-51.6814 47.905633333333334 1765.1899999999998 3.625904764015027e-27 9.111252812861755e-42 1.0
-52.70586666666667 51.215666666666664 1760.0 0.0 0.0 1.0
-53.333333333333336 56.235299999999995 1760.0 0.0 0.0 1.0
-51.92156666666667 62.039233333333335 1760.0 0.0 0.0 1.0
-50.59629999999999 74.3695 1754.84 0.0 0.0 1.0
-51.499366666666674 77.52386666666666 1737.8500000000001 -0.3189488710100118 -0.7442368911591717 0.586841603432451
-52.7891 77.35663333333332 1744.61 0.0 0.0 1.0
-51.16276666666667 79.14726666666667 1739.53 0.0 0.0 1.0
-53.1801 110.88100000000001 1719.54 0.0 0.0 1.0
-53.1801 110.88100000000001 1719.54 0.0 0.0 1.0
-53.485733333333336 123.35233333333333 1709.71 0.0 0.0 1.0
-43.4872 168.923 2301.54 0.0 0.0 1.0
-50.4557 -137.178 1862.2433333333336 -0.9827843004996462 -1.0879071082092099e-16 0.18475664721849916
-52.6946 -126.70666666666666 1791.62 0.0 0.0 1.0
-52.292300000000004 -114.43466666666667 1797.0 0.0 0.0 1.0
-52.292300000000004 -111.71166666666666 1797.0 0.0 0.0 1.0
-52.0559 -100.0398 1791.62 0.0 0.0 1.0
-51.9801 -79.04476666666666 1786.2699999999998 -1.2319503091010528e-24 9.699405512105137e-25 1.0
-52.77609999999999 -71.8806 1786.2699999999998 9.443663120019362e-27 -1.4165494680029185e-26 1.0
-52.77609999999999 -71.8806 1786.2699999999998 9.443663120019362e-27 -1.4165494680029185e-26 1.0
-51.98009999999999 -51.661699999999996 1786.2699999999998 5.31206050501092e-27 -3.370041747385837e-44 1.0
-51.5025 -50.865700000000004 1786.2699999999998 1.6998593616034757e-27 -7.932677020816294e-27 1.0
-54.12786666666667 -37.7525 1717.9166666666667 0.8866136607381082 -0.45468739346150844 -0.08470885915741076
-53.1746 -34.84126666666666 1780.95 0.0 0.0 1.0
-52.380966666666666 -31.666700000000002 1780.95 0.0 0.0 1.0
-52.4629 -27.2997 1775.67 0.0 0.0 1.0
-51.35509999999999 -24.134533333333334 1775.67 0.0 0.0 1.0
-52.4629 -16.221566666666668 1775.67 0.0 0.0 1.0
-51.59766666666667 -12.859966666666667 1770.41 0.0 0.0 1.0
-60.07853333333333 4.129372 1746.3099999999997 -0.11809182162372263 -0.5707772362988418 0.8125685621463871
-54.915666666666674 5.354103333333334 1521.36 -0.8768820839756633 0.4384500163208985 0.19707712701047098
-51.838766666666665 14.867233333333331 1765.1899999999998 2.393069488913928e-27 2.17548139979189e-27 1.0
-51.68143333333333 15.968533333333331 1765.1899999999998 5.8420413249241095e-27 -1.3295197531190707e-26 1.0
-53.491133333333345 17.5937 1770.41 0.0 0.0 1.0
-52.468066666666665 23.6775 1765.1899999999998 3.6264809955242656e-27 -1.8133365431298912e-27 1.0
-52.468066666666665 23.6775 1765.1899999999998 3.626480995524267e-27 -1.8133365431298916e-27 1.0
-54.34993333333333 56.38320000000001 1754.84 0.0 0.0 1.0
-55.06483333333333 69.00616666666667 1737.8500000000001 0.4697431518712667 -0.46974315187128 0.7474508295132755
-52.24806666666666 84.10853333333334 1739.53 0.0 0.0 1.0
-53.333333333333336 93.02503333333334 1729.4800000000002 1.3224065294482599e-25 -3.0225010922641334e-26 1.0
-53.333333333333336 93.02503333333334 1729.4800000000002 1.3224065294482599e-25 -3.0225010922641334e-26 1.0
-53.333333333333336 110.26799999999999 1719.54 0.0 0.0 1.0
-53.562533333333334 114.995 1714.61 0.0 0.0 1.0
-53.562533333333334 114.995 1714.61 0.0 0.0 1.0
-53.028566666666656 123.04766666666666 1709.71 0.0 0.0 1.0
-52.174033333333334 -89.25420000000001 1773.9166666666667 -0.3508067008135332 0.5262285244536242 0.7746084163728699
-52.77610000000001 -90.34826666666667 1786.2699999999998 -4.253385062566265e-28 -2.974255661665104e-27 1.0
-51.9801 -79.04476666666666 1786.2699999999998 -1.2319503091010528e-24 9.699405512105137e-25 1.0
-53.65266666666667 -78.32336666666667 1791.62 0.0 0.0 1.0
-53.2537 -73.4726 1786.2699999999998 -3.54137367000728e-27 2.6426525184469886e-41 1.0
-53.57213333333333 -66.94529999999999 1786.2699999999998 1.4606567704098568e-26 1.7263432047818635e-26 1.0
-52.8543 -63.47306666666666 1791.62 0.0 0.0 1.0
-53.014 -63.15369999999999 1791.62 0.0 0.0 1.0
-51.3433 -48.000033333333334 1786.2699999999998 0.0 0.0 1.0
-50.00036666666667 -40.0837 1753.1299999999999 -0.31105742918636753 0.505463143247486 0.8048293524507786
-52.28706666666667 -31.94883333333333 1671.5166666666664 -0.00014842326154184632 -0.8013122883113697 0.598246265823475
-52.4629 -27.2997 1775.67 0.0 0.0 1.0
-52.9377 -15.905033333333334 1775.67 0.0 0.0 1.0
-52.9377 -13.847700000000001 1775.67 0.0 0.0 1.0
-53.2542 -12.423366666666666 1775.67 0.0 0.0 1.0
-53.887233333333334 -10.840766666666665 1775.67 0.0 0.0 1.0
-52.94 6.05703 1765.1899999999998 -3.1476090278061066e-29 5.980747266915759e-29 1.0
-53.17553333333333 21.0651 1770.41 0.0 0.0 1.0
-52.94 31.0718 1765.1899999999998 0.0 0.0 1.0
-52.94 39.25273333333333 1765.1899999999998 0.0 0.0 1.0
-51.838699999999996 42.87120000000001 1765.1899999999998 8.059024499669289e-28 4.432351414541105e-27 1.0
-51.6911 58.72923333333333 1754.84 0.0 0.0 1.0
-52.70589999999999 64.07843333333334 1760.0 0.0 0.0 1.0
-52.70589999999999 64.07843333333334 1760.0 0.0 0.0 1.0
-53.333333333333336 93.02503333333333 1729.4800000000002 4.1563169036611304e-26 -7.556865515733111e-27 1.0
-52.33429999999999 96.59939999999999 1724.5 0.0 0.0 1.0
-46.97593333333333 94.95396666666666 1748.01 0.39624152420110875 0.4457677445824588 0.8026728925213868
-53.7176 99.51960000000001 1724.5 0.0 0.0 1.0
-53.946333333333335 110.115 1719.54 0.0 0.0 1.0
-53.562533333333334 114.995 1714.61 0.0 0.0 1.0
-53.18096666666667 118.17133333333334 1709.71 0.0 0.0 1.0
-53.485733333333336 123.35233333333333 1709.71 0.0 0.0 1.0
-44.92306666666667 168.513 2301.54 0.0 0.0 1.0
-53.62583333333333 -131.46833333333333 1793.4133333333332 -0.8857886513198248 -0.44289432565991227 0.1386473277465447
-53.253233333333334 -114.11433333333333 1797.0 0.0 0.0 1.0
-52.292300000000004 -111.71166666666666 1797.0 0.0 0.0 1.0
-51.33133333333333 -106.58633333333334 1797.0 0.0 0.0 1.0
-52.29846666666666 -92.89553333333333 1786.2699999999998 4.426485379840228e-28 -1.4755122895205472e-28 1.0
-53.81236666666666 -88.8623 1791.62 0.0 0.0 1.0
-53.2537 -73.4726 1786.2699999999998 -3.54137367000728e-27 2.650137893681706e-41 1.0
-53.57213333333333 -66.94529999999999 1786.2699999999998 1.4606567704098577e-26 1.7263432047818643e-26 1.0
-53.014 -63.47306666666666 1791.62 0.0 0.0 1.0
-53.014 -63.15369999999999 1791.62 0.0 0.0 1.0
-53.014 -62.67463333333333 1791.62 0.0 0.0 1.0
-46.17933333333334 -70.32553333333334 1997.26 0.00022780170428460955 -0.8401070658941129 0.5424205618716609
-52.457699999999996 -59.30346666666666 1786.2699999999998 4.974673552920961e-27 3.1728287995041673e-27 1.0
-53.89053333333334 -57.87063333333333 1786.2699999999998 -8.852507380726583e-28 -3.5410400215397413e-28 1.0
-53.80949999999999 -32.936499999999995 1780.95 0.0 0.0 1.0
-53.015866666666675 -32.3016 1780.95 0.0 0.0 1.0
-53.887233333333334 -20.652833333333334 1775.67 0.0 0.0 1.0
-53.887233333333334 -19.86153333333333 1775.67 0.0 0.0 1.0
-52.9377 -15.905033333333334 1775.67 0.0 0.0 1.0
-53.227533333333334 -9.685123333333333 1766.9399999999998 -0.9846984036754188 -0.16410802215293405 0.05863114244267989
-53.96450000000001 -6.863906666666666 1770.41 0.0 0.0 1.0
-53.333333333333336 1.025641 1770.41 0.0 0.0 1.0
-53.491133333333345 17.5937 1770.41 0.0 0.0 1.0
-52.94 31.0718 1765.1899999999998 0.0 0.0 1.0
-53.72663333333333 35.94883333333333 1765.1899999999998 0.0 0.0 1.0
-53.80393333333333 55.92156666666667 1760.0 0.0 0.0 1.0
-56.83186666666666 58.542300000000004 1744.61 0.0 0.0 1.0
-54.34403333333333 75.33526666666666 1744.61 0.0 0.0 1.0
-52.413833333333336 104.75100000000002 1719.54 0.0 0.0 1.0
-55.10086666666666 106.43633333333334 1724.5 0.0 0.0 1.0
-53.972033333333336 -131.17766666666668 1791.62 0.0 0.0 1.0
-53.62283333333334 -125.43733333333334 1782.7233333333334 -0.8837326341444359 0.4418972492610236 -0.15408910553208235
-53.97206666666667 -100.6784 1791.62 0.0 0.0 1.0
-52.77609999999999 -90.34826666666667 1786.2699999999998 1.0622786489108472e-26 -1.062234164880399e-26 1.0
-52.139266666666664 -82.54726666666666 1786.2699999999998 7.043040368186638e-28 9.2858197348418e-28 1.0
-53.972033333333336 -76.8862 1791.62 0.0 0.0 1.0
-53.2537 -73.4726 1786.2699999999998 -3.54137367000728e-27 2.641800006569956e-41 1.0
-53.4129 -72.995 1786.2699999999998 -7.082747340014535e-27 -8.853434175018083e-27 1.0
-50.634899999999995 -52.619033333333334 1780.95 0.0 0.0 1.0
-55.692566666666664 -43.3063 1726.1599999999999 -0.421167523445531 -0.8422893770229826 0.3364023224488711
-54.761900000000004 -38.96823333333333 1780.95 0.0 0.0 1.0
-53.492066666666666 -35.63493333333333 1780.95 0.0 0.0 1.0
-53.887233333333334 -19.86153333333333 1775.67 0.0 0.0 1.0
-53.887233333333334 -10.840766666666665 1775.67 0.0 0.0 1.0
-52.94 6.05703 1765.1899999999998 -3.147609027806108e-29 5.98074726691576e-29 1.0
-54.753433333333334 14.122300000000001 1770.41 0.0 0.0 1.0
-55.858 25.956633333333333 1770.41 0.0 0.0 1.0
-53.411966666666665 40.51133333333333 1765.1899999999998 0.0 0.0 1.0
-53.490166666666674 50.90193333333334 1760.0 0.0 0.0 1.0
-53.490166666666674 50.90193333333334 1760.0 0.0 0.0 1.0
-54.74506666666667 57.33336666666667 1760.0 0.0 0.0 1.0
-53.96076666666667 67.05883333333333 1760.0 0.0 0.0 1.0
-54.344033333333336 75.95723333333333 1744.61 0.0 0.0 1.0
-54.874766666666666 97.1869 1729.4800000000002 2.6982636195910877e-27 1.888745356338173e-27 1.0
-55.4083 103.055 1724.5 0.0 0.0 1.0
-55.25456666666667 106.89766666666667 1724.5 0.0 0.0 1.0
-54.712633333333336 110.42166666666667 1719.54 0.0 0.0 1.0
-54.0996 111.64766666666667 1719.54 0.0 0.0 1.0
-55.24356666666667 123.24733333333332 1714.61 0.0 0.0 1.0
-45.9487 168.513 2301.54 0.0 0.0 1.0
-53.972033333333336 -131.17766666666668 1791.62 0.0 0.0 1.0
-53.972033333333336 -131.17766666666668 1791.62 0.0 0.0 1.0
-55.40973333333333 -125.56166666666667 1768.67 -0.8280038405980972 0.41400192029904714 0.37816934030074767
-54.21423333333333 -117.157 1797.0 0.0 0.0 1.0
-54.21423333333333 -117.157 1797.0 0.0 0.0 1.0
-55.54343333333333 -107.65466666666667 1793.4133333333332 0.690250225397579 0.6903222765693334 0.2168173904711628
-53.80466666666666 -87.26606666666667 1749.72 0.9594545418745256 -0.27411635171951226 -0.06562932116309864
-53.81236666666666 -88.8623 1791.62 0.0 0.0 1.0
-53.81236666666666 -88.8623 1791.62 0.0 0.0 1.0
-53.65266666666667 -78.32336666666667 1791.62 0.0 0.0 1.0
-53.972033333333336 -77.8443 1791.62 0.0 0.0 1.0
-54.2914 -76.24746666666667 1791.62 0.0 0.0 1.0
-53.333333333333336 -64.1118 1791.62 0.0 0.0 1.0
-55.06256666666667 -43.44593333333333 1737.8500000000001 -0.9943799897428947 1.7403658200727411e-15 0.10586990128889685
-55.06256666666667 -43.44593333333333 1737.8500000000001 -0.9943799897428947 1.6987324566492978e-15 0.10586990128889685
-54.444433333333336 -39.761900000000004 1780.95 0.0 0.0 1.0
-54.603166666666674 -36.111133333333335 1780.95 0.0 0.0 1.0
-53.887233333333334 -20.652833333333334 1775.67 0.0 0.0 1.0
-54.75346666666667 -1.341222 1770.41 0.0 0.0 1.0
-54.43786666666667 -0.23668566666666666 1770.41 0.0 0.0 1.0
-54.595666666666666 8.126233333333333 1770.41 0.0 0.0 1.0
-54.59566666666666 8.126233333333333 1770.41 0.0 0.0 1.0
-55.06903333333333 12.859966666666665 1770.41 0.0 0.0 1.0
-53.49113333333333 17.5937 1770.41 0.0 0.0 1.0
-54.28006666666666 21.2229 1770.41 0.0 0.0 1.0
-54.74506666666667 57.33336666666667 1760.0 0.0 0.0 1.0
-61.82606666666667 66.49293333333334 1712.9766666666667 -0.2920290497944001 -0.25766916441756166 0.9210459466196761
-53.96076666666667 67.05883333333333 1760.0 0.0 0.0 1.0
-54.966 74.8688 1744.61 0.0 0.0 1.0
-54.96596666666667 76.89016666666667 1744.61 0.0 0.0 1.0
-55.10086666666667 99.827 1724.5 0.0 0.0 1.0
-53.55983333333334 116.472 1704.8500000000001 -0.8383463517180451 0.5238941338438059 -0.15069947274324558
-53.63810000000001 119.08566666666667 1709.71 0.0 0.0 1.0
-55.3964 122.48333333333333 1714.61 0.0 0.0 1.0
-55.3964 122.48333333333333 1714.61 0.0 0.0 1.0
-45.9487 168.513 2301.54 0.0 0.0 1.0
-56.17353333333333 -128.99433333333334 1770.41 0.0 0.0 1.0
-54.37436666666667 -115.55566666666668 1797.0 0.0 0.0 1.0
-54.37436666666667 -113.634 1797.0 0.0 0.0 1.0
-53.253233333333334 -110.911 1797.0 0.0 0.0 1.0
-56.09506666666667 -96.33370000000001 1753.13 0.9639981832851192 -0.25953797242291704 -0.057857959639021406
-53.57213333333334 -66.94530000000002 1786.2699999999998 -2.323731064129771e-26 -2.4566715899867932e-26 1.0
-54.09186666666667 -57.412933333333335 1772.1633333333332 -0.5837686294088792 0.2150781186858274 0.7829148039094955
-55.06256666666667 -43.44593333333333 1737.8500000000001 -0.9943799897428947 1.7403658200727411e-15 0.10586990128889685
-54.2857 -33.0952 1780.95 0.0 0.0 1.0
-54.2857 -32.619033333333334 1780.95 0.0 0.0 1.0
-53.41246666666667 -27.774466666666665 1775.67 0.0 0.0 1.0
-57.32796666666667 -21.188466666666667 1540.9733333333334 -0.9676181731563457 0.1766153256295601 0.18033884143561715
-54.67853333333333 -10.524246666666665 1775.67 0.0 0.0 1.0
-55.3116 -9.41642 1775.67 0.0 0.0 1.0
-54.59566666666666 10.019723333333333 1770.41 0.0 0.0 1.0
-54.753433333333334 14.122300000000001 1770.41 0.0 0.0 1.0
-53.25470000000001 24.621433333333332 1765.1899999999998 -2.2098006707788946e-27 -3.775950295741309e-27 1.0
-55.2999 46.489666666666665 1765.1899999999998 4.268984535521698e-32 -4.0290676047767955e-28 1.0
-55.142599999999995 47.7483 1765.1899999999998 3.3082120322289186e-26 8.702908952667241e-28 1.0
-56.657000000000004 85.41063333333334 1734.49 0.0 0.0 1.0
-55.4083 103.055 1724.5 0.0 0.0 1.0
-55.47893333333334 110.42166666666667 1719.54 0.0 0.0 1.0
-54.020999999999994 113.00866666666667 1714.61 0.0 0.0 1.0
-55.549200000000006 122.78899999999999 1714.61 0.0 0.0 1.0
-55.549200000000006 122.78899999999999 1714.61 0.0 0.0 1.0
-55.2841 -128.552 1777.4366666666667 -0.8895110217172614 0.44478664530111467 0.10457046621916767
-53.59366666666667 -106.48200000000001 1773.9166666666667 -0.31452986111656095 -0.8806438643031421 0.35431250433935585
-54.77043333333333 -76.8862 1791.62 0.0 0.0 1.0
-54.77043333333333 -76.24746666666667 1791.62 0.0 0.0 1.0
-55.96020000000001 -56.7562 1786.2699999999998 -4.565737954720113e-27 1.7560530595078685e-28 1.0
-55.952733333333335 -43.0831 1729.49 -0.994378084812574 -1.4529265482148773e-06 0.1058877917531901
-55.64180000000001 -43.22389999999999 1786.2699999999998 -2.4866369230511988e-27 -2.235194636958517e-27 1.0
-54.920633333333335 -39.603166666666674 1780.95 0.0 0.0 1.0
-54.761900000000004 -38.96823333333334 1780.95 0.0 0.0 1.0
-56.349199999999996 -27.380966666666666 1780.95 0.0 0.0 1.0
-56.349199999999996 -27.380966666666666 1780.95 0.0 0.0 1.0
-55.63556666666667 -18.819266666666664 1570.61 -0.7836479778778422 0.6132063620622915 0.09936701814132703
-55.3116 -9.41642 1775.67 0.0 0.0 1.0
-54.75346666666667 -1.341222 1770.41 0.0 0.0 1.0
-55.06903333333333 12.859966666666665 1770.41 0.0 0.0 1.0
-55.2268 13.648933333333332 1770.41 0.0 0.0 1.0
-55.38463333333333 20.591733333333334 1770.41 0.0 0.0 1.0
-56.401166666666676 37.364799999999995 1765.1899999999998 -8.268138429096113e-27 -7.397721525694003e-27 1.0
-55.638600000000004 41.413833333333336 1763.46 0.3863118058763705 0.9014033083228709 0.19553839619144125
-55.2999 46.489666666666665 1765.1899999999998 4.268984535523677e-32 -4.0290676047767955e-28 1.0
-55.142599999999995 47.7483 1765.1899999999998 3.3082120322289186e-26 8.702908952667256e-28 1.0
-56.715833333333336 51.99606666666667 1765.1899999999998 1.7904732767837453e-29 2.2742941392929576e-28 1.0
-56.0 56.70590000000001 1760.0 0.0 0.0 1.0
-55.37253333333334 57.33336666666667 1760.0 0.0 0.0 1.0
-56.0 62.0392 1760.0 0.0 0.0 1.0
-56.0 62.0392 1760.0 0.0 0.0 1.0
-56.124066666666664 70.77516666666666 1739.53 0.0 0.0 1.0
-55.743433333333336 77.20116666666667 1744.61 0.0 0.0 1.0
-53.64343333333333 83.64343333333335 1739.53 0.0 0.0 1.0
-55.4083 103.055 1724.5 0.0 0.0 1.0
-55.47893333333334 110.42166666666667 1719.54 0.0 0.0 1.0
-56.94526666666667 109.35633333333334 1724.5 0.0 0.0 1.0
-56.385533333333335 -126.34533333333333 1802.41 0.0 0.0 1.0
-55.33533333333333 -113.794 1797.0 0.0 0.0 1.0
-56.0479 -101.47666666666665 1791.62 0.0 0.0 1.0
-57.165666666666674 -95.4092 1791.62 0.0 0.0 1.0
-55.692566666666664 -43.3063 1726.1599999999999 -0.42116752344553104 -0.8422893770229825 0.33640232244887114
-55.396833333333326 -36.269866666666665 1780.95 0.0 0.0 1.0
-56.409866666666666 -19.06533333333333 1566.4966666666667 0.7914276138758474 -0.6030069243223316 -0.10012482816017326
-56.26113333333333 -18.4372 1775.67 0.0 0.0 1.0
-56.419399999999996 -16.69633333333333 1775.67 0.0 0.0 1.0
-55.3116 -9.41642 1775.67 0.0 0.0 1.0
-55.54243333333333 0.867848 1770.41 0.0 0.0 1.0
-55.7002 15.857999999999999 1770.41 0.0 0.0 1.0
-55.22683333333333 22.011866666666666 1770.41 0.0 0.0 1.0
-55.05883333333333 54.9804 1760.0 0.0 0.0 1.0
-56.0 57.1765 1760.0 0.0 0.0 1.0
-56.4706 63.29409999999999 1760.0 0.0 0.0 1.0
-56.124066666666664 70.77516666666668 1739.53 0.0 0.0 1.0
-56.124066666666664 70.77516666666668 1739.53 0.0 0.0 1.0
-56.124066666666664 71.39533333333333 1739.53 0.0 0.0 1.0
-56.67636666666667 74.24686666666666 1744.61 0.0 0.0 1.0
-55.743433333333336 74.55783333333333 1744.61 0.0 0.0 1.0
-57.1869 89.94216666666667 1729.4800000000002 2.798052355202592e-27 4.8499627961915256e-27 1.0
-56.17673333333334 99.98066666666666 1724.5 0.0 0.0 1.0
-56.9452 105.36 1724.5 0.0 0.0 1.0
-57.931033333333325 115.01933333333334 1719.54 0.0 0.0 1.0
-57.53583333333333 118.20466666666668 1714.61 0.0 0.0 1.0
-56.313266666666664 122.48333333333333 1714.61 0.0 0.0 1.0
-56.77173333333334 122.63633333333333 1714.61 0.0 0.0 1.0
-56.385533333333335 -126.34533333333333 1802.41 0.0 0.0 1.0
-55.81583333333333 -113.47366666666666 1797.0 0.0 0.0 1.0
-55.81583333333333 -113.47366666666669 1797.0 0.0 0.0 1.0
-56.0479 -101.47666666666665 1791.62 0.0 0.0 1.0
-64.85210000000001 -84.06526666666667 1716.2633333333333 0.10275399361891499 0.7449566761563148 0.6591518546173555
-53.93223333333333 -64.20450000000001 1772.1633333333332 -0.43987600772678903 -0.1759522615777663 0.8806531096135476
-55.96020000000001 -56.7562 1786.2699999999998 -4.565737954720113e-27 1.7560530595078676e-28 1.0
-56.349199999999996 -41.03176666666666 1780.95 0.0 0.0 1.0
-55.396833333333326 -36.269866666666665 1780.95 0.0 0.0 1.0
-56.41936666666667 -23.0267 1775.67 0.0 0.0 1.0
-56.2611 -21.444133333333337 1775.67 0.0 0.0 1.0
-55.469833333333334 -19.544999999999998 1775.67 0.0 0.0 1.0
-56.804766666666666 -6.706113333333334 1770.41 0.0 0.0 1.0
-56.804766666666666 -6.706113333333334 1770.41 0.0 0.0 1.0
-56.96253333333334 1.3412199999999999 1770.41 0.0 0.0 1.0
-56.1736 17.4359 1770.41 0.0 0.0 1.0
-56.015800000000006 19.1716 1770.41 0.0 0.0 1.0
-58.14523333333333 24.744566666666667 1751.42 0.6006220197677185 -0.6757118084304974 0.42739529866124315
-56.1549 26.89933333333333 1760.0100000000002 -0.8928417314417553 -0.4464210031970884 0.05951412017827127
-56.401166666666676 37.364799999999995 1765.1899999999998 -8.268138429096113e-27 -7.397721525694003e-27 1.0
-58.42883333333333 38.5554 1741.2233333333334 0.464001043986475 0.2952709182438808 0.8351755001308866
-56.0 56.70589999999999 1760.0 0.0 0.0 1.0
-67.34883333333333 52.84246666666667 1316.1366666666665 -0.0784253680491011 0.994295176861365 0.07229497158578617
-56.3654 77.20116666666667 1744.61 0.0 0.0 1.0
-56.3654 77.20116666666667 1744.61 0.0 0.0 1.0
-57.5194 78.52713333333332 1739.53 0.0 0.0 1.0
-56.96619999999999 85.71983333333333 1734.49 0.0 0.0 1.0
-57.1869 89.94216666666667 1729.4800000000002 2.79805235520259e-27 4.849962796191524e-27 1.0
-57.18686666666667 100.73206666666665 1729.4800000000002 3.1651249445264144e-25 9.043772936717642e-26 1.0
-56.33043333333333 101.21036666666667 1724.5 0.0 0.0 1.0
-56.791500000000006 105.97499999999998 1724.5 0.0 0.0 1.0
-56.791500000000006 105.97500000000001 1724.5 0.0 0.0 1.0
-57.53583333333333 118.20466666666668 1714.61 0.0 0.0 1.0
-56.77173333333334 122.63633333333333 1714.61 0.0 0.0 1.0
-56.17353333333333 -128.99433333333334 1770.41 0.0 0.0 1.0
-56.17353333333333 -128.99433333333334 1770.41 0.0 0.0 1.0
-57.09596666666666 -107.954 1772.1633333333332 -0.9023109555205981 0.4101555215328787 0.13269283214852848
-56.0479 -101.47666666666665 1791.62 0.0 0.0 1.0
-57.165666666666674 -91.2575 1791.62 0.0 0.0 1.0
-56.84630000000001 -88.38323333333334 1791.62 0.0 0.0 1.0
-57.165666666666674 -80.07983333333334 1791.62 0.0 0.0 1.0
-56.597033333333336 -57.2338 1786.2699999999998 -3.9354088447727648e-28 -2.1248283219884697e-26 1.0
-56.4378 -51.3433 1786.2699999999998 -1.0589579437957274e-28 2.4961785031935357e-28 1.0
-59.3872 -38.477266666666665 1663.7633333333333 -0.9419949084788992 0.3324585238696907 0.046010023975398155
-55.396833333333326 -33.0952 1780.95 0.0 0.0 1.0
-57.32796666666667 -21.188466666666667 1540.9733333333334 -0.9676181731563457 0.1766153256295601 0.18033884143561715
-54.67853333333333 -29.198800000000002 1775.67 0.0 0.0 1.0
-56.41936666666667 -23.0267 1775.67 0.0 0.0 1.0
-56.419399999999996 -17.329366666666665 1775.67 0.0 0.0 1.0
-56.419399999999996 -16.69633333333333 1775.67 0.0 0.0 1.0
-56.69586666666667 26.8255 1754.8500000000001 -0.9584937627554148 -0.27384758204708876 0.07935495300187342
-55.264900000000004 54.87186666666667 1756.5600000000002 -0.48042463063350493 0.8647848135985644 0.14608011654553252
-57.88236666666666 59.68626666666666 1760.0 0.0 0.0 1.0
-56.784333333333336 62.66663333333333 1760.0 0.0 0.0 1.0
-57.876666666666665 66.9124 1748.01 -0.8925442937332346 0.3570406120500126 0.2754753801543679
-57.9203 69.2711 1744.61 0.0 0.0 1.0
-67.34883333333333 52.84246666666667 1316.1366666666665 -0.0784253680491011 0.994295176861365 0.07229497158578617
-57.5194 78.52713333333332 1739.53 0.0 0.0 1.0
-58.2029 80.61833333333334 1734.49 0.0 0.0 1.0
-57.341 101.50266666666668 1729.4800000000002 1.0 0.0 0.0
-57.341 101.50266666666668 1729.4800000000002 1.0 0.0 0.0
-57.341 101.50266666666668 1729.4800000000002 1.0 0.0 0.0
-56.9452 105.36 1724.5 0.0 0.0 1.0
-58.084300000000006 112.10733333333333 1719.54 0.0 0.0 1.0
-56.92453333333333 122.02499999999999 1714.61 0.0 0.0 1.0
-57.48503333333333 -90.45909999999999 1791.62 0.0 0.0 1.0
-57.48503333333333 -87.7445 1791.62 0.0 0.0 1.0
-57.48503333333334 -77.84433333333334 1791.62 0.0 0.0 1.0
-56.367266666666666 -77.36526666666667 1791.62 0.0 0.0 1.0
-56.367266666666666 -75.76843333333333 1791.62 0.0 0.0 1.0
-58.12373333333333 -70.97803333333333 1791.62 0.0 0.0 1.0
-58.09523333333334 -45.0 1780.95 0.0 0.0 1.0
-60.4386 -36.663999999999994 1662.2299999999998 0.24035385531985354 -0.960853115565335 0.13780897844941623
-56.89416666666667 -11.7903 1775.67 0.0 0.0 1.0
-57.5272 -4.035609999999999 1775.67 0.0 0.0 1.0
-57.5272 -3.0860566666666664 1775.67 0.0 0.0 1.0
-55.771866666666675 33.27436666666667 1765.1899999999998 -6.043787040665841e-28 3.099038621876623e-29 1.0
-58.22483333333334 35.89743333333334 1770.41 0.0 0.0 1.0
-57.1878 38.30876666666666 1765.1899999999998 -5.805598142246074e-26 -2.5399011396096803e-26 1.0
-58.13173333333334 40.66863333333333 1765.1899999999998 -1.115790290747108e-27 5.5789514537355255e-28 1.0
-57.502433333333336 47.748266666666666 1765.1899999999998 0.0 0.0 1.0
-57.502433333333336 47.748266666666666 1765.1899999999998 0.0 0.0 1.0
-57.162299999999995 51.967166666666664 1742.9166666666667 0.6463224587019234 -0.5744900362379941 0.502223533539368
-57.16323333333333 64.82793333333332 1754.8500000000001 -0.4471256084099667 -0.8944690796218494 -0.0019380155981509517
-57.9203 69.2711 1744.61 0.0 0.0 1.0
-57.29833333333334 74.09136666666667 1744.61 0.0 0.0 1.0
-57.89373333333333 83.09176666666667 1734.49 0.0 0.0 1.0
-58.313233333333336 -132.12833333333333 1802.41 0.0 0.0 1.0
-59.49946666666667 -122.923 1797.0 0.0 0.0 1.0
-56.2963 -114.11433333333333 1797.0 0.0 0.0 1.0
-56.6866 -101.47666666666667 1791.62 0.0 0.0 1.0
-57.32533333333333 -92.37526666666666 1791.62 0.0 0.0 1.0
-58.12376666666666 -82.95406666666666 1791.62 0.0 0.0 1.0
-58.12373333333333 -70.97803333333333 1791.62 0.0 0.0 1.0
-64.0906 -40.752633333333335 1684.0733333333335 0.6697248919153997 0.7366122892944371 0.0941854787603412
-57.619033333333334 -41.98413333333333 1780.95 0.0 0.0 1.0
-57.619033333333334 -37.0635 1780.95 0.0 0.0 1.0
-60.98303333333334 -22.806066666666666 1604.29 0.0 0.0 1.0
-61.445233333333334 -20.767966666666666 1601.43 -0.4810583743014297 0.8418310720040271 0.24475147951139384
-57.40443333333334 -1.8049786666666667 1508.5866666666668 -0.8707082486299271 0.48132053278734016 0.1009836149338893
-56.804766666666666 -6.706113333333334 1770.41 0.0 0.0 1.0
-58.224866666666664 8.757396666666667 1770.41 0.0 0.0 1.0
-57.435900000000004 11.913233333333332 1770.41 0.0 0.0 1.0
-58.224866666666664 28.007900000000003 1770.41 0.0 0.0 1.0
-58.13173333333333 39.567366666666665 1765.1899999999998 5.893295741216597e-27 4.986723517562944e-27 1.0
-57.502433333333336 47.748266666666666 1765.1899999999998 0.0 0.0 1.0
-57.88236666666666 59.68626666666666 1760.0 0.0 0.0 1.0
-56.9412 63.29409999999999 1760.0 0.0 0.0 1.0
-57.521899999999995 65.95026666666666 1751.42 -0.9222085731530638 0.3689070847331533 0.11592631468599321
-57.29833333333334 74.09136666666667 1744.61 0.0 0.0 1.0
-58.82123333333334 80.30916666666667 1734.49 0.0 0.0 1.0
-58.111766666666675 90.55876666666667 1729.4800000000002 -6.714067276783843e-27 -4.615467611367585e-26 1.0
-59.19076666666667 95.18306666666666 1729.4800000000002 2.8331096890615746e-27 5.6661172748821605e-27 1.0
-58.23756666666666 111.03466666666667 1719.54 0.0 0.0 1.0
-58.23756666666666 113.48666666666668 1719.54 0.0 0.0 1.0
-59.00383333333334 115.32566666666666 1719.54 0.0 0.0 1.0
-51.89743333333334 169.12833333333333 2301.54 0.0 0.0 1.0
-57.99196666666666 -131.32533333333333 1802.41 0.0 0.0 1.0
-58.1526 -129.87966666666665 1802.41 0.0 0.0 1.0
-59.511566666666674 -107.844 1754.8500000000001 0.9073579511964237 -0.39692544120232554 -0.13838982089361715
-59.30016666666666 -105.13833333333334 1746.3100000000002 0.8917029759962171 -0.4458037011290855 -0.07826150176874408
-58.283433333333335 -103.23333333333335 1791.62 0.0 0.0 1.0
-58.283433333333335 -98.44313333333334 1791.62 0.0 0.0 1.0
-57.32533333333333 -92.37526666666666 1791.62 0.0 0.0 1.0
-57.32533333333333 -81.51693333333333 1791.62 0.0 0.0 1.0
-56.48916666666667 -60.828366666666675 1770.41 0.0 0.0 1.0
-58.02986666666666 -57.233799999999995 1786.2699999999998 8.657020746084156e-27 4.958252697643406e-26 1.0
-58.09523333333334 -45.0 1780.95 0.0 0.0 1.0
-58.73013333333333 -35.63493333333333 1780.95 0.0 0.0 1.0
-57.21066666666667 -16.69633333333333 1775.67 0.0 0.0 1.0
-58.3185 -5.143423333333334 1775.67 0.0 0.0 1.0
-58.00196666666667 -2.7695366666666668 1775.67 0.0 0.0 1.0
-58.224866666666664 8.757396666666667 1770.41 0.0 0.0 1.0
-58.224866666666664 28.007900000000003 1770.41 0.0 0.0 1.0
-59.918966666666655 27.468433333333333 1746.3100000000002 -0.11544591654781354 0.7504293949379308 0.6507902608102908
-58.06706666666667 37.790933333333335 1770.41 0.0 0.0 1.0
-59.00873333333333 68.80463333333334 1744.61 0.0 0.0 1.0
-57.5194 78.52713333333334 1739.53 0.0 0.0 1.0
-59.130433333333336 84.48306666666667 1734.49 0.0 0.0 1.0
-58.23756666666666 111.03466666666667 1719.54 0.0 0.0 1.0
-59.00383333333334 115.32566666666666 1719.54 0.0 0.0 1.0
-58.299933333333335 117.74633333333334 1714.61 0.0 0.0 1.0
-58.299933333333335 117.74633333333334 1714.61 0.0 0.0 1.0
-59.310333333333325 120.22966666666667 1719.54 0.0 0.0 1.0
-51.89743333333334 169.12833333333333 2301.54 0.0 0.0 1.0
-58.762499999999996 -115.21 1791.62 0.0 0.0 1.0
-58.283433333333335 -98.44313333333334 1791.62 0.0 0.0 1.0
-58.283433333333335 -98.44313333333332 1791.62 0.0 0.0 1.0
-57.48503333333334 -77.84433333333334 1791.62 0.0 0.0 1.0
-58.84673333333334 -76.26273333333334 1784.4966666666667 -0.7034626119925308 0.7034626119925421 0.10139382159321228
-58.6667 -58.34826666666667 1786.2699999999998 1.1068530495967834e-28 -3.873174707360179e-28 1.0
-58.73013333333333 -35.63493333333333 1780.95 0.0 0.0 1.0
-57.9365 -26.904800000000005 1780.95 0.0 0.0 1.0
-58.00196666666667 -13.689400000000001 1775.67 0.0 0.0 1.0
-59.1098 -8.308606666666666 1775.67 0.0 0.0 1.0
-58.635 -2.7695366666666668 1775.67 0.0 0.0 1.0
-58.69820000000001 0.7100583333333333 1770.41 0.0 0.0 1.0
-58.69820000000001 0.7100583333333333 1770.41 0.0 0.0 1.0
-58.69820000000001 0.7100583333333333 1770.41 0.0 0.0 1.0
-58.69823333333333 9.704146666666666 1770.41 0.0 0.0 1.0
-58.69823333333333 28.007900000000003 1770.41 0.0 0.0 1.0
-59.0138 30.05916666666667 1770.41 0.0 0.0 1.0
-59.64496666666667 32.426066666666664 1770.41 0.0 0.0 1.0
-58.06706666666667 37.790933333333335 1770.41 0.0 0.0 1.0
-58.933366666666664 50.26056666666667 1737.8733333333332 -0.9613338714286526 0.26209364942134955 0.08452281690169572
-59.29410000000001 54.509800000000006 1760.0 0.0 0.0 1.0
-59.29410000000001 54.509800000000006 1760.0 0.0 0.0 1.0
-58.9804 59.37253333333333 1760.0 0.0 0.0 1.0
-58.85323333333333 67.56073333333335 1744.61 0.0 0.0 1.0
-59.4752 69.2711 1744.61 0.0 0.0 1.0
-59.285000000000004 80.30916666666667 1734.49 0.0 0.0 1.0
-59.285000000000004 80.30916666666667 1734.49 0.0 0.0 1.0
-58.111766666666675 90.55876666666667 1729.4800000000002 -6.714067276783853e-27 -4.6154676113675897e-26 1.0
-59.3449 94.72063333333334 1729.4800000000002 1.1754579437742803e-26 -6.381171551933907e-26 1.0
-58.7896 102.28633333333333 1724.5 0.0 0.0 1.0
-58.4822 106.89766666666667 1724.5 0.0 0.0 1.0
-58.4822 106.89766666666667 1724.5 0.0 0.0 1.0
-59.46360000000001 119.77 1719.54 0.0 0.0 1.0
-58.1526 -129.87966666666668 1802.41 0.0 0.0 1.0
-58.762499999999996 -115.21 1791.62 0.0 0.0 1.0
-58.762499999999996 -115.21 1791.62 0.0 0.0 1.0
-57.09596666666666 -107.95400000000001 1772.1633333333332 -0.902310955520598 0.4101555215328788 0.1326928321485283
-59.30016666666666 -105.13833333333334 1746.3100000000002 0.8917029759962164 -0.4458037011290863 -0.07826150176874473
-58.762499999999996 -89.98006666666667 1791.62 0.0 0.0 1.0
-58.28346666666667 -88.54289999999999 1791.62 0.0 0.0 1.0
-58.76246666666666 -84.23153333333333 1791.62 0.0 0.0 1.0
-58.84673333333334 -76.26273333333334 1784.4966666666667 -0.7034626119925315 0.7034626119925416 0.10139382159321216
-58.84673333333334 -76.26273333333334 1784.4966666666667 -0.7034626119925315 0.7034626119925416 0.10139382159321216
-60.211533333333335 -64.0772 1734.5 -0.9786299406900074 -0.1779035432553912 0.10312016525515177
-57.619033333333334 -41.984133333333325 1780.95 0.0 0.0 1.0
-61.21396666666667 -38.60693333333333 1786.2699999999998 2.168149049413713e-27 3.0353723532954596e-27 1.0
-59.04760000000001 -36.111133333333335 1780.95 0.0 0.0 1.0
-58.88886666666667 -34.047599999999996 1780.95 0.0 0.0 1.0
-58.25396666666666 -33.41266666666666 1780.95 0.0 0.0 1.0
-59.1098 -8.308606666666666 1775.67 0.0 0.0 1.0
-58.635 -2.7695366666666668 1775.67 0.0 0.0 1.0
-58.69823333333333 9.704146666666666 1770.41 0.0 0.0 1.0
-57.593700000000005 14.122300000000001 1770.41 0.0 0.0 1.0
-60.37586666666667 16.69633333333333 1775.67 0.0 0.0 1.0
-59.48716666666667 27.3767 1770.41 0.0 0.0 1.0
-59.0138 27.6923 1770.41 0.0 0.0 1.0
-59.0138 30.059166666666666 1770.41 0.0 0.0 1.0
-59.0138 30.059166666666666 1770.41 0.0 0.0 1.0
-59.075700000000005 40.354000000000006 1765.1899999999998 2.3939731561688713e-25 6.093456434491311e-25 1.0
-59.4752 69.2711 1744.61 0.0 0.0 1.0
-58.13956666666667 74.96126666666667 1739.53 0.0 0.0 1.0
-59.285000000000004 80.30916666666667 1734.49 0.0 0.0 1.0
-59.80733333333333 100.26973333333335 1729.4800000000002 -2.261723284806725e-25 -9.051591196941563e-26 1.0
-59.80733333333333 100.26973333333335 1729.4800000000002 -2.261723284806725e-25 -9.051591196941563e-26 1.0
-59.00383333333334 115.32566666666666 1719.54 0.0 0.0 1.0
-59.61686666666666 120.383 1719.54 0.0 0.0 1.0
-51.89743333333333 169.12833333333333 2301.54 0.0 0.0 1.0
-59.49946666666667 -122.923 1797.0 0.0 0.0 1.0
-59.25820000000001 -105.80933333333333 1749.72 -0.864230648667732 0.49374584974636937 0.09654233144888663
-58.283433333333335 -103.23333333333333 1791.62 0.0 0.0 1.0
-60.199600000000004 -95.08983333333333 1791.62 0.0 0.0 1.0
-58.92216666666667 -94.13173333333333 1791.62 0.0 0.0 1.0
-59.72053333333334 -73.21356666666667 1791.62 0.0 0.0 1.0
-59.97986666666667 -63.08293333333334 1741.243333333333 -0.9582732374364796 -0.2818949928690531 0.047409022436288195
-58.985099999999996 -57.393033333333335 1786.2699999999998 3.9346124946645455e-27 -8.261598906228174e-27 1.0
-58.985099999999996 -57.393033333333335 1786.2699999999998 3.934612494664543e-27 -8.26159890622817e-27 1.0
-61.332433333333334 -44.52 1662.2299999999998 -0.9942620340784223 0.0002802782397214536 0.10697162723987716
-59.523799999999994 -35.79366666666667 1780.95 0.0 0.0 1.0
-60.98303333333333 -22.806066666666666 1604.29 0.0 0.0 1.0
-60.98303333333333 -22.806066666666666 1604.29 0.0 0.0 1.0
-60.0 -20.079366666666665 1780.95 0.0 0.0 1.0
-60.31746666666667 -18.6508 1780.95 0.0 0.0 1.0
-59.58456666666667 -7.359053333333333 1775.67 0.0 0.0 1.0
-59.90110000000001 -6.567756666666667 1775.67 0.0 0.0 1.0
-61.1944 9.636716666666667 1758.28 -0.9406308445058886 -0.3359329585304002 0.04860721898187103
-60.11833333333334 25.64103333333333 1770.41 0.0 0.0 1.0
-59.644966666666676 32.426066666666664 1770.41 0.0 0.0 1.0
-60.33429999999999 41.61259999999999 1765.1899999999998 5.440009629389717e-27 -5.440009629389718e-27 1.0
-58.11783333333333 46.48543333333333 1741.2233333333334 -0.5534231386302313 -0.35217541089308824 0.7547816304011037
-63.54286666666667 52.19050000000001 1709.71 0.0 0.0 1.0
-60.49163333333333 53.25466666666667 1765.1899999999998 1.3598583354804377e-27 8.839943611824796e-27 1.0
-60.09716666666666 69.2711 1744.61 0.0 0.0 1.0
-58.6868 89.18759999999999 1732.82 0.735367130116519 0.6434586267783265 0.21259393116630834
-60.57803333333334 95.79963333333335 1729.4800000000002 1.6521325306318846e-27 -2.1249982149242424e-27 1.0
-59.80733333333333 100.26973333333335 1729.4800000000002 -2.2617232848067162e-25 -9.051591196941533e-26 1.0
-58.9433 103.516 1724.5 0.0 0.0 1.0
-61.4025 108.89533333333334 1724.5 0.0 0.0 1.0
-59.77009999999999 120.07633333333332 1719.54 0.0 0.0 1.0
-58.313233333333336 -132.12833333333333 1802.41 0.0 0.0 1.0
-60.4983 -125.073 1793.4133333333332 -0.8736611999909287 0.48529529364987545 0.0347071403560063
-59.27443333333334 -109.528 1761.75 0.9166352284446382 -0.38195955022193007 -0.11784209760737846
-59.51306666666667 -104.05533333333334 1741.2366666666667 -0.8831500566932522 0.441527699833407 0.15842748386099675
-59.24153333333334 -85.98803333333335 1791.62 0.0 0.0 1.0
-61.5816 -83.8438 1797.0 0.0 0.0 1.0
-58.76246666666666 -74.33133333333332 1791.62 0.0 0.0 1.0
-60.1996 -71.77643333333333 1791.62 0.0 0.0 1.0
-60.73160000000001 -63.890233333333335 1729.49 -0.9864388634955864 -0.14095890360312938 0.08407708415816392
-60.211533333333335 -64.0772 1734.5 -0.9786299406900074 -0.17790354325539115 0.10312016525515177
