ply
format ascii 1.0
comment VCGLIB generated
element vertex 883
property float x
property float y
property float z
property float nx
property float ny
property float nz
element face 0
property list uchar int vertex_indices
end_header
-15.830033333333333 108.04766666666667 2384.06 0.0 0.0 1.0
1.6000000000000003 143.33333333333334 2992.0 0.0 0.0 1.0
0.5333333333333333 -134.26666666666668 2992.0 0.0 0.0 1.0
1.0666666666666667 -123.06666666666666 2992.0 0.0 0.0 1.0
-7.60181 -107.99366666666667 2707.69 0.0 0.0 1.0
1.3333333333333333 -115.60000000000001 2992.0 0.0 0.0 1.0
1.3333333333333333 -109.2 2992.0 0.0 0.0 1.0
0.26666666666666666 -94.53333333333332 2992.0 0.0 0.0 1.0
0.26666666666666666 -92.66666666666667 2992.0 0.0 0.0 1.0
-0.5333333333333333 -69.46666666666667 2992.0 0.0 0.0 1.0
-5.536912000000001 -61.5662 2651.78 -0.14136092164633832 -0.9896758610752959 0.023638524407611678
1.3333333333333333 -62.53333333333333 2992.0 0.0 0.0 1.0
0.0 -54.26666666666667 2992.0 0.0 0.0 1.0
0.5333333333333333 -25.2 2992.0 0.0 0.0 1.0
0.26666666666666666 -24.400000000000002 2992.0 0.0 0.0 1.0
0.5333333333333333 -23.600000000000005 2992.0 0.0 0.0 1.0
1.3333333333333333 -18.0 2992.0 0.0 0.0 1.0
0.0 -17.2 2992.0 0.0 0.0 1.0
0.5333333333333334 -10.266666666666667 2992.0 0.0 0.0 1.0
1.0666666666666667 22.0 2992.0 0.0 0.0 1.0
1.3333333333333333 22.8 2992.0 0.0 0.0 1.0
-16.042466666666666 50.2523 2384.06 0.0 0.0 1.0
-14.980066666666666 50.88973333333333 2384.06 0.0 0.0 1.0
0.8000000000000002 68.13333333333334 2992.0 0.0 0.0 1.0
1.866666666666667 79.33333333333333 2992.0 0.0 0.0 1.0
0.7999999999999999 83.86666666666666 2992.0 0.0 0.0 1.0
-15.829999999999998 81.2749 2384.06 0.0 0.0 1.0
1.6000000000000003 108.66666666666667 2992.0 0.0 0.0 1.0
-14.980066666666666 85.31206666666667 2384.06 0.0 0.0 1.0
1.0666666666666667 115.59999999999998 2992.0 0.0 0.0 1.0
1.3333333333333333 116.13333333333333 2992.0 0.0 0.0 1.0
-15.829999999999998 99.97353333333335 2384.06 0.0 0.0 1.0
1.3333333333333333 125.2 2992.0 0.0 0.0 1.0
-16.467466666666667 101.036 2384.06 0.0 0.0 1.0
-15.542499999999999 110.24733333333334 2340.556666666667 -5.767285868079406e-17 0.9997762881245876 0.02115121045759767
-14.166666666666666 110.312 2337.5 0.0 0.0 1.0
0.5333333333333333 146.79999999999998 2992.0 0.0 0.0 1.0
0.5333333333333333 146.79999999999998 2992.0 0.0 0.0 1.0
-7.757576666666668 -131.03033333333335 2720.0 0.0 0.0 1.0
-7.757576666666668 -131.03033333333335 2720.0 0.0 0.0 1.0
0.0 -136.4 2992.0 0.0 0.0 1.0
-9.049776666666666 -124.16300000000001 2707.69 0.0 0.0 1.0
0.8000000000000002 -133.2 2992.0 0.0 0.0 1.0
-7.030303333333333 -116.72733333333333 2720.0 0.0 0.0 1.0
0.26666666666666666 -120.66666666666667 2992.0 0.0 0.0 1.0
-7.60181 -107.99366666666667 2707.69 0.0 0.0 1.0
1.3333333333333333 -109.2 2992.0 0.0 0.0 1.0
0.26666666666666666 -105.46666666666665 2992.0 0.0 0.0 1.0
-0.8000000000000002 -100.39999999999999 2992.0 0.0 0.0 1.0
0.26666666666666666 -94.53333333333332 2992.0 0.0 0.0 1.0
0.26666666666666666 -92.66666666666667 2992.0 0.0 0.0 1.0
0.26666666666666666 -92.66666666666667 2992.0 0.0 0.0 1.0
-10.164439999999999 -68.28103333333333 2683.41 0.0 0.0 1.0
0.0 -64.66666666666667 2992.0 0.0 0.0 1.0
-7.857143333333333 -49.880966666666666 2671.43 0.0 0.0 1.0
-7.857143333333333 -49.880966666666666 2671.43 0.0 0.0 1.0
0.0 -54.26666666666667 2992.0 0.0 0.0 1.0
-9.04762 -42.2619 2671.43 0.0 0.0 1.0
-8.57143 -41.547599999999996 2671.43 0.0 0.0 1.0
-7.857143333333333 -40.8333 2671.43 0.0 0.0 1.0
-7.857143333333333 -34.64286666666666 2671.43 0.0 0.0 1.0
-8.809523333333333 -32.0238 2671.43 0.0 0.0 1.0
-8.809523333333333 -32.0238 2671.43 0.0 0.0 1.0
-0.26666666666666666 -31.866666666666664 2992.0 0.0 0.0 1.0
-0.26666666666666666 -31.866666666666664 2992.0 0.0 0.0 1.0
0.5333333333333333 -25.2 2992.0 0.0 0.0 1.0
0.5333333333333333 -23.599999999999998 2992.0 0.0 0.0 1.0
0.26666666666666666 -6.533333333333334 2992.0 0.0 0.0 1.0
-1.0666666666666667 -5.733333333333333 2992.0 0.0 0.0 1.0
-11.139243333333335 5.513363333333333 2524.89 0.0 0.0 1.0
-14.565833333333332 5.714286666666666 2514.29 0.0 0.0 1.0
-16.255 31.55376666666667 2384.06 0.0 0.0 1.0
-16.892433333333333 36.6534 2384.06 0.0 0.0 1.0
-16.467466666666667 38.35323333333333 2384.06 0.0 0.0 1.0
-16.467466666666667 38.35323333333333 2384.06 0.0 0.0 1.0
-16.892433333333333 45.1527 2384.06 0.0 0.0 1.0
-16.255 45.790166666666664 2384.06 0.0 0.0 1.0
-15.830033333333333 46.42763333333334 2384.06 0.0 0.0 1.0
-16.64 56.85333333333333 2393.6 0.0 0.0 1.0
-16.892433333333333 61.301433333333335 2384.06 0.0 0.0 1.0
-16.892433333333333 61.301433333333335 2384.06 0.0 0.0 1.0
-17.1049 74.6879 2384.06 0.0 0.0 1.0
-15.405066666666665 77.87516666666666 2384.06 0.0 0.0 1.0
-17.066666666666666 86.50666666666666 2393.6 0.0 0.0 1.0
0.0 112.66666666666667 2992.0 0.0 0.0 1.0
0.8000000000000002 117.2 2992.0 0.0 0.0 1.0
-16.467466666666667 101.036 2384.06 0.0 0.0 1.0
-16.467466666666667 103.37333333333333 2384.06 0.0 0.0 1.0
-16.467466666666667 103.37333333333333 2384.06 0.0 0.0 1.0
-15.830033333333333 108.04766666666667 2384.06 0.0 0.0 1.0
-15.830033333333333 108.04766666666667 2384.06 0.0 0.0 1.0
-15.026466666666666 110.159 2374.6 0.0 0.0 1.0
-15.9144 110.37666666666667 2334.4666666666667 1.0732136406766958e-16 0.9997728343432218 0.02131383844643834
0.0 142.53333333333333 2992.0 0.0 0.0 1.0
-0.26666666666666666 147.86666666666667 2992.0 0.0 0.0 1.0
-0.26666666666666666 147.86666666666667 2992.0 0.0 0.0 1.0
-1.6000000000000003 -148.13333333333333 2992.0 0.0 0.0 1.0
-8.727276666666667 -129.09066666666666 2720.0 0.0 0.0 1.0
-0.7999999999999999 -134.53333333333333 2992.0 0.0 0.0 1.0
-8.242426666666665 -116.96999999999998 2720.0 0.0 0.0 1.0
0.26666666666666666 -120.66666666666667 2992.0 0.0 0.0 1.0
-7.60181 -107.99366666666667 2707.69 0.0 0.0 1.0
-9.77373 -99.78866666666666 2707.69 0.0 0.0 1.0
-0.8000000000000002 -105.2 2992.0 0.0 0.0 1.0
-1.3333333333333333 -101.46666666666665 2992.0 0.0 0.0 1.0
0.0 -92.13333333333333 2992.0 0.0 0.0 1.0
-0.5333333333333333 -88.39999999999999 2992.0 0.0 0.0 1.0
-1.6000000000000003 -78.53333333333335 2992.0 0.0 0.0 1.0
-1.3333333333333333 -67.86666666666667 2992.0 0.0 0.0 1.0
-1.3333333333333333 -67.33333333333333 2992.0 0.0 0.0 1.0
-1.6000000000000003 -58.26666666666667 2992.0 0.0 0.0 1.0
0.0 -54.26666666666667 2992.0 0.0 0.0 1.0
-8.809523333333333 -46.7857 2671.43 0.0 0.0 1.0
-8.809523333333333 -32.0238 2671.43 0.0 0.0 1.0
-1.0666666666666667 -33.73333333333333 2992.0 0.0 0.0 1.0
-0.5333333333333333 -31.333333333333332 2992.0 0.0 0.0 1.0
-0.5333333333333333 -31.333333333333332 2992.0 0.0 0.0 1.0
-1.0666666666666667 -29.733333333333334 2992.0 0.0 0.0 1.0
-0.8000000000000002 -26.8 2992.0 0.0 0.0 1.0
0.0 -23.066666666666666 2992.0 0.0 0.0 1.0
-1.8666666666666665 -10.799999999999999 2992.0 0.0 0.0 1.0
-12.264433333333335 3.2630123333333336 2524.89 0.0 0.0 1.0
-1.6000000000000003 0.1333333333333334 2992.0 0.0 0.0 1.0
-1.6000000000000003 0.1333333333333334 2992.0 0.0 0.0 1.0
-0.26666666666666666 15.333333333333334 2992.0 0.0 0.0 1.0
-1.6000000000000003 26.266666666666666 2992.0 0.0 0.0 1.0
-16.679933333333334 36.228433333333335 2384.06 0.0 0.0 1.0
-16.892433333333333 36.6534 2384.06 0.0 0.0 1.0
-16.467466666666667 38.35323333333333 2384.06 0.0 0.0 1.0
-17.1049 42.177933333333335 2384.06 0.0 0.0 1.0
-16.679933333333334 43.45283333333333 2384.06 0.0 0.0 1.0
-16.8924 49.61486666666667 2384.06 0.0 0.0 1.0
-1.3333333333333333 67.6 2992.0 0.0 0.0 1.0
-16.64 56.85333333333333 2393.6 0.0 0.0 1.0
0.7999999999999999 83.86666666666666 2992.0 0.0 0.0 1.0
-16.254966666666665 68.10093333333333 2384.06 0.0 0.0 1.0
-17.31736666666667 68.5259 2384.06 0.0 0.0 1.0
-16.892433333333333 73.6255 2384.06 0.0 0.0 1.0
-16.8924 82.33730000000001 2384.06 0.0 0.0 1.0
-16.467466666666667 103.37333333333333 2384.06 0.0 0.0 1.0
-0.8000000000000002 140.93333333333334 2992.0 0.0 0.0 1.0
-0.8000000000000002 147.6 2992.0 0.0 0.0 1.0
-2.6666666666666665 -149.73333333333332 2992.0 0.0 0.0 1.0
-1.6000000000000003 -148.13333333333333 2992.0 0.0 0.0 1.0
-7.757576666666666 -131.03033333333335 2720.0 0.0 0.0 1.0
0.26666666666666666 -116.39999999999999 2992.0 0.0 0.0 1.0
-1.5999999999999999 -104.66666666666667 2992.0 0.0 0.0 1.0
-1.3333333333333333 -101.46666666666665 2992.0 0.0 0.0 1.0
-1.3333333333333333 -101.46666666666665 2992.0 0.0 0.0 1.0
-1.5999999999999999 -78.53333333333333 2992.0 0.0 0.0 1.0
-1.5999999999999999 -68.93333333333334 2992.0 0.0 0.0 1.0
-1.8666666666666665 -65.2 2992.0 0.0 0.0 1.0
-1.8666666666666665 -63.866666666666674 2992.0 0.0 0.0 1.0
-1.5999999999999999 -58.26666666666667 2992.0 0.0 0.0 1.0
-10.7143 -45.8333 2671.43 0.0 0.0 1.0
-10.238100000000001 -43.928566666666676 2671.43 0.0 0.0 1.0
-9.52381 -42.976200000000006 2671.43 0.0 0.0 1.0
-1.6000000000000003 -28.933333333333334 2992.0 0.0 0.0 1.0
-0.8000000000000002 -25.733333333333334 2992.0 0.0 0.0 1.0
-1.866666666666667 -21.733333333333334 2992.0 0.0 0.0 1.0
-1.0666666666666667 -16.133333333333333 2992.0 0.0 0.0 1.0
-2.4 -9.200000000000001 2992.0 0.0 0.0 1.0
-12.307699999999999 11.054133333333333 2557.26 0.0 0.0 1.0
-1.866666666666667 24.400000000000002 2992.0 0.0 0.0 1.0
-17.74236666666667 31.341266666666666 2384.06 0.0 0.0 1.0
-17.74236666666667 31.341266666666666 2384.06 0.0 0.0 1.0
-17.317400000000003 33.8911 2384.06 0.0 0.0 1.0
-16.892433333333333 36.6534 2384.06 0.0 0.0 1.0
-17.1049 42.177933333333335 2384.06 0.0 0.0 1.0
-1.8666666666666665 69.46666666666667 2992.0 0.0 0.0 1.0
-16.64 56.85333333333333 2393.6 0.0 0.0 1.0
-17.74236666666667 70.86319999999999 2384.06 0.0 0.0 1.0
-17.529866666666667 72.77556666666668 2384.06 0.0 0.0 1.0
-17.066666666666666 86.50666666666666 2393.6 0.0 0.0 1.0
-1.6000000000000003 112.66666666666667 2992.0 0.0 0.0 1.0
-16.467466666666667 101.036 2384.06 0.0 0.0 1.0
0.0 142.53333333333333 2992.0 0.0 0.0 1.0
-0.8000000000000002 147.6 2992.0 0.0 0.0 1.0
-1.8666666666666665 -148.9333333333333 2992.0 0.0 0.0 1.0
-10.256406666666665 -124.163 2707.69 0.0 0.0 1.0
-10.015073333333333 -123.43900000000001 2707.69 0.0 0.0 1.0
-2.4 -134.53333333333333 2992.0 0.0 0.0 1.0
-9.939383333333334 -117.21233333333333 2720.0 0.0 0.0 1.0
-9.77375 -108.235 2707.69 0.0 0.0 1.0
-2.9333333333333336 -112.13333333333333 2992.0 0.0 0.0 1.0
-2.9333333333333336 -112.13333333333333 2992.0 0.0 0.0 1.0
-10.739053333333333 -97.3756 2707.69 0.0 0.0 1.0
-1.5999999999999999 -104.66666666666667 2992.0 0.0 0.0 1.0
-3.1999999999999997 -89.73333333333335 2992.0 0.0 0.0 1.0
-1.5999999999999999 -78.53333333333333 2992.0 0.0 0.0 1.0
-2.4 -68.4 2992.0 0.0 0.0 1.0
-1.8666666666666665 -67.33333333333333 2992.0 0.0 0.0 1.0
-2.4 -62.800000000000004 2992.0 0.0 0.0 1.0
-2.1333333333333333 -59.06666666666666 2992.0 0.0 0.0 1.0
-10.7143 -45.5952 2671.43 0.0 0.0 1.0
-11.666666666666666 -37.5 2671.43 0.0 0.0 1.0
-2.1333333333333333 -33.46666666666667 2992.0 0.0 0.0 1.0
-2.6666666666666665 -28.133333333333336 2992.0 0.0 0.0 1.0
-2.6666666666666665 -28.133333333333336 2992.0 0.0 0.0 1.0
-2.9333333333333336 -15.866666666666667 2992.0 0.0 0.0 1.0
-1.8666666666666665 -10.800000000000002 2992.0 0.0 0.0 1.0
-2.1333333333333333 -10.266666666666666 2992.0 0.0 0.0 1.0
-12.68708 -3.2816433333333337 2542.7833333333333 -0.8285118125764781 0.5523364760843426 0.09215526901902629
-15.686299999999997 4.14566 2514.29 0.0 0.0 1.0
-3.1999999999999997 9.200000000000001 2992.0 0.0 0.0 1.0
-15.732233333333335 7.25244 2503.77 0.0 0.0 1.0
-14.359 11.054133333333333 2557.26 0.0 0.0 1.0
-1.8666666666666665 12.666666666666666 2992.0 0.0 0.0 1.0
-2.9333333333333336 21.733333333333334 2992.0 0.0 0.0 1.0
-2.6666666666666665 27.066666666666666 2992.0 0.0 0.0 1.0
-3.1999999999999997 36.93333333333334 2992.0 0.0 0.0 1.0
-17.74236666666667 31.341266666666666 2384.06 0.0 0.0 1.0
-17.95483333333333 45.1527 2384.06 0.0 0.0 1.0
-18.1673 49.61486666666667 2384.06 0.0 0.0 1.0
-16.892433333333333 61.301433333333335 2384.06 0.0 0.0 1.0
-2.4 79.06666666666666 2992.0 0.0 0.0 1.0
-18.3798 69.80076666666666 2384.06 0.0 0.0 1.0
-18.3798 72.13813333333333 2384.06 0.0 0.0 1.0
-19.017233333333333 74.90036666666667 2384.06 0.0 0.0 1.0
-18.592266666666664 82.76226666666668 2384.06 0.0 0.0 1.0
-18.133333333333336 86.29333333333334 2393.6 0.0 0.0 1.0
-17.706666666666667 86.93333333333334 2393.6 0.0 0.0 1.0
-2.9333333333333336 120.66666666666667 2992.0 0.0 0.0 1.0
-3.733333333333333 130.79999999999998 2992.0 0.0 0.0 1.0
-4.0 -146.53333333333333 2992.0 0.0 0.0 1.0
-11.2217 -125.61099999999999 2707.69 0.0 0.0 1.0
-10.015073333333332 -123.43900000000001 2707.69 0.0 0.0 1.0
-10.181816666666668 -117.455 2720.0 0.0 0.0 1.0
-9.939383333333334 -117.21233333333333 2720.0 0.0 0.0 1.0
-5.066666666666667 -126.0 2992.0 0.0 0.0 1.0
-10.980366666666667 -99.54733333333333 2707.69 0.0 0.0 1.0
-10.980366666666667 -99.54733333333333 2707.69 0.0 0.0 1.0
-10.739053333333333 -97.3756 2707.69 0.0 0.0 1.0
-12.911000000000001 -87.72246666666668 2707.69 0.0 0.0 1.0
-3.1999999999999997 -89.73333333333335 2992.0 0.0 0.0 1.0
-10.642773333333333 -71.6293 2683.41 0.0 0.0 1.0
-3.466666666666667 -73.73333333333333 2992.0 0.0 0.0 1.0
-3.466666666666667 -73.73333333333333 2992.0 0.0 0.0 1.0
-10.403606666666667 -65.17193333333334 2683.41 0.0 0.0 1.0
-2.4 -62.800000000000004 2992.0 0.0 0.0 1.0
-3.1999999999999997 -58.800000000000004 2992.0 0.0 0.0 1.0
-11.1905 -45.5952 2671.43 0.0 0.0 1.0
-11.1905 -45.5952 2671.43 0.0 0.0 1.0
-11.666699999999999 -35.8333 2671.43 0.0 0.0 1.0
-11.666699999999999 -35.8333 2671.43 0.0 0.0 1.0
-2.9333333333333336 -31.866666666666664 2992.0 0.0 0.0 1.0
-2.6666666666666665 -28.133333333333336 2992.0 0.0 0.0 1.0
-3.733333333333333 -26.53333333333333 2992.0 0.0 0.0 1.0
-3.466666666666667 -23.599999999999998 2992.0 0.0 0.0 1.0
-4.0 -22.0 2992.0 0.0 0.0 1.0
-2.6666666666666665 -8.133333333333333 2992.0 0.0 0.0 1.0
-2.6666666666666665 -8.133333333333333 2992.0 0.0 0.0 1.0
-4.266666666666667 -0.9333333333333335 2992.0 0.0 0.0 1.0
-15.732233333333335 7.25244 2503.77 0.0 0.0 1.0
-2.9333333333333336 21.73333333333333 2992.0 0.0 0.0 1.0
-3.733333333333333 23.066666666666663 2992.0 0.0 0.0 1.0
-3.466666666666667 38.0 2992.0 0.0 0.0 1.0
-3.466666666666667 38.0 2992.0 0.0 0.0 1.0
-4.266666666666667 43.333333333333336 2992.0 0.0 0.0 1.0
-18.592299999999998 37.7158 2384.06 0.0 0.0 1.0
-18.804766666666666 50.03983333333334 2384.06 0.0 0.0 1.0
-17.493333333333336 56.21333333333333 2393.6 0.0 0.0 1.0
-19.654700000000002 77.02526666666665 2384.06 0.0 0.0 1.0
-2.6666666666666665 113.46666666666665 2992.0 0.0 0.0 1.0
-2.6666666666666665 113.46666666666665 2992.0 0.0 0.0 1.0
-18.835966666666664 109.10066666666667 2374.6 0.0 0.0 1.0
-2.6666666666666665 -149.73333333333332 2992.0 0.0 0.0 1.0
-4.0 -146.53333333333333 2992.0 0.0 0.0 1.0
-11.393933333333335 -130.788 2720.0 0.0 0.0 1.0
-10.9091 -130.06066666666666 2720.0 0.0 0.0 1.0
-10.9091 -130.06066666666666 2720.0 0.0 0.0 1.0
-11.704366666666667 -125.12833333333333 2707.69 0.0 0.0 1.0
-4.0 -134.0 2992.0 0.0 0.0 1.0
-10.9091 -117.455 2720.0 0.0 0.0 1.0
-12.428366666666667 -111.37233333333334 2707.69 0.0 0.0 1.0
-10.739053333333333 -107.75233333333334 2707.69 0.0 0.0 1.0
-10.739053333333333 -107.75233333333334 2707.69 0.0 0.0 1.0
-2.9333333333333336 -112.13333333333333 2992.0 0.0 0.0 1.0
-3.733333333333334 -88.66666666666667 2992.0 0.0 0.0 1.0
-3.466666666666667 -73.73333333333333 2992.0 0.0 0.0 1.0
-10.403606666666667 -65.17193333333334 2683.41 0.0 0.0 1.0
-3.733333333333334 -68.13333333333334 2992.0 0.0 0.0 1.0
-3.2000000000000006 -58.800000000000004 2992.0 0.0 0.0 1.0
-13.095233333333333 -41.3095 2671.43 0.0 0.0 1.0
-11.6667 -35.8333 2671.43 0.0 0.0 1.0
-3.733333333333333 -26.53333333333333 2992.0 0.0 0.0 1.0
-4.0 -26.0 2992.0 0.0 0.0 1.0
-4.0 -26.0 2992.0 0.0 0.0 1.0
-4.0 -22.0 2992.0 0.0 0.0 1.0
-4.8 -18.8 2992.0 0.0 0.0 1.0
-3.733333333333333 -13.466666666666667 2992.0 0.0 0.0 1.0
-18.689466666666664 -9.914533333333333 2557.26 0.0 0.0 1.0
-15.813633333333334 -6.663873333333334 2535.6200000000003 -0.7056906639011622 0.7056005872180812 0.06425339057385178
-4.266666666666667 -0.9333333333333335 2992.0 0.0 0.0 1.0
-15.686299999999997 4.1456599999999995 2514.29 0.0 0.0 1.0
-15.686299999999997 4.1456599999999995 2514.29 0.0 0.0 1.0
-16.624833333333335 6.582983333333332 2503.77 0.0 0.0 1.0
-3.466666666666667 38.0 2992.0 0.0 0.0 1.0
-4.533333333333333 42.0 2992.0 0.0 0.0 1.0
-3.733333333333333 42.53333333333334 2992.0 0.0 0.0 1.0
-19.8672 38.35323333333333 2384.06 0.0 0.0 1.0
-19.654700000000002 45.1527 2384.06 0.0 0.0 1.0
-18.804766666666666 50.03983333333334 2384.06 0.0 0.0 1.0
-5.066666666666667 67.86666666666666 2992.0 0.0 0.0 1.0
-19.654700000000002 68.73836666666666 2384.06 0.0 0.0 1.0
-19.654700000000002 68.73836666666666 2384.06 0.0 0.0 1.0
-19.017233333333333 71.71316666666667 2384.06 0.0 0.0 1.0
-19.017233333333333 71.71316666666667 2384.06 0.0 0.0 1.0
-19.867166666666666 74.4754 2384.06 0.0 0.0 1.0
-19.017233333333333 74.90036666666667 2384.06 0.0 0.0 1.0
-19.654700000000002 77.02526666666665 2384.06 0.0 0.0 1.0
-18.773333333333333 85.86666666666666 2393.6 0.0 0.0 1.0
-18.773333333333333 85.86666666666666 2393.6 0.0 0.0 1.0
-4.0 129.20000000000002 2992.0 0.0 0.0 1.0
-17.317399999999996 108.26033333333334 2384.06 0.0 0.0 1.0
-3.1999999999999997 146.26666666666665 2992.0 0.0 0.0 1.0
-3.1999999999999997 146.26666666666665 2992.0 0.0 0.0 1.0
-5.066666666666667 -147.33333333333334 2992.0 0.0 0.0 1.0
-11.704366666666667 -125.12833333333333 2707.69 0.0 0.0 1.0
-11.704366666666667 -125.12833333333333 2707.69 0.0 0.0 1.0
-5.333333333333333 -130.26666666666668 2992.0 0.0 0.0 1.0
-10.9091 -117.455 2720.0 0.0 0.0 1.0
-11.151533333333333 -116.72733333333333 2720.0 0.0 0.0 1.0
-12.428366666666667 -98.34086666666667 2707.69 0.0 0.0 1.0
-11.463033333333334 -97.85823333333333 2707.69 0.0 0.0 1.0
-6.666666666666667 -93.73333333333335 2992.0 0.0 0.0 1.0
-5.333333333333333 -87.86666666666667 2992.0 0.0 0.0 1.0
-10.642773333333333 -71.6293 2683.41 0.0 0.0 1.0
-4.8 -67.6 2992.0 0.0 0.0 1.0
-13.273533333333333 -45.32136666666667 2683.41 0.0 0.0 1.0
-12.619033333333334 -39.88093333333333 2671.43 0.0 0.0 1.0
-12.142833333333334 -38.928566666666676 2671.43 0.0 0.0 1.0
-5.866666666666667 -37.199999999999996 2992.0 0.0 0.0 1.0
-5.066666666666666 -32.13333333333333 2992.0 0.0 0.0 1.0
-4.0 -22.0 2992.0 0.0 0.0 1.0
-4.8 -18.8 2992.0 0.0 0.0 1.0
-4.266666666666667 -15.6 2992.0 0.0 0.0 1.0
-15.952833333333336 -13.197166666666666 2575.62 -0.7054897201360358 0.7055920243297942 -0.06651428406410761
-16.638166666666667 -4.900283333333333 2557.26 0.0 0.0 1.0
-4.8 5.466666666666666 2992.0 0.0 0.0 1.0
-4.8 23.333333333333332 2992.0 0.0 0.0 1.0
-5.866666666666666 26.8 2992.0 0.0 0.0 1.0
-3.466666666666667 69.2 2992.0 0.0 0.0 1.0
-19.654700000000002 68.73836666666666 2384.06 0.0 0.0 1.0
-18.167333333333332 102.73599999999999 2384.06 0.0 0.0 1.0
-4.533333333333333 132.13333333333333 2992.0 0.0 0.0 1.0
-12.1212 -131.273 2720.0 0.0 0.0 1.0
-5.6000000000000005 -133.2 2992.0 0.0 0.0 1.0
-5.866666666666667 -130.53333333333333 2992.0 0.0 0.0 1.0
-5.333333333333333 -130.26666666666668 2992.0 0.0 0.0 1.0
-6.3999999999999995 -126.0 2992.0 0.0 0.0 1.0
-12.428366666666667 -111.37233333333334 2707.69 0.0 0.0 1.0
-7.2 -114.8 2992.0 0.0 0.0 1.0
-14.358966666666666 -76.86273333333332 2707.69 0.0 0.0 1.0
-5.066666666666667 -78.0 2992.0 0.0 0.0 1.0
-4.8 -67.6 2992.0 0.0 0.0 1.0
-5.333333333333333 -62.800000000000004 2992.0 0.0 0.0 1.0
-13.273533333333333 -45.32136666666667 2683.41 0.0 0.0 1.0
-13.333333333333334 -42.261900000000004 2671.43 0.0 0.0 1.0
-4.533333333333333 -25.733333333333334 2992.0 0.0 0.0 1.0
-5.599999999999999 -19.066666666666666 2992.0 0.0 0.0 1.0
-6.133333333333333 -15.6 2992.0 0.0 0.0 1.0
-15.952833333333336 -13.197166666666666 2575.62 -0.7054897201360355 0.7055920243297945 -0.06651428406410788
-6.666666666666667 0.4000000000000001 2992.0 0.0 0.0 1.0
-17.294300000000003 6.582983333333332 2503.77 0.0 0.0 1.0
-17.294300000000003 6.582983333333332 2503.77 0.0 0.0 1.0
-17.549866666666667 11.054123333333331 2557.26 0.0 0.0 1.0
-48.85413333333333 4.115333333333333 1610.14 -0.002395908373382118 0.34353149034045427 0.9391381020742011
-6.3999999999999995 18.8 2992.0 0.0 0.0 1.0
-5.866666666666666 26.8 2992.0 0.0 0.0 1.0
-5.066666666666666 42.79999999999999 2992.0 0.0 0.0 1.0
-6.133333333333333 43.06666666666666 2992.0 0.0 0.0 1.0
-6.133333333333333 46.53333333333334 2992.0 0.0 0.0 1.0
-19.654700000000002 50.67726666666667 2384.06 0.0 0.0 1.0
-26.603199999999998 53.110899999999994 2186.6066666666666 -1.7907155185069364e-15 -0.7976967689575426 0.6030587573319013
-21.333333333333332 56.64000000000001 2393.6 0.0 0.0 1.0
-2.9333333333333336 80.66666666666666 2992.0 0.0 0.0 1.0
-20.292133333333332 72.3506 2384.06 0.0 0.0 1.0
-20.7171 73.20049999999999 2384.06 0.0 0.0 1.0
-20.292133333333336 73.83793333333334 2384.06 0.0 0.0 1.0
-20.504633333333334 76.8128 2384.06 0.0 0.0 1.0
-21.354566666666667 81.91236666666667 2384.06 0.0 0.0 1.0
-5.6000000000000005 127.59999999999998 2992.0 0.0 0.0 1.0
-22.186666666666667 106.13333333333333 2393.6 0.0 0.0 1.0
-18.835966666666668 109.10066666666667 2374.6 0.0 0.0 1.0
-6.3999999999999995 -147.86666666666667 2992.0 0.0 0.0 1.0
-13.333333333333334 -131.273 2720.0 0.0 0.0 1.0
-14.117633333333332 -124.163 2707.69 0.0 0.0 1.0
-6.3999999999999995 -131.0666666666667 2992.0 0.0 0.0 1.0
-14.841633333333334 -116.44033333333334 2707.69 0.0 0.0 1.0
-6.3999999999999995 -126.0 2992.0 0.0 0.0 1.0
-12.428366666666667 -111.37233333333334 2707.69 0.0 0.0 1.0
-14.117633333333332 -107.99366666666667 2707.69 0.0 0.0 1.0
-12.428366666666667 -98.34086666666667 2707.69 0.0 0.0 1.0
-8.266666666666667 -99.33333333333333 2992.0 0.0 0.0 1.0
-14.600299999999999 -87.48113333333333 2707.69 0.0 0.0 1.0
-6.3999999999999995 -83.06666666666666 2992.0 0.0 0.0 1.0
-7.733333333333334 -54.53333333333333 2992.0 0.0 0.0 1.0
-13.991 -43.8864 2683.41 0.0 0.0 1.0
-13.333333333333334 -42.261900000000004 2671.43 0.0 0.0 1.0
-6.666666666666667 -39.333333333333336 2992.0 0.0 0.0 1.0
-6.400000000000001 -38.800000000000004 2992.0 0.0 0.0 1.0
-6.400000000000001 -38.800000000000004 2992.0 0.0 0.0 1.0
-6.666666666666667 -36.666666666666664 2992.0 0.0 0.0 1.0
-5.6000000000000005 -19.066666666666666 2992.0 0.0 0.0 1.0
-17.049200000000003 -14.986133333333333 2568.27 -0.7053234238129096 0.7057541267060784 -0.06655809836657964
-18.790433333333336 -7.763713333333333 2524.89 0.0 0.0 1.0
-6.666666666666667 -3.0666666666666664 2992.0 0.0 0.0 1.0
-6.666666666666667 -3.0666666666666664 2992.0 0.0 0.0 1.0
-6.3999999999999995 18.8 2992.0 0.0 0.0 1.0
-7.2 23.066666666666666 2992.0 0.0 0.0 1.0
-6.400000000000001 45.73333333333333 2992.0 0.0 0.0 1.0
-6.666666666666667 47.06666666666666 2992.0 0.0 0.0 1.0
-20.9296 38.5657 2384.06 0.0 0.0 1.0
-19.654700000000002 45.1527 2384.06 0.0 0.0 1.0
-5.6000000000000005 66.26666666666667 2992.0 0.0 0.0 1.0
-7.2 66.26666666666667 2992.0 0.0 0.0 1.0
-26.603199999999998 53.110899999999994 2186.6066666666666 -1.7907155185069364e-15 -0.7976967689575426 0.6030587573319013
-20.717133333333333 61.5139 2384.06 0.0 0.0 1.0
-21.3546 68.73836666666666 2384.06 0.0 0.0 1.0
-21.354566666666667 71.50066666666667 2384.06 0.0 0.0 1.0
-21.354566666666667 76.60029999999999 2384.06 0.0 0.0 1.0
-21.992033333333335 80.42496666666666 2384.06 0.0 0.0 1.0
-7.2 110.53333333333335 2992.0 0.0 0.0 1.0
-19.84 85.86666666666667 2393.6 0.0 0.0 1.0
-19.654700000000002 86.58696666666667 2384.06 0.0 0.0 1.0
-6.133333333333334 112.93333333333334 2992.0 0.0 0.0 1.0
-7.2 122.53333333333335 2992.0 0.0 0.0 1.0
-6.3999999999999995 132.13333333333333 2992.0 0.0 0.0 1.0
4.6334333333333335 122.10733333333333 2539.3733333333334 -0.02384784914879007 -0.9972414649035581 0.07029040310015269
-14.117633333333332 -123.68033333333334 2707.69 0.0 0.0 1.0
-6.933333333333334 -130.79999999999998 2992.0 0.0 0.0 1.0
-7.2 -130.26666666666668 2992.0 0.0 0.0 1.0
-7.2 -126.26666666666667 2992.0 0.0 0.0 1.0
-14.117633333333332 -107.99366666666667 2707.69 0.0 0.0 1.0
-6.933333333333333 -116.13333333333334 2992.0 0.0 0.0 1.0
-8.0 -105.2 2992.0 0.0 0.0 1.0
-6.666666666666667 -93.73333333333333 2992.0 0.0 0.0 1.0
-6.666666666666667 -87.86666666666667 2992.0 0.0 0.0 1.0
-14.8416 -75.41476666666667 2707.69 0.0 0.0 1.0
-7.2 -75.06666666666666 2992.0 0.0 0.0 1.0
-7.2 -75.06666666666668 2992.0 0.0 0.0 1.0
-7.466666666666666 -73.73333333333333 2992.0 0.0 0.0 1.0
-7.2 -65.73333333333333 2992.0 0.0 0.0 1.0
-13.991 -43.8864 2683.41 0.0 0.0 1.0
-8.8 -46.0 2992.0 0.0 0.0 1.0
-6.933333333333334 -39.86666666666667 2992.0 0.0 0.0 1.0
-6.933333333333334 -39.86666666666667 2992.0 0.0 0.0 1.0
-7.466666666666668 -35.86666666666667 2992.0 0.0 0.0 1.0
-7.733333333333333 -32.13333333333333 2992.0 0.0 0.0 1.0
-6.933333333333333 -27.333333333333332 2992.0 0.0 0.0 1.0
-6.3999999999999995 -21.733333333333334 2992.0 0.0 0.0 1.0
-6.666666666666667 -20.933333333333334 2992.0 0.0 0.0 1.0
-7.2 -0.6666666666666666 2992.0 0.0 0.0 1.0
-7.2 1.2 2992.0 0.0 0.0 1.0
-17.549866666666667 11.054123333333335 2557.26 0.0 0.0 1.0
-5.866666666666666 12.666666666666666 2992.0 0.0 0.0 1.0
-6.400000000000001 18.8 2992.0 0.0 0.0 1.0
-7.2 23.066666666666666 2992.0 0.0 0.0 1.0
-7.466666666666666 24.666666666666668 2992.0 0.0 0.0 1.0
-6.666666666666667 27.066666666666666 2992.0 0.0 0.0 1.0
-7.2 27.86666666666667 2992.0 0.0 0.0 1.0
-7.733333333333334 28.933333333333334 2992.0 0.0 0.0 1.0
-8.0 32.13333333333333 2992.0 0.0 0.0 1.0
-7.733333333333333 37.46666666666667 2992.0 0.0 0.0 1.0
-8.0 39.06666666666667 2992.0 0.0 0.0 1.0
-7.2 43.6 2992.0 0.0 0.0 1.0
-6.933333333333334 44.666666666666664 2992.0 0.0 0.0 1.0
-20.9296 38.5657 2384.06 0.0 0.0 1.0
-30.352333333333334 43.46883333333333 2432.52 0.0 0.0 1.0
-7.733333333333334 48.93333333333334 2992.0 0.0 0.0 1.0
-8.0 53.73333333333333 2992.0 0.0 0.0 1.0
-8.0 53.73333333333333 2992.0 0.0 0.0 1.0
-20.7171 50.2523 2384.06 0.0 0.0 1.0
-21.973333333333333 56.21333333333333 2393.6 0.0 0.0 1.0
-21.76 58.13333333333333 2393.6 0.0 0.0 1.0
-21.354566666666667 71.50066666666667 2384.06 0.0 0.0 1.0
-21.354566666666667 76.60029999999999 2384.06 0.0 0.0 1.0
-22.2045 79.57503333333334 2384.06 0.0 0.0 1.0
-21.779533333333333 82.33733333333333 2384.06 0.0 0.0 1.0
-7.733333333333334 118.53333333333335 2992.0 0.0 0.0 1.0
-7.733333333333334 118.53333333333335 2992.0 0.0 0.0 1.0
-7.2 122.53333333333335 2992.0 0.0 0.0 1.0
-7.2 126.26666666666665 2992.0 0.0 0.0 1.0
-8.533333333333333 147.33333333333334 2992.0 0.0 0.0 1.0
-7.733333333333334 -148.13333333333333 2992.0 0.0 0.0 1.0
-14.303033333333333 -131.75766666666667 2720.0 0.0 0.0 1.0
-16.2896 -129.47233333333335 2707.69 0.0 0.0 1.0
-15.324266666666666 -125.85233333333332 2707.69 0.0 0.0 1.0
-14.8416 -124.88699999999999 2707.69 0.0 0.0 1.0
-14.600266666666665 -123.92166666666667 2707.69 0.0 0.0 1.0
-8.0 -132.66666666666666 2992.0 0.0 0.0 1.0
-8.0 -130.0 2992.0 0.0 0.0 1.0
-14.841633333333334 -116.44033333333334 2707.69 0.0 0.0 1.0
-7.2 -126.26666666666667 2992.0 0.0 0.0 1.0
-8.533333333333333 -122.26666666666667 2992.0 0.0 0.0 1.0
-14.117633333333332 -107.99366666666667 2707.69 0.0 0.0 1.0
-8.533333333333333 -116.40000000000002 2992.0 0.0 0.0 1.0
-7.733333333333333 -112.93333333333334 2992.0 0.0 0.0 1.0
-8.0 -105.2 2992.0 0.0 0.0 1.0
-33.77536666666666 -45.141146666666664 2137.4933333333333 0.9403681110104062 -0.11354227533399824 0.3206492905133249
-8.266666666666667 -99.33333333333333 2992.0 0.0 0.0 1.0
-14.600299999999999 -87.48113333333333 2707.69 0.0 0.0 1.0
-7.733333333333333 -92.66666666666667 2992.0 0.0 0.0 1.0
-8.0 -90.53333333333335 2992.0 0.0 0.0 1.0
-7.733333333333333 -88.93333333333334 2992.0 0.0 0.0 1.0
-14.8416 -75.41476666666667 2707.69 0.0 0.0 1.0
-16.8168 -70.51053333333334 2695.5 0.0 0.0 1.0
-8.0 -72.66666666666667 2992.0 0.0 0.0 1.0
-7.733333333333334 -54.53333333333333 2992.0 0.0 0.0 1.0
-17.29726666666667 -49.129133333333336 2695.5 0.0 0.0 1.0
-7.733333333333333 -32.13333333333333 2992.0 0.0 0.0 1.0
-7.733333333333333 -32.13333333333333 2992.0 0.0 0.0 1.0
-8.533333333333333 -28.666666666666668 2992.0 0.0 0.0 1.0
-8.533333333333333 -24.666666666666668 2992.0 0.0 0.0 1.0
-20.056966666666668 -16.980066666666666 2557.26 0.0 0.0 1.0
-7.2 -15.333333333333334 2992.0 0.0 0.0 1.0
-7.2 -15.333333333333334 2992.0 0.0 0.0 1.0
-19.465533333333337 -7.98875 2524.89 0.0 0.0 1.0
-18.790433333333336 -7.763713333333333 2524.89 0.0 0.0 1.0
-19.972133333333332 4.128313333333334 2503.77 0.0 0.0 1.0
-19.972133333333332 5.690376666666666 2503.77 0.0 0.0 1.0
-19.972133333333332 5.690376666666666 2503.77 0.0 0.0 1.0
-7.466666666666666 14.0 2992.0 0.0 0.0 1.0
-18.461533333333332 11.9658 2557.26 0.0 0.0 1.0
-8.0 22.8 2992.0 0.0 0.0 1.0
-8.0 25.2 2992.0 0.0 0.0 1.0
-31.5646 17.687066666666666 2035.37 0.0 0.0 1.0
-31.201799999999995 18.5941 2035.37 0.0 0.0 1.0
-8.0 31.066666666666663 2992.0 0.0 0.0 1.0
-7.733333333333333 37.46666666666667 2992.0 0.0 0.0 1.0
-7.733333333333333 37.46666666666667 2992.0 0.0 0.0 1.0
-8.0 46.0 2992.0 0.0 0.0 1.0
-20.717133333333333 61.5139 2384.06 0.0 0.0 1.0
-28.034166666666664 59.0965 2191.94 0.0 0.0 1.0
-21.992033333333335 69.5883 2384.06 0.0 0.0 1.0
-22.204533333333334 81.27493333333332 2384.06 0.0 0.0 1.0
-22.417 81.91236666666667 2384.06 0.0 0.0 1.0
-8.0 123.33333333333333 2992.0 0.0 0.0 1.0
-23.679999999999996 100.37333333333333 2393.6 0.0 0.0 1.0
-8.799999999999999 131.33333333333334 2992.0 0.0 0.0 1.0
-7.733333333333334 134.0 2992.0 0.0 0.0 1.0
-19.210733333333334 109.021 2368.3466666666664 -0.06365785108200625 0.9539827913651372 0.2930264694098513
-7.733333333333334 -148.13333333333333 2992.0 0.0 0.0 1.0
-15.757566666666667 -131.75766666666667 2720.0 0.0 0.0 1.0
-8.533333333333333 -133.73333333333332 2992.0 0.0 0.0 1.0
-8.533333333333333 -133.73333333333332 2992.0 0.0 0.0 1.0
-8.0 -130.0 2992.0 0.0 0.0 1.0
-35.15923333333333 -80.25476666666667 1905.7300000000002 0.0 0.0 1.0
-7.733333333333334 -125.46666666666665 2992.0 0.0 0.0 1.0
-14.358966666666666 -110.16566666666667 2707.69 0.0 0.0 1.0
-8.533333333333333 -122.26666666666667 2992.0 0.0 0.0 1.0
-14.938366666666667 -107.83133333333335 2703.626666666667 -0.7052514195848225 -0.7052514195848176 0.07239385572817796
-13.635 -99.306 2707.69 0.0 0.0 1.0
-8.799999999999999 -105.46666666666665 2992.0 0.0 0.0 1.0
-14.600299999999999 -87.48113333333333 2707.69 0.0 0.0 1.0
-15.806933333333333 -75.89743333333332 2707.69 0.0 0.0 1.0
-8.0 -72.66666666666667 2992.0 0.0 0.0 1.0
-8.533333333333333 -65.46666666666667 2992.0 0.0 0.0 1.0
-8.8 -60.4 2992.0 0.0 0.0 1.0
-8.8 -60.4 2992.0 0.0 0.0 1.0
-8.8 -60.4 2992.0 0.0 0.0 1.0
-9.066666666666668 -54.26666666666667 2992.0 0.0 0.0 1.0
-9.866666666666665 -43.86666666666667 2992.0 0.0 0.0 1.0
-7.733333333333333 -40.13333333333333 2992.0 0.0 0.0 1.0
-8.8 -35.6 2992.0 0.0 0.0 1.0
-9.066666666666666 -24.933333333333334 2992.0 0.0 0.0 1.0
-8.533333333333333 -24.666666666666668 2992.0 0.0 0.0 1.0
-20.140633333333334 -8.43882 2524.89 0.0 0.0 1.0
-20.392166666666665 -4.36975 2514.29 0.0 0.0 1.0
-20.392166666666665 -4.36975 2514.29 0.0 0.0 1.0
-19.601133333333333 -2.39316 2557.26 0.0 0.0 1.0
-9.066666666666666 -1.2 2992.0 0.0 0.0 1.0
-9.066666666666666 1.4666666666666668 2992.0 0.0 0.0 1.0
-20.8647 2.789403333333334 2503.77 0.0 0.0 1.0
-20.418433333333336 3.90516 2503.77 0.0 0.0 1.0
-19.972133333333332 5.690376666666666 2503.77 0.0 0.0 1.0
-8.799999999999999 22.53333333333333 2992.0 0.0 0.0 1.0
-8.0 25.2 2992.0 0.0 0.0 1.0
-31.201799999999995 18.5941 2035.37 0.0 0.0 1.0
-8.0 30.0 2992.0 0.0 0.0 1.0
-8.799999999999999 33.46666666666666 2992.0 0.0 0.0 1.0
-8.0 39.06666666666667 2992.0 0.0 0.0 1.0
-7.733333333333333 44.13333333333333 2992.0 0.0 0.0 1.0
-8.0 46.0 2992.0 0.0 0.0 1.0
-9.866666666666667 58.800000000000004 2992.0 0.0 0.0 1.0
-7.2 66.26666666666667 2992.0 0.0 0.0 1.0
-23.679999999999996 58.56 2393.6 0.0 0.0 1.0
-22.49206666666667 60.79763333333333 2380.9066666666663 -3.419211048975259e-17 -0.9751595812669357 0.22150347867086523
-28.034166666666664 59.0965 2191.94 0.0 0.0 1.0
-22.841933333333333 77.4502 2384.06 0.0 0.0 1.0
-22.841933333333333 78.5126 2384.06 0.0 0.0 1.0
-23.679999999999996 80.10666666666667 2393.6 0.0 0.0 1.0
-8.0 113.73333333333335 2992.0 0.0 0.0 1.0
-9.066666666666668 117.2 2992.0 0.0 0.0 1.0
-8.533333333333333 118.0 2992.0 0.0 0.0 1.0
-8.0 124.93333333333334 2992.0 0.0 0.0 1.0
-23.46666666666667 105.06666666666666 2393.6 0.0 0.0 1.0
-8.799999999999999 131.33333333333334 2992.0 0.0 0.0 1.0
-22.186666666666667 106.13333333333333 2393.6 0.0 0.0 1.0
-9.333333333333334 134.8 2992.0 0.0 0.0 1.0
-22.416966666666667 108.26033333333334 2384.06 0.0 0.0 1.0
-26.875 109.27066666666667 2337.5 0.0 0.0 1.0
-9.6 146.8 2992.0 0.0 0.0 1.0
-16.2896 -129.47233333333335 2707.69 0.0 0.0 1.0
-16.772266666666667 -126.09366666666666 2707.69 0.0 0.0 1.0
-9.066666666666666 -131.6 2992.0 0.0 0.0 1.0
-16.2896 -116.68166666666667 2707.69 0.0 0.0 1.0
-35.15923333333333 -80.25476666666667 1905.7300000000002 0.0 0.0 1.0
-9.866666666666667 -112.93333333333334 2992.0 0.0 0.0 1.0
-9.6 -104.93333333333334 2992.0 0.0 0.0 1.0
-20.9009 -87.56760000000001 2695.5 0.0 0.0 1.0
-10.666666666666666 -95.86666666666667 2992.0 0.0 0.0 1.0
-16.8168 -70.51053333333334 2695.5 0.0 0.0 1.0
-8.0 -74.53333333333333 2992.0 0.0 0.0 1.0
-9.333333333333334 -66.8 2992.0 0.0 0.0 1.0
-9.333333333333334 -66.8 2992.0 0.0 0.0 1.0
-9.866666666666665 -43.86666666666667 2992.0 0.0 0.0 1.0
-9.066666666666666 -24.933333333333334 2992.0 0.0 0.0 1.0
-19.770866666666667 -16.478633333333335 2550.0066666666667 -0.8734487685397756 0.43672438426988486 0.21531154386246784
-20.74076666666667 -10.142456666666666 2557.26 0.0 0.0 1.0
-20.61623333333333 -5.714286666666666 2514.29 0.0 0.0 1.0
-20.61623333333333 -5.714286666666666 2514.29 0.0 0.0 1.0
-21.534166666666668 0.5578813333333333 2503.77 0.0 0.0 1.0
-20.41843333333333 3.9051600000000004 2503.77 0.0 0.0 1.0
-9.333333333333334 22.8 2992.0 0.0 0.0 1.0
-10.133333333333333 23.333333333333332 2992.0 0.0 0.0 1.0
-31.5646 17.68706666666667 2035.37 0.0 0.0 1.0
-10.133333333333333 48.13333333333333 2992.0 0.0 0.0 1.0
-10.133333333333333 48.13333333333333 2992.0 0.0 0.0 1.0
-8.0 53.73333333333333 2992.0 0.0 0.0 1.0
-9.866666666666665 58.26666666666667 2992.0 0.0 0.0 1.0
-10.666666666666666 63.333333333333336 2992.0 0.0 0.0 1.0
-23.893333333333334 57.70666666666667 2393.6 0.0 0.0 1.0
-23.893333333333334 57.70666666666667 2393.6 0.0 0.0 1.0
-23.679999999999996 59.626666666666665 2393.6 0.0 0.0 1.0
-24.746666666666666 70.71999999999998 2393.6 0.0 0.0 1.0
-24.74666666666667 74.56 2393.6 0.0 0.0 1.0
-23.679999999999996 80.10666666666667 2393.6 0.0 0.0 1.0
-9.6 118.26666666666667 2992.0 0.0 0.0 1.0
-23.679999999999996 100.37333333333333 2393.6 0.0 0.0 1.0
-8.799999999999999 131.33333333333334 2992.0 0.0 0.0 1.0
-10.133333333333333 147.6 2992.0 0.0 0.0 1.0
-16.772266666666667 -126.09366666666666 2707.69 0.0 0.0 1.0
-16.772266666666667 -126.09366666666666 2707.69 0.0 0.0 1.0
-35.15923333333333 -80.25476666666667 1905.7300000000002 0.0 0.0 1.0
-11.733333333333334 -115.33333333333333 2992.0 0.0 0.0 1.0
-10.133333333333333 -104.39999999999999 2992.0 0.0 0.0 1.0
-10.933333333333332 -103.86666666666667 2992.0 0.0 0.0 1.0
-10.133333333333333 -99.33333333333333 2992.0 0.0 0.0 1.0
-10.666666666666666 -95.86666666666667 2992.0 0.0 0.0 1.0
-16.772266666666667 -75.89743333333332 2707.69 0.0 0.0 1.0
-9.066666666666668 -54.26666666666667 2992.0 0.0 0.0 1.0
-11.200000000000001 -46.79999999999999 2992.0 0.0 0.0 1.0
-10.133333333333335 -39.06666666666666 2992.0 0.0 0.0 1.0
-10.4 -35.86666666666667 2992.0 0.0 0.0 1.0
-11.466666666666667 -33.199999999999996 2992.0 0.0 0.0 1.0
-9.6 -30.266666666666666 2992.0 0.0 0.0 1.0
-11.199999999999998 -22.8 2992.0 0.0 0.0 1.0
-19.770866666666667 -16.478633333333335 2550.0066666666667 -0.8734487685397756 0.43672438426988486 0.21531154386246784
-10.133333333333333 -16.666666666666668 2992.0 0.0 0.0 1.0
-20.14063333333333 -8.43882 2524.89 0.0 0.0 1.0
-21.534166666666668 0.5578813333333333 2503.77 0.0 0.0 1.0
-21.534166666666664 2.56625 2503.77 0.0 0.0 1.0
-20.740733333333335 11.9658 2557.26 0.0 0.0 1.0
-9.6 22.266666666666666 2992.0 0.0 0.0 1.0
-32.47166666666667 19.1383 2035.37 0.0 0.0 1.0
-10.133333333333335 30.53333333333333 2992.0 0.0 0.0 1.0
-10.133333333333335 34.53333333333334 2992.0 0.0 0.0 1.0
-24.444433333333336 31.2222 2493.33 0.0 0.0 1.0
-10.666666666666666 63.333333333333336 2992.0 0.0 0.0 1.0
-23.679999999999996 58.56 2393.6 0.0 0.0 1.0
-28.034166666666664 59.0965 2191.94 0.0 0.0 1.0
-24.320000000000004 71.78666666666668 2393.6 0.0 0.0 1.0
-24.320000000000004 79.89333333333333 2393.6 0.0 0.0 1.0
-25.173333333333332 83.52 2393.6 0.0 0.0 1.0
-25.173333333333332 87.78666666666668 2393.6 0.0 0.0 1.0
-25.173333333333332 87.78666666666668 2393.6 0.0 0.0 1.0
-9.6 118.26666666666667 2992.0 0.0 0.0 1.0
-11.733333333333334 122.0 2992.0 0.0 0.0 1.0
-24.53333333333333 103.78666666666668 2393.6 0.0 0.0 1.0
-22.416966666666667 108.26033333333334 2384.06 0.0 0.0 1.0
-11.466666666666669 136.93333333333334 2992.0 0.0 0.0 1.0
-10.4 147.33333333333334 2992.0 0.0 0.0 1.0
-10.933333333333332 148.4 2992.0 0.0 0.0 1.0
-15.757566666666667 -131.75766666666667 2720.0 0.0 0.0 1.0
-18.220200000000002 -128.507 2707.69 0.0 0.0 1.0
-10.933333333333332 -134.0 2992.0 0.0 0.0 1.0
-18.220233333333336 -116.68166666666667 2707.69 0.0 0.0 1.0
-10.933333333333332 -125.46666666666665 2992.0 0.0 0.0 1.0
-10.4 -105.2 2992.0 0.0 0.0 1.0
-34.96866666666667 -75.9516 1928.7933333333333 -0.44158354885394774 -0.8830804447352754 0.15865969087232412
-11.199999999999998 -93.2 2992.0 0.0 0.0 1.0
-11.199999999999998 -93.2 2992.0 0.0 0.0 1.0
-11.199999999999998 -93.2 2992.0 0.0 0.0 1.0
-10.666666666666666 -88.40000000000002 2992.0 0.0 0.0 1.0
-17.9789 -76.13876666666667 2707.69 0.0 0.0 1.0
-19.2192 -50.0901 2695.5 0.0 0.0 1.0
-11.466666666666667 -46.0 2992.0 0.0 0.0 1.0
-11.199999999999998 -45.199999999999996 2992.0 0.0 0.0 1.0
-11.199999999999998 -45.199999999999996 2992.0 0.0 0.0 1.0
-10.666666666666666 -43.333333333333336 2992.0 0.0 0.0 1.0
-11.200000000000001 -37.73333333333333 2992.0 0.0 0.0 1.0
-11.200000000000001 -22.8 2992.0 0.0 0.0 1.0
-20.74076666666667 -10.142456666666666 2557.26 0.0 0.0 1.0
-20.74076666666667 -10.142456666666668 2557.26 0.0 0.0 1.0
-21.757333333333335 -1.2273353333333334 2503.77 0.0 0.0 1.0
-11.733333333333334 -0.9333333333333332 2992.0 0.0 0.0 1.0
-11.199999999999998 -0.1333333333333334 2992.0 0.0 0.0 1.0
-11.466666666666667 0.6666666666666666 2992.0 0.0 0.0 1.0
-21.757333333333335 3.2357033333333334 2503.77 0.0 0.0 1.0
-22.20363333333333 6.582986666666667 2503.77 0.0 0.0 1.0
-10.933333333333332 23.600000000000005 2992.0 0.0 0.0 1.0
-32.47166666666667 19.1383 2035.37 0.0 0.0 1.0
-11.200000000000001 30.0 2992.0 0.0 0.0 1.0
-11.733333333333334 35.333333333333336 2992.0 0.0 0.0 1.0
-10.933333333333332 39.86666666666667 2992.0 0.0 0.0 1.0
-11.466666666666667 42.800000000000004 2992.0 0.0 0.0 1.0
-11.466666666666667 42.800000000000004 2992.0 0.0 0.0 1.0
-10.666666666666666 47.333333333333336 2992.0 0.0 0.0 1.0
-10.666666666666666 47.333333333333336 2992.0 0.0 0.0 1.0
-23.542533333333335 41.3947 2503.77 0.0 0.0 1.0
-11.733333333333334 58.53333333333333 2992.0 0.0 0.0 1.0
-11.466666666666667 59.333333333333336 2992.0 0.0 0.0 1.0
-24.673000000000002 56.714099999999995 2396.8033333333333 0.5483437440382535 0.8225156160573792 0.150954296778396
-28.5585 60.53906666666668 2194.626666666667 -1.5027108752518988e-16 -0.9853032200488159 0.17081441555511334
-24.320000000000004 73.28 2393.6 0.0 0.0 1.0
-25.386666666666667 77.97333333333334 2393.6 0.0 0.0 1.0
-24.959999999999997 79.46666666666668 2393.6 0.0 0.0 1.0
-25.173333333333336 80.32 2393.6 0.0 0.0 1.0
-25.386666666666667 80.74666666666666 2393.6 0.0 0.0 1.0
-25.173333333333332 83.52 2393.6 0.0 0.0 1.0
-24.53333333333333 99.73333333333333 2393.6 0.0 0.0 1.0
-24.53333333333333 99.73333333333333 2393.6 0.0 0.0 1.0
-9.333333333333334 134.8 2992.0 0.0 0.0 1.0
-32.454766666666664 109.457 2319.38 0.0 0.0 1.0
-28.923066666666667 109.231 2301.54 0.0 0.0 1.0
-11.466666666666667 144.93333333333334 2992.0 0.0 0.0 1.0
-11.200000000000001 147.06666666666666 2992.0 0.0 0.0 1.0
-10.933333333333332 148.4 2992.0 0.0 0.0 1.0
-17.496233333333333 -129.47233333333335 2707.69 0.0 0.0 1.0
-17.737566666666666 -127.30033333333334 2707.69 0.0 0.0 1.0
-12.0 -130.53333333333333 2992.0 0.0 0.0 1.0
-17.4962 -108.235 2707.69 0.0 0.0 1.0
-12.799999999999999 -115.06666666666666 2992.0 0.0 0.0 1.0
-10.933333333333332 -103.86666666666667 2992.0 0.0 0.0 1.0
-33.77536666666666 -45.141146666666664 2137.4933333333333 0.9403681110103991 -0.11354227533401072 0.32064929051334096
-11.733333333333334 -99.86666666666667 2992.0 0.0 0.0 1.0
-11.199999999999998 -95.06666666666666 2992.0 0.0 0.0 1.0
-19.21923333333333 -70.2703 2695.5 0.0 0.0 1.0
-18.97896666666667 -69.30933333333333 2695.5 0.0 0.0 1.0
-13.066666666666668 -64.66666666666667 2992.0 0.0 0.0 1.0
-19.2192 -50.0901 2695.5 0.0 0.0 1.0
-12.266666666666666 -46.53333333333333 2992.0 0.0 0.0 1.0
-11.733333333333334 -35.86666666666667 2992.0 0.0 0.0 1.0
-12.266666666666666 -33.46666666666667 2992.0 0.0 0.0 1.0
-12.266666666666666 -33.46666666666667 2992.0 0.0 0.0 1.0
-23.47576666666667 -24.2735 2557.26 0.0 0.0 1.0
-11.200000000000001 -22.8 2992.0 0.0 0.0 1.0
-11.733333333333334 -16.400000000000002 2992.0 0.0 0.0 1.0
-11.733333333333334 1.7333333333333332 2992.0 0.0 0.0 1.0
-12.0 2.5333333333333337 2992.0 0.0 0.0 1.0
-12.799999999999999 3.3333333333333335 2992.0 0.0 0.0 1.0
-12.266666666666666 23.866666666666664 2992.0 0.0 0.0 1.0
-12.266666666666666 28.666666666666668 2992.0 0.0 0.0 1.0
-24.444433333333336 31.2222 2493.33 0.0 0.0 1.0
-11.466666666666667 42.800000000000004 2992.0 0.0 0.0 1.0
-23.319366666666667 44.07253333333333 2503.77 0.0 0.0 1.0
-23.319366666666667 44.07253333333333 2503.77 0.0 0.0 1.0
-12.0 57.199999999999996 2992.0 0.0 0.0 1.0
-12.0 60.13333333333333 2992.0 0.0 0.0 1.0
-11.733333333333334 63.06666666666666 2992.0 0.0 0.0 1.0
-24.53333333333333 58.13333333333333 2393.6 0.0 0.0 1.0
-26.24 76.05333333333333 2393.6 0.0 0.0 1.0
-25.173333333333336 79.68 2393.6 0.0 0.0 1.0
-11.200000000000001 115.33333333333333 2992.0 0.0 0.0 1.0
-11.733333333333334 122.0 2992.0 0.0 0.0 1.0
-28.65676666666667 99.33243333333333 2452.5699999999997 0.41027193740641993 -0.9118864443993573 -0.011834267931761138
-12.266666666666666 131.06666666666666 2992.0 0.0 0.0 1.0
-12.266666666666666 131.33333333333334 2992.0 0.0 0.0 1.0
-26.875 109.27066666666667 2337.5 0.0 0.0 1.0
-11.200000000000001 147.06666666666666 2992.0 0.0 0.0 1.0
-13.066666666666668 -149.20000000000002 2992.0 0.0 0.0 1.0
-13.333333333333334 -148.13333333333333 2992.0 0.0 0.0 1.0
-12.800000000000002 -133.20000000000002 2992.0 0.0 0.0 1.0
-12.800000000000002 -126.0 2992.0 0.0 0.0 1.0
-12.800000000000002 -123.33333333333333 2992.0 0.0 0.0 1.0
-18.220200000000002 -110.88966666666666 2707.69 0.0 0.0 1.0
-11.466666666666669 -121.73333333333333 2992.0 0.0 0.0 1.0
-13.066666666666668 -116.39999999999999 2992.0 0.0 0.0 1.0
-13.066666666666668 -115.60000000000001 2992.0 0.0 0.0 1.0
-11.733333333333334 -99.86666666666667 2992.0 0.0 0.0 1.0
-11.733333333333334 -89.73333333333335 2992.0 0.0 0.0 1.0
-17.9789 -76.13876666666665 2707.69 0.0 0.0 1.0
-19.21923333333333 -70.2703 2695.5 0.0 0.0 1.0
-19.21923333333333 -70.2703 2695.5 0.0 0.0 1.0
-13.600000000000001 -74.26666666666667 2992.0 0.0 0.0 1.0
-19.939966666666667 -45.04503333333334 2695.5 0.0 0.0 1.0
-13.066666666666668 -35.86666666666667 2992.0 0.0 0.0 1.0
-12.266666666666666 -33.46666666666667 2992.0 0.0 0.0 1.0
-13.333333333333334 -16.133333333333333 2992.0 0.0 0.0 1.0
-12.800000000000002 -1.2 2992.0 0.0 0.0 1.0
-23.7657 6.806136666666666 2503.77 0.0 0.0 1.0
-13.333333333333334 31.333333333333332 2992.0 0.0 0.0 1.0
-13.066666666666668 32.4 2992.0 0.0 0.0 1.0
-12.0 40.666666666666664 2992.0 0.0 0.0 1.0
-23.319366666666667 44.07253333333333 2503.77 0.0 0.0 1.0
-11.733333333333334 58.53333333333333 2992.0 0.0 0.0 1.0
-12.799999999999999 60.4 2992.0 0.0 0.0 1.0
-12.799999999999999 63.333333333333336 2992.0 0.0 0.0 1.0
-13.066666666666668 64.13333333333334 2992.0 0.0 0.0 1.0
-13.333333333333334 82.0 2992.0 0.0 0.0 1.0
-13.333333333333334 82.0 2992.0 0.0 0.0 1.0
-26.88 70.50666666666667 2393.6 0.0 0.0 1.0
-26.026666666666667 76.48 2393.6 0.0 0.0 1.0
-25.813333333333333 77.12 2393.6 0.0 0.0 1.0
-25.813333333333333 81.17333333333333 2393.6 0.0 0.0 1.0
-25.813333333333333 81.17333333333333 2393.6 0.0 0.0 1.0
-25.173333333333336 83.52 2393.6 0.0 0.0 1.0
-12.799999999999999 116.13333333333333 2992.0 0.0 0.0 1.0
-12.533333333333333 122.53333333333335 2992.0 0.0 0.0 1.0
-13.066666666666668 123.86666666666667 2992.0 0.0 0.0 1.0
-13.066666666666668 123.86666666666667 2992.0 0.0 0.0 1.0
-26.24 103.78666666666668 2393.6 0.0 0.0 1.0
-12.533333333333333 131.06666666666666 2992.0 0.0 0.0 1.0
-12.533333333333333 131.33333333333334 2992.0 0.0 0.0 1.0
-25.82013333333333 108.04233333333333 2374.6 0.0 0.0 1.0
-11.466666666666669 136.93333333333334 2992.0 0.0 0.0 1.0
-13.066666666666668 144.13333333333333 2992.0 0.0 0.0 1.0
-13.066666666666668 -149.20000000000002 2992.0 0.0 0.0 1.0
-20.150833333333335 -112.579 2707.69 0.0 0.0 1.0
-13.066666666666668 -116.40000000000002 2992.0 0.0 0.0 1.0
-12.799999999999999 -115.06666666666666 2992.0 0.0 0.0 1.0
-14.133333333333333 -93.73333333333333 2992.0 0.0 0.0 1.0
-14.133333333333333 -93.73333333333333 2992.0 0.0 0.0 1.0
-13.6 -74.26666666666667 2992.0 0.0 0.0 1.0
-13.6 -70.8 2992.0 0.0 0.0 1.0
-14.133333333333333 -68.93333333333334 2992.0 0.0 0.0 1.0
-13.866666666666667 -64.66666666666667 2992.0 0.0 0.0 1.0
-13.866666666666667 -64.66666666666667 2992.0 0.0 0.0 1.0
-13.866666666666667 -64.13333333333334 2992.0 0.0 0.0 1.0
-19.939966666666667 -45.04503333333333 2695.5 0.0 0.0 1.0
-19.939966666666667 -45.04503333333334 2695.5 0.0 0.0 1.0
-13.066666666666668 -46.0 2992.0 0.0 0.0 1.0
-13.866666666666667 -44.666666666666664 2992.0 0.0 0.0 1.0
-12.266666666666666 -37.73333333333333 2992.0 0.0 0.0 1.0
-24.38746666666667 -25.4131 2557.26 0.0 0.0 1.0
-24.337133333333338 -17.240466666666666 2528.4566666666665 -0.9963833442604093 8.368722784082569e-16 0.0849719440782807
-24.41626666666667 -16.315066666666667 2524.89 0.0 0.0 1.0
-22.87306666666667 -3.0125526666666667 2503.77 0.0 0.0 1.0
-25.333333333333332 -1.4444466666666667 2493.33 0.0 0.0 1.0
-23.931633333333334 11.9658 2557.26 0.0 0.0 1.0
-14.4 16.400000000000002 2992.0 0.0 0.0 1.0
-14.133333333333333 20.933333333333334 2992.0 0.0 0.0 1.0
-13.866666666666667 23.066666666666663 2992.0 0.0 0.0 1.0
-13.066666666666668 23.600000000000005 2992.0 0.0 0.0 1.0
-13.6 27.333333333333332 2992.0 0.0 0.0 1.0
-13.6 34.800000000000004 2992.0 0.0 0.0 1.0
-13.6 34.800000000000004 2992.0 0.0 0.0 1.0
-13.6 34.800000000000004 2992.0 0.0 0.0 1.0
-12.0 45.199999999999996 2992.0 0.0 0.0 1.0
-26.22223333333333 40.999966666666666 2493.33 0.0 0.0 1.0
-12.799999999999999 60.4 2992.0 0.0 0.0 1.0
-13.066666666666668 64.13333333333334 2992.0 0.0 0.0 1.0
-13.866666666666667 71.06666666666666 2992.0 0.0 0.0 1.0
-13.866666666666667 71.06666666666666 2992.0 0.0 0.0 1.0
-13.866666666666667 73.2 2992.0 0.0 0.0 1.0
-14.133333333333333 83.86666666666667 2992.0 0.0 0.0 1.0
-26.88 69.22666666666667 2393.6 0.0 0.0 1.0
-26.88 70.50666666666666 2393.6 0.0 0.0 1.0
-27.093333333333334 75.62666666666668 2393.6 0.0 0.0 1.0
-27.093333333333334 75.62666666666667 2393.6 0.0 0.0 1.0
-26.88 79.25333333333334 2393.6 0.0 0.0 1.0
-27.733333333333334 87.14666666666666 2393.6 0.0 0.0 1.0
-14.666666666666666 118.53333333333335 2992.0 0.0 0.0 1.0
-13.066666666666668 123.86666666666667 2992.0 0.0 0.0 1.0
-14.4 -147.33333333333334 2992.0 0.0 0.0 1.0
-21.11616666666667 -122.95633333333335 2707.69 0.0 0.0 1.0
-14.4 -132.4 2992.0 0.0 0.0 1.0
-14.133333333333333 -130.53333333333333 2992.0 0.0 0.0 1.0
-21.11616666666667 -115.95766666666667 2707.69 0.0 0.0 1.0
-14.933333333333335 -126.0 2992.0 0.0 0.0 1.0
-15.466666666666669 -110.53333333333335 2992.0 0.0 0.0 1.0
