ply
format ascii 1.0
comment VCGLIB generated
element vertex 884
property float x
property float y
property float z
property float nx
property float ny
property float nz
element face 0
property list uchar int vertex_indices
end_header
-120.0 -98.2222 3324.44 0.0 0.0 1.0
-120.88900000000001 -89.3333 3324.44 0.0 0.0 1.0
-119.40733333333333 -82.81479999999999 3324.44 0.0 0.0 1.0
-119.70366666666666 -74.81479999999999 3324.44 0.0 0.0 1.0
-119.70366666666666 -72.74073333333332 3324.44 0.0 0.0 1.0
-120.59266666666667 -72.14816666666665 3324.44 0.0 0.0 1.0
-120.0 -59.407399999999996 3324.44 0.0 0.0 1.0
-118.81466666666665 -55.851866666666666 3324.44 0.0 0.0 1.0
-114.88166666666666 -32.2275 2836.02 0.0 0.0 1.0
-120.0 -24.444433333333336 3324.44 0.0 0.0 1.0
-120.59266666666667 -17.037000000000003 3324.44 0.0 0.0 1.0
-120.59266666666667 -15.851866666666666 3324.44 0.0 0.0 1.0
-119.11099999999999 -12.2963 3324.44 0.0 0.0 1.0
-120.0 -9.333323333333334 3324.44 0.0 0.0 1.0
-119.70366666666666 -7.85185 3324.44 0.0 0.0 1.0
-120.29633333333334 -1.6296266666666668 3324.44 0.0 0.0 1.0
-114.14333333333333 11.838033333333334 2796.26 0.0 0.0 1.0
-114.14333333333333 13.084133333333334 2796.26 0.0 0.0 1.0
-121.48166666666668 29.1852 3324.44 0.0 0.0 1.0
-120.29633333333334 31.259266666666665 3324.44 0.0 0.0 1.0
-119.40733333333333 51.703700000000005 3324.44 0.0 0.0 1.0
-119.40733333333333 51.703700000000005 3324.44 0.0 0.0 1.0
-114.815 45.30866666666666 2770.3700000000003 -8.009785085869018e-29 4.807168532906807e-28 1.0
-114.16300000000001 53.702 2757.6 0.0 0.0 1.0
-113.91733333333333 56.40553333333333 2757.6 0.0 0.0 1.0
-113.91733333333333 56.8971 2757.6 0.0 0.0 1.0
-119.40733333333333 71.85186666666668 3324.44 0.0 0.0 1.0
-120.29633333333334 91.70369999999998 3324.44 0.0 0.0 1.0
-120.0 92.0 3324.44 0.0 0.0 1.0
-119.70366666666666 92.5926 3324.44 0.0 0.0 1.0
-120.88900000000001 102.96333333333332 3324.44 0.0 0.0 1.0
-120.59266666666667 105.33333333333333 3324.44 0.0 0.0 1.0
-120.29633333333334 113.92566666666666 3324.44 0.0 0.0 1.0
-119.40733333333333 115.11099999999999 3324.44 0.0 0.0 1.0
-119.70366666666666 122.81466666666667 3324.44 0.0 0.0 1.0
-110.50933333333334 111.90666666666668 2613.1 0.0 0.0 1.0
-121.18533333333335 154.22199999999998 3324.44 0.0 0.0 1.0
-120.59266666666667 158.963 3324.44 0.0 0.0 1.0
-121.48166666666667 -163.111 3324.44 0.0 0.0 1.0
-120.29633333333334 -155.40733333333333 3324.44 0.0 0.0 1.0
-120.59266666666667 -149.48166666666668 3324.44 0.0 0.0 1.0
-120.59266666666667 -149.48166666666668 3324.44 0.0 0.0 1.0
-119.40733333333333 -143.852 3324.44 0.0 0.0 1.0
-120.59266666666667 -110.37066666666668 3324.44 0.0 0.0 1.0
-121.48166666666667 -109.48166666666667 3324.44 0.0 0.0 1.0
-113.19533333333334 -91.64153333333333 3002.0266666666666 0.5334124360015429 -0.7112165813353867 0.45786695398609534
-120.0 -98.2222 3324.44 0.0 0.0 1.0
-121.778 -92.5926 3324.44 0.0 0.0 1.0
-120.88900000000001 -89.3333 3324.44 0.0 0.0 1.0
-120.889 -84.88889999999999 3324.44 0.0 0.0 1.0
-120.889 -84.88889999999999 3324.44 0.0 0.0 1.0
-120.889 -84.88889999999999 3324.44 0.0 0.0 1.0
-119.40733333333333 -65.3333 3324.44 0.0 0.0 1.0
-120.0 -59.407399999999996 3324.44 0.0 0.0 1.0
-115.63999999999999 -36.018966666666664 2836.02 0.0 0.0 1.0
-115.13466666666666 -33.49133333333333 2836.02 0.0 0.0 1.0
-114.88166666666666 -32.2275 2836.02 0.0 0.0 1.0
-120.88900000000001 -23.851866666666666 3324.44 0.0 0.0 1.0
-120.59266666666667 -17.037000000000003 3324.44 0.0 0.0 1.0
-120.889 -16.444433333333333 3324.44 0.0 0.0 1.0
-120.59266666666667 -15.851866666666666 3324.44 0.0 0.0 1.0
-120.59266666666667 -13.7778 3324.44 0.0 0.0 1.0
-120.29633333333334 -10.518510000000001 3324.44 0.0 0.0 1.0
-122.07433333333334 7.85185 3324.44 0.0 0.0 1.0
-114.39266666666667 10.342696666666667 2796.26 0.0 0.0 1.0
-121.18533333333333 43.407399999999996 3324.44 0.0 0.0 1.0
-120.0 44.8889 3324.44 0.0 0.0 1.0
-114.16300000000001 53.702 2757.6 0.0 0.0 1.0
-114.16300000000001 57.8802 2757.6 0.0 0.0 1.0
-120.59266666666667 74.51853333333334 3324.44 0.0 0.0 1.0
-121.48166666666667 78.96296666666667 3324.44 0.0 0.0 1.0
-122.96300000000001 85.18520000000001 3324.44 0.0 0.0 1.0
-120.0 89.62959999999998 3324.44 0.0 0.0 1.0
-120.88900000000001 92.0 3324.44 0.0 0.0 1.0
-121.18533333333333 96.14813333333335 3324.44 0.0 0.0 1.0
-120.0 97.6296 3324.44 0.0 0.0 1.0
-120.88900000000001 104.14833333333333 3324.44 0.0 0.0 1.0
-119.70366666666666 106.51833333333333 3324.44 0.0 0.0 1.0
-119.70366666666666 112.74066666666666 3324.44 0.0 0.0 1.0
-120.88900000000001 122.222 3324.44 0.0 0.0 1.0
-120.59266666666667 127.25933333333334 3324.44 0.0 0.0 1.0
-122.07433333333334 -164.889 3324.44 0.0 0.0 1.0
-121.778 -163.70366666666666 3324.44 0.0 0.0 1.0
-121.48166666666667 -163.111 3324.44 0.0 0.0 1.0
-115.46666666666665 -144.66666666666666 2992.0 0.0 0.0 1.0
-115.46666666666665 -144.66666666666666 2992.0 0.0 0.0 1.0
-120.88900000000001 -147.40733333333333 3324.44 0.0 0.0 1.0
-117.94366666666667 -118.209 2977.11 0.0 0.0 1.0
-117.94366666666667 -116.88233333333334 2977.11 0.0 0.0 1.0
-118.73966666666666 -108.39166666666667 2977.11 0.0 0.0 1.0
-121.48166666666667 -89.6296 3324.44 0.0 0.0 1.0
-121.48166666666667 -89.6296 3324.44 0.0 0.0 1.0
-121.48166666666667 -88.74073333333332 3324.44 0.0 0.0 1.0
-121.48166666666667 -71.85186666666667 3324.44 0.0 0.0 1.0
-121.48166666666667 -60.8889 3324.44 0.0 0.0 1.0
-121.77766666666668 -49.6296 3324.44 0.0 0.0 1.0
-115.89266666666667 -34.5024 2836.02 0.0 0.0 1.0
-114.88166666666666 -32.2275 2836.02 0.0 0.0 1.0
-114.88166666666666 -25.655633333333338 2836.02 0.0 0.0 1.0
-121.48166666666667 -22.3704 3324.44 0.0 0.0 1.0
-122.07433333333334 -21.1852 3324.44 0.0 0.0 1.0
-121.18533333333333 -17.037000000000003 3324.44 0.0 0.0 1.0
-120.29633333333334 -1.6296266666666668 3324.44 0.0 0.0 1.0
-121.18533333333333 2.5185166666666667 3324.44 0.0 0.0 1.0
-122.07433333333334 7.85185 3324.44 0.0 0.0 1.0
-114.39266666666667 10.342696666666667 2796.26 0.0 0.0 1.0
-114.891 13.8318 2796.26 0.0 0.0 1.0
-114.64166666666667 17.071666666666665 2796.26 0.0 0.0 1.0
-121.48166666666667 29.1852 3324.44 0.0 0.0 1.0
-122.07433333333334 35.703700000000005 3324.44 0.0 0.0 1.0
-122.66666666666667 36.8889 3324.44 0.0 0.0 1.0
-122.37033333333333 41.925900000000006 3324.44 0.0 0.0 1.0
-121.48166666666667 78.96296666666667 3324.44 0.0 0.0 1.0
-121.778 80.14813333333332 3324.44 0.0 0.0 1.0
-121.778 80.14813333333332 3324.44 0.0 0.0 1.0
-121.778 91.70369999999998 3324.44 0.0 0.0 1.0
-122.37066666666668 93.18520000000001 3324.44 0.0 0.0 1.0
-121.778 103.85199999999999 3324.44 0.0 0.0 1.0
-121.778 122.51833333333333 3324.44 0.0 0.0 1.0
-122.07433333333334 126.37066666666668 3324.44 0.0 0.0 1.0
-122.07433333333334 132.59266666666667 3324.44 0.0 0.0 1.0
-122.96300000000001 133.48166666666668 3324.44 0.0 0.0 1.0
-121.18533333333335 154.222 3324.44 0.0 0.0 1.0
-121.18533333333335 154.222 3324.44 0.0 0.0 1.0
-122.66699999999999 162.81466666666668 3324.44 0.0 0.0 1.0
-122.66700000000002 -164.0 3324.44 0.0 0.0 1.0
-122.37066666666668 -157.48166666666665 3324.44 0.0 0.0 1.0
-119.27033333333333 -109.71833333333332 2977.11 0.0 0.0 1.0
-123.25966666666666 -108.88900000000001 3324.44 0.0 0.0 1.0
-121.18533333333333 -98.81479999999999 3324.44 0.0 0.0 1.0
-122.96300000000001 -93.7778 3324.44 0.0 0.0 1.0
-123.25966666666666 -76.8889 3324.44 0.0 0.0 1.0
-122.66699999999999 -71.55556666666666 3324.44 0.0 0.0 1.0
-123.25933333333334 -59.7037 3324.44 0.0 0.0 1.0
-122.66699999999999 -59.1111 3324.44 0.0 0.0 1.0
-123.25933333333334 -58.518499999999996 3324.44 0.0 0.0 1.0
-122.96333333333332 -45.481500000000004 3324.44 0.0 0.0 1.0
-122.96333333333332 -45.481500000000004 3324.44 0.0 0.0 1.0
-116.14533333333334 -36.77726666666666 2836.02 0.0 0.0 1.0
-116.14533333333333 -29.9526 2836.02 0.0 0.0 1.0
-117.15633333333334 -27.424933333333332 2836.02 0.0 0.0 1.0
-121.18533333333333 -25.03703333333333 3324.44 0.0 0.0 1.0
-123.25933333333334 -20.0 3324.44 0.0 0.0 1.0
-122.37066666666668 -13.7778 3324.44 0.0 0.0 1.0
-122.96300000000001 1.9259246666666667 3324.44 0.0 0.0 1.0
-115.63866666666668 14.579466666666667 2796.26 0.0 0.0 1.0
-115.63866666666668 15.576333333333332 2796.26 0.0 0.0 1.0
-121.48166666666667 29.1852 3324.44 0.0 0.0 1.0
-122.96300000000001 35.1111 3324.44 0.0 0.0 1.0
-114.815 45.30866666666666 2770.3700000000003 -8.009785085869019e-29 4.807168532906807e-28 1.0
-114.815 45.30866666666666 2770.3700000000003 -8.009785085869018e-29 4.807168532906807e-28 1.0
-116.375 51.49 2757.6 0.0 0.0 1.0
-114.90033333333334 54.43933333333334 2757.6 0.0 0.0 1.0
-115.88333333333333 55.17666666666667 2757.6 0.0 0.0 1.0
-115.88333333333333 56.15976666666666 2757.6 0.0 0.0 1.0
-122.66700000000002 91.4074 3324.44 0.0 0.0 1.0
-121.778 102.96333333333332 3324.44 0.0 0.0 1.0
-122.66700000000002 104.14800000000001 3324.44 0.0 0.0 1.0
-123.55566666666668 109.778 3324.44 0.0 0.0 1.0
-124.14800000000001 118.07433333333334 3324.44 0.0 0.0 1.0
-122.66699999999999 124.0 3324.44 0.0 0.0 1.0
-122.96300000000001 133.48166666666668 3324.44 0.0 0.0 1.0
-123.55566666666668 139.70366666666666 3324.44 0.0 0.0 1.0
-123.55566666666668 143.55566666666667 3324.44 0.0 0.0 1.0
-122.96333333333332 148.29633333333334 3324.44 0.0 0.0 1.0
-122.37066666666668 150.66666666666666 3324.44 0.0 0.0 1.0
-122.37033333333333 157.18533333333332 3324.44 0.0 0.0 1.0
-122.66700000000002 162.81466666666665 3324.44 0.0 0.0 1.0
-122.66700000000002 -164.0 3324.44 0.0 0.0 1.0
-123.55566666666668 -158.963 3324.44 0.0 0.0 1.0
-123.25933333333334 -151.25933333333333 3324.44 0.0 0.0 1.0
-125.03699999999999 -139.111 3324.44 0.0 0.0 1.0
-118.47433333333333 -119.801 2977.11 0.0 0.0 1.0
-118.47433333333333 -119.801 2977.11 0.0 0.0 1.0
-119.27033333333334 -115.82099999999998 2977.11 0.0 0.0 1.0
-119.27033333333333 -109.71833333333332 2977.11 0.0 0.0 1.0
-124.14833333333333 -114.81466666666667 3324.44 0.0 0.0 1.0
-124.14833333333333 -114.222 3324.44 0.0 0.0 1.0
-123.25966666666666 -108.88900000000001 3324.44 0.0 0.0 1.0
-123.25966666666666 -108.88900000000001 3324.44 0.0 0.0 1.0
-119.53566666666666 -77.61193333333334 2977.11 0.0 0.0 1.0
-124.14833333333333 -78.0741 3324.44 0.0 0.0 1.0
-122.96333333333332 -74.8148 3324.44 0.0 0.0 1.0
-124.44433333333332 -70.6667 3324.44 0.0 0.0 1.0
-122.96333333333332 -45.481500000000004 3324.44 0.0 0.0 1.0
-116.90333333333335 -36.524499999999996 2836.02 0.0 0.0 1.0
-116.65066666666667 -35.513466666666666 2836.02 0.0 0.0 1.0
-117.15633333333334 -27.424933333333332 2836.02 0.0 0.0 1.0
-123.85199999999999 -15.55556666666667 3324.44 0.0 0.0 1.0
-123.85199999999999 -15.55556666666667 3324.44 0.0 0.0 1.0
-117.55900000000001 -5.6338 2809.39 0.0 0.0 1.0
-122.96300000000001 -4.88889 3324.44 0.0 0.0 1.0
-123.85199999999999 7.25926 3324.44 0.0 0.0 1.0
-117.134 19.065433333333335 2796.26 0.0 0.0 1.0
-117.95333333333333 24.9302 2783.26 0.0 0.0 1.0
-116.375 51.49 2757.6 0.0 0.0 1.0
-122.07433333333334 77.77780000000001 3324.44 0.0 0.0 1.0
-123.85199999999999 87.25926666666668 3324.44 0.0 0.0 1.0
-123.85199999999999 87.25926666666668 3324.44 0.0 0.0 1.0
-123.55566666666668 90.81479999999999 3324.44 0.0 0.0 1.0
-123.556 92.59259999999999 3324.44 0.0 0.0 1.0
-122.96333333333332 93.4815 3324.44 0.0 0.0 1.0
-123.55566666666668 104.444 3324.44 0.0 0.0 1.0
-123.55566666666668 109.778 3324.44 0.0 0.0 1.0
-122.96333333333332 126.66699999999999 3324.44 0.0 0.0 1.0
-122.96333333333332 126.66699999999999 3324.44 0.0 0.0 1.0
-123.85199999999999 137.037 3324.44 0.0 0.0 1.0
-123.55566666666668 139.70366666666666 3324.44 0.0 0.0 1.0
-123.85200000000002 146.81466666666668 3324.44 0.0 0.0 1.0
-123.25933333333334 162.222 3324.44 0.0 0.0 1.0
-124.44433333333332 -159.85166666666666 3324.44 0.0 0.0 1.0
-123.85166666666667 -142.667 3324.44 0.0 0.0 1.0
-124.39533333333333 -93.50819999999999 3002.0266666666666 -0.530685283958532 0.7075803786113766 0.46658668775912704
-119.801 -78.40796666666667 2977.11 0.0 0.0 1.0
-119.801 -78.40796666666667 2977.11 0.0 0.0 1.0
-119.53566666666666 -77.61193333333334 2977.11 0.0 0.0 1.0
-124.74066666666666 -79.55556666666666 3324.44 0.0 0.0 1.0
-124.44433333333332 -70.6667 3324.44 0.0 0.0 1.0
-125.92566666666666 -64.14816666666665 3324.44 0.0 0.0 1.0
-123.85166666666667 -59.7037 3324.44 0.0 0.0 1.0
-124.444 -59.1111 3324.44 0.0 0.0 1.0
-124.444 -58.22220000000001 3324.44 0.0 0.0 1.0
-124.74033333333334 -57.3333 3324.44 0.0 0.0 1.0
-124.74066666666666 -47.85183333333333 3324.44 0.0 0.0 1.0
-117.91466666666668 -26.9194 2836.02 0.0 0.0 1.0
-124.44433333333332 -16.444433333333333 3324.44 0.0 0.0 1.0
-117.55900000000001 -5.6338 2809.39 0.0 0.0 1.0
-125.33299999999998 0.148148 3324.44 0.0 0.0 1.0
-117.134 19.065433333333335 2796.26 0.0 0.0 1.0
-117.134 19.065433333333335 2796.26 0.0 0.0 1.0
-123.85166666666667 36.0 3324.44 0.0 0.0 1.0
-123.55533333333334 37.1852 3324.44 0.0 0.0 1.0
-124.44433333333335 42.222199999999994 3324.44 0.0 0.0 1.0
-126.222 44.2963 3324.44 0.0 0.0 1.0
-125.33300000000001 56.74073333333333 3324.44 0.0 0.0 1.0
-116.62066666666665 55.91396666666666 2757.6 0.0 0.0 1.0
-125.03666666666668 85.4815 3324.44 0.0 0.0 1.0
-123.85199999999999 87.25926666666668 3324.44 0.0 0.0 1.0
-123.55566666666668 90.81479999999999 3324.44 0.0 0.0 1.0
-123.55566666666668 104.444 3324.44 0.0 0.0 1.0
-123.85166666666667 108.88900000000001 3324.44 0.0 0.0 1.0
-123.85166666666667 108.88900000000001 3324.44 0.0 0.0 1.0
-125.33300000000001 118.96333333333332 3324.44 0.0 0.0 1.0
-123.85166666666667 134.07433333333333 3324.44 0.0 0.0 1.0
-124.14800000000001 135.25933333333333 3324.44 0.0 0.0 1.0
-123.55566666666668 139.70366666666666 3324.44 0.0 0.0 1.0
-123.55533333333334 154.51833333333332 3324.44 0.0 0.0 1.0
-123.55533333333334 154.51833333333332 3324.44 0.0 0.0 1.0
-124.44433333333332 162.51833333333335 3324.44 0.0 0.0 1.0
-125.62933333333335 -161.92566666666664 3324.44 0.0 0.0 1.0
-125.03666666666668 -161.03666666666666 3324.44 0.0 0.0 1.0
-125.33333333333333 -157.18533333333335 3324.44 0.0 0.0 1.0
-126.81466666666667 -153.037 3324.44 0.0 0.0 1.0
-121.80900000000001 -133.601 3007.0399999999995 -5.998318608051626e-26 1.7994955824154874e-26 1.0
-125.62966666666667 -137.62933333333334 3324.44 0.0 0.0 1.0
-119.27033333333333 -109.71833333333335 2977.11 0.0 0.0 1.0
-124.74066666666666 -115.11099999999999 3324.44 0.0 0.0 1.0
-124.74066666666666 -114.51833333333332 3324.44 0.0 0.0 1.0
-126.222 -111.55566666666668 3324.44 0.0 0.0 1.0
-124.14833333333333 -108.88900000000001 3324.44 0.0 0.0 1.0
-124.74066666666666 -107.70366666666666 3324.44 0.0 0.0 1.0
-124.44433333333332 -93.4815 3324.44 0.0 0.0 1.0
-124.44433333333332 -93.4815 3324.44 0.0 0.0 1.0
-124.44433333333332 -70.6667 3324.44 0.0 0.0 1.0
-124.74033333333334 -57.33330000000001 3324.44 0.0 0.0 1.0
-118.673 -28.688766666666666 2836.02 0.0 0.0 1.0
-117.91466666666668 -26.9194 2836.02 0.0 0.0 1.0
-124.14799999999998 -21.4815 3324.44 0.0 0.0 1.0
-125.62933333333332 -18.8148 3324.44 0.0 0.0 1.0
-125.33300000000001 -18.2222 3324.44 0.0 0.0 1.0
-125.03666666666668 -17.3333 3324.44 0.0 0.0 1.0
-118.31 -5.884193333333333 2809.39 0.0 0.0 1.0
-118.05966666666666 -5.133019999999999 2809.39 0.0 0.0 1.0
-125.33300000000001 -1.9259246666666667 3324.44 0.0 0.0 1.0
-125.33300000000001 -1.9259246666666667 3324.44 0.0 0.0 1.0
-125.92566666666666 -0.148148 3324.44 0.0 0.0 1.0
-117.95333333333333 25.426333333333332 2783.26 0.0 0.0 1.0
-125.92566666666666 50.22220000000001 3324.44 0.0 0.0 1.0
-125.92566666666666 50.22220000000001 3324.44 0.0 0.0 1.0
-125.92566666666666 56.444433333333336 3324.44 0.0 0.0 1.0
-125.33300000000001 58.8148 3324.44 0.0 0.0 1.0
-117.358 51.98156666666667 2757.6 0.0 0.0 1.0
-116.62066666666665 55.91396666666666 2757.6 0.0 0.0 1.0
-126.222 80.74069999999999 3324.44 0.0 0.0 1.0
-118.23433333333334 73.66823333333333 2732.42 0.0 0.0 1.0
-118.23433333333334 73.66823333333333 2732.42 0.0 0.0 1.0
-125.92566666666666 118.07433333333334 3324.44 0.0 0.0 1.0
-126.81466666666667 131.111 3324.44 0.0 0.0 1.0
-125.62966666666667 146.222 3324.44 0.0 0.0 1.0
-124.44433333333332 162.51833333333332 3324.44 0.0 0.0 1.0
-127.11099999999999 -166.37066666666666 3324.44 0.0 0.0 1.0
-126.222 -165.18533333333332 3324.44 0.0 0.0 1.0
-125.92566666666666 -163.70366666666666 3324.44 0.0 0.0 1.0
-121.80900000000001 -133.601 3007.0399999999995 -5.998318608051602e-26 1.799495582415479e-26 1.0
-126.222 -142.37066666666666 3324.44 0.0 0.0 1.0
-126.51833333333333 -134.96266666666665 3324.44 0.0 0.0 1.0
-121.65833333333335 -115.55566666666668 2977.11 0.0 0.0 1.0
-126.51833333333333 -116.59266666666667 3324.44 0.0 0.0 1.0
-126.222 -111.55566666666668 3324.44 0.0 0.0 1.0
-123.25933333333334 -88.44443333333334 3324.44 0.0 0.0 1.0
-122.18900000000001 -73.36646666666667 2977.11 0.0 0.0 1.0
-124.74066666666666 -79.55556666666666 3324.44 0.0 0.0 1.0
-126.81466666666667 -62.963 3324.44 0.0 0.0 1.0
-125.62933333333332 -49.6296 3324.44 0.0 0.0 1.0
-125.62933333333332 -49.6296 3324.44 0.0 0.0 1.0
-118.67266666666667 -35.76623333333333 2836.02 0.0 0.0 1.0
-119.68400000000001 -34.5024 2836.02 0.0 0.0 1.0
-125.62933333333335 -18.8148 3324.44 0.0 0.0 1.0
-119.31133333333332 -8.638496666666667 2809.39 0.0 0.0 1.0
-119.31133333333332 -7.6369333333333325 2809.39 0.0 0.0 1.0
-118.81066666666668 -6.635366666666666 2809.39 0.0 0.0 1.0
-125.92566666666666 -0.148148 3324.44 0.0 0.0 1.0
-125.92566666666666 -0.148148 3324.44 0.0 0.0 1.0
-126.81466666666667 2.8148133333333334 3324.44 0.0 0.0 1.0
-127.11099999999999 8.148143333333334 3324.44 0.0 0.0 1.0
-127.11099999999999 10.8148 3324.44 0.0 0.0 1.0
-119.377 14.080999999999998 2796.26 0.0 0.0 1.0
-119.938 22.201533333333334 2783.26 0.0 0.0 1.0
-125.92566666666666 56.444433333333336 3324.44 0.0 0.0 1.0
-125.62933333333332 57.037000000000006 3324.44 0.0 0.0 1.0
-125.92566666666666 58.8148 3324.44 0.0 0.0 1.0
-117.358 51.98156666666667 2757.6 0.0 0.0 1.0
-128.889 70.96296666666667 3324.44 0.0 0.0 1.0
-126.222 80.74069999999999 3324.44 0.0 0.0 1.0
-126.81466666666667 85.4815 3324.44 0.0 0.0 1.0
-126.51833333333333 99.70376666666668 3324.44 0.0 0.0 1.0
-126.51833333333333 99.70376666666668 3324.44 0.0 0.0 1.0
-125.03666666666668 106.222 3324.44 0.0 0.0 1.0
-126.22233333333332 111.85166666666667 3324.44 0.0 0.0 1.0
-125.92566666666666 118.07433333333334 3324.44 0.0 0.0 1.0
-125.33300000000001 118.96333333333332 3324.44 0.0 0.0 1.0
-126.222 142.66666666666666 3324.44 0.0 0.0 1.0
-125.33333333333333 158.963 3324.44 0.0 0.0 1.0
-126.51833333333332 164.29633333333334 3324.44 0.0 0.0 1.0
-126.81466666666665 -155.70366666666666 3324.44 0.0 0.0 1.0
-126.81466666666667 -153.037 3324.44 0.0 0.0 1.0
-121.80900000000001 -133.601 3007.0399999999995 -5.998318608051626e-26 1.7994955824154874e-26 1.0
-123.51566666666668 -120.06633333333332 2977.11 0.0 0.0 1.0
-126.81466666666667 -110.96300000000001 3324.44 0.0 0.0 1.0
-126.51833333333333 -109.778 3324.44 0.0 0.0 1.0
-127.40733333333333 -103.55566666666668 3324.44 0.0 0.0 1.0
-127.40733333333333 -103.55566666666668 3324.44 0.0 0.0 1.0
-121.92366666666665 -74.16250000000001 2977.11 0.0 0.0 1.0
-122.18900000000001 -73.36646666666667 2977.11 0.0 0.0 1.0
-127.11099999999999 -63.851866666666666 3324.44 0.0 0.0 1.0
-126.81466666666667 -62.963 3324.44 0.0 0.0 1.0
-127.11099999999999 -57.3333 3324.44 0.0 0.0 1.0
-119.937 -32.985800000000005 2836.02 0.0 0.0 1.0
-120.44266666666665 -31.721966666666663 2836.02 0.0 0.0 1.0
-120.18966666666667 -29.1943 2836.02 0.0 0.0 1.0
-126.222 -18.5185 3324.44 0.0 0.0 1.0
-120.06266666666666 -11.142423333333333 2809.39 0.0 0.0 1.0
-119.81200000000001 -8.888890000000002 2809.39 0.0 0.0 1.0
-126.51833333333333 -0.148148 3324.44 0.0 0.0 1.0
-126.81466666666667 2.8148133333333334 3324.44 0.0 0.0 1.0
-126.81466666666667 2.8148133333333334 3324.44 0.0 0.0 1.0
-127.11099999999999 10.8148 3324.44 0.0 0.0 1.0
-120.12433333333333 12.585633333333332 2796.26 0.0 0.0 1.0
-119.62600000000002 13.0841 2796.26 0.0 0.0 1.0
-119.377 14.080999999999998 2796.26 0.0 0.0 1.0
-119.37700000000001 14.081000000000001 2796.26 0.0 0.0 1.0
-119.37666666666667 17.5701 2796.26 0.0 0.0 1.0
-119.69 24.9302 2783.26 0.0 0.0 1.0
-119.69 24.9302 2783.26 0.0 0.0 1.0
-118.94566666666667 26.170533333333328 2783.26 0.0 0.0 1.0
-128.29633333333334 38.074099999999994 3324.44 0.0 0.0 1.0
-126.222 44.2963 3324.44 0.0 0.0 1.0
-127.40733333333333 44.8889 3324.44 0.0 0.0 1.0
-126.81466666666665 49.6296 3324.44 0.0 0.0 1.0
-127.70366666666666 65.3333 3324.44 0.0 0.0 1.0
-126.222 80.74069999999999 3324.44 0.0 0.0 1.0
-126.81466666666667 83.11110000000001 3324.44 0.0 0.0 1.0
-126.81466666666667 85.4815 3324.44 0.0 0.0 1.0
-126.81466666666667 85.4815 3324.44 0.0 0.0 1.0
-119.452 80.24353333333333 2732.42 0.0 0.0 1.0
-127.11099999999999 101.4817 3324.44 0.0 0.0 1.0
-126.81466666666667 122.815 3324.44 0.0 0.0 1.0
-128.0 125.18533333333335 3324.44 0.0 0.0 1.0
-127.40733333333333 132.0 3324.44 0.0 0.0 1.0
-127.70366666666666 133.18533333333335 3324.44 0.0 0.0 1.0
-126.222 160.74066666666667 3324.44 0.0 0.0 1.0
-128.889 -154.51833333333335 3324.44 0.0 0.0 1.0
-127.70366666666666 -141.48166666666668 3324.44 0.0 0.0 1.0
-127.40733333333333 -138.222 3324.44 0.0 0.0 1.0
-128.59266666666667 -116.0 3324.44 0.0 0.0 1.0
-128.29633333333334 -115.11099999999999 3324.44 0.0 0.0 1.0
-127.40733333333333 -103.55566666666668 3324.44 0.0 0.0 1.0
-123.25033333333333 -82.38806666666666 2977.11 0.0 0.0 1.0
-123.25033333333333 -82.38806666666666 2977.11 0.0 0.0 1.0
-122.18900000000001 -73.36646666666667 2977.11 0.0 0.0 1.0
-128.889 -72.74073333333332 3324.44 0.0 0.0 1.0
-127.11099999999999 -63.851866666666666 3324.44 0.0 0.0 1.0
-121.45333333333333 -39.30486666666667 2836.02 0.0 0.0 1.0
-121.20066666666666 -30.7109 2836.02 0.0 0.0 1.0
-120.81366666666668 -8.6385 2809.39 0.0 0.0 1.0
-120.313 -4.131456666666666 2809.39 0.0 0.0 1.0
-127.11099999999999 10.8148 3324.44 0.0 0.0 1.0
-120.37366666666667 11.588766666666666 2796.26 0.0 0.0 1.0
-131.55566666666667 20.5926 3324.44 0.0 0.0 1.0
-119.69 24.9302 2783.26 0.0 0.0 1.0
-127.70366666666666 46.96296666666667 3324.44 0.0 0.0 1.0
-128.29633333333334 49.92589999999999 3324.44 0.0 0.0 1.0
-128.29633333333334 51.407399999999996 3324.44 0.0 0.0 1.0
-127.70366666666666 65.3333 3324.44 0.0 0.0 1.0
-128.0 66.2222 3324.44 0.0 0.0 1.0
-120.85633333333332 61.284400000000005 2744.9499999999994 8.996821580684922e-27 1.4997154446365098e-26 1.0
-119.452 80.48706666666666 2732.42 0.0 0.0 1.0
-127.11099999999999 103.85199999999999 3324.44 0.0 0.0 1.0
-126.81466666666665 131.111 3324.44 0.0 0.0 1.0
-129.18533333333335 139.40733333333333 3324.44 0.0 0.0 1.0
-127.40733333333333 144.44433333333333 3324.44 0.0 0.0 1.0
-128.0 146.51833333333335 3324.44 0.0 0.0 1.0
-128.889 148.0 3324.44 0.0 0.0 1.0
-129.48166666666668 153.92566666666664 3324.44 0.0 0.0 1.0
-116.906 120.056 2524.89 0.0 0.0 1.0
-116.906 120.056 2524.89 0.0 0.0 1.0
-128.29633333333334 165.18533333333335 3324.44 0.0 0.0 1.0
-128.0 -166.07433333333336 3324.44 0.0 0.0 1.0
-129.48166666666668 -164.889 3324.44 0.0 0.0 1.0
-128.889 -154.51833333333335 3324.44 0.0 0.0 1.0
-127.70366666666666 -141.48166666666668 3324.44 0.0 0.0 1.0
-123.51566666666668 -120.06633333333332 2977.11 0.0 0.0 1.0
-125.14866666666667 -106.00633333333333 2962.3799999999997 -4.185060594174148e-27 -1.9321134723504455e-27 1.0
-128.0 -118.07433333333334 3324.44 0.0 0.0 1.0
-128.889 -116.29633333333334 3324.44 0.0 0.0 1.0
-128.889 -115.70366666666666 3324.44 0.0 0.0 1.0
-123.25033333333334 -82.38806666666666 2977.11 0.0 0.0 1.0
-122.98500000000001 -72.57046666666666 2977.11 0.0 0.0 1.0
-128.29633333333334 -77.7778 3324.44 0.0 0.0 1.0
-129.48166666666668 -71.85186666666668 3324.44 0.0 0.0 1.0
-129.48166666666668 -59.7037 3324.44 0.0 0.0 1.0
-129.18533333333335 -58.518499999999996 3324.44 0.0 0.0 1.0
-123.22266666666667 -42.8436 2836.02 0.0 0.0 1.0
-121.45333333333333 -39.30486666666667 2836.02 0.0 0.0 1.0
-121.45333333333333 -39.30486666666667 2836.02 0.0 0.0 1.0
-122.21133333333334 -29.447066666666668 2836.02 0.0 0.0 1.0
-129.77800000000002 -31.555566666666664 3324.44 0.0 0.0 1.0
-128.59266666666667 -18.5185 3324.44 0.0 0.0 1.0
-121.81566666666667 -12.394366666666665 2809.39 0.0 0.0 1.0
-128.889 5.77778 3324.44 0.0 0.0 1.0
-128.889 5.77778 3324.44 0.0 0.0 1.0
-128.889 5.77778 3324.44 0.0 0.0 1.0
-120.62266666666666 12.834866666666665 2796.26 0.0 0.0 1.0
-120.62266666666666 13.333333333333334 2796.26 0.0 0.0 1.0
-121.12133333333334 17.071633333333335 2796.26 0.0 0.0 1.0
-128.29633333333334 38.0741 3324.44 0.0 0.0 1.0
-128.29633333333334 38.0741 3324.44 0.0 0.0 1.0
-129.77800000000002 59.7037 3324.44 0.0 0.0 1.0
-129.48166666666668 66.81479999999999 3324.44 0.0 0.0 1.0
-129.77800000000002 82.5185 3324.44 0.0 0.0 1.0
-119.452 73.91176666666667 2732.42 0.0 0.0 1.0
-119.93933333333332 80.48706666666665 2732.42 0.0 0.0 1.0
-120.183 80.7306 2732.42 0.0 0.0 1.0
-120.42633333333333 81.21766666666667 2732.42 0.0 0.0 1.0
-128.0 107.70366666666666 3324.44 0.0 0.0 1.0
-128.889 109.77766666666668 3324.44 0.0 0.0 1.0
-128.889 112.44433333333335 3324.44 0.0 0.0 1.0
-129.48166666666668 114.222 3324.44 0.0 0.0 1.0
-129.18533333333335 118.96333333333332 3324.44 0.0 0.0 1.0
-129.18533333333335 118.96333333333332 3324.44 0.0 0.0 1.0
-129.48166666666668 133.48166666666665 3324.44 0.0 0.0 1.0
-130.37066666666666 -162.222 3324.44 0.0 0.0 1.0
-128.889 -154.51833333333332 3324.44 0.0 0.0 1.0
-124.31166666666667 -119.005 2977.11 0.0 0.0 1.0
-124.84233333333333 -117.14766666666667 2977.11 0.0 0.0 1.0
-124.577 -116.617 2977.11 0.0 0.0 1.0
-124.577 -116.617 2977.11 0.0 0.0 1.0
-115.67566666666669 -80.99096666666667 2021.62 0.0 0.0 1.0
-130.37033333333332 -122.815 3324.44 0.0 0.0 1.0
-129.18533333333335 -116.0 3324.44 0.0 0.0 1.0
-128.0 -110.07433333333334 3324.44 0.0 0.0 1.0
-131.25933333333333 -100.00003333333332 3324.44 0.0 0.0 1.0
-130.963 -79.85183333333333 3324.44 0.0 0.0 1.0
-129.48166666666668 -78.37036666666667 3324.44 0.0 0.0 1.0
-128.889 -72.74073333333332 3324.44 0.0 0.0 1.0
-129.77800000000002 -70.6667 3324.44 0.0 0.0 1.0
-123.63466666666666 -68.38776666666666 2967.3333333333335 -0.8852916911322428 -0.44264584556610215 -0.14255973139454262
-128.59266666666667 -57.6296 3324.44 0.0 0.0 1.0
-123.98066666666666 -35.26069999999999 2836.02 0.0 0.0 1.0
-121.95866666666666 -30.7109 2836.02 0.0 0.0 1.0
-122.21133333333334 -29.447066666666668 2836.02 0.0 0.0 1.0
-122.21133333333334 -29.447066666666668 2836.02 0.0 0.0 1.0
-129.778 -29.1852 3324.44 0.0 0.0 1.0
-128.59266666666667 -18.5185 3324.44 0.0 0.0 1.0
-121.81566666666667 -12.394366666666665 2809.39 0.0 0.0 1.0
-122.06599999999999 -11.1424 2809.39 0.0 0.0 1.0
-122.56666666666668 -8.137716666666668 2809.39 0.0 0.0 1.0
-122.56666666666666 -7.136150000000001 2809.39 0.0 0.0 1.0
-123.06733333333334 -5.133019999999999 2809.39 0.0 0.0 1.0
-129.18533333333332 -0.7407393333333333 3324.44 0.0 0.0 1.0
-122.17066666666666 21.953500000000002 2783.26 0.0 0.0 1.0
-129.18533333333332 50.22220000000001 3324.44 0.0 0.0 1.0
-129.18533333333332 50.22220000000001 3324.44 0.0 0.0 1.0
-129.778 59.7037 3324.44 0.0 0.0 1.0
-129.48166666666665 64.44443333333332 3324.44 0.0 0.0 1.0
-129.48166666666665 66.8148 3324.44 0.0 0.0 1.0
-129.778 67.11110000000001 3324.44 0.0 0.0 1.0
-129.778 68.0 3324.44 0.0 0.0 1.0
-129.778 68.0 3324.44 0.0 0.0 1.0
-121.34566666666666 62.26296666666667 2744.9499999999994 2.998531943542139e-26 -5.99706382028275e-27 1.0
-121.34566666666666 63.24156666666667 2744.9499999999994 4.7982026811880407e-26 1.499531546913912e-26 1.0
-129.77800000000002 82.5185 3324.44 0.0 0.0 1.0
-121.644 73.91176666666667 2732.42 0.0 0.0 1.0
-120.42633333333333 81.21766666666667 2732.42 0.0 0.0 1.0
-121.93933333333332 84.72726666666667 2720.0 0.0 0.0 1.0
-130.07433333333336 119.85199999999999 3324.44 0.0 0.0 1.0
-129.48166666666665 126.96300000000001 3324.44 0.0 0.0 1.0
-129.48166666666665 133.48166666666668 3324.44 0.0 0.0 1.0
-129.48166666666665 133.48166666666668 3324.44 0.0 0.0 1.0
-129.18533333333332 139.40733333333333 3324.44 0.0 0.0 1.0
-129.18533333333332 139.40733333333333 3324.44 0.0 0.0 1.0
-130.667 152.44433333333333 3324.44 0.0 0.0 1.0
-117.581 120.056 2524.89 0.0 0.0 1.0
-130.37066666666666 -162.22199999999998 3324.44 0.0 0.0 1.0
-130.37066666666666 -162.22199999999998 3324.44 0.0 0.0 1.0
-131.25966666666667 -152.44433333333333 3324.44 0.0 0.0 1.0
-124.84233333333333 -117.14766666666667 2977.11 0.0 0.0 1.0
-115.67566666666669 -80.99096666666667 2021.62 0.0 0.0 1.0
-125.14866666666667 -106.00633333333333 2962.3799999999997 -4.185060594174154e-27 -1.9321134723504495e-27 1.0
-131.25933333333333 -100.00003333333332 3324.44 0.0 0.0 1.0
-126.169 -79.73466666666667 2977.11 0.0 0.0 1.0
-125.63833333333334 -78.40796666666667 2977.11 0.0 0.0 1.0
-130.963 -70.3704 3324.44 0.0 0.0 1.0
-130.96333333333334 -65.9259 3324.44 0.0 0.0 1.0
-130.96333333333334 -65.9259 3324.44 0.0 0.0 1.0
-131.25966666666667 -61.1852 3324.44 0.0 0.0 1.0
-123.22266666666667 -42.8436 2836.02 0.0 0.0 1.0
-122.21166666666666 -39.557633333333335 2836.02 0.0 0.0 1.0
-130.96333333333334 -35.1111 3324.44 0.0 0.0 1.0
-130.96333333333334 -35.1111 3324.44 0.0 0.0 1.0
-131.55566666666667 -27.111100000000004 3324.44 0.0 0.0 1.0
-122.31633333333332 -9.890433333333334 2809.39 0.0 0.0 1.0
-129.18533333333332 -0.7407393333333333 3324.44 0.0 0.0 1.0
-130.66666666666666 4.88889 3324.44 0.0 0.0 1.0
-122.11833333333334 12.087200000000001 2796.26 0.0 0.0 1.0
-122.617 12.585666666666667 2796.26 0.0 0.0 1.0
-122.11833333333334 13.333333333333334 2796.26 0.0 0.0 1.0
-122.61666666666667 16.07473333333333 2796.26 0.0 0.0 1.0
-122.915 21.2093 2783.26 0.0 0.0 1.0
-122.41866666666665 22.20156666666667 2783.26 0.0 0.0 1.0
-120.68233333333335 26.170533333333335 2783.26 0.0 0.0 1.0
-131.852 34.22220000000001 3324.44 0.0 0.0 1.0
-130.96333333333334 44.2963 3324.44 0.0 0.0 1.0
-130.96333333333334 44.592600000000004 3324.44 0.0 0.0 1.0
-131.55566666666667 56.4444 3324.44 0.0 0.0 1.0
-129.778 59.7037 3324.44 0.0 0.0 1.0
-130.963 65.3333 3324.44 0.0 0.0 1.0
-130.667 70.07406666666667 3324.44 0.0 0.0 1.0
-121.34566666666666 62.26296666666667 2744.9499999999994 2.998531943542139e-26 -5.99706382028275e-27 1.0
-121.59033333333332 64.22016666666667 2744.9499999999994 1.7995195985774865e-25 9.598244231036103e-26 1.0
-121.59033333333332 64.22016666666667 2744.9499999999994 1.7995195985774865e-25 9.598244231036103e-26 1.0
-130.667 83.11110000000001 3324.44 0.0 0.0 1.0
-131.25966666666667 84.5926 3324.44 0.0 0.0 1.0
-120.67 80.0 2732.42 0.0 0.0 1.0
-128.59266666666667 101.778 3324.44 0.0 0.0 1.0
-129.48166666666668 114.222 3324.44 0.0 0.0 1.0
-131.85166666666666 145.333 3324.44 0.0 0.0 1.0
-131.55566666666667 149.18533333333335 3324.44 0.0 0.0 1.0
-130.963 153.333 3324.44 0.0 0.0 1.0
-118.481 120.056 2524.89 0.0 0.0 1.0
-131.55566666666667 161.92566666666667 3324.44 0.0 0.0 1.0
-130.07433333333336 164.59266666666667 3324.44 0.0 0.0 1.0
-131.852 -156.29633333333334 3324.44 0.0 0.0 1.0
-131.852 -153.333 3324.44 0.0 0.0 1.0
-131.25966666666667 -152.44433333333333 3324.44 0.0 0.0 1.0
-131.55566666666667 -140.29633333333334 3324.44 0.0 0.0 1.0
-128.02633333333333 -87.69486666666667 2977.11 0.0 0.0 1.0
-125.63833333333334 -78.40796666666667 2977.11 0.0 0.0 1.0
-132.44433333333333 -71.25930000000001 3324.44 0.0 0.0 1.0
-130.96333333333334 -65.9259 3324.44 0.0 0.0 1.0
-131.852 -62.963 3324.44 0.0 0.0 1.0
-131.25966666666667 -61.1852 3324.44 0.0 0.0 1.0
-131.25966666666667 -61.1852 3324.44 0.0 0.0 1.0
-130.96333333333334 -35.1111 3324.44 0.0 0.0 1.0
-122.81700000000001 -9.139266666666666 2809.39 0.0 0.0 1.0
-123.81833333333333 -5.3834100000000005 2809.39 0.0 0.0 1.0
-123.81833333333333 -5.3834100000000005 2809.39 0.0 0.0 1.0
-133.62966666666668 19.1111 3324.44 0.0 0.0 1.0
-122.915 21.2093 2783.26 0.0 0.0 1.0
-122.66699999999999 21.953500000000002 2783.26 0.0 0.0 1.0
-131.852 34.22220000000001 3324.44 0.0 0.0 1.0
-132.44466666666668 38.666666666666664 3324.44 0.0 0.0 1.0
-132.44466666666668 38.96296666666667 3324.44 0.0 0.0 1.0
-131.852 44.2963 3324.44 0.0 0.0 1.0
-131.25966666666667 44.592600000000004 3324.44 0.0 0.0 1.0
-131.55566666666667 56.4444 3324.44 0.0 0.0 1.0
-130.37066666666666 68.5926 3324.44 0.0 0.0 1.0
-131.25966666666667 84.0 3324.44 0.0 0.0 1.0
-131.25966666666667 84.5926 3324.44 0.0 0.0 1.0
-121.15666666666665 81.4612 2732.42 0.0 0.0 1.0
-122.42433333333334 83.75760000000001 2720.0 0.0 0.0 1.0
-122.42433333333334 83.75760000000001 2720.0 0.0 0.0 1.0
-131.556 121.33299999999998 3324.44 0.0 0.0 1.0
-131.556 121.33300000000001 3324.44 0.0 0.0 1.0
-131.556 122.222 3324.44 0.0 0.0 1.0
-131.852 123.11099999999999 3324.44 0.0 0.0 1.0
-130.96333333333334 128.148 3324.44 0.0 0.0 1.0
-132.44466666666668 129.03666666666666 3324.44 0.0 0.0 1.0
-132.44433333333333 134.07433333333333 3324.44 0.0 0.0 1.0
-132.44433333333333 135.85166666666666 3324.44 0.0 0.0 1.0
-130.37066666666666 139.40733333333333 3324.44 0.0 0.0 1.0
-130.667 150.66666666666666 3324.44 0.0 0.0 1.0
-119.38100000000001 120.056 2524.89 0.0 0.0 1.0
-132.74066666666667 162.51833333333332 3324.44 0.0 0.0 1.0
-130.07399999999998 -166.07433333333333 3324.44 0.0 0.0 1.0
-131.852 -153.333 3324.44 0.0 0.0 1.0
-127.49566666666665 -120.06633333333332 2977.11 0.0 0.0 1.0
-127.49566666666665 -116.88233333333334 2977.11 0.0 0.0 1.0
-127.49566666666665 -116.88233333333334 2977.11 0.0 0.0 1.0
-132.44433333333333 -124.29633333333334 3324.44 0.0 0.0 1.0
-127.49566666666665 -110.24900000000001 2977.11 0.0 0.0 1.0
-125.14866666666667 -106.00633333333333 2962.3799999999997 -4.185060594174154e-27 -1.9321134723504495e-27 1.0
-132.74033333333333 -102.96300000000001 3324.44 0.0 0.0 1.0
-132.74033333333333 -102.96300000000001 3324.44 0.0 0.0 1.0
-128.02633333333333 -83.9801 2977.11 0.0 0.0 1.0
-126.43433333333333 -81.3267 2977.11 0.0 0.0 1.0
-133.03666666666666 -75.11110000000001 3324.44 0.0 0.0 1.0
-132.44433333333333 -70.96300000000001 3324.44 0.0 0.0 1.0
-131.852 -62.963 3324.44 0.0 0.0 1.0
-131.55566666666667 -60.2963 3324.44 0.0 0.0 1.0
-124.992 -42.33806666666666 2836.02 0.0 0.0 1.0
-124.992 -42.33806666666666 2836.02 0.0 0.0 1.0
-124.73899999999999 -34.249633333333335 2836.02 0.0 0.0 1.0
-124.73899999999999 -34.249633333333335 2836.02 0.0 0.0 1.0
-124.73899999999999 -34.249633333333335 2836.02 0.0 0.0 1.0
-132.44433333333333 -17.6296 3324.44 0.0 0.0 1.0
-124.06866666666667 -6.134583333333333 2809.39 0.0 0.0 1.0
-123.81833333333333 -5.3834100000000005 2809.39 0.0 0.0 1.0
-132.74066666666667 5.481483333333333 3324.44 0.0 0.0 1.0
-123.11533333333334 15.077866666666665 2796.26 0.0 0.0 1.0
-131.852 44.2963 3324.44 0.0 0.0 1.0
-132.148 49.92589999999999 3324.44 0.0 0.0 1.0
-131.55566666666667 56.4444 3324.44 0.0 0.0 1.0
-132.148 57.037 3324.44 0.0 0.0 1.0
-131.85166666666666 64.44443333333334 3324.44 0.0 0.0 1.0
-131.85166666666666 64.44443333333334 3324.44 0.0 0.0 1.0
-122.909 84.48486666666666 2720.0 0.0 0.0 1.0
-123.15133333333334 88.36363333333333 2720.0 0.0 0.0 1.0
-123.15133333333334 88.36363333333333 2720.0 0.0 0.0 1.0
-132.44433333333333 124.0 3324.44 0.0 0.0 1.0
-132.44433333333333 134.07433333333333 3324.44 0.0 0.0 1.0
-131.85166666666666 145.333 3324.44 0.0 0.0 1.0
-132.74033333333333 146.81466666666665 3324.44 0.0 0.0 1.0
-132.444 147.111 3324.44 0.0 0.0 1.0
-132.74033333333333 147.70366666666666 3324.44 0.0 0.0 1.0
-132.148 154.222 3324.44 0.0 0.0 1.0
-132.148 155.111 3324.44 0.0 0.0 1.0
-132.74066666666667 162.51833333333332 3324.44 0.0 0.0 1.0
-127.49566666666665 -120.06633333333332 2977.11 0.0 0.0 1.0
-127.49566666666665 -120.06633333333332 2977.11 0.0 0.0 1.0
-127.49566666666665 -110.24899999999998 2977.11 0.0 0.0 1.0
-127.49566666666665 -110.24900000000001 2977.11 0.0 0.0 1.0
-134.222 -109.77766666666668 3324.44 0.0 0.0 1.0
-132.148 -101.48166666666667 3324.44 0.0 0.0 1.0
-134.81466666666665 -81.03703333333333 3324.44 0.0 0.0 1.0
-133.03666666666666 -75.11110000000001 3324.44 0.0 0.0 1.0
-133.333 -74.2222 3324.44 0.0 0.0 1.0
-133.333 -73.3333 3324.44 0.0 0.0 1.0
-133.333 -72.44443333333334 3324.44 0.0 0.0 1.0
-133.333 -71.55556666666666 3324.44 0.0 0.0 1.0
-133.62933333333334 -70.96300000000001 3324.44 0.0 0.0 1.0
-132.74066666666667 -65.9259 3324.44 0.0 0.0 1.0
-132.74066666666667 -65.9259 3324.44 0.0 0.0 1.0
-125.245 -44.10743333333334 2836.02 0.0 0.0 1.0
-125.245 -44.10743333333334 2836.02 0.0 0.0 1.0
-125.245 -41.83253333333332 2836.02 0.0 0.0 1.0
-125.75066666666667 -41.579766666666664 2836.02 0.0 0.0 1.0
-125.498 -38.79933333333333 2836.02 0.0 0.0 1.0
-133.62933333333334 -22.074066666666667 3324.44 0.0 0.0 1.0
-133.03666666666666 -19.7037 3324.44 0.0 0.0 1.0
-134.81466666666665 -3.703704666666667 3324.44 0.0 0.0 1.0
-134.51833333333332 12.2963 3324.44 0.0 0.0 1.0
-134.222 15.555566666666666 3324.44 0.0 0.0 1.0
-123.411 20.217033333333333 2783.26 0.0 0.0 1.0
-124.65133333333334 22.20156666666667 2783.26 0.0 0.0 1.0
-133.33333333333334 33.925900000000006 3324.44 0.0 0.0 1.0
-132.44433333333333 55.85183333333333 3324.44 0.0 0.0 1.0
-122.32433333333334 61.773666666666664 2744.9499999999994 -4.4983086396330425e-27 -2.2496242492688994e-26 1.0
-124.56633333333333 73.18116666666667 2732.42 0.0 0.0 1.0
-125.05333333333333 74.3988 2732.42 0.0 0.0 1.0
-124.80966666666666 77.8082 2732.42 0.0 0.0 1.0
-122.909 84.48486666666666 2720.0 0.0 0.0 1.0
-123.15133333333334 88.36363333333334 2720.0 0.0 0.0 1.0
-123.39366666666666 90.30303333333332 2720.0 0.0 0.0 1.0
-123.39366666666666 90.30303333333332 2720.0 0.0 0.0 1.0
-124.60566666666666 93.2121 2720.0 0.0 0.0 1.0
-132.14833333333334 121.92566666666666 3324.44 0.0 0.0 1.0
-132.44433333333333 124.0 3324.44 0.0 0.0 1.0
-133.333 134.07433333333333 3324.44 0.0 0.0 1.0
-132.44433333333333 135.85166666666666 3324.44 0.0 0.0 1.0
-133.03666666666666 147.40733333333333 3324.44 0.0 0.0 1.0
-133.03666666666666 147.70366666666666 3324.44 0.0 0.0 1.0
-132.74033333333333 154.81466666666665 3324.44 0.0 0.0 1.0
-120.281 120.056 2524.89 0.0 0.0 1.0
-134.81466666666665 -157.48166666666668 3324.44 0.0 0.0 1.0
-135.70366666666666 -143.85166666666666 3324.44 0.0 0.0 1.0
-135.40733333333333 -141.48166666666668 3324.44 0.0 0.0 1.0
-127.76100000000001 -121.12766666666666 2977.11 0.0 0.0 1.0
-134.5186666666667 -134.66666666666666 3324.44 0.0 0.0 1.0
-127.76100000000001 -117.94366666666667 2977.11 0.0 0.0 1.0
-135.111 -110.96300000000001 3324.44 0.0 0.0 1.0
-129.35299999999998 -87.1642 2977.11 0.0 0.0 1.0
-129.08766666666665 -84.24543333333332 2977.11 0.0 0.0 1.0
-129.08766666666665 -84.24543333333332 2977.11 0.0 0.0 1.0
-126.69966666666666 -77.08126666666668 2977.11 0.0 0.0 1.0
-133.62933333333334 -70.96300000000001 3324.44 0.0 0.0 1.0
-125.75066666666667 -41.579766666666664 2836.02 0.0 0.0 1.0
-133.92566666666667 -23.85183333333333 3324.44 0.0 0.0 1.0
-133.92566666666667 -23.85183333333333 3324.44 0.0 0.0 1.0
-126.07233333333333 -9.389656666666667 2809.39 0.0 0.0 1.0
-126.07233333333333 -9.389656666666667 2809.39 0.0 0.0 1.0
-124.82000000000001 -6.384976666666667 2809.39 0.0 0.0 1.0
-134.51833333333335 17.037033333333333 3324.44 0.0 0.0 1.0
-133.33333333333334 38.0741 3324.44 0.0 0.0 1.0
-133.33333333333334 38.0741 3324.44 0.0 0.0 1.0
-134.81466666666668 42.518499999999996 3324.44 0.0 0.0 1.0
-133.62933333333334 43.407399999999996 3324.44 0.0 0.0 1.0
-134.22199999999998 49.925900000000006 3324.44 0.0 0.0 1.0
-134.81466666666665 61.777800000000006 3324.44 0.0 0.0 1.0
-131.55566666666667 81.62963333333333 3324.44 0.0 0.0 1.0
-125.54033333333332 67.57990000000001 2732.42 0.0 0.0 1.0
-125.54033333333332 67.57990000000001 2732.42 0.0 0.0 1.0
-124.80966666666666 77.8082 2732.42 0.0 0.0 1.0
-133.62966666666668 119.25933333333334 3324.44 0.0 0.0 1.0
-134.81466666666665 129.037 3324.44 0.0 0.0 1.0
-134.51833333333335 132.0 3324.44 0.0 0.0 1.0
-133.92566666666667 133.18533333333332 3324.44 0.0 0.0 1.0
-133.62933333333334 144.44433333333333 3324.44 0.0 0.0 1.0
-133.92566666666667 145.33333333333334 3324.44 0.0 0.0 1.0
-120.281 120.056 2524.89 0.0 0.0 1.0
-133.62933333333334 163.11100000000002 3324.44 0.0 0.0 1.0
-134.51833333333332 164.0 3324.44 0.0 0.0 1.0
-130.48533333333333 -141.489 2904.85 0.0 0.0 1.0
-134.81466666666665 -157.48166666666668 3324.44 0.0 0.0 1.0
-134.81466666666665 -157.48166666666668 3324.44 0.0 0.0 1.0
-135.40733333333333 -141.48166666666668 3324.44 0.0 0.0 1.0
-128.29166666666666 -116.35166666666665 2977.11 0.0 0.0 1.0
-135.40733333333333 -124.0 3324.44 0.0 0.0 1.0
-136.0 -123.40733333333333 3324.44 0.0 0.0 1.0
-135.40733333333333 -108.59266666666667 3324.44 0.0 0.0 1.0
-129.35299999999998 -87.1642 2977.11 0.0 0.0 1.0
-134.51833333333332 -79.85186666666668 3324.44 0.0 0.0 1.0
-134.51833333333332 -79.85186666666668 3324.44 0.0 0.0 1.0
-133.92566666666664 -74.5185 3324.44 0.0 0.0 1.0
-136.29633333333334 -60.8889 3324.44 0.0 0.0 1.0
-135.70366666666666 -57.6296 3324.44 0.0 0.0 1.0
-135.70366666666666 -36.2963 3324.44 0.0 0.0 1.0
-135.111 -35.1111 3324.44 0.0 0.0 1.0
-135.111 -33.333333333333336 3324.44 0.0 0.0 1.0
-135.40733333333333 -32.14816666666667 3324.44 0.0 0.0 1.0
-135.70366666666666 -16.740733333333335 3324.44 0.0 0.0 1.0
-135.111 -15.851866666666666 3324.44 0.0 0.0 1.0
-135.70366666666666 -15.55556666666667 3324.44 0.0 0.0 1.0
-126.07233333333333 -9.389656666666667 2809.39 0.0 0.0 1.0
-136.59266666666667 0.148148 3324.44 0.0 0.0 1.0
-134.51833333333332 6.074076666666667 3324.44 0.0 0.0 1.0
-134.51833333333332 11.4074 3324.44 0.0 0.0 1.0
-135.111 11.7037 3324.44 0.0 0.0 1.0
-135.111 12.8889 3324.44 0.0 0.0 1.0
-135.111 12.8889 3324.44 0.0 0.0 1.0
-135.111 18.5185 3324.44 0.0 0.0 1.0
-125.64366666666666 22.945733333333333 2783.26 0.0 0.0 1.0
-125.64366666666666 22.945733333333333 2783.26 0.0 0.0 1.0
-135.40733333333333 32.444433333333336 3324.44 0.0 0.0 1.0
-135.40733333333333 32.444433333333336 3324.44 0.0 0.0 1.0
-134.81466666666665 60.8889 3324.44 0.0 0.0 1.0
-134.81466666666665 60.8889 3324.44 0.0 0.0 1.0
-135.111 62.3704 3324.44 0.0 0.0 1.0
-137.18533333333335 74.2222 3324.44 0.0 0.0 1.0
-125.05333333333334 74.3988 2732.42 0.0 0.0 1.0
-135.40733333333333 118.07433333333334 3324.44 0.0 0.0 1.0
-134.81466666666665 129.037 3324.44 0.0 0.0 1.0
-134.51833333333332 130.51833333333335 3324.44 0.0 0.0 1.0
-133.92566666666664 147.70366666666666 3324.44 0.0 0.0 1.0
-124.38 118.77333333333333 2620.74 0.31582538333259014 -0.9483772209915782 -0.028895915751433757
-122.712 121.92099999999999 2535.59 0.0 0.0 1.0
-135.70366666666666 165.18533333333335 3324.44 0.0 0.0 1.0
-138.07433333333336 -163.70366666666666 3324.44 0.0 0.0 1.0
-137.18533333333335 -150.07433333333336 3324.44 0.0 0.0 1.0
-136.29633333333334 -124.88900000000001 3324.44 0.0 0.0 1.0
-137.48166666666668 -102.96333333333332 3324.44 0.0 0.0 1.0
-130.149 -86.89886666666666 2977.11 0.0 0.0 1.0
-130.149 -84.24543333333332 2977.11 0.0 0.0 1.0
-135.111 -82.2222 3324.44 0.0 0.0 1.0
-135.70366666666666 -81.62963333333333 3324.44 0.0 0.0 1.0
-136.889 -67.7037 3324.44 0.0 0.0 1.0
-136.29633333333334 -58.8148 3324.44 0.0 0.0 1.0
-136.0 -58.22220000000001 3324.44 0.0 0.0 1.0
-135.70366666666666 -57.6296 3324.44 0.0 0.0 1.0
-128.53099999999998 -38.2938 2836.02 0.0 0.0 1.0
-136.59266666666667 -40.74073333333334 3324.44 0.0 0.0 1.0
-136.59266666666667 -40.74073333333334 3324.44 0.0 0.0 1.0
-136.0 -31.851866666666666 3324.44 0.0 0.0 1.0
-137.77800000000002 -6.074076666666667 3324.44 0.0 0.0 1.0
-136.0 5.481483333333333 3324.44 0.0 0.0 1.0
-135.111 18.5185 3324.44 0.0 0.0 1.0
-135.40733333333333 32.444433333333336 3324.44 0.0 0.0 1.0
-136.0 41.6296 3324.44 0.0 0.0 1.0
-136.0 44.592600000000004 3324.44 0.0 0.0 1.0
-137.18533333333335 48.14816666666667 3324.44 0.0 0.0 1.0
-136.0 49.925900000000006 3324.44 0.0 0.0 1.0
-135.70366666666666 62.962999999999994 3324.44 0.0 0.0 1.0
-136.29633333333334 63.555566666666664 3324.44 0.0 0.0 1.0
-125.05333333333334 74.3988 2732.42 0.0 0.0 1.0
-125.05333333333333 76.347 2732.42 0.0 0.0 1.0
-126.303 81.0909 2720.0 0.0 0.0 1.0
-126.06033333333333 81.57576666666667 2720.0 0.0 0.0 1.0
-126.30266666666667 83.27273333333333 2720.0 0.0 0.0 1.0
-137.18533333333335 124.88900000000001 3324.44 0.0 0.0 1.0
-136.889 135.25966666666667 3324.44 0.0 0.0 1.0
-136.29633333333334 137.037 3324.44 0.0 0.0 1.0
-124.71600000000001 119.59233333333333 2613.1 0.0 0.0 1.0
-122.712 121.921 2535.59 0.0 0.0 1.0
-130.48533333333333 -141.489 2904.85 0.0 0.0 1.0
-136.0 -153.92600000000002 3324.44 0.0 0.0 1.0
-136.889 -148.889 3324.44 0.0 0.0 1.0
-136.889 -141.778 3324.44 0.0 0.0 1.0
-127.60466666666666 -117.56133333333332 2967.2900000000004 -0.8623549278636281 0.4851044173234295 0.1449747656753155
-137.4813333333333 -120.44433333333332 3324.44 0.0 0.0 1.0
-130.94500000000002 -87.1642 2977.11 0.0 0.0 1.0
-131.741 -81.06133333333334 2977.11 0.0 0.0 1.0
-136.59266666666667 -75.11110000000001 3324.44 0.0 0.0 1.0
-137.77800000000002 -72.14813333333333 3324.44 0.0 0.0 1.0
-136.889 -67.7037 3324.44 0.0 0.0 1.0
-136.29633333333334 -58.8148 3324.44 0.0 0.0 1.0
-129.79466666666667 -47.140633333333334 2836.02 0.0 0.0 1.0
-128.53099999999998 -41.83253333333333 2836.02 0.0 0.0 1.0
-128.53099999999998 -38.2938 2836.02 0.0 0.0 1.0
-136.59266666666667 -36.8889 3324.44 0.0 0.0 1.0
-136.59266666666667 -31.555566666666664 3324.44 0.0 0.0 1.0
-136.59266666666667 -31.555566666666664 3324.44 0.0 0.0 1.0
-137.48166666666668 -19.1111 3324.44 0.0 0.0 1.0
-136.29633333333334 -17.037000000000003 3324.44 0.0 0.0 1.0
-137.18533333333335 -16.444433333333333 3324.44 0.0 0.0 1.0
-136.59266666666667 -13.481499999999999 3324.44 0.0 0.0 1.0
-137.48166666666668 1.037036 3324.44 0.0 0.0 1.0
-136.889 4.0 3324.44 0.0 0.0 1.0
-137.18533333333335 37.1852 3324.44 0.0 0.0 1.0
-137.18533333333335 37.1852 3324.44 0.0 0.0 1.0
-136.59266666666667 57.333333333333336 3324.44 0.0 0.0 1.0
-136.0 61.481500000000004 3324.44 0.0 0.0 1.0
-136.889 64.14813333333333 3324.44 0.0 0.0 1.0
-137.48166666666668 69.4815 3324.44 0.0 0.0 1.0
-137.77800000000002 70.6667 3324.44 0.0 0.0 1.0
-138.37033333333332 88.14816666666665 3324.44 0.0 0.0 1.0
-126.78766666666667 82.7879 2720.0 0.0 0.0 1.0
-126.30266666666667 83.27273333333333 2720.0 0.0 0.0 1.0
-127.27266666666667 85.2121 2720.0 0.0 0.0 1.0
-126.78766666666667 93.2121 2720.0 0.0 0.0 1.0
-127.27266666666667 93.93936666666667 2720.0 0.0 0.0 1.0
-135.40733333333333 118.07433333333331 3324.44 0.0 0.0 1.0
-137.18533333333335 130.51833333333332 3324.44 0.0 0.0 1.0
-136.889 135.25966666666667 3324.44 0.0 0.0 1.0
-137.18533333333335 137.62933333333334 3324.44 0.0 0.0 1.0
-138.07433333333336 142.667 3324.44 0.0 0.0 1.0
-124.71600000000001 119.59233333333333 2613.1 0.0 0.0 1.0
-122.712 121.921 2535.59 0.0 0.0 1.0
-133.06766666666667 -142.35533333333333 2977.11 0.0 0.0 1.0
-137.778 -147.40733333333333 3324.44 0.0 0.0 1.0
-138.07433333333333 -145.92566666666667 3324.44 0.0 0.0 1.0
-132.537 -124.84233333333333 2977.11 0.0 0.0 1.0
-137.77766666666665 -131.111 3324.44 0.0 0.0 1.0
-137.18533333333332 -124.88900000000001 3324.44 0.0 0.0 1.0
-138.37066666666666 -124.29633333333334 3324.44 0.0 0.0 1.0
-137.778 -109.778 3324.44 0.0 0.0 1.0
-137.778 -109.778 3324.44 0.0 0.0 1.0
-138.07433333333333 -109.18533333333333 3324.44 0.0 0.0 1.0
-138.37066666666666 -102.66699999999999 3324.44 0.0 0.0 1.0
-130.94500000000002 -87.1642 2977.11 0.0 0.0 1.0
-130.67966666666666 -85.04146666666666 2977.11 0.0 0.0 1.0
-131.741 -81.06133333333334 2977.11 0.0 0.0 1.0
-138.07433333333336 -75.7037 3324.44 0.0 0.0 1.0
-137.778 -72.14813333333333 3324.44 0.0 0.0 1.0
-137.77800000000002 -68.0 3324.44 0.0 0.0 1.0
-138.07433333333333 -61.777800000000006 3324.44 0.0 0.0 1.0
-138.07433333333333 -61.777800000000006 3324.44 0.0 0.0 1.0
-128.531 -38.2938 2836.02 0.0 0.0 1.0
-137.48166666666668 -40.74073333333333 3324.44 0.0 0.0 1.0
-136.59266666666667 -36.8889 3324.44 0.0 0.0 1.0
-137.48166666666668 -15.259266666666667 3324.44 0.0 0.0 1.0
-137.48166666666665 -13.7778 3324.44 0.0 0.0 1.0
-137.77800000000002 0.7407393333333333 3324.44 0.0 0.0 1.0
-138.07433333333333 1.3333313333333334 3324.44 0.0 0.0 1.0
-138.37066666666666 8.148146666666667 3324.44 0.0 0.0 1.0
