ply
format ascii 1.0
comment VCGLIB generated
element vertex 790
property float x
property float y
property float z
property float nx
property float ny
property float nz
element face 0
property list uchar int vertex_indices
end_header
-108.22366666666666 121.36266666666667 2183.94 0.0 0.0 1.0
-108.41833333333334 143.94166666666666 2183.94 0.0 0.0 1.0
-106.27699999999999 148.613 2183.94 0.0 0.0 1.0
-108.80766666666666 152.89566666666667 2183.94 0.0 0.0 1.0
-108.029 154.4526666666667 2183.94 0.0 0.0 1.0
-107.445 155.23100000000002 2183.94 0.0 0.0 1.0
-103.354 -107.24633333333334 1858.39 0.0 0.0 1.0
-109.39166666666667 -98.39416666666666 2183.94 0.0 0.0 1.0
-107.83433333333333 -90.02433333333333 2183.94 0.0 0.0 1.0
-107.445 -83.60096666666665 2183.94 0.0 0.0 1.0
-108.029 -75.42576666666668 2183.94 0.0 0.0 1.0
-107.83433333333333 -66.08273333333334 2183.94 0.0 0.0 1.0
-104.878 -48.6992 1824.39 0.0 0.0 1.0
-102.67099999999999 -34.658500000000004 1829.97 0.0 0.0 1.0
-110.36500000000001 -38.44283333333333 2183.94 0.0 0.0 1.0
-103.39433333333334 -29.3661 1835.58 0.0 0.0 1.0
-104.53966666666668 -26.9121 1835.58 0.0 0.0 1.0
-108.22366666666666 -22.092433333333332 2183.94 0.0 0.0 1.0
-108.613 -13.917266666666668 2183.94 0.0 0.0 1.0
-109.58633333333334 2.2384433333333336 2183.94 0.0 0.0 1.0
-108.029 4.184916666666666 2183.94 0.0 0.0 1.0
-104.008 7.170190000000001 1807.8499999999997 2.2776334485643077e-25 3.0953550012934385e-25 1.0
-103.847 15.709966666666666 1807.8499999999997 1.6751237585091096e-25 -2.0976458753604677e-26 1.0
-104.65266666666668 16.67673333333333 1807.8499999999997 -5.762944209667868e-28 -8.642851534448609e-28 1.0
-108.613 31.046233333333333 2183.94 0.0 0.0 1.0
-102.88 32.145 1807.8499999999997 2.998494806537413e-27 2.026542874570713e-27 1.0
-104.08066666666667 34.9899 1813.33 0.0 0.0 1.0
-108.22366666666666 56.934266666666666 2183.94 0.0 0.0 1.0
-108.613 69.58636666666666 2183.94 0.0 0.0 1.0
-103.26866666666668 66.0551 1788.0533333333333 0.5521963433174972 0.7360562605460411 0.39153592394282677
-107.63966666666666 90.99756666666667 2183.94 0.0 0.0 1.0
-108.029 120.77866666666667 2183.94 0.0 0.0 1.0
-107.63966666666666 136.15533333333335 2183.94 0.0 0.0 1.0
-108.80766666666666 142.38466666666667 2183.94 0.0 0.0 1.0
-108.80766666666666 145.49866666666665 2183.94 0.0 0.0 1.0
-109.197 158.54 2183.94 0.0 0.0 1.0
-109.197 -140.43800000000002 2183.94 0.0 0.0 1.0
-105.83866666666667 -102.60866666666668 1858.39 0.0 0.0 1.0
-109.39166666666667 -98.00486666666666 2183.94 0.0 0.0 1.0
-109.197 -94.30656666666668 2183.94 0.0 0.0 1.0
-109.197 -78.73479999999999 2183.94 0.0 0.0 1.0
-104.31599999999999 -57.791266666666665 1818.84 0.0 0.0 1.0
-104.31599999999999 -57.791266666666665 1818.84 0.0 0.0 1.0
-103.82966666666668 -57.14283333333333 1818.84 0.0 0.0 1.0
-109.00233333333334 -50.12166666666667 2183.94 0.0 0.0 1.0
-109.781 -20.924566666666667 2183.94 0.0 0.0 1.0
-108.613 -17.4209 2183.94 0.0 0.0 1.0
-109.58633333333334 -16.836966666666665 2183.94 0.0 0.0 1.0
-109.00233333333334 -13.138666666666666 2183.94 0.0 0.0 1.0
-109.00233333333334 -13.138666666666666 2183.94 0.0 0.0 1.0
-108.029 -8.077866666666667 2183.94 0.0 0.0 1.0
-108.613 -1.4598546666666667 2183.94 0.0 0.0 1.0
-108.613 -1.4598546666666667 2183.94 0.0 0.0 1.0
-104.49166666666667 13.454166666666666 1807.8499999999997 -2.58602067792934e-26 5.17713922209774e-27 1.0
-109.197 28.126500000000004 2183.94 0.0 0.0 1.0
-109.00233333333334 32.798033333333336 2183.94 0.0 0.0 1.0
-109.00233333333334 32.798033333333336 2183.94 0.0 0.0 1.0
-104.81366666666668 29.405833333333334 1807.8499999999997 -2.0732834635753e-26 1.0368561798082884e-26 1.0
-104.08066666666667 34.9899 1813.33 0.0 0.0 1.0
-104.08066666666667 34.9899 1813.33 0.0 0.0 1.0
-104.97466666666666 37.13996666666667 1807.8499999999997 1.7064601296233723e-28 2.400039428261081e-27 1.0
-103.75733333333335 42.90906666666667 1813.33 0.0 0.0 1.0
-108.41833333333334 56.35033333333333 2183.94 0.0 0.0 1.0
-109.39166666666667 58.68613333333334 2183.94 0.0 0.0 1.0
-103.36333333333333 52.44713333333334 1807.8499999999997 -1.2436523278733321e-27 2.9036435486601624e-27 1.0
-109.00233333333334 70.5596 2183.94 0.0 0.0 1.0
-108.80766666666666 71.72746666666666 2183.94 0.0 0.0 1.0
-103.63266666666668 64.5908 1791.62 0.0 0.0 1.0
-109.39166666666667 106.569 2183.94 0.0 0.0 1.0
-108.80766666666666 110.46233333333333 2183.94 0.0 0.0 1.0
-109.39166666666667 118.832 2183.94 0.0 0.0 1.0
-109.97566666666667 131.87366666666665 2183.94 0.0 0.0 1.0
-109.197 158.92933333333335 2183.94 0.0 0.0 1.0
-109.39166666666667 159.90266666666665 2183.94 0.0 0.0 1.0
-110.36500000000001 -150.17033333333333 2183.94 0.0 0.0 1.0
-110.36500000000001 -149.39166666666668 2183.94 0.0 0.0 1.0
-109.39166666666667 -137.12866666666665 2183.94 0.0 0.0 1.0
-111.33833333333332 -124.47699999999999 2183.94 0.0 0.0 1.0
-104.51366666666667 -103.76800000000001 1858.39 0.0 0.0 1.0
-110.36500000000001 -115.32833333333333 2183.94 0.0 0.0 1.0
-109.39166666666667 -113.77166666666666 2183.94 0.0 0.0 1.0
-109.781 -109.29433333333334 2183.94 0.0 0.0 1.0
-108.80766666666666 -74.84183333333334 2183.94 0.0 0.0 1.0
-109.58633333333334 -65.30416666666666 2183.94 0.0 0.0 1.0
-110.36500000000001 -38.44283333333333 2183.94 0.0 0.0 1.0
-109.781 -11.5815 2183.94 0.0 0.0 1.0
-99.69 -8.63738 1883.9399999999998 0.5912714687757068 -0.7883619583676049 0.16995138366783863
-109.58633333333334 2.2384433333333336 2183.94 0.0 0.0 1.0
-104.97500000000001 13.131933333333334 1807.8499999999997 -7.79029140757257e-27 5.1889317310900466e-27 1.0
-104.49166666666667 13.454166666666666 1807.8499999999997 -2.58602067792934e-26 5.17713922209774e-27 1.0
-105.45833333333333 26.9889 1807.8499999999997 3.008798118574178e-27 -1.238272510893317e-28 1.0
-105.37366666666668 42.100966666666665 1813.33 0.0 0.0 1.0
-106.103 47.935566666666666 1807.8499999999997 1.3449601922830178e-27 8.64702374261626e-28 1.0
-110.94900000000001 74.84183333333334 2183.94 0.0 0.0 1.0
-110.75433333333335 88.07786666666668 2183.94 0.0 0.0 1.0
-110.36500000000001 110.657 2183.94 0.0 0.0 1.0
-108.80766666666666 112.40899999999999 2183.94 0.0 0.0 1.0
-110.17033333333335 132.45766666666668 2183.94 0.0 0.0 1.0
-110.55966666666667 137.518 2183.94 0.0 0.0 1.0
-109.97566666666667 146.47166666666666 2183.94 0.0 0.0 1.0
-109.58633333333334 158.73466666666664 2183.94 0.0 0.0 1.0
-109.58633333333334 158.73466666666664 2183.94 0.0 0.0 1.0
-110.75433333333335 -138.102 2183.94 0.0 0.0 1.0
-110.36500000000001 -115.32833333333333 2183.94 0.0 0.0 1.0
-110.55966666666666 -98.39416666666666 2183.94 0.0 0.0 1.0
-110.55966666666666 -98.39416666666666 2183.94 0.0 0.0 1.0
-110.17033333333332 -90.80293333333333 2183.94 0.0 0.0 1.0
-109.97566666666667 -86.52066666666667 2183.94 0.0 0.0 1.0
-109.58633333333334 -65.30416666666666 2183.94 0.0 0.0 1.0
-106.01633333333332 -49.187000000000005 1824.39 0.0 0.0 1.0
-104.878 -48.6992 1824.39 0.0 0.0 1.0
-106.91133333333333 -40.0408 1829.97 0.0 0.0 1.0
-104.21233333333333 -29.69326666666667 1835.58 0.0 0.0 1.0
-110.17033333333332 -16.642333333333333 2183.94 0.0 0.0 1.0
-109.781 -11.5815 2183.94 0.0 0.0 1.0
-109.58633333333334 2.2384433333333336 2183.94 0.0 0.0 1.0
-104.008 7.170190000000001 1807.8499999999997 2.2776334485643077e-25 3.0953550012934385e-25 1.0
-110.36500000000001 28.32116666666667 2183.94 0.0 0.0 1.0
-105.29699999999998 28.92243333333333 1807.8499999999997 1.5235000403963628e-25 -4.4974083436273597e-26 1.0
-104.81366666666666 29.405833333333334 1807.8499999999997 0.0 0.0 1.0
-105.29699999999998 36.81773333333334 1807.8499999999997 3.2319794208885025e-27 3.2714658698584586e-28 1.0
-110.36500000000001 59.27009999999999 2183.94 0.0 0.0 1.0
-105.94166666666666 53.413900000000005 1807.8499999999997 -5.129107931016581e-28 2.3901927307814857e-27 1.0
-105.22933333333333 65.22953333333334 1791.62 0.0 0.0 1.0
-110.36500000000001 118.832 2183.94 0.0 0.0 1.0
-111.14366666666666 129.53766666666664 2183.94 0.0 0.0 1.0
-110.75433333333335 138.88066666666666 2183.94 0.0 0.0 1.0
-111.14366666666666 142.96866666666668 2183.94 0.0 0.0 1.0
-111.14366666666666 150.94899999999998 2183.94 0.0 0.0 1.0
-111.72766666666666 -157.76133333333334 2183.94 0.0 0.0 1.0
-110.75433333333335 -151.1436666666667 2183.94 0.0 0.0 1.0
-110.36500000000001 -115.32833333333333 2183.94 0.0 0.0 1.0
-112.70099999999998 -104.03933333333333 2183.94 0.0 0.0 1.0
-110.55966666666666 -98.39416666666666 2183.94 0.0 0.0 1.0
-111.72766666666666 -95.47443333333335 2183.94 0.0 0.0 1.0
-111.33833333333332 -68.41850000000001 2183.94 0.0 0.0 1.0
-111.33833333333332 -68.41850000000001 2183.94 0.0 0.0 1.0
-111.33833333333332 -49.927 2183.94 0.0 0.0 1.0
-104.53966666666668 -26.9121 1835.58 0.0 0.0 1.0
-111.533 -26.18003333333333 2183.94 0.0 0.0 1.0
-111.33833333333332 -17.810233333333333 2183.94 0.0 0.0 1.0
-110.75433333333332 -17.2263 2183.94 0.0 0.0 1.0
-110.17033333333335 -12.554766666666666 2183.94 0.0 0.0 1.0
-110.75433333333335 3.4063266666666667 2183.94 0.0 0.0 1.0
-104.97500000000001 13.131933333333334 1807.8499999999997 -7.79029140757257e-27 5.1889317310900466e-27 1.0
-105.78033333333333 28.43903333333333 1807.8499999999997 3.4544001991889666e-27 -1.209200994456495e-26 1.0
-105.45799999999998 37.46223333333333 1807.8499999999997 5.185844974156561e-27 -1.2101973922608296e-26 1.0
-110.94900000000001 74.84183333333334 2183.94 0.0 0.0 1.0
-112.117 76.7883 2183.94 0.0 0.0 1.0
-111.533 81.07053333333333 2183.94 0.0 0.0 1.0
-110.75433333333335 88.07786666666668 2183.94 0.0 0.0 1.0
-111.533 91.77616666666665 2183.94 0.0 0.0 1.0
-101.90823333333333 73.37606666666666 1768.67 -4.313944676113911e-16 0.723530480886113 0.6902924331243316
-111.533 98.1995 2183.94 0.0 0.0 1.0
-111.92233333333333 131.48433333333332 2183.94 0.0 0.0 1.0
-111.14366666666666 142.96866666666668 2183.94 0.0 0.0 1.0
-112.117 -160.68133333333333 2183.94 0.0 0.0 1.0
-111.533 -156.788 2183.94 0.0 0.0 1.0
-111.533 -150.949 2183.94 0.0 0.0 1.0
-111.14366666666668 -149.197 2183.94 0.0 0.0 1.0
-112.70100000000001 -145.3036666666667 2183.94 0.0 0.0 1.0
-111.92233333333333 -139.46466666666666 2183.94 0.0 0.0 1.0
-111.33833333333332 -124.47699999999999 2183.94 0.0 0.0 1.0
-110.949 -109.68366666666668 2183.94 0.0 0.0 1.0
-110.949 -109.68366666666668 2183.94 0.0 0.0 1.0
-112.117 -94.5012 2183.94 0.0 0.0 1.0
-111.533 -90.99756666666667 2183.94 0.0 0.0 1.0
-112.117 -79.31869999999999 2183.94 0.0 0.0 1.0
-111.92233333333333 -78.54013333333333 2183.94 0.0 0.0 1.0
-106.34133333333334 -50.4878 1824.39 0.0 0.0 1.0
-111.533 -26.18003333333333 2183.94 0.0 0.0 1.0
-111.533 -25.596099999999996 2183.94 0.0 0.0 1.0
-111.533 -18.783466666666666 2183.94 0.0 0.0 1.0
-111.72766666666666 4.184913333333333 2183.94 0.0 0.0 1.0
-106.425 14.582066666666668 1807.8499999999997 -8.649412749090832e-28 1.728451120318953e-27 1.0
-106.425 14.582066666666668 1807.8499999999997 -8.649412749090832e-28 1.728451120318953e-27 1.0
-111.92233333333333 27.737233333333336 2183.94 0.0 0.0 1.0
-106.103 26.8278 1807.8499999999997 1.0245499065510246e-27 7.683064566089108e-28 1.0
-106.10300000000001 47.935566666666666 1807.8499999999997 -7.875988966676087e-27 -9.507434789958472e-27 1.0
-110.36500000000001 59.27009999999999 2183.94 0.0 0.0 1.0
-106.425 52.930499999999995 1807.8499999999997 -4.613020132848426e-27 -3.072801991678122e-27 1.0
-111.72766666666666 88.85646666666668 2183.94 0.0 0.0 1.0
-111.533 91.77616666666665 2183.94 0.0 0.0 1.0
-111.533 98.1995 2183.94 0.0 0.0 1.0
-112.117 103.84433333333334 2183.94 0.0 0.0 1.0
-111.533 119.80533333333334 2183.94 0.0 0.0 1.0
-113.09033333333332 126.03366666666666 2183.94 0.0 0.0 1.0
-111.72766666666666 132.65233333333333 2183.94 0.0 0.0 1.0
-110.949 133.04166666666666 2183.94 0.0 0.0 1.0
-110.55966666666667 137.518 2183.94 0.0 0.0 1.0
-111.533 148.22366666666667 2183.94 0.0 0.0 1.0
-111.533 148.22366666666667 2183.94 0.0 0.0 1.0
-111.533 148.22366666666667 2183.94 0.0 0.0 1.0
-111.14366666666666 152.701 2183.94 0.0 0.0 1.0
-111.72766666666666 153.67433333333335 2183.94 0.0 0.0 1.0
-111.33833333333332 157.95600000000002 2183.94 0.0 0.0 1.0
-112.117 -160.68133333333333 2183.94 0.0 0.0 1.0
-111.72766666666666 -157.76133333333334 2183.94 0.0 0.0 1.0
-111.533 -156.788 2183.94 0.0 0.0 1.0
-111.72766666666666 -149.781 2183.94 0.0 0.0 1.0
-112.70100000000001 -145.3036666666667 2183.94 0.0 0.0 1.0
-111.92233333333333 -139.46466666666666 2183.94 0.0 0.0 1.0
-111.92233333333333 -139.46466666666666 2183.94 0.0 0.0 1.0
-105.83866666666665 -102.60866666666665 1858.39 0.0 0.0 1.0
-112.31166666666667 -95.6691 2183.94 0.0 0.0 1.0
-112.31166666666667 -95.27980000000001 2183.94 0.0 0.0 1.0
-112.117 -86.13136666666666 2183.94 0.0 0.0 1.0
-113.09033333333332 -82.8224 2183.94 0.0 0.0 1.0
-112.117 -79.31869999999999 2183.94 0.0 0.0 1.0
-105.93733333333334 -59.73656666666667 1818.84 0.0 0.0 1.0
-105.93733333333334 -59.73656666666667 1818.84 0.0 0.0 1.0
-111.33833333333332 -68.41850000000001 2183.94 0.0 0.0 1.0
-107.64833333333333 -23.967299999999998 1835.58 0.0 0.0 1.0
-111.533 -26.18003333333333 2183.94 0.0 0.0 1.0
-111.33833333333332 -17.810233333333333 2183.94 0.0 0.0 1.0
-112.89566666666667 -10.608266666666665 2183.94 0.0 0.0 1.0
-113.09033333333332 -0.875911 2183.94 0.0 0.0 1.0
-106.90833333333335 15.548833333333334 1807.8499999999997 -6.652664619270911e-27 3.725408859279807e-27 1.0
-111.92233333333333 27.737233333333336 2183.94 0.0 0.0 1.0
-111.92233333333333 27.737233333333336 2183.94 0.0 0.0 1.0
-106.42466666666667 28.600166666666667 1807.8499999999997 0.0 0.0 1.0
-106.747 37.30113333333333 1807.8499999999997 2.689880689796708e-27 -7.301269511027754e-27 1.0
-106.425 52.930499999999995 1807.8499999999997 -4.6130201328484306e-27 -3.0728019916781235e-27 1.0
-106.10266666666666 53.413900000000005 1807.8499999999997 -1.5366129132177976e-27 3.072801991678123e-27 1.0
-106.10266666666666 55.025200000000005 1807.8499999999997 6.585678537543089e-28 5.6442556251662415e-28 1.0
-112.89566666666667 75.81506666666667 2183.94 0.0 0.0 1.0
-111.533 91.77616666666665 2183.94 0.0 0.0 1.0
-112.117 99.95139999999999 2183.94 0.0 0.0 1.0
-112.31166666666667 105.596 2183.94 0.0 0.0 1.0
-110.36500000000001 110.657 2183.94 0.0 0.0 1.0
-111.72766666666666 129.343 2183.94 0.0 0.0 1.0
-112.50633333333333 131.28966666666668 2183.94 0.0 0.0 1.0
-112.50633333333333 141.21666666666667 2183.94 0.0 0.0 1.0
-112.31166666666667 142.96866666666668 2183.94 0.0 0.0 1.0
-111.72766666666666 153.67433333333335 2183.94 0.0 0.0 1.0
-112.50633333333333 160.292 2183.94 0.0 0.0 1.0
-112.117 -160.68133333333333 2183.94 0.0 0.0 1.0
-114.258 -128.95366666666666 2183.94 0.0 0.0 1.0
-111.33833333333332 -124.47699999999999 2183.94 0.0 0.0 1.0
-113.67433333333334 -115.134 2183.94 0.0 0.0 1.0
-112.70099999999998 -104.03933333333333 2183.94 0.0 0.0 1.0
-112.50633333333333 -95.6691 2183.94 0.0 0.0 1.0
-112.70099999999998 -94.69586666666667 2183.94 0.0 0.0 1.0
-113.28500000000001 -90.99756666666667 2183.94 0.0 0.0 1.0
-112.117 -78.54013333333333 2183.94 0.0 0.0 1.0
-106.99166666666666 -50.4878 1824.39 0.0 0.0 1.0
-106.66666666666667 -49.8374 1824.39 0.0 0.0 1.0
-108.053 -39.3884 1829.97 0.0 0.0 1.0
-113.67433333333334 -47.59123333333333 2183.94 0.0 0.0 1.0
-112.89566666666667 -37.08026666666667 2183.94 0.0 0.0 1.0
-112.89566666666667 -37.08026666666667 2183.94 0.0 0.0 1.0
-107.64833333333333 -23.967299999999998 1835.58 0.0 0.0 1.0
-112.117 -26.569333333333333 2183.94 0.0 0.0 1.0
-112.89566666666667 -10.608266666666665 2183.94 0.0 0.0 1.0
-113.09033333333332 -0.875911 2183.94 0.0 0.0 1.0
-111.72766666666666 4.184913333333333 2183.94 0.0 0.0 1.0
-107.06933333333332 14.420933333333332 1807.8499999999997 1.558255279037018e-26 4.155585794652519e-26 1.0
-114.64733333333334 18.1995 2183.94 0.0 0.0 1.0
-107.06933333333332 28.439066666666665 1807.8499999999997 2.3645135382202106e-26 -5.817001188935566e-27 1.0
-105.37366666666668 42.100966666666665 1813.33 0.0 0.0 1.0
-113.28500000000001 73.28466666666667 2183.94 0.0 0.0 1.0
-106.347 66.02793333333334 1791.62 0.0 0.0 1.0
-113.08999999999999 82.0438 2183.94 0.0 0.0 1.0
-112.117 101.70333333333333 2183.94 0.0 0.0 1.0
-112.50633333333333 119.61066666666666 2183.94 0.0 0.0 1.0
-112.50633333333333 131.28966666666668 2183.94 0.0 0.0 1.0
-112.50633333333333 131.28966666666668 2183.94 0.0 0.0 1.0
-113.47966666666666 157.5666666666667 2183.94 0.0 0.0 1.0
-113.86866666666667 -99.56206666666667 2183.94 0.0 0.0 1.0
-114.06333333333333 -98.39416666666666 2183.94 0.0 0.0 1.0
-113.28500000000001 -94.69586666666667 2183.94 0.0 0.0 1.0
-113.28500000000001 -90.99756666666667 2183.94 0.0 0.0 1.0
-113.47933333333333 -81.84916666666668 2183.94 0.0 0.0 1.0
-108.053 -39.3884 1829.97 0.0 0.0 1.0
-112.89566666666667 -37.08026666666667 2183.94 0.0 0.0 1.0
-113.09033333333333 -25.206833333333332 2183.94 0.0 0.0 1.0
-112.50633333333333 27.737233333333336 2183.94 0.0 0.0 1.0
-107.06933333333335 28.439066666666665 1807.8499999999997 -2.281397997663858e-26 4.156863677826802e-27 1.0
-108.35866666666665 48.41896666666667 1807.8499999999997 8.451582969306618e-27 6.13967015060168e-27 1.0
-113.28500000000001 73.28466666666667 2183.94 0.0 0.0 1.0
-112.89566666666667 75.81506666666667 2183.94 0.0 0.0 1.0
-112.89566666666667 75.81506666666667 2183.94 0.0 0.0 1.0
-106.347 66.02793333333334 1791.62 0.0 0.0 1.0
-113.47933333333333 106.569 2183.94 0.0 0.0 1.0
-112.117 118.832 2183.94 0.0 0.0 1.0
-113.09033333333333 126.03366666666666 2183.94 0.0 0.0 1.0
-113.28500000000001 141.022 2183.94 0.0 0.0 1.0
-115.03633333333335 -134.793 2183.94 0.0 0.0 1.0
-113.67433333333334 -115.91233333333332 2183.94 0.0 0.0 1.0
-114.06333333333333 -97.2263 2183.94 0.0 0.0 1.0
-113.28500000000001 -94.69586666666667 2183.94 0.0 0.0 1.0
-113.28500000000001 -90.99756666666667 2183.94 0.0 0.0 1.0
-113.28500000000001 -85.15813333333334 2183.94 0.0 0.0 1.0
-113.28500000000001 -83.99026666666667 2183.94 0.0 0.0 1.0
-113.86866666666667 -66.8613 2183.94 0.0 0.0 1.0
-114.45266666666667 -65.69343333333333 2183.94 0.0 0.0 1.0
-114.45266666666667 -48.56446666666667 2183.94 0.0 0.0 1.0
-109.847 -36.7788 1829.97 0.0 0.0 1.0
-107.64833333333333 -23.967299999999998 1835.58 0.0 0.0 1.0
-114.45266666666667 -24.622899999999998 2183.94 0.0 0.0 1.0
-114.06333333333333 -16.447699999999998 2183.94 0.0 0.0 1.0
-112.89566666666667 -10.608266666666665 2183.94 0.0 0.0 1.0
-114.647 8.6618 2183.94 0.0 0.0 1.0
-108.51933333333334 10.070466666666666 1807.8499999999997 0.0 0.0 1.0
-108.68066666666668 10.8761 1807.8499999999997 -1.684569620157517e-26 -3.4562587634886736e-26 1.0
-114.64733333333334 18.1995 2183.94 0.0 0.0 1.0
-107.875 14.582066666666668 1807.8499999999997 1.724881711151384e-26 4.832523728280249e-26 1.0
-107.875 36.65663333333333 1807.8499999999997 2.6896024646529283e-27 -7.299759189986796e-27 1.0
-114.45266666666667 51.094899999999996 2183.94 0.0 0.0 1.0
-114.06333333333333 73.86863333333334 2183.94 0.0 0.0 1.0
-114.842 87.29926666666667 2183.94 0.0 0.0 1.0
-114.64733333333334 90.02433333333333 2183.94 0.0 0.0 1.0
-113.47933333333333 95.47443333333335 2183.94 0.0 0.0 1.0
-113.47966666666666 130.511 2183.94 0.0 0.0 1.0
-113.47966666666666 130.511 2183.94 0.0 0.0 1.0
-114.45266666666667 142.96866666666668 2183.94 0.0 0.0 1.0
-113.47966666666666 157.56666666666666 2183.94 0.0 0.0 1.0
-114.258 157.956 2183.94 0.0 0.0 1.0
-113.67399999999999 160.292 2183.94 0.0 0.0 1.0
-115.03666666666668 -146.861 2183.94 0.0 0.0 1.0
-114.45300000000002 -145.49866666666668 2183.94 0.0 0.0 1.0
-114.842 -143.9416666666667 2183.94 0.0 0.0 1.0
-114.842 -138.49133333333336 2183.94 0.0 0.0 1.0
-114.842 -138.49133333333336 2183.94 0.0 0.0 1.0
-115.62033333333333 -127.78566666666666 2183.94 0.0 0.0 1.0
-114.25833333333333 -117.27466666666665 2183.94 0.0 0.0 1.0
-114.842 -116.496 2183.94 0.0 0.0 1.0
-113.86899999999999 -115.134 2183.94 0.0 0.0 1.0
-113.47966666666667 -107.93166666666666 2183.94 0.0 0.0 1.0
-113.86899999999999 -106.37466666666666 2183.94 0.0 0.0 1.0
-115.03633333333335 -102.67666666666666 2183.94 0.0 0.0 1.0
-114.06333333333333 -79.51336666666667 2183.94 0.0 0.0 1.0
-115.231 -75.03653333333334 2183.94 0.0 0.0 1.0
-114.45266666666667 -48.56446666666667 2183.94 0.0 0.0 1.0
-108.053 -39.3884 1829.97 0.0 0.0 1.0
-115.42566666666666 -1.4598536666666668 2183.94 0.0 0.0 1.0
-108.68066666666665 14.904333333333334 1807.8499999999997 9.137735635717442e-26 2.309415523103239e-25 1.0
-107.71433333333333 25.055400000000002 1807.8499999999997 -3.456616191631641e-27 6.913804481275809e-27 1.0
-107.71433333333333 25.055400000000002 1807.8499999999997 -3.4566161916316454e-27 6.913804481275816e-27 1.0
-115.03633333333335 49.927 2183.94 0.0 0.0 1.0
-108.35866666666668 48.41896666666667 1807.8499999999997 -9.990315348611584e-27 1.5372064426431484e-26 1.0
-114.842 90.99756666666667 2183.94 0.0 0.0 1.0
-115.03666666666668 91.1922 2183.94 0.0 0.0 1.0
-114.06366666666668 125.45 2183.94 0.0 0.0 1.0
-114.45266666666667 126.61766666666666 2183.94 0.0 0.0 1.0
-114.45266666666667 142.96866666666668 2183.94 0.0 0.0 1.0
-115.62033333333333 144.915 2183.94 0.0 0.0 1.0
-114.64733333333334 150.17033333333333 2183.94 0.0 0.0 1.0
-114.64733333333334 150.17033333333333 2183.94 0.0 0.0 1.0
-114.64733333333334 151.14366666666666 2183.94 0.0 0.0 1.0
-115.03633333333335 -141.02200000000002 2183.94 0.0 0.0 1.0
-115.03633333333335 -102.67666666666666 2183.94 0.0 0.0 1.0
-114.84166666666665 -98.78346666666665 2183.94 0.0 0.0 1.0
-114.258 -96.0584 2183.94 0.0 0.0 1.0
-114.45233333333334 -86.90996666666666 2183.94 0.0 0.0 1.0
-114.258 -80.48663333333333 2183.94 0.0 0.0 1.0
-115.231 -75.03653333333334 2183.94 0.0 0.0 1.0
-114.45266666666667 -48.56446666666667 2183.94 0.0 0.0 1.0
-110.266 -29.36606666666667 1835.58 0.0 0.0 1.0
-110.52299999999998 -18.625633333333337 1841.2300000000002 -5.619750055642997e-27 -1.249002343827582e-27 1.0
-114.84166666666665 4.37956 2183.94 0.0 0.0 1.0
-115.23066666666666 7.6885633333333345 2183.94 0.0 0.0 1.0
-114.647 8.661800000000001 2183.94 0.0 0.0 1.0
-109.003 36.012100000000004 1807.8499999999997 2.5539298746000628e-11 -2.554458201011843e-11 1.0
-114.45266666666667 51.094899999999996 2183.94 0.0 0.0 1.0
-108.35866666666668 48.41896666666667 1807.8499999999997 -9.990315348611584e-27 1.5372064426431487e-26 1.0
-109.164 50.030233333333335 1807.8499999999997 2.5950027649824547e-27 8.643149574089132e-28 1.0
-115.231 74.06326666666666 2183.94 0.0 0.0 1.0
-116.00933333333334 104.23366666666668 2183.94 0.0 0.0 1.0
-114.84166666666665 106.37433333333333 2183.94 0.0 0.0 1.0
-115.231 108.32100000000001 2183.94 0.0 0.0 1.0
-114.84166666666665 143.55266666666668 2183.94 0.0 0.0 1.0
-114.64733333333334 151.14366666666666 2183.94 0.0 0.0 1.0
-114.84166666666665 158.15066666666667 2183.94 0.0 0.0 1.0
-115.42566666666669 -143.358 2183.94 0.0 0.0 1.0
-114.842 -138.49133333333336 2183.94 0.0 0.0 1.0
-116.00933333333334 -136.54466666666667 2183.94 0.0 0.0 1.0
-115.42566666666669 -134.40366666666668 2183.94 0.0 0.0 1.0
-115.62033333333333 -127.78566666666666 2183.94 0.0 0.0 1.0
-115.62 -102.48200000000001 2183.94 0.0 0.0 1.0
-114.258 -91.38686666666666 2183.94 0.0 0.0 1.0
-116.20400000000001 -71.7275 2183.94 0.0 0.0 1.0
-114.45266666666667 -65.69343333333333 2183.94 0.0 0.0 1.0
-109.847 -39.8777 1829.97 0.0 0.0 1.0
-116.59333333333335 -41.5572 2183.94 0.0 0.0 1.0
-116.59333333333335 -40.778600000000004 2183.94 0.0 0.0 1.0
-110.266 -29.36606666666667 1835.58 0.0 0.0 1.0
-115.62033333333333 -0.681264 2183.94 0.0 0.0 1.0
-115.81466666666667 6.909976666666666 2183.94 0.0 0.0 1.0
-108.51933333333334 10.070466666666666 1807.8499999999997 0.0 0.0 1.0
-108.68066666666668 14.904333333333334 1807.8499999999997 -7.414280625733254e-26 -1.8268765008588111e-25 1.0
-110.13066666666668 19.093666666666667 1807.8499999999997 -1.5549648335947218e-26 4.324256219177034e-28 1.0
-110.13066666666667 31.178233333333335 1807.8499999999997 -8.640070956952292e-28 7.682004979195348e-28 1.0
-109.64733333333334 32.950633333333336 1807.8499999999997 1.4960863416093978e-26 2.3046014937585705e-27 1.0
-115.03633333333335 49.927 2183.94 0.0 0.0 1.0
-109.96966666666667 46.807633333333335 1807.8499999999997 -6.2201356410981685e-28 1.3476770803165475e-27 1.0
-109.96966666666667 50.674733333333336 1807.8499999999997 -1.6602284323262e-27 2.323312988497865e-26 1.0
-110.13100000000001 53.091633333333334 1807.8499999999997 -1.0000889841876708e-25 1.2765552131048368e-25 1.0
-116.00933333333334 80.87593333333334 2183.94 0.0 0.0 1.0
-116.00933333333334 80.87593333333334 2183.94 0.0 0.0 1.0
-115.42566666666669 90.60826666666667 2183.94 0.0 0.0 1.0
-115.42566666666669 94.30656666666668 2183.94 0.0 0.0 1.0
-115.81466666666667 127.39633333333335 2183.94 0.0 0.0 1.0
-115.81466666666667 127.39633333333335 2183.94 0.0 0.0 1.0
-116.39866666666667 135.96066666666664 2183.94 0.0 0.0 1.0
-115.81466666666667 143.942 2183.94 0.0 0.0 1.0
-116.00933333333334 156.98266666666666 2183.94 0.0 0.0 1.0
-115.81466666666667 157.76133333333334 2183.94 0.0 0.0 1.0
-115.62033333333333 -148.80766666666668 2183.94 0.0 0.0 1.0
-115.62033333333333 -148.80766666666668 2183.94 0.0 0.0 1.0
-116.20400000000001 -143.358 2183.94 0.0 0.0 1.0
-114.84199999999998 -116.496 2183.94 0.0 0.0 1.0
-115.62 -102.48200000000001 2183.94 0.0 0.0 1.0
-116.59333333333332 -97.81023333333333 2183.94 0.0 0.0 1.0
-116.59333333333332 -97.81023333333333 2183.94 0.0 0.0 1.0
-116.59333333333335 -86.90996666666666 2183.94 0.0 0.0 1.0
-116.204 -75.4258 2183.94 0.0 0.0 1.0
-116.204 -71.7275 2183.94 0.0 0.0 1.0
-110.40666666666668 -52.92679999999999 1824.39 0.0 0.0 1.0
-110.40666666666668 -52.92679999999999 1824.39 0.0 0.0 1.0
-108.29266666666666 -49.187000000000005 1824.39 0.0 0.0 1.0
-110.82566666666666 -37.4312 1829.97 0.0 0.0 1.0
-115.42566666666666 -24.81753333333333 2183.94 0.0 0.0 1.0
-115.42566666666666 -24.81753333333333 2183.94 0.0 0.0 1.0
-110.52300000000001 -19.610266666666668 1841.2300000000002 6.493544475652482e-26 -5.996124829557189e-26 1.0
-115.62033333333333 -14.695866666666666 2183.94 0.0 0.0 1.0
-116.39866666666666 -3.4063266666666663 2183.94 0.0 0.0 1.0
-116.39866666666666 -3.4063266666666667 2183.94 0.0 0.0 1.0
-109.64766666666667 11.359499999999999 1807.8499999999997 -1.555284269712456e-26 -4.839663136893113e-26 1.0
-110.29200000000002 35.36756666666667 1807.8499999999997 -8.64744262628237e-27 2.247934417386232e-26 1.0
-110.13100000000001 53.091633333333334 1807.8499999999997 -1.0000889841876741e-25 1.276555213104841e-25 1.0
-111.07100000000001 64.62463333333334 1797.0 0.0 0.0 1.0
-116.39866666666667 90.60826666666667 2183.94 0.0 0.0 1.0
-116.00933333333334 105.20666666666666 2183.94 0.0 0.0 1.0
-116.788 119.80533333333334 2183.94 0.0 0.0 1.0
-115.81466666666667 127.39633333333335 2183.94 0.0 0.0 1.0
-116.39866666666667 135.96066666666664 2183.94 0.0 0.0 1.0
-110.90933333333334 115.80833333333334 1742.9166666666667 -0.7901577108948875 0.5269600745281766 0.31299180782667435
-116.39866666666667 154.842 2183.94 0.0 0.0 1.0
-116.204 -143.358 2183.94 0.0 0.0 1.0
-116.98266666666667 -135.5713333333333 2183.94 0.0 0.0 1.0
-112.53666666666668 -112.45266666666667 1881.76 0.0 0.0 1.0
-115.62033333333333 -127.78566666666666 2183.94 0.0 0.0 1.0
-116.204 -102.09266666666667 2183.94 0.0 0.0 1.0
-116.59366666666666 -78.92943333333334 2183.94 0.0 0.0 1.0
-116.204 -71.7275 2183.94 0.0 0.0 1.0
-110.56933333333332 -52.439 1824.39 0.0 0.0 1.0
-110.56933333333332 -52.439 1824.39 0.0 0.0 1.0
-111.80433333333333 -43.465833333333336 1829.97 0.0 0.0 1.0
-110.82566666666666 -40.5301 1829.97 0.0 0.0 1.0
-110.82566666666666 -37.4312 1829.97 0.0 0.0 1.0
-116.00966666666666 -11.970766666666668 2183.94 0.0 0.0 1.0
-116.39866666666666 -3.4063266666666667 2183.94 0.0 0.0 1.0
-116.59333333333332 -0.09732366666666666 2183.94 0.0 0.0 1.0
-116.788 5.547446666666667 2183.94 0.0 0.0 1.0
-116.788 5.547446666666667 2183.94 0.0 0.0 1.0
-116.98266666666666 5.936743333333333 2183.94 0.0 0.0 1.0
-110.45300000000002 18.932533333333335 1807.8499999999997 -5.3902968476482385e-27 -8.28695545137838e-28 1.0
-110.45299999999999 19.577033333333333 1807.8499999999997 6.334476845454614e-27 4.606978424834749e-27 1.0
-111.09766666666667 29.244699999999998 1807.8499999999997 -1.036856179808297e-26 -1.382760896255162e-26 1.0
-109.164 37.14000000000001 1807.8499999999997 2.1059632634520173e-27 3.0784181546416024e-27 1.0
-119.12399999999998 55.5718 2183.94 0.0 0.0 1.0
-110.77533333333334 55.3474 1807.8499999999997 0.0 0.0 1.0
-110.77533333333334 55.99193333333333 1807.8499999999997 -5.1842808990414e-26 -4.1482826887654324e-26 1.0
-116.59333333333332 74.25793333333333 2183.94 0.0 0.0 1.0
-116.00933333333334 80.87593333333334 2183.94 0.0 0.0 1.0
-117.372 83.01703333333333 2183.94 0.0 0.0 1.0
-115.815 85.54743333333333 2183.94 0.0 0.0 1.0
-116.78800000000001 93.528 2183.94 0.0 0.0 1.0
-116.00933333333334 104.23366666666668 2183.94 0.0 0.0 1.0
-117.372 119.416 2183.94 0.0 0.0 1.0
-116.78800000000001 144.52566666666667 2183.94 0.0 0.0 1.0
-116.78800000000001 156.39866666666668 2183.94 0.0 0.0 1.0
-118.15066666666667 -138.49133333333336 2183.94 0.0 0.0 1.0
-112.87233333333332 -109.76933333333334 1881.76 0.0 0.0 1.0
-117.76133333333333 -110.073 2183.94 0.0 0.0 1.0
-117.76133333333333 -110.073 2183.94 0.0 0.0 1.0
-118.15066666666667 -105.01233333333334 2183.94 0.0 0.0 1.0
-116.59333333333332 -97.81023333333333 2183.94 0.0 0.0 1.0
-116.98266666666666 -75.23113333333333 2183.94 0.0 0.0 1.0
-117.17733333333332 -73.8686 2183.94 0.0 0.0 1.0
-111.47833333333334 -37.2681 1829.97 0.0 0.0 1.0
-112.39233333333333 -31.1656 1835.58 0.0 0.0 1.0
-111.902 -29.2025 1835.58 0.0 0.0 1.0
-111.50766666666668 -19.610266666666668 1841.2300000000002 1.0395158193156589e-26 7.193587037810041e-27 1.0
-112.32833333333333 -17.8051 1841.2300000000002 1.8465499512697808e-28 -1.2959324012121335e-27 1.0
-116.788 -13.7226 2183.94 0.0 0.0 1.0
-117.372 0.09732366666666666 2183.94 0.0 0.0 1.0
-117.56666666666666 0.681264 2183.94 0.0 0.0 1.0
-116.98266666666666 5.936743333333333 2183.94 0.0 0.0 1.0
-109.64766666666667 11.359499999999999 1807.8499999999997 -1.555284269712456e-26 -4.839663136893113e-26 1.0
-119.90266666666666 20.145966666666666 2183.94 0.0 0.0 1.0
-110.13099999999999 53.091633333333334 1807.8499999999997 6.551126419573979e-26 -7.933028402768168e-26 1.0
-117.372 74.84186666666666 2183.94 0.0 0.0 1.0
-116.39866666666667 90.60826666666667 2183.94 0.0 0.0 1.0
-115.81466666666667 108.12633333333333 2183.94 0.0 0.0 1.0
-118.54 114.55 2183.94 0.0 0.0 1.0
-117.17733333333332 120.0 2183.94 0.0 0.0 1.0
-116.39866666666667 135.96066666666664 2183.94 0.0 0.0 1.0
-110.90933333333334 115.80833333333334 1742.9166666666667 -0.7901577108948878 0.5269600745281753 0.31299180782667574
-116.59333333333335 152.31166666666664 2183.94 0.0 0.0 1.0
-117.56666666666666 154.25833333333333 2183.94 0.0 0.0 1.0
-118.73466666666666 -114.35566666666666 2183.94 0.0 0.0 1.0
-117.17733333333332 -103.65000000000002 2183.94 0.0 0.0 1.0
-117.956 -93.13870000000001 2183.94 0.0 0.0 1.0
-117.956 -93.13870000000001 2183.94 0.0 0.0 1.0
-118.73466666666667 -90.80293333333333 2183.94 0.0 0.0 1.0
-118.73466666666667 -82.62773333333332 2183.94 0.0 0.0 1.0
-118.54 -69.58636666666666 2183.94 0.0 0.0 1.0
-118.54 -69.58636666666666 2183.94 0.0 0.0 1.0
-112.195 -56.66670000000001 1824.39 0.0 0.0 1.0
-112.13066666666667 -40.6932 1829.97 0.0 0.0 1.0
-111.902 -29.2025 1835.58 0.0 0.0 1.0
-118.15066666666667 0.291971 2183.94 0.0 0.0 1.0
-118.15066666666667 3.9902666666666664 2183.94 0.0 0.0 1.0
-118.54 10.997566666666666 2183.94 0.0 0.0 1.0
-110.45300000000002 16.354499999999998 1807.8499999999997 -5.376000411996782e-27 -7.713265420256462e-28 1.0
-111.25866666666667 20.221533333333333 1807.8499999999997 -4.935221380448587e-28 -9.873945712277342e-28 1.0
-111.74233333333332 29.56696666666667 1807.8499999999997 2.246092826876683e-26 2.7650928077441677e-26 1.0
-111.74233333333332 29.56696666666667 1807.8499999999997 2.246092826876683e-26 2.7650928077441677e-26 1.0
-111.42 50.0302 1807.8499999999997 1.0 0.0 0.0
-111.42 50.0302 1807.8499999999997 1.0 0.0 0.0
-111.42 50.0302 1807.8499999999997 1.0 0.0 0.0
-110.77533333333334 55.3474 1807.8499999999997 0.0 0.0 1.0
-111.25866666666667 56.47533333333334 1807.8499999999997 1.731315164766238e-26 2.4234116240056438e-26 1.0
-117.372 74.84186666666666 2183.94 0.0 0.0 1.0
-111.07100000000001 64.62463333333334 1797.0 0.0 0.0 1.0
-117.56666666666666 93.528 2183.94 0.0 0.0 1.0
-118.34533333333333 94.11193333333334 2183.94 0.0 0.0 1.0
-117.956 120.0 2183.94 0.0 0.0 1.0
-118.92933333333333 134.01466666666667 2183.94 0.0 0.0 1.0
-118.54 141.41133333333332 2183.94 0.0 0.0 1.0
-117.56666666666666 144.5256666666667 2183.94 0.0 0.0 1.0
-117.56666666666666 144.5256666666667 2183.94 0.0 0.0 1.0
-117.76133333333333 156.39866666666668 2183.94 0.0 0.0 1.0
-117.956 -143.9416666666667 2183.94 0.0 0.0 1.0
-119.12399999999998 -142.38466666666667 2183.94 0.0 0.0 1.0
-118.92933333333333 -140.2433333333333 2183.94 0.0 0.0 1.0
-118.54 -139.26999999999998 2183.94 0.0 0.0 1.0
-118.15066666666667 -138.49133333333336 2183.94 0.0 0.0 1.0
-119.31866666666667 -134.79299999999998 2183.94 0.0 0.0 1.0
-113.37566666666665 -109.43399999999998 1881.76 0.0 0.0 1.0
-113.37566666666665 -109.43400000000001 1881.76 0.0 0.0 1.0
-116.59366666666666 -122.91966666666667 2183.94 0.0 0.0 1.0
-118.34533333333333 -110.657 2183.94 0.0 0.0 1.0
-119.31866666666667 -106.95833333333333 2183.94 0.0 0.0 1.0
-117.372 -98.39416666666666 2183.94 0.0 0.0 1.0
-118.73466666666667 -90.80293333333333 2183.94 0.0 0.0 1.0
-118.15066666666667 -86.52066666666667 2183.94 0.0 0.0 1.0
-118.73466666666667 -82.62773333333332 2183.94 0.0 0.0 1.0
-118.92933333333333 -77.9562 2183.94 0.0 0.0 1.0
-112.195 -56.66670000000001 1824.39 0.0 0.0 1.0
-112.13066666666667 -40.6932 1829.97 0.0 0.0 1.0
-112.13066666666667 -40.6932 1829.97 0.0 0.0 1.0
-112.13066666666667 -37.7574 1829.97 0.0 0.0 1.0
-119.12400000000001 -41.36253333333334 2183.94 0.0 0.0 1.0
-118.73466666666667 -40.58396666666667 2183.94 0.0 0.0 1.0
-111.902 -29.2025 1835.58 0.0 0.0 1.0
-118.34533333333333 -26.763966666666665 2183.94 0.0 0.0 1.0
-112.32833333333333 -17.8051 1841.2300000000002 1.8465499512697803e-28 -1.2959324012121332e-27 1.0
-118.54 10.997566666666666 2183.94 0.0 0.0 1.0
-111.25866666666667 20.221533333333337 1807.8499999999997 9.87044276089717e-28 1.9747891424554683e-27 1.0
-111.42 34.561933333333336 1807.8499999999997 -1.730001380833817e-27 4.035397948548555e-27 1.0
-118.73466666666667 51.67883333333333 2183.94 0.0 0.0 1.0
-118.73466666666667 51.67883333333333 2183.94 0.0 0.0 1.0
-111.742 45.84086666666667 1807.8499999999997 -3.5960079581932975e-27 1.6876148988281042e-26 1.0
-111.25866666666667 56.47533333333334 1807.8499999999997 1.7313151647662437e-26 2.423411624005651e-26 1.0
-118.73466666666667 83.7956 2183.94 0.0 0.0 1.0
-118.54 95.86376666666666 2183.94 0.0 0.0 1.0
-118.34533333333333 120.38933333333334 2183.94 0.0 0.0 1.0
-118.15066666666667 120.584 2183.94 0.0 0.0 1.0
-119.51333333333332 128.36966666666666 2183.94 0.0 0.0 1.0
-118.92933333333333 142.19 2183.94 0.0 0.0 1.0
-118.54 155.62033333333332 2183.94 0.0 0.0 1.0
-119.90266666666666 -159.708 2183.94 0.0 0.0 1.0
-119.70800000000001 -154.64733333333334 2183.94 0.0 0.0 1.0
-119.12400000000001 -141.80066666666667 2183.94 0.0 0.0 1.0
-114.04633333333334 -113.12366666666667 1881.76 0.0 0.0 1.0
-113.37566666666665 -109.43400000000001 1881.76 0.0 0.0 1.0
-118.73466666666666 -114.35566666666666 2183.94 0.0 0.0 1.0
-119.31866666666667 -113.96633333333334 2183.94 0.0 0.0 1.0
-119.31866666666667 -111.43566666666668 2183.94 0.0 0.0 1.0
-119.31866666666667 -106.95833333333333 2183.94 0.0 0.0 1.0
-118.92933333333333 -77.9562 2183.94 0.0 0.0 1.0
-118.92933333333333 -77.9562 2183.94 0.0 0.0 1.0
-119.90266666666666 -75.0365 2183.94 0.0 0.0 1.0
-112.68299999999999 -56.829299999999996 1824.39 0.0 0.0 1.0
-112.358 -51.9512 1824.39 0.0 0.0 1.0
-119.70800000000001 -58.8808 2183.94 0.0 0.0 1.0
-112.94599999999998 -44.118233333333336 1829.97 0.0 0.0 1.0
-112.13066666666667 -37.7574 1829.97 0.0 0.0 1.0
-119.31866666666667 -40.3893 2183.94 0.0 0.0 1.0
-112.39233333333333 -31.1656 1835.58 0.0 0.0 1.0
-112.39266666666667 -29.529666666666667 1835.58 0.0 0.0 1.0
-112.98466666666667 -17.4769 1841.2300000000002 0.0 0.0 1.0
-119.90266666666666 -2.6277399999999997 2183.94 0.0 0.0 1.0
-118.73466666666667 0.09732366666666666 2183.94 0.0 0.0 1.0
-118.73466666666667 0.09732366666666666 2183.94 0.0 0.0 1.0
-118.15066666666667 5.158153333333334 2183.94 0.0 0.0 1.0
-118.54 10.997566666666666 2183.94 0.0 0.0 1.0
-112.06466666666667 29.889233333333333 1807.8499999999997 -1.728093633013821e-27 -6.913804481275814e-27 1.0
-112.06466666666667 29.889233333333333 1807.8499999999997 -1.728093633013821e-27 -6.913804481275814e-27 1.0
-111.42 34.561933333333336 1807.8499999999997 -1.730001380833816e-27 4.035397948548554e-27 1.0
-118.73466666666667 51.67883333333333 2183.94 0.0 0.0 1.0
-112.35233333333333 65.1051 1797.0 0.0 0.0 1.0
-118.34533333333333 94.11193333333334 2183.94 0.0 0.0 1.0
-118.34533333333333 103.06599999999999 2183.94 0.0 0.0 1.0
-118.34533333333333 103.06599999999999 2183.94 0.0 0.0 1.0
-120.48666666666668 112.01966666666665 2183.94 0.0 0.0 1.0
-118.15066666666667 117.08033333333333 2183.94 0.0 0.0 1.0
-120.29199999999999 126.03399999999999 2183.94 0.0 0.0 1.0
-119.51333333333332 128.36966666666666 2183.94 0.0 0.0 1.0
-118.73466666666667 135.37699999999998 2183.94 0.0 0.0 1.0
-118.92933333333333 142.19 2183.94 0.0 0.0 1.0
-118.92933333333333 142.19 2183.94 0.0 0.0 1.0
-119.51333333333334 155.03666666666666 2183.94 0.0 0.0 1.0
-119.90266666666666 -159.708 2183.94 0.0 0.0 1.0
-119.70800000000001 -154.64733333333334 2183.94 0.0 0.0 1.0
-119.12399999999998 -142.38466666666667 2183.94 0.0 0.0 1.0
-119.70800000000001 -141.022 2183.94 0.0 0.0 1.0
-119.31866666666667 -134.793 2183.94 0.0 0.0 1.0
-119.90266666666666 -134.404 2183.94 0.0 0.0 1.0
-115.05233333333332 -104.73833333333334 1881.76 0.0 0.0 1.0
-119.70800000000001 -113.77166666666666 2183.94 0.0 0.0 1.0
-120.68133333333333 -101.50866666666666 2183.94 0.0 0.0 1.0
-119.51333333333334 -90.80293333333333 2183.94 0.0 0.0 1.0
-119.90266666666666 -86.32600000000001 2183.94 0.0 0.0 1.0
-119.51333333333334 -82.62773333333334 2183.94 0.0 0.0 1.0
-119.90266666666666 -75.0365 2183.94 0.0 0.0 1.0
-119.31866666666667 -69.97566666666667 2183.94 0.0 0.0 1.0
-112.68299999999999 -56.829299999999996 1824.39 0.0 0.0 1.0
-113.496 -54.87803333333333 1824.39 0.0 0.0 1.0
-113.496 -54.87803333333333 1824.39 0.0 0.0 1.0
-119.70800000000001 -58.8808 2183.94 0.0 0.0 1.0
-120.29199999999999 -55.961066666666675 2183.94 0.0 0.0 1.0
-113.96933333333334 -16.8205 1841.2300000000002 1.0419563615058544e-27 3.1262068538858727e-28 1.0
-119.90266666666666 -2.238446666666667 2183.94 0.0 0.0 1.0
-119.12400000000001 3.21168 2183.94 0.0 0.0 1.0
-119.12400000000001 3.21168 2183.94 0.0 0.0 1.0
-113.51466666666666 41.65156666666667 1807.8499999999997 1.9004741002739184e-26 6.911659557445022e-27 1.0
-112.548 52.76936666666666 1807.8499999999997 -3.454757612556679e-26 -1.9344356012862611e-25 1.0
-118.34533333333333 75.4258 2183.94 0.0 0.0 1.0
-120.29199999999999 88.2725 2183.94 0.0 0.0 1.0
-119.51333333333334 122.53066666666666 2183.94 0.0 0.0 1.0
-120.29199999999999 134.404 2183.94 0.0 0.0 1.0
-119.31866666666667 139.65933333333334 2183.94 0.0 0.0 1.0
-119.12399999999998 149.19699999999997 2183.94 0.0 0.0 1.0
-120.29199999999999 -155.62033333333332 2183.94 0.0 0.0 1.0
-120.48666666666666 -140.438 2183.94 0.0 0.0 1.0
-119.90266666666666 -134.404 2183.94 0.0 0.0 1.0
-119.70800000000001 -114.161 2183.94 0.0 0.0 1.0
-119.70800000000001 -113.18766666666666 2183.94 0.0 0.0 1.0
-119.31866666666667 -106.95833333333333 2183.94 0.0 0.0 1.0
-120.68133333333333 -101.50866666666666 2183.94 0.0 0.0 1.0
-120.29199999999999 -91.58153333333333 2183.94 0.0 0.0 1.0
-120.48666666666666 -82.62773333333334 2183.94 0.0 0.0 1.0
-120.29199999999999 -78.92943333333334 2183.94 0.0 0.0 1.0
-119.31866666666667 -69.97566666666667 2183.94 0.0 0.0 1.0
-113.171 -52.764199999999995 1824.39 0.0 0.0 1.0
-119.70800000000001 -58.8808 2183.94 0.0 0.0 1.0
-120.29200000000002 -42.141133333333336 2183.94 0.0 0.0 1.0
-120.48666666666668 -29.48906666666667 2183.94 0.0 0.0 1.0
-120.48666666666666 -26.374666666666666 2183.94 0.0 0.0 1.0
-114.78966666666668 -13.210266666666667 1841.2300000000002 8.798689541267444e-27 1.6123480855632054e-27 1.0
-121.65466666666667 9.051096666666668 2183.94 0.0 0.0 1.0
-120.29199999999999 88.2725 2183.94 0.0 0.0 1.0
-120.68133333333333 120.77866666666667 2183.94 0.0 0.0 1.0
-120.29199999999999 123.69866666666667 2183.94 0.0 0.0 1.0
-119.70800000000001 140.04866666666666 2183.94 0.0 0.0 1.0
-120.68133333333333 145.88766666666666 2183.94 0.0 0.0 1.0
-120.68133333333333 145.88766666666666 2183.94 0.0 0.0 1.0
-121.07066666666667 -156.39866666666668 2183.94 0.0 0.0 1.0
-120.87600000000002 -139.854 2183.94 0.0 0.0 1.0
-114.04633333333334 -109.76933333333334 1881.76 0.0 0.0 1.0
-115.38766666666668 -106.24733333333334 1881.76 0.0 0.0 1.0
-115.05233333333332 -104.73833333333334 1881.76 0.0 0.0 1.0
-120.09733333333334 -111.43566666666668 2183.94 0.0 0.0 1.0
-121.07066666666667 -94.5012 2183.94 0.0 0.0 1.0
-120.68133333333333 -93.13870000000001 2183.94 0.0 0.0 1.0
-119.90266666666666 -75.0365 2183.94 0.0 0.0 1.0
-113.496 -54.87803333333334 1824.39 0.0 0.0 1.0
-114.903 -42.1611 1829.97 0.0 0.0 1.0
-120.48666666666668 -2.4330933333333333 2183.94 0.0 0.0 1.0
-120.48666666666668 -2.4330933333333333 2183.94 0.0 0.0 1.0
-119.70800000000001 0.09732366666666666 2183.94 0.0 0.0 1.0
-121.26533333333333 18.78343333333333 2183.94 0.0 0.0 1.0
-121.65466666666667 30.8516 2183.94 0.0 0.0 1.0
-121.65466666666667 30.8516 2183.94 0.0 0.0 1.0
-122.628 34.93916666666667 2183.94 0.0 0.0 1.0
-113.51466666666666 41.651566666666675 1807.8499999999997 2.4189021901780644e-26 1.7282366279358734e-26 1.0
-113.51466666666666 41.651566666666675 1807.8499999999997 2.4189021901780644e-26 1.7282366279358734e-26 1.0
-113.998 46.002 1807.8499999999997 2.285278573928692e-28 1.7429448765753738e-27 1.0
-123.79566666666666 61.80046666666667 2183.94 0.0 0.0 1.0
-112.548 52.76936666666666 1807.8499999999997 -3.4547576125566784e-26 -1.934435601286261e-25 1.0
-113.35333333333334 56.47533333333333 1807.8499999999997 3.463203375511837e-26 -1.662291871403233e-25 1.0
-113.31333333333333 65.42543333333333 1797.0 0.0 0.0 1.0
-120.87600000000002 84.9635 2183.94 0.0 0.0 1.0
-120.87600000000002 84.9635 2183.94 0.0 0.0 1.0
-121.26533333333333 85.93673333333334 2183.94 0.0 0.0 1.0
-120.29199999999999 88.2725 2183.94 0.0 0.0 1.0
-122.044 108.12633333333333 2183.94 0.0 0.0 1.0
-119.70800000000001 114.35533333333332 2183.94 0.0 0.0 1.0
-120.68133333333333 120.77866666666667 2183.94 0.0 0.0 1.0
-120.68133333333333 120.77866666666667 2183.94 0.0 0.0 1.0
-121.07066666666667 123.89333333333333 2183.94 0.0 0.0 1.0
-120.68133333333333 128.17499999999998 2183.94 0.0 0.0 1.0
-120.29199999999999 154.25833333333333 2183.94 0.0 0.0 1.0
-120.29199999999999 154.25833333333333 2183.94 0.0 0.0 1.0
-122.23866666666667 -151.33833333333334 2183.94 0.0 0.0 1.0
-120.87600000000002 -139.854 2183.94 0.0 0.0 1.0
-121.26533333333333 -138.88066666666668 2183.94 0.0 0.0 1.0
-115.38766666666668 -106.24733333333334 1881.76 0.0 0.0 1.0
-115.05233333333332 -104.73833333333334 1881.76 0.0 0.0 1.0
-121.26533333333333 -95.66906666666667 2183.94 0.0 0.0 1.0
-121.26533333333333 -95.66906666666667 2183.94 0.0 0.0 1.0
-121.26533333333333 -87.68856666666666 2183.94 0.0 0.0 1.0
-121.84933333333333 -85.35276666666665 2183.94 0.0 0.0 1.0
-121.84933333333333 -85.35276666666665 2183.94 0.0 0.0 1.0
-120.48666666666668 -82.62773333333332 2183.94 0.0 0.0 1.0
-121.07066666666667 -80.29196666666667 2183.94 0.0 0.0 1.0
-121.07066666666667 -55.766400000000004 2183.94 0.0 0.0 1.0
-115.22933333333333 -39.5515 1829.97 0.0 0.0 1.0
-115.17366666666668 -32.147200000000005 1835.58 0.0 0.0 1.0
-114.62566666666665 -13.8667 1841.2300000000002 -1.3987406967144797e-25 9.995063885724172e-26 1.0
-114.62566666666665 -13.8667 1841.2300000000002 -1.3987406967144797e-25 9.995063885724172e-26 1.0
-121.07066666666667 5.352800000000001 2183.94 0.0 0.0 1.0
-121.84933333333333 16.642333333333337 2183.94 0.0 0.0 1.0
-121.26533333333333 20.53526666666667 2183.94 0.0 0.0 1.0
-122.044 21.8978 2183.94 0.0 0.0 1.0
-122.628 56.54500000000001 2183.94 0.0 0.0 1.0
-114.80366666666667 56.797599999999996 1807.8499999999997 -6.925642689718303e-26 -1.0619879313272003e-25 1.0
-114.96466666666667 57.9255 1807.8499999999997 -2.6092280391347243e-27 1.410480219050045e-28 1.0
-114.11433333333332 65.74573333333332 1797.0 0.0 0.0 1.0
-122.23866666666667 92.36009999999999 2183.94 0.0 0.0 1.0
-121.84933333333333 102.09266666666667 2183.94 0.0 0.0 1.0
-120.48666666666668 109.87833333333333 2183.94 0.0 0.0 1.0
-120.68133333333333 145.88766666666666 2183.94 0.0 0.0 1.0
-121.65466666666667 -156.204 2183.94 0.0 0.0 1.0
-121.46 -155.81466666666668 2183.94 0.0 0.0 1.0
-122.23866666666667 -151.33833333333334 2183.94 0.0 0.0 1.0
-121.46 -101.11933333333332 2183.94 0.0 0.0 1.0
-122.43333333333334 -100.14603333333332 2183.94 0.0 0.0 1.0
-115.122 -56.6667 1824.39 0.0 0.0 1.0
-115.122 -56.6667 1824.39 0.0 0.0 1.0
-115.28466666666667 -55.85366666666667 1824.39 0.0 0.0 1.0
-123.212 -57.71286666666666 2183.94 0.0 0.0 1.0
-114.903 -42.1611 1829.97 0.0 0.0 1.0
-114.903 -42.1611 1829.97 0.0 0.0 1.0
-115.22933333333333 -39.5515 1829.97 0.0 0.0 1.0
-121.65466666666667 -42.72506666666667 2183.94 0.0 0.0 1.0
-115.17366666666668 -32.1472 1835.58 0.0 0.0 1.0
-115.66433333333333 -31.820000000000004 1835.58 0.0 0.0 1.0
-115.50066666666667 -30.838400000000004 1835.58 0.0 0.0 1.0
-115.82800000000002 -29.366066666666665 1835.58 0.0 0.0 1.0
-115.11800000000001 -16.6564 1841.2300000000002 1.6666053699735017e-27 -1.667874861473128e-27 1.0
-114.78966666666666 -13.210266666666667 1841.2300000000002 5.199417174640948e-29 3.644879636493776e-28 1.0
-122.43333333333334 -10.413626666666667 2183.94 0.0 0.0 1.0
-122.43333333333334 -10.413626666666667 2183.94 0.0 0.0 1.0
-123.212 2.0437966666666667 2183.94 0.0 0.0 1.0
-121.65466666666667 9.051096666666666 2183.94 0.0 0.0 1.0
-115.44833333333334 36.81773333333334 1807.8499999999997 -4.419550874817237e-27 4.994508653152562e-27 1.0
-114.80400000000002 38.106766666666665 1807.8499999999997 -0.9980525784828885 0.0 0.06237828615518058
-114.96499999999999 40.523666666666664 1807.8499999999997 5.543886902074449e-27 -6.630945512485494e-27 1.0
-120.87599999999999 54.793200000000006 2183.94 0.0 0.0 1.0
-114.11433333333333 65.74573333333332 1797.0 0.0 0.0 1.0
-121.26533333333334 86.90996666666666 2183.94 0.0 0.0 1.0
-122.43333333333334 93.52796666666666 2183.94 0.0 0.0 1.0
-122.628 95.27980000000001 2183.94 0.0 0.0 1.0
-121.84933333333333 102.09266666666667 2183.94 0.0 0.0 1.0
-122.23866666666667 103.26066666666668 2183.94 0.0 0.0 1.0
-121.07066666666667 123.89333333333333 2183.94 0.0 0.0 1.0
-120.68133333333333 128.17499999999998 2183.94 0.0 0.0 1.0
-123.01733333333334 132.65233333333333 2183.94 0.0 0.0 1.0
-122.82266666666665 133.431 2183.94 0.0 0.0 1.0
-123.60133333333333 -146.08266666666668 2183.94 0.0 0.0 1.0
-117.736 -111.94966666666666 1881.76 0.0 0.0 1.0
-123.01733333333334 -88.27253333333334 2183.94 0.0 0.0 1.0
-121.84933333333333 -85.35276666666665 2183.94 0.0 0.0 1.0
-122.43333333333334 -75.23116666666668 2183.94 0.0 0.0 1.0
-120.87600000000002 -69.97566666666667 2183.94 0.0 0.0 1.0
-114.95933333333333 -55.20323333333334 1824.39 0.0 0.0 1.0
-123.99033333333334 -61.021866666666675 2183.94 0.0 0.0 1.0
-115.55566666666665 -40.8563 1829.97 0.0 0.0 1.0
-115.55566666666665 -40.2039 1829.97 0.0 0.0 1.0
-122.82266666666668 -45.255500000000005 2183.94 0.0 0.0 1.0
-122.43333333333334 -43.892966666666666 2183.94 0.0 0.0 1.0
-115.50066666666667 -30.838400000000004 1835.58 0.0 0.0 1.0
-123.60133333333333 -27.737233333333336 2183.94 0.0 0.0 1.0
-123.01733333333334 -24.81753333333333 2183.94 0.0 0.0 1.0
-123.01733333333334 -24.233566666666665 2183.94 0.0 0.0 1.0
