ply
format ascii 1.0
comment VCGLIB generated
element vertex 863
property float x
property float y
property float z
property float nx
property float ny
property float nz
element face 0
property list uchar int vertex_indices
end_header
-73.24443333333333 -77.06666666666666 1994.67 0.0 0.0 1.0
-74.3111 -46.48886666666667 1994.67 0.0 0.0 1.0
-73.95553333333334 -26.755533333333336 1994.67 0.0 0.0 1.0
-74.1333 -25.155533333333334 1994.67 0.0 0.0 1.0
-74.1333 -23.377766666666663 1994.67 0.0 0.0 1.0
-75.0222 -22.133333333333336 1994.67 0.0 0.0 1.0
-74.66666666666667 -15.0222 1994.67 0.0 0.0 1.0
-73.77776666666666 -10.39999 1994.67 0.0 0.0 1.0
-74.3111 -7.91111 1994.67 0.0 0.0 1.0
-73.95553333333334 -5.422223333333332 1994.67 0.0 0.0 1.0
-74.66666666666667 9.688876666666667 1994.67 0.0 0.0 1.0
-74.48886666666668 34.04443333333334 1994.67 0.0 0.0 1.0
-74.3111 34.57776666666667 1994.67 0.0 0.0 1.0
-74.4889 52.17776666666666 1994.67 0.0 0.0 1.0
-74.66666666666667 57.333333333333336 1994.67 0.0 0.0 1.0
-74.66663333333334 63.9111 1994.67 0.0 0.0 1.0
-74.66663333333334 64.08890000000001 1994.67 0.0 0.0 1.0
-73.77776666666666 68.35556666666666 1994.67 0.0 0.0 1.0
-75.0222 71.37776666666667 1994.67 0.0 0.0 1.0
-73.95556666666667 81.5111 1994.67 0.0 0.0 1.0
-74.66666666666667 84.88889999999999 1994.67 0.0 0.0 1.0
-74.13333333333334 91.82223333333333 1994.67 0.0 0.0 1.0
-74.13333333333334 110.84433333333334 1994.67 0.0 0.0 1.0
-74.13333333333333 114.93333333333334 1994.67 0.0 0.0 1.0
-73.42219999999999 130.578 1994.67 0.0 0.0 1.0
-72.7111 140.17766666666668 1994.67 0.0 0.0 1.0
-73.4222 146.4 1994.67 0.0 0.0 1.0
-73.95556666666667 -112.8 1994.67 0.0 0.0 1.0
-75.2 -104.089 1994.67 0.0 0.0 1.0
-74.31113333333333 -58.93333333333334 1994.67 0.0 0.0 1.0
-74.31113333333333 -58.93333333333334 1994.67 0.0 0.0 1.0
-74.66666666666667 -55.91113333333334 1994.67 0.0 0.0 1.0
-74.4889 -51.111133333333335 1994.67 0.0 0.0 1.0
-74.66666666666667 -43.82223333333334 1994.67 0.0 0.0 1.0
-74.31113333333333 -42.93336666666667 1994.67 0.0 0.0 1.0
-74.4889 -34.40003333333333 1994.67 0.0 0.0 1.0
-75.02223333333335 -14.133333333333335 1994.67 0.0 0.0 1.0
-74.13333333333334 -10.755533333333332 1994.67 0.0 0.0 1.0
-74.66666666666667 2.4 1994.67 0.0 0.0 1.0
-75.2 8.977776666666667 1994.67 0.0 0.0 1.0
-75.5467 17.139233333333333 1724.506666666667 0.9252154686123993 0.11653014957048569 0.36110533211435475
-74.84446666666668 26.755566666666667 1994.67 0.0 0.0 1.0
-74.84446666666668 26.755566666666667 1994.67 0.0 0.0 1.0
-74.3111 39.555566666666664 1994.67 0.0 0.0 1.0
-74.13333333333334 51.28886666666667 1994.67 0.0 0.0 1.0
-73.95556666666667 53.244433333333326 1994.67 0.0 0.0 1.0
-74.84446666666668 56.800000000000004 1994.67 0.0 0.0 1.0
-74.66666666666667 57.333333333333336 1994.67 0.0 0.0 1.0
-73.60000000000001 61.06666666666666 1994.67 0.0 0.0 1.0
-75.20003333333334 74.93333333333334 1994.67 0.0 0.0 1.0
-75.3778 76.0 1994.67 0.0 0.0 1.0
-74.13333333333334 81.15556666666667 1994.67 0.0 0.0 1.0
-74.66666666666667 84.88889999999999 1994.67 0.0 0.0 1.0
-75.50726666666667 71.08696666666667 1626.09 0.0 0.0 1.0
-75.3778 87.55553333333334 1994.67 0.0 0.0 1.0
-74.66666666666667 92.17776666666667 1994.67 0.0 0.0 1.0
-74.66666666666667 96.8 1994.67 0.0 0.0 1.0
-74.31113333333333 108.711 1994.67 0.0 0.0 1.0
-74.6667 109.59999999999998 1994.67 0.0 0.0 1.0
-74.4889 110.66666666666667 1994.67 0.0 0.0 1.0
-74.13333333333334 114.93333333333334 1994.67 0.0 0.0 1.0
-73.95556666666667 122.04433333333333 1994.67 0.0 0.0 1.0
-74.84446666666666 -136.44433333333333 1994.67 0.0 0.0 1.0
-75.73333333333333 -111.02233333333334 1994.67 0.0 0.0 1.0
-75.37776666666667 -105.15566666666666 1994.67 0.0 0.0 1.0
-75.37776666666667 -92.71113333333334 1994.67 0.0 0.0 1.0
-75.37776666666667 -92.71113333333334 1994.67 0.0 0.0 1.0
-75.37776666666667 -85.42223333333334 1994.67 0.0 0.0 1.0
-74.4889 -79.91113333333334 1994.67 0.0 0.0 1.0
-74.66666666666667 -78.6667 1994.67 0.0 0.0 1.0
-76.26666666666667 -49.86666666666667 1994.67 0.0 0.0 1.0
-74.31110000000001 -47.377766666666666 1994.67 0.0 0.0 1.0
-74.66666666666667 -15.0222 1994.67 0.0 0.0 1.0
-75.02223333333335 -13.066666666666668 1994.67 0.0 0.0 1.0
-75.02223333333335 -12.0 1994.67 0.0 0.0 1.0
-75.37776666666667 -6.133333333333333 1994.67 0.0 0.0 1.0
-75.37776666666667 -0.9777766666666666 1994.67 0.0 0.0 1.0
-75.37776666666667 -0.9777766666666666 1994.67 0.0 0.0 1.0
-77.55579999999999 6.516316666666666 1717.9066666666665 0.5456067684258084 -0.545666274017263 0.6360515479487991
-75.2 8.977776666666667 1994.67 0.0 0.0 1.0
-75.55553333333334 17.688866666666666 1994.67 0.0 0.0 1.0
-75.73333333333333 24.2667 1994.67 0.0 0.0 1.0
-75.3778 27.46666666666667 1994.67 0.0 0.0 1.0
-74.48886666666668 34.04443333333334 1994.67 0.0 0.0 1.0
-75.73333333333333 36.53333333333333 1994.67 0.0 0.0 1.0
-75.2 44.0 1994.67 0.0 0.0 1.0
-74.84446666666668 56.800000000000004 1994.67 0.0 0.0 1.0
-75.0222 71.37776666666667 1994.67 0.0 0.0 1.0
-74.66666666666667 84.88889999999999 1994.67 0.0 0.0 1.0
-76.2319 71.23186666666666 1626.09 0.0 0.0 1.0
-75.73333333333333 90.57776666666666 1994.67 0.0 0.0 1.0
-75.02223333333335 92.53333333333335 1994.67 0.0 0.0 1.0
-75.37776666666667 93.24443333333333 1994.67 0.0 0.0 1.0
-75.2 136.97766666666666 1994.67 0.0 0.0 1.0
-75.78580000000001 -93.75686666666667 1687.22 -0.7139021724827075 0.2855566450947755 0.6393755473637438
-75.37776666666667 -92.71113333333334 1994.67 0.0 0.0 1.0
-75.9111 -68.35556666666666 1994.67 0.0 0.0 1.0
-74.66666666666667 -55.91113333333334 1994.67 0.0 0.0 1.0
-74.84443333333333 -44.711099999999995 1994.67 0.0 0.0 1.0
-74.4889 -34.40003333333334 1994.67 0.0 0.0 1.0
-74.84443333333333 -10.39999 1994.67 0.0 0.0 1.0
-75.37776666666667 -0.9777766666666666 1994.67 0.0 0.0 1.0
-75.55556666666666 2.7555566666666667 1994.67 0.0 0.0 1.0
-77.55579999999999 6.516316666666666 1717.9066666666665 0.5456067684258084 -0.545666274017263 0.6360515479487991
-76.08886666666666 7.91111 1994.67 0.0 0.0 1.0
-75.2 8.977776666666667 1994.67 0.0 0.0 1.0
-76.44443333333334 13.422233333333333 1994.67 0.0 0.0 1.0
-75.55553333333334 17.688866666666666 1994.67 0.0 0.0 1.0
-75.55553333333334 17.688866666666666 1994.67 0.0 0.0 1.0
-76.62223333333333 30.488866666666667 1994.67 0.0 0.0 1.0
-75.73333333333333 36.53333333333333 1994.67 0.0 0.0 1.0
-75.73333333333333 40.800000000000004 1994.67 0.0 0.0 1.0
-75.19996666666667 63.9111 1994.67 0.0 0.0 1.0
-75.19996666666667 64.08890000000001 1994.67 0.0 0.0 1.0
-75.0222 71.37776666666667 1994.67 0.0 0.0 1.0
-74.66666666666667 80.44443333333334 1994.67 0.0 0.0 1.0
-75.73333333333333 90.57776666666666 1994.67 0.0 0.0 1.0
-75.55553333333334 94.13333333333333 1994.67 0.0 0.0 1.0
-75.37776666666667 95.37776666666667 1994.67 0.0 0.0 1.0
-75.73333333333333 100.889 1994.67 0.0 0.0 1.0
-82.1739 82.53623333333333 1626.09 0.0 0.0 1.0
-76.26663333333333 142.84433333333334 1994.67 0.0 0.0 1.0
-76.26663333333333 142.84433333333334 1994.67 0.0 0.0 1.0
-74.20286666666668 117.60833333333335 1626.09 0.0 0.0 1.0
-75.02223333333333 -137.33333333333334 1994.67 0.0 0.0 1.0
-74.84446666666666 -135.0223333333333 1994.67 0.0 0.0 1.0
-75.3778 -129.33333333333334 1994.67 0.0 0.0 1.0
-75.3778 -129.33333333333334 1994.67 0.0 0.0 1.0
-77.74650000000001 -102.08466666666668 1685.63 0.0 0.0 1.0
-76.9778 -108.53333333333335 1994.67 0.0 0.0 1.0
-75.91109999999999 -99.82233333333333 1994.67 0.0 0.0 1.0
-77.15556666666667 -31.555533333333333 1994.67 0.0 0.0 1.0
-76.62223333333333 -17.155533333333334 1994.67 0.0 0.0 1.0
-75.55556666666666 2.7555566666666667 1994.67 0.0 0.0 1.0
-76.44443333333334 13.422233333333333 1994.67 0.0 0.0 1.0
-76.44446666666666 27.64446666666667 1994.67 0.0 0.0 1.0
-76.44443333333334 31.2 1994.67 0.0 0.0 1.0
-75.73333333333333 36.53333333333333 1994.67 0.0 0.0 1.0
-76.97776666666665 73.86666666666667 1994.67 0.0 0.0 1.0
-76.66666666666667 71.81156666666666 1626.09 0.0 0.0 1.0
-76.9565 72.3913 1626.09 0.0 0.0 1.0
-76.9565 72.3913 1626.09 0.0 0.0 1.0
-75.73333333333333 90.57776666666666 1994.67 0.0 0.0 1.0
-76.2667 107.822 1994.67 0.0 0.0 1.0
-76.44443333333334 129.86666666666667 1994.67 0.0 0.0 1.0
-79.27533333333334 118.188 1626.09 0.0 0.0 1.0
-77.5111 -146.22233333333335 1994.67 0.0 0.0 1.0
-78.2222 -145.33333333333334 1994.67 0.0 0.0 1.0
-76.9778 -108.53333333333335 1994.67 0.0 0.0 1.0
-76.26666666666667 -104.97800000000001 1994.67 0.0 0.0 1.0
-76.26666666666667 -104.97800000000001 1994.67 0.0 0.0 1.0
-75.91109999999999 -92.1778 1994.67 0.0 0.0 1.0
-76.97776666666665 -49.86666666666667 1994.67 0.0 0.0 1.0
-77.15553333333332 -49.5111 1994.67 0.0 0.0 1.0
-77.15556666666667 -31.555533333333333 1994.67 0.0 0.0 1.0
-76.44443333333334 -21.77776666666667 1994.67 0.0 0.0 1.0
-76.62223333333333 -17.155533333333334 1994.67 0.0 0.0 1.0
-76.62223333333333 -17.155533333333334 1994.67 0.0 0.0 1.0
-75.73333333333333 -12.355566666666666 1994.67 0.0 0.0 1.0
-76.97776666666665 -8.088890000000001 1994.67 0.0 0.0 1.0
-76.97776666666665 -8.088890000000001 1994.67 0.0 0.0 1.0
-76.8 7.733333333333333 1994.67 0.0 0.0 1.0
-76.8 41.5111 1994.67 0.0 0.0 1.0
-77.15553333333332 46.4889 1994.67 0.0 0.0 1.0
-77.33333333333333 52.0 1994.67 0.0 0.0 1.0
-77.15556666666667 53.06666666666666 1994.67 0.0 0.0 1.0
-76.8 67.46666666666667 1994.67 0.0 0.0 1.0
-76.8 67.46666666666667 1994.67 0.0 0.0 1.0
-76.8 67.46666666666667 1994.67 0.0 0.0 1.0
-76.62223333333333 77.06666666666666 1994.67 0.0 0.0 1.0
-76.8116 69.92753333333333 1626.09 0.0 0.0 1.0
-77.24636666666667 70.21736666666668 1626.09 0.0 0.0 1.0
-76.26666666666667 90.2222 1994.67 0.0 0.0 1.0
-76.26666666666667 97.15556666666667 1994.67 0.0 0.0 1.0
-77.68886666666667 132.35533333333333 1994.67 0.0 0.0 1.0
-76.62223333333333 136.44433333333333 1994.67 0.0 0.0 1.0
-76.26666666666667 137.33333333333334 1994.67 0.0 0.0 1.0
-79.10109999999999 -108.23933333333333 1680.9000000000003 -1.3057959805721268e-27 -1.4688026033971654e-27 1.0
-77.74650000000001 -102.08466666666668 1685.63 0.0 0.0 1.0
-77.68886666666667 -111.19966666666666 1994.67 0.0 0.0 1.0
-77.5111 -110.31099999999999 1994.67 0.0 0.0 1.0
-77.33333333333333 -101.06666666666666 1994.67 0.0 0.0 1.0
-77.5111 -85.59999999999998 1994.67 0.0 0.0 1.0
-77.15553333333332 -49.86666666666667 1994.67 0.0 0.0 1.0
-77.15553333333332 -49.5111 1994.67 0.0 0.0 1.0
-78.04443333333333 -38.666666666666664 1994.67 0.0 0.0 1.0
-76.97776666666665 -8.088890000000001 1994.67 0.0 0.0 1.0
-76.97776666666665 12.0 1994.67 0.0 0.0 1.0
-76.97776666666665 12.0 1994.67 0.0 0.0 1.0
-77.33333333333333 13.955566666666668 1994.67 0.0 0.0 1.0
-77.68886666666667 14.844433333333333 1994.67 0.0 0.0 1.0
-77.53769999999999 19.6613 1729.49 0.8647700589468993 -0.14437099476242168 0.48096752595189324
-77.68886666666667 23.377799999999997 1994.67 0.0 0.0 1.0
-77.33333333333333 31.733333333333334 1994.67 0.0 0.0 1.0
-77.15553333333332 46.4889 1994.67 0.0 0.0 1.0
-77.15553333333332 46.4889 1994.67 0.0 0.0 1.0
-76.97776666666665 62.3111 1994.67 0.0 0.0 1.0
-78.26086666666667 57.6087 1626.09 0.0 0.0 1.0
-78.26086666666667 57.6087 1626.09 0.0 0.0 1.0
-76.97776666666665 73.86666666666666 1994.67 0.0 0.0 1.0
-76.97776666666665 73.86666666666666 1994.67 0.0 0.0 1.0
-78.57776666666666 81.5111 1994.67 0.0 0.0 1.0
-78.2222 84.7111 1994.67 0.0 0.0 1.0
-77.86666666666666 97.33333333333333 1994.67 0.0 0.0 1.0
-77.5111 114.57799999999999 1994.67 0.0 0.0 1.0
-76.44443333333334 115.82233333333333 1994.67 0.0 0.0 1.0
-77.33333333333333 133.95533333333333 1994.67 0.0 0.0 1.0
-77.15553333333334 142.84433333333334 1994.67 0.0 0.0 1.0
-77.68886666666667 146.4 1994.67 0.0 0.0 1.0
-77.86663333333333 146.75566666666668 1994.67 0.0 0.0 1.0
-78.75556666666667 -140.35566666666668 1994.67 0.0 0.0 1.0
-79.10109999999999 -108.23933333333333 1680.9000000000003 -1.3057959805721272e-27 -1.4688026033971658e-27 1.0
-75.37776666666667 -117.24433333333333 1994.67 0.0 0.0 1.0
-77.33333333333333 -109.06666666666666 1994.67 0.0 0.0 1.0
-78.22223333333334 -96.08886666666666 1994.67 0.0 0.0 1.0
-77.15556666666667 -79.55556666666666 1994.67 0.0 0.0 1.0
-78.93333333333334 -70.84446666666668 1994.67 0.0 0.0 1.0
-78.57776666666668 -64.08890000000001 1994.67 0.0 0.0 1.0
-78.4 -58.044466666666665 1994.67 0.0 0.0 1.0
-79.23806666666667 -29.180966666666666 1709.71 0.0 0.0 1.0
-79.11113333333333 -27.288866666666664 1994.67 0.0 0.0 1.0
-76.9778 -17.866633333333333 1994.67 0.0 0.0 1.0
-78.40003333333333 -1.688891 1994.67 0.0 0.0 1.0
-77.8667 -0.08889100000000005 1994.67 0.0 0.0 1.0
-77.15556666666667 1.1555556666666666 1994.67 0.0 0.0 1.0
-77.6889 7.555556666666667 1994.67 0.0 0.0 1.0
-77.6889 27.288899999999998 1994.67 0.0 0.0 1.0
-78.4 31.199966666666665 1994.67 0.0 0.0 1.0
-77.8667 36.711099999999995 1994.67 0.0 0.0 1.0
-78.22223333333334 40.97776666666667 1994.67 0.0 0.0 1.0
-78.22223333333334 40.97776666666667 1994.67 0.0 0.0 1.0
-78.22223333333334 49.86663333333333 1994.67 0.0 0.0 1.0
-77.15556666666667 53.06666666666666 1994.67 0.0 0.0 1.0
-77.68116666666667 48.04346666666667 1626.09 0.0 0.0 1.0
-78.39999999999999 61.77776666666667 1994.67 0.0 0.0 1.0
-77.8667 108.0 1994.67 0.0 0.0 1.0
-78.57776666666666 113.15566666666666 1994.67 0.0 0.0 1.0
-77.33333333333333 135.20000000000002 1994.67 0.0 0.0 1.0
-78.6479 -101.183 1685.63 0.0 0.0 1.0
-80.60433333333333 -95.86399999999999 1695.18 0.0 0.0 1.0
-77.68886666666667 -111.19966666666666 1994.67 0.0 0.0 1.0
-78.39999999999999 -102.13333333333333 1994.67 0.0 0.0 1.0
-78.22223333333334 -96.08886666666666 1994.67 0.0 0.0 1.0
-78.57780000000001 -95.7333 1994.67 0.0 0.0 1.0
-78.57776666666666 -86.48889999999999 1994.67 0.0 0.0 1.0
-79.46666666666667 -81.15553333333332 1994.67 0.0 0.0 1.0
-78.75556666666667 -69.24446666666667 1994.67 0.0 0.0 1.0
-79.54023333333333 -53.51160000000001 1717.8966666666665 -0.31570512424143565 0.9470467113227735 -0.05859011094390308
-78.39999999999999 -58.044466666666665 1994.67 0.0 0.0 1.0
-78.75556666666667 -55.377766666666666 1994.67 0.0 0.0 1.0
-78.93333333333334 -53.6 1994.67 0.0 0.0 1.0
-78.75553333333333 -39.199999999999996 1994.67 0.0 0.0 1.0
-78.57776666666668 -38.666666666666664 1994.67 0.0 0.0 1.0
-78.22223333333334 -31.199966666666665 1994.67 0.0 0.0 1.0
-79.2889 -21.77776666666667 1994.67 0.0 0.0 1.0
-78.57776666666668 6.844446666666666 1994.67 0.0 0.0 1.0
-78.57776666666668 6.844446666666666 1994.67 0.0 0.0 1.0
-77.68886666666667 14.844433333333333 1994.67 0.0 0.0 1.0
-78.75556666666667 18.222199999999997 1994.67 0.0 0.0 1.0
-78.75556666666667 18.222199999999997 1994.67 0.0 0.0 1.0
-78.39999999999999 26.5778 1994.67 0.0 0.0 1.0
-78.93333333333334 31.9111 1994.67 0.0 0.0 1.0
-78.93333333333334 45.599999999999994 1994.67 0.0 0.0 1.0
-78.22223333333334 49.86663333333333 1994.67 0.0 0.0 1.0
-78.22223333333334 49.86663333333334 1994.67 0.0 0.0 1.0
-78.22223333333334 77.06666666666666 1994.67 0.0 0.0 1.0
-78.39999999999999 85.24443333333333 1994.67 0.0 0.0 1.0
-77.86666666666667 101.42233333333331 1994.67 0.0 0.0 1.0
-77.15553333333332 142.66633333333334 1994.67 0.0 0.0 1.0
-78.2222 146.04433333333336 1994.67 0.0 0.0 1.0
-78.2222 -146.22233333333335 1994.67 0.0 0.0 1.0
-79.28886666666666 -144.8 1994.67 0.0 0.0 1.0
-79.2889 -138.93333333333334 1994.67 0.0 0.0 1.0
-78.57776666666666 -131.28866666666667 1994.67 0.0 0.0 1.0
-80.74693333333333 -108.086 1676.1899999999998 -9.038816275082041e-28 1.4750185304185856e-27 1.0
-80.0 -98.17843333333333 1685.63 0.0 0.0 1.0
-80.17776666666667 -74.22223333333334 1994.67 0.0 0.0 1.0
-78.57776666666666 -64.08890000000001 1994.67 0.0 0.0 1.0
-78.57776666666666 -64.08890000000001 1994.67 0.0 0.0 1.0
-78.39999999999999 -58.044466666666665 1994.67 0.0 0.0 1.0
-79.82223333333333 -44.711099999999995 1994.67 0.0 0.0 1.0
-78.75553333333333 -39.199999999999996 1994.67 0.0 0.0 1.0
-78.57776666666668 -38.666666666666664 1994.67 0.0 0.0 1.0
-79.23806666666667 -29.180966666666666 1709.71 0.0 0.0 1.0
-78.57776666666668 6.844446666666666 1994.67 0.0 0.0 1.0
-78.39999999999999 26.5778 1994.67 0.0 0.0 1.0
-78.93333333333334 31.9111 1994.67 0.0 0.0 1.0
-78.22223333333334 40.97776666666667 1994.67 0.0 0.0 1.0
-78.93333333333334 45.599999999999994 1994.67 0.0 0.0 1.0
-78.26086666666667 57.6087 1626.09 0.0 0.0 1.0
-79.64443333333334 82.75556666666667 1994.67 0.0 0.0 1.0
-79.11110000000001 83.2889 1994.67 0.0 0.0 1.0
-78.75556666666667 91.64443333333334 1994.67 0.0 0.0 1.0
-79.46666666666667 123.64433333333334 1994.67 0.0 0.0 1.0
-79.46666666666667 131.64433333333332 1994.67 0.0 0.0 1.0
-78.2222 146.04433333333336 1994.67 0.0 0.0 1.0
-79.11113333333333 -141.778 1994.67 0.0 0.0 1.0
-80.00003333333333 -136.62233333333333 1994.67 0.0 0.0 1.0
-80.00003333333333 -136.62233333333333 1994.67 0.0 0.0 1.0
-79.5493 -101.183 1685.63 0.0 0.0 1.0
-79.2889 -103.02199999999999 1994.67 0.0 0.0 1.0
-78.75556666666667 -96.08886666666666 1994.67 0.0 0.0 1.0
-79.46666666666667 -81.15553333333332 1994.67 0.0 0.0 1.0
-78.93333333333334 -56.79999999999999 1994.67 0.0 0.0 1.0
-79.82223333333333 -51.1111 1994.67 0.0 0.0 1.0
-79.64446666666667 -45.95556666666666 1994.67 0.0 0.0 1.0
-79.82223333333333 -44.711099999999995 1994.67 0.0 0.0 1.0
-79.11113333333334 -30.133300000000002 1994.67 0.0 0.0 1.0
-79.64446666666667 -28.35553333333333 1994.67 0.0 0.0 1.0
-79.2889 -21.77776666666667 1994.67 0.0 0.0 1.0
-80.1778 -5.6000000000000005 1994.67 0.0 0.0 1.0
-78.93336666666666 -3.644446666666667 1994.67 0.0 0.0 1.0
-79.11113333333333 8.977780000000001 1994.67 0.0 0.0 1.0
-78.75556666666667 18.2222 1994.67 0.0 0.0 1.0
-77.53769999999999 19.6613 1729.49 0.8647700589469007 -0.14437099476241913 0.4809675259518916
-78.93333333333334 31.9111 1994.67 0.0 0.0 1.0
-79.82223333333333 35.64443333333333 1994.67 0.0 0.0 1.0
-79.82223333333333 36.35556666666667 1994.67 0.0 0.0 1.0
-79.46666666666667 40.08886666666667 1994.67 0.0 0.0 1.0
-78.93333333333334 45.599999999999994 1994.67 0.0 0.0 1.0
-80.35556666666666 69.42219999999999 1994.67 0.0 0.0 1.0
-79.2889 76.53333333333333 1994.67 0.0 0.0 1.0
-79.64443333333334 81.5111 1994.67 0.0 0.0 1.0
-79.11110000000001 83.2889 1994.67 0.0 0.0 1.0
-78.93333333333334 85.06666666666666 1994.67 0.0 0.0 1.0
-79.11113333333334 86.31110000000001 1994.67 0.0 0.0 1.0
-80.0 97.33333333333333 1994.67 0.0 0.0 1.0
-79.64446666666667 100.889 1994.67 0.0 0.0 1.0
-79.46669999999999 109.24466666666667 1994.67 0.0 0.0 1.0
-79.46666666666667 123.64433333333334 1994.67 0.0 0.0 1.0
-79.46666666666667 124.35566666666666 1994.67 0.0 0.0 1.0
-79.46666666666667 131.64433333333332 1994.67 0.0 0.0 1.0
-80.0 -143.73333333333332 1994.67 0.0 0.0 1.0
-80.0 -98.17843333333333 1685.63 0.0 0.0 1.0
-80.0 -102.84433333333334 1994.67 0.0 0.0 1.0
-80.88886666666667 -98.57776666666666 1994.67 0.0 0.0 1.0
-79.2889 -95.19996666666667 1994.67 0.0 0.0 1.0
-81.24443333333333 -85.59999999999998 1994.67 0.0 0.0 1.0
-80.17776666666667 -68.88889999999999 1994.67 0.0 0.0 1.0
-80.45846666666667 -54.020999999999994 1714.61 0.0 0.0 1.0
-79.54023333333333 -53.51160000000001 1717.8966666666665 -0.31570512424143565 0.9470467113227735 -0.05859011094390308
-79.82223333333333 -51.1111 1994.67 0.0 0.0 1.0
-79.82223333333333 -51.1111 1994.67 0.0 0.0 1.0
-80.1778 -46.13336666666667 1994.67 0.0 0.0 1.0
-79.82223333333333 -42.93333333333334 1994.67 0.0 0.0 1.0
-80.35556666666666 -41.51113333333333 1994.67 0.0 0.0 1.0
-81.06666666666666 -26.22223333333333 1994.67 0.0 0.0 1.0
-80.1778 -21.600000000000005 1994.67 0.0 0.0 1.0
-80.53333333333333 -15.911133333333334 1994.67 0.0 0.0 1.0
-79.11113333333333 8.977780000000001 1994.67 0.0 0.0 1.0
-78.93333333333332 27.46666666666667 1994.67 0.0 0.0 1.0
-80.0 38.666666666666664 1994.67 0.0 0.0 1.0
-79.64443333333334 44.1778 1994.67 0.0 0.0 1.0
-79.64443333333334 44.1778 1994.67 0.0 0.0 1.0
-79.2889 47.73330000000001 1994.67 0.0 0.0 1.0
-79.46666666666665 61.599999999999994 1994.67 0.0 0.0 1.0
-80.35556666666666 69.42219999999999 1994.67 0.0 0.0 1.0
-80.35556666666666 75.64443333333334 1994.67 0.0 0.0 1.0
-80.0 97.33333333333333 1994.67 0.0 0.0 1.0
-81.24443333333333 106.04466666666667 1994.67 0.0 0.0 1.0
-79.46666666666667 124.35566666666666 1994.67 0.0 0.0 1.0
-80.0 132.35566666666668 1994.67 0.0 0.0 1.0
-80.88886666666667 137.689 1994.67 0.0 0.0 1.0
-80.53333333333333 -135.0223333333333 1994.67 0.0 0.0 1.0
-79.5493 -101.18299999999999 1685.63 0.0 0.0 1.0
-80.35556666666666 -102.13333333333333 1994.67 0.0 0.0 1.0
-80.88886666666667 -98.57776666666666 1994.67 0.0 0.0 1.0
-80.17776666666667 -80.8 1994.67 0.0 0.0 1.0
-80.17776666666667 -80.8 1994.67 0.0 0.0 1.0
-81.06666666666666 -77.06666666666666 1994.67 0.0 0.0 1.0
-80.35553333333333 -73.6889 1994.67 0.0 0.0 1.0
-80.76413333333333 -55.09076666666667 1714.61 0.0 0.0 1.0
-80.4585 -54.7851 1714.61 0.0 0.0 1.0
-80.6113 -54.32663333333333 1714.61 0.0 0.0 1.0
-79.23806666666667 -29.180966666666666 1709.71 0.0 0.0 1.0
-80.5333 -17.15556666666667 1994.67 0.0 0.0 1.0
-80.7111 -16.444466666666667 1994.67 0.0 0.0 1.0
-80.7111 -16.444466666666667 1994.67 0.0 0.0 1.0
-80.7111 -10.755556666666665 1994.67 0.0 0.0 1.0
-80.7111 -9.688889999999999 1994.67 0.0 0.0 1.0
-81.06666666666666 11.28889 1994.67 0.0 0.0 1.0
-82.3055 12.987499999999999 1724.5 0.0 0.0 1.0
-81.59996666666667 23.377766666666663 1994.67 0.0 0.0 1.0
-79.82223333333333 35.64443333333333 1994.67 0.0 0.0 1.0
-79.82223333333333 36.35556666666667 1994.67 0.0 0.0 1.0
-81.42223333333334 51.111133333333335 1994.67 0.0 0.0 1.0
-80.88886666666667 61.42223333333333 1994.67 0.0 0.0 1.0
-81.4222 73.86663333333333 1994.67 0.0 0.0 1.0
-80.17776666666667 81.5111 1994.67 0.0 0.0 1.0
-80.88886666666666 82.04443333333334 1994.67 0.0 0.0 1.0
-80.0 97.33333333333333 1994.67 0.0 0.0 1.0
-80.7111 112.978 1994.67 0.0 0.0 1.0
-81.06663333333334 115.82233333333333 1994.67 0.0 0.0 1.0
-81.06663333333334 115.82233333333333 1994.67 0.0 0.0 1.0
-81.06663333333334 118.48899999999999 1994.67 0.0 0.0 1.0
-80.7111 121.51100000000001 1994.67 0.0 0.0 1.0
-80.0 132.35566666666668 1994.67 0.0 0.0 1.0
-80.88886666666667 137.689 1994.67 0.0 0.0 1.0
-81.24446666666667 -142.84433333333334 1994.67 0.0 0.0 1.0
-80.00003333333333 -136.62233333333333 1994.67 0.0 0.0 1.0
-80.5959 -106.694 1673.0766666666666 -0.3092666004304032 0.9281794812694144 0.20697106176628205
-81.5066 -102.37299999999999 1690.4000000000003 3.5615384333737313e-25 -2.0576458565307572e-25 1.0
-80.75116666666666 -98.02820000000001 1685.63 0.0 0.0 1.0
-80.60433333333333 -95.86399999999999 1695.18 0.0 0.0 1.0
-81.95556666666666 -107.28866666666666 1994.67 0.0 0.0 1.0
-80.35556666666666 -102.13333333333333 1994.67 0.0 0.0 1.0
-81.06666666666666 -75.64446666666666 1994.67 0.0 0.0 1.0
-80.45846666666667 -54.020999999999994 1714.61 0.0 0.0 1.0
-81.95556666666666 -59.1111 1994.67 0.0 0.0 1.0
-80.35556666666666 -48.800000000000004 1994.67 0.0 0.0 1.0
-81.06670000000001 -45.06666666666666 1994.67 0.0 0.0 1.0
-80.0 -40.622233333333334 1994.67 0.0 0.0 1.0
-81.06666666666666 -26.22223333333333 1994.67 0.0 0.0 1.0
-81.42223333333332 -21.77776666666667 1994.67 0.0 0.0 1.0
-80.7111 -16.444466666666667 1994.67 0.0 0.0 1.0
-81.42223333333334 -11.822233333333335 1994.67 0.0 0.0 1.0
-81.06666666666666 -8.799999999999999 1994.67 0.0 0.0 1.0
-81.95556666666668 2.2222233333333334 1994.67 0.0 0.0 1.0
-81.06670000000001 18.222199999999997 1994.67 0.0 0.0 1.0
-81.42223333333334 51.111133333333335 1994.67 0.0 0.0 1.0
-81.42223333333332 93.77776666666666 1994.67 0.0 0.0 1.0
-81.06666666666666 98.39999999999999 1994.67 0.0 0.0 1.0
-81.42223333333332 99.11110000000001 1994.67 0.0 0.0 1.0
-81.42223333333334 111.378 1994.67 0.0 0.0 1.0
-80.1778 125.06666666666666 1994.67 0.0 0.0 1.0
-80.8889 146.57766666666666 1994.67 0.0 0.0 1.0
-81.7778 -144.79999999999998 1994.67 0.0 0.0 1.0
-82.13333333333333 -140.8886666666667 1994.67 0.0 0.0 1.0
-81.95556666666667 -137.689 1994.67 0.0 0.0 1.0
-81.06666666666666 -135.20000000000002 1994.67 0.0 0.0 1.0
-80.74693333333333 -108.08600000000001 1676.1899999999998 1.8077632550164082e-27 -2.950037060837171e-27 1.0
-80.89886666666666 -107.041 1680.9000000000003 -1.8776176288813814e-27 -5.022987112723782e-27 1.0
-81.5066 -102.37299999999999 1690.4000000000003 3.5615384333737395e-25 -2.0576458565307622e-25 1.0
-80.75116666666666 -98.02820000000001 1685.63 0.0 0.0 1.0
-81.95556666666667 -107.28866666666669 1994.67 0.0 0.0 1.0
-81.42219999999999 -97.86666666666667 1994.67 0.0 0.0 1.0
-81.24443333333333 -85.59999999999998 1994.67 0.0 0.0 1.0
-80.88886666666666 -78.66666666666667 1994.67 0.0 0.0 1.0
-81.06666666666666 -74.04446666666666 1994.67 0.0 0.0 1.0
-80.76413333333333 -55.09076666666667 1714.61 0.0 0.0 1.0
-82.13333333333333 -63.555566666666664 1994.67 0.0 0.0 1.0
-81.60000000000001 -31.55553333333333 1994.67 0.0 0.0 1.0
-81.42223333333332 -21.77776666666667 1994.67 0.0 0.0 1.0
-81.42223333333332 -21.77776666666667 1994.67 0.0 0.0 1.0
-81.42223333333334 -14.844466666666667 1994.67 0.0 0.0 1.0
-81.95556666666666 -8.088886666666665 1994.67 0.0 0.0 1.0
-82.48886666666665 25.866666666666664 1994.67 0.0 0.0 1.0
-82.13333333333333 67.99996666666667 1994.67 0.0 0.0 1.0
-81.95556666666667 68.17776666666667 1994.67 0.0 0.0 1.0
-81.24443333333333 74.57776666666666 1994.67 0.0 0.0 1.0
-82.4889 80.08890000000001 1994.67 0.0 0.0 1.0
-80.88886666666666 82.04443333333334 1994.67 0.0 0.0 1.0
-82.3111 89.33336666666666 1994.67 0.0 0.0 1.0
-81.95556666666666 94.31110000000001 1994.67 0.0 0.0 1.0
-81.77776666666666 94.66666666666667 1994.67 0.0 0.0 1.0
-81.77776666666666 105.15566666666668 1994.67 0.0 0.0 1.0
-81.24443333333333 106.04466666666667 1994.67 0.0 0.0 1.0
-82.3111 141.7776666666667 1994.67 0.0 0.0 1.0
-83.02223333333335 -146.9333333333333 1994.67 0.0 0.0 1.0
-81.77776666666666 -139.64433333333332 1994.67 0.0 0.0 1.0
-80.74693333333333 -108.08600000000001 1676.1899999999998 1.8077632550164082e-27 -2.950037060837171e-27 1.0
-81.8079 -103.57833333333333 1690.4000000000003 0.0 0.0 1.0
-81.4222 -97.86666666666667 1994.67 0.0 0.0 1.0
-82.84443333333333 -90.22223333333334 1994.67 0.0 0.0 1.0
-81.24443333333333 -85.59999999999998 1994.67 0.0 0.0 1.0
-82.84443333333333 -69.42223333333334 1994.67 0.0 0.0 1.0
-82.13333333333334 -63.02223333333333 1994.67 0.0 0.0 1.0
-81.95556666666667 -59.1111 1994.67 0.0 0.0 1.0
-80.7111 -42.400000000000006 1994.67 0.0 0.0 1.0
-82.3111 -26.400000000000002 1994.67 0.0 0.0 1.0
-81.95556666666667 -3.8222233333333335 1994.67 0.0 0.0 1.0
-82.13333333333333 4.177779999999999 1994.67 0.0 0.0 1.0
-81.77776666666666 21.066666666666666 1994.67 0.0 0.0 1.0
-81.59996666666667 23.37776666666667 1994.67 0.0 0.0 1.0
-81.59996666666667 23.37776666666667 1994.67 0.0 0.0 1.0
-82.48886666666665 25.866666666666664 1994.67 0.0 0.0 1.0
-83.37776666666667 31.022233333333332 1994.67 0.0 0.0 1.0
-80.88886666666667 61.42223333333333 1994.67 0.0 0.0 1.0
-82.31110000000001 71.2 1994.67 0.0 0.0 1.0
-81.4222 73.86663333333333 1994.67 0.0 0.0 1.0
-82.3111 89.33336666666666 1994.67 0.0 0.0 1.0
-82.3111 94.84446666666668 1994.67 0.0 0.0 1.0
-81.95556666666667 98.04443333333332 1994.67 0.0 0.0 1.0
-81.95556666666667 98.57776666666666 1994.67 0.0 0.0 1.0
-81.24443333333333 106.04466666666667 1994.67 0.0 0.0 1.0
-81.95553333333334 115.64466666666665 1994.67 0.0 0.0 1.0
-81.59996666666667 121.33333333333333 1994.67 0.0 0.0 1.0
-81.59996666666667 121.33333333333333 1994.67 0.0 0.0 1.0
-81.59996666666667 138.22233333333335 1994.67 0.0 0.0 1.0
-82.48886666666668 140.35566666666668 1994.67 0.0 0.0 1.0
-81.95553333333334 141.0666666666667 1994.67 0.0 0.0 1.0
-82.84446666666668 -145.86666666666667 1994.67 0.0 0.0 1.0
-83.3778 -142.311 1994.67 0.0 0.0 1.0
-83.55556666666666 -128.62233333333333 1994.67 0.0 0.0 1.0
-81.8079 -103.57833333333333 1690.4000000000003 0.0 0.0 1.0
-83.91113333333334 -119.02233333333334 1994.67 0.0 0.0 1.0
-83.55556666666666 -115.64466666666668 1994.67 0.0 0.0 1.0
-81.8109 -95.01916666666666 1693.5866666666668 -0.7068598415660926 -0.7068598415660933 0.026425910813361025
-80.60433333333333 -95.86399999999999 1695.18 0.0 0.0 1.0
-84.5219 -82.71526666666666 1691.993333333333 -0.8062043343915416 0.06201888441291694 0.5883776246463392
-82.4889 -80.2667 1994.67 0.0 0.0 1.0
-82.66666666666667 -68.0 1994.67 0.0 0.0 1.0
-83.37776666666667 -64.44446666666666 1994.67 0.0 0.0 1.0
-82.13333333333334 -63.02223333333333 1994.67 0.0 0.0 1.0
-82.84443333333333 -58.75553333333334 1994.67 0.0 0.0 1.0
-82.84446666666668 -44.8889 1994.67 0.0 0.0 1.0
-81.60000000000001 -19.822233333333333 1994.67 0.0 0.0 1.0
-82.31113333333333 -14.133366666666667 1994.67 0.0 0.0 1.0
-82.31113333333333 -14.133366666666667 1994.67 0.0 0.0 1.0
-83.02223333333335 0.26666666666666666 1994.67 0.0 0.0 1.0
-82.13333333333334 11.644433333333334 1994.67 0.0 0.0 1.0
-83.3778 17.866666666666667 1994.67 0.0 0.0 1.0
-82.13336666666667 18.2222 1994.67 0.0 0.0 1.0
-81.95556666666667 35.1111 1994.67 0.0 0.0 1.0
-82.84446666666668 35.82223333333334 1994.67 0.0 0.0 1.0
-82.13333333333334 37.42223333333333 1994.67 0.0 0.0 1.0
-81.42223333333334 51.111133333333335 1994.67 0.0 0.0 1.0
-83.2 68.88889999999999 1994.67 0.0 0.0 1.0
-82.4889 80.08890000000001 1994.67 0.0 0.0 1.0
-82.66666666666667 84.0 1994.67 0.0 0.0 1.0
-82.4889 94.31110000000001 1994.67 0.0 0.0 1.0
-82.31110000000001 98.2222 1994.67 0.0 0.0 1.0
-83.3778 108.711 1994.67 0.0 0.0 1.0
-82.13336666666667 109.95566666666667 1994.67 0.0 0.0 1.0
-83.02223333333335 133.6 1994.67 0.0 0.0 1.0
-82.31113333333333 146.9333333333333 1994.67 0.0 0.0 1.0
-83.3778 -142.311 1994.67 0.0 0.0 1.0
-82.31110000000001 -138.75566666666666 1994.67 0.0 0.0 1.0
-83.91113333333334 -132.0 1994.67 0.0 0.0 1.0
-83.3778 -129.33333333333334 1994.67 0.0 0.0 1.0
-83.02223333333333 -106.57766666666667 1994.67 0.0 0.0 1.0
-83.0222 -91.46666666666665 1994.67 0.0 0.0 1.0
-83.2 -89.5111 1994.67 0.0 0.0 1.0
-83.2 -66.75556666666667 1994.67 0.0 0.0 1.0
-84.413 -45.290600000000005 1708.0866666666668 -0.5398399991175166 -0.8097304766375985 0.23002028292532647
-84.08890000000001 -36.711099999999995 1994.67 0.0 0.0 1.0
-82.31113333333333 -15.911133333333334 1994.67 0.0 0.0 1.0
-83.91109999999999 -10.755533333333332 1994.67 0.0 0.0 1.0
-83.02223333333333 -7.91111 1994.67 0.0 0.0 1.0
-83.02223333333335 0.26666666666666666 1994.67 0.0 0.0 1.0
-83.02223333333335 0.26666666666666666 1994.67 0.0 0.0 1.0
-84.26666666666667 7.022223333333333 1994.67 0.0 0.0 1.0
-82.13333333333334 11.644433333333334 1994.67 0.0 0.0 1.0
-82.3055 12.987499999999999 1724.5 0.0 0.0 1.0
-82.84446666666668 36.8889 1994.67 0.0 0.0 1.0
-83.91109999999999 56.08886666666666 1994.67 0.0 0.0 1.0
-83.2 68.88889999999999 1994.67 0.0 0.0 1.0
-83.2 80.9778 1994.67 0.0 0.0 1.0
-83.37776666666667 89.33336666666666 1994.67 0.0 0.0 1.0
-83.3778 94.4889 1994.67 0.0 0.0 1.0
-83.91109999999999 101.42200000000001 1994.67 0.0 0.0 1.0
-83.3778 108.711 1994.67 0.0 0.0 1.0
-83.37776666666667 116.35566666666666 1994.67 0.0 0.0 1.0
-83.37776666666667 116.35566666666666 1994.67 0.0 0.0 1.0
-83.73333333333333 130.93366666666668 1994.67 0.0 0.0 1.0
-83.55556666666666 134.66666666666666 1994.67 0.0 0.0 1.0
-82.48886666666668 140.35566666666668 1994.67 0.0 0.0 1.0
-83.2 141.6 1994.67 0.0 0.0 1.0
-82.31113333333333 146.9333333333333 1994.67 0.0 0.0 1.0
-83.15069999999999 -106.54133333333334 1682.4766666666667 0.6742250908625682 0.6745252467182709 0.3007261518242426
-83.55556666666666 -114.22233333333334 1994.67 0.0 0.0 1.0
-84.08886666666668 -99.64456666666666 1994.67 0.0 0.0 1.0
-83.73333333333333 -96.44446666666666 1994.67 0.0 0.0 1.0
-84.26666666666667 -92.53333333333335 1994.67 0.0 0.0 1.0
-84.08890000000001 -75.46666666666667 1994.67 0.0 0.0 1.0
-84.26666666666667 -74.39999999999999 1994.67 0.0 0.0 1.0
-84.08886666666666 -73.6889 1994.67 0.0 0.0 1.0
-83.7333 -70.4889 1994.67 0.0 0.0 1.0
-83.55553333333334 -65.6889 1994.67 0.0 0.0 1.0
-83.7333 -64.9778 1994.67 0.0 0.0 1.0
-83.37776666666667 -64.44446666666666 1994.67 0.0 0.0 1.0
-82.84443333333333 -58.75553333333334 1994.67 0.0 0.0 1.0
-83.73333333333333 -32.44443333333333 1994.67 0.0 0.0 1.0
-83.37776666666667 -26.577766666666662 1994.67 0.0 0.0 1.0
-85.4701 -23.32383333333333 1704.84 0.0 0.0 1.0
-83.91109999999999 -10.755533333333332 1994.67 0.0 0.0 1.0
-83.37776666666667 26.04443333333333 1994.67 0.0 0.0 1.0
-84.6222 28.5333 1994.67 0.0 0.0 1.0
-83.37776666666667 31.022233333333332 1994.67 0.0 0.0 1.0
-84.6222 46.13333333333333 1994.67 0.0 0.0 1.0
-83.91109999999999 56.08886666666666 1994.67 0.0 0.0 1.0
-82.46379999999999 49.927533333333336 1626.09 0.0 0.0 1.0
-83.55553333333334 69.06666666666666 1994.67 0.0 0.0 1.0
-83.37776666666667 69.24446666666667 1994.67 0.0 0.0 1.0
-83.37776666666666 74.39996666666666 1994.67 0.0 0.0 1.0
-83.91109999999999 81.6889 1994.67 0.0 0.0 1.0
-83.91109999999999 84.35556666666666 1994.67 0.0 0.0 1.0
-82.84443333333333 97.68886666666667 1994.67 0.0 0.0 1.0
-83.91109999999999 101.42200000000001 1994.67 0.0 0.0 1.0
-83.37776666666667 116.35566666666666 1994.67 0.0 0.0 1.0
-83.73333333333333 130.22233333333335 1994.67 0.0 0.0 1.0
-84.44446666666666 -147.111 1994.67 0.0 0.0 1.0
-84.80003333333333 -146.57766666666666 1994.67 0.0 0.0 1.0
-84.08890000000001 -141.95566666666667 1994.67 0.0 0.0 1.0
-84.8 -133.0666666666667 1994.67 0.0 0.0 1.0
-84.08890000000001 -129.68866666666668 1994.67 0.0 0.0 1.0
-84.62223333333333 -122.04466666666667 1994.67 0.0 0.0 1.0
-83.20003333333334 -117.24466666666666 1994.67 0.0 0.0 1.0
-84.62223333333333 -114.04433333333333 1994.67 0.0 0.0 1.0
-84.9778 -108.00033333333333 1994.67 0.0 0.0 1.0
-84.08890000000001 -106.75566666666667 1994.67 0.0 0.0 1.0
-84.9778 -103.55566666666668 1994.67 0.0 0.0 1.0
-84.44446666666666 -89.33333333333333 1994.67 0.0 0.0 1.0
-84.08890000000001 -80.44446666666666 1994.67 0.0 0.0 1.0
-84.08890000000001 -75.46666666666667 1994.67 0.0 0.0 1.0
-84.08890000000001 -74.93333333333334 1994.67 0.0 0.0 1.0
-84.08890000000001 -56.800000000000004 1994.67 0.0 0.0 1.0
-84.08890000000001 -56.800000000000004 1994.67 0.0 0.0 1.0
-85.15556666666667 -41.333333333333336 1994.67 0.0 0.0 1.0
-84.08890000000001 -36.711099999999995 1994.67 0.0 0.0 1.0
-83.37776666666667 -26.577766666666662 1994.67 0.0 0.0 1.0
-84.9778 -21.422233333333338 1994.67 0.0 0.0 1.0
-84.26666666666667 -7.733333333333333 1994.67 0.0 0.0 1.0
-84.08890000000001 -3.8222233333333335 1994.67 0.0 0.0 1.0
-84.26666666666667 7.022223333333333 1994.67 0.0 0.0 1.0
-85.15556666666667 14.666666666666666 1994.67 0.0 0.0 1.0
-82.3055 12.987499999999999 1724.5 0.0 0.0 1.0
-84.8 19.822233333333333 1994.67 0.0 0.0 1.0
-83.91109999999999 22.4889 1994.67 0.0 0.0 1.0
-83.37776666666667 26.04443333333333 1994.67 0.0 0.0 1.0
-84.62223333333333 31.022233333333332 1994.67 0.0 0.0 1.0
-84.97776666666665 41.5111 1994.67 0.0 0.0 1.0
-83.73333333333333 68.53333333333333 1994.67 0.0 0.0 1.0
-84.62223333333333 93.95556666666666 1994.67 0.0 0.0 1.0
-83.91113333333334 94.31113333333333 1994.67 0.0 0.0 1.0
-84.26666666666667 109.24433333333333 1994.67 0.0 0.0 1.0
-83.73333333333333 121.68900000000001 1994.67 0.0 0.0 1.0
-84.08890000000001 130.22233333333335 1994.67 0.0 0.0 1.0
-83.73333333333333 130.93366666666668 1994.67 0.0 0.0 1.0
-84.08890000000001 141.60000000000002 1994.67 0.0 0.0 1.0
-84.44446666666666 -147.111 1994.67 0.0 0.0 1.0
-84.8 -141.067 1994.67 0.0 0.0 1.0
-84.62223333333333 -129.33333333333334 1994.67 0.0 0.0 1.0
-84.8 -128.26666666666668 1994.67 0.0 0.0 1.0
-84.97776666666665 -127.378 1994.67 0.0 0.0 1.0
-84.9778 -122.22233333333334 1994.67 0.0 0.0 1.0
-84.9778 -121.33333333333333 1994.67 0.0 0.0 1.0
-84.9778 -107.11133333333333 1994.67 0.0 0.0 1.0
-84.62223333333333 -87.3778 1994.67 0.0 0.0 1.0
-84.26666666666667 -76.1778 1994.67 0.0 0.0 1.0
-84.26666666666667 -74.4 1994.67 0.0 0.0 1.0
-83.2 -62.31113333333334 1994.67 0.0 0.0 1.0
-84.413 -45.290600000000005 1708.0866666666668 -0.5398399991175166 -0.8097304766375985 0.23002028292532647
-84.62223333333333 -46.666666666666664 1994.67 0.0 0.0 1.0
-85.15556666666667 -43.64443333333333 1994.67 0.0 0.0 1.0
-85.33333333333333 -41.86666666666667 1994.67 0.0 0.0 1.0
-84.08890000000001 -36.711099999999995 1994.67 0.0 0.0 1.0
-84.9778 -21.422233333333338 1994.67 0.0 0.0 1.0
-84.97776666666665 -10.755556666666665 1994.67 0.0 0.0 1.0
-84.44443333333334 -10.39999 1994.67 0.0 0.0 1.0
-83.91113333333334 18.755566666666667 1994.67 0.0 0.0 1.0
-84.6222 28.5333 1994.67 0.0 0.0 1.0
-84.6222 46.13333333333333 1994.67 0.0 0.0 1.0
-85.15553333333332 48.97776666666667 1994.67 0.0 0.0 1.0
-84.6222 56.08886666666666 1994.67 0.0 0.0 1.0
-85.68889999999999 61.4222 1994.67 0.0 0.0 1.0
-85.5111 73.15553333333332 1994.67 0.0 0.0 1.0
-86.0992 61.19833333333333 1629.043333333333 0.07493288207615928 -0.9740587212266985 0.21352908651040728
-84.6222 82.57780000000001 1994.67 0.0 0.0 1.0
-85.86666666666667 89.8667 1994.67 0.0 0.0 1.0
-83.91109999999999 101.42199999999998 1994.67 0.0 0.0 1.0
-84.8 107.467 1994.67 0.0 0.0 1.0
-84.6222 115.64433333333334 1994.67 0.0 0.0 1.0
-85.33333333333333 123.46666666666665 1994.67 0.0 0.0 1.0
-85.15556666666667 124.178 1994.67 0.0 0.0 1.0
-84.62223333333333 134.66666666666666 1994.67 0.0 0.0 1.0
-84.08890000000001 141.60000000000002 1994.67 0.0 0.0 1.0
-84.08890000000001 142.311 1994.67 0.0 0.0 1.0
-85.5111 -139.82233333333332 1994.67 0.0 0.0 1.0
-85.15553333333332 -126.66666666666667 1994.67 0.0 0.0 1.0
-85.15553333333332 -126.66666666666667 1994.67 0.0 0.0 1.0
-85.68889999999999 -80.08890000000001 1994.67 0.0 0.0 1.0
-85.15553333333332 -72.44446666666666 1994.67 0.0 0.0 1.0
-85.68886666666667 -71.3778 1994.67 0.0 0.0 1.0
-81.98663333333333 -52.95126666666666 1714.61 0.0 0.0 1.0
-85.33333333333333 -41.86666666666667 1994.67 0.0 0.0 1.0
-84.97776666666665 -10.755556666666665 1994.67 0.0 0.0 1.0
-85.68889999999999 -7.555556666666667 1994.67 0.0 0.0 1.0
-85.5111 3.8222233333333335 1994.67 0.0 0.0 1.0
-84.26666666666667 7.022223333333333 1994.67 0.0 0.0 1.0
-85.15556666666667 14.666666666666666 1994.67 0.0 0.0 1.0
-84.62223333333333 21.422233333333335 1994.67 0.0 0.0 1.0
-85.5111 28.177766666666667 1994.67 0.0 0.0 1.0
-85.86663333333333 33.155566666666665 1994.67 0.0 0.0 1.0
-85.68886666666667 34.222233333333335 1994.67 0.0 0.0 1.0
-84.97776666666665 41.5111 1994.67 0.0 0.0 1.0
-85.15556666666667 42.04443333333333 1994.67 0.0 0.0 1.0
-84.6222 46.13333333333333 1994.67 0.0 0.0 1.0
-84.26666666666667 50.57776666666667 1994.67 0.0 0.0 1.0
-84.6222 56.08886666666666 1994.67 0.0 0.0 1.0
-86.04443333333332 59.64443333333333 1994.67 0.0 0.0 1.0
-84.97776666666665 69.6 1994.67 0.0 0.0 1.0
-85.5111 73.15553333333332 1994.67 0.0 0.0 1.0
-85.33333333333333 83.2889 1994.67 0.0 0.0 1.0
-84.97776666666665 93.24443333333333 1994.67 0.0 0.0 1.0
-84.97776666666665 93.24443333333333 1994.67 0.0 0.0 1.0
-85.65216666666667 80.50723333333333 1626.09 0.0 0.0 1.0
-85.33333333333333 106.04466666666667 1994.67 0.0 0.0 1.0
-85.33333333333333 110.13333333333333 1994.67 0.0 0.0 1.0
-84.6222 115.64433333333334 1994.67 0.0 0.0 1.0
-85.15556666666667 127.2 1994.67 0.0 0.0 1.0
-79.27533333333334 118.188 1626.09 0.0 0.0 1.0
-85.33336666666666 -146.22233333333335 1994.67 0.0 0.0 1.0
-85.33336666666666 -146.22233333333335 1994.67 0.0 0.0 1.0
-85.33333333333333 -127.2 1994.67 0.0 0.0 1.0
-85.8562 -106.943 1684.0533333333333 0.5092776300250771 -0.848877665046608 0.1415733214311914
-85.86666666666667 -121.33333333333333 1994.67 0.0 0.0 1.0
-84.62223333333333 -114.04433333333334 1994.67 0.0 0.0 1.0
-85.6889 -107.289 1994.67 0.0 0.0 1.0
-85.5111 -96.62223333333333 1994.67 0.0 0.0 1.0
-86.75556666666667 -94.13333333333333 1994.67 0.0 0.0 1.0
-86.40000000000002 -89.15556666666667 1994.67 0.0 0.0 1.0
-85.68889999999999 -87.3778 1994.67 0.0 0.0 1.0
-84.80003333333333 -75.2889 1994.67 0.0 0.0 1.0
-85.86666666666667 -44.711099999999995 1994.67 0.0 0.0 1.0
-85.33333333333333 -41.86666666666667 1994.67 0.0 0.0 1.0
-86.22223333333334 -33.15553333333333 1994.67 0.0 0.0 1.0
-84.62223333333333 -26.044433333333334 1994.67 0.0 0.0 1.0
-84.9778 -21.422233333333338 1994.67 0.0 0.0 1.0
-85.68889999999999 -7.555556666666667 1994.67 0.0 0.0 1.0
-85.68889999999999 -7.555556666666667 1994.67 0.0 0.0 1.0
-85.8667 -3.466666666666667 1994.67 0.0 0.0 1.0
-85.86666666666667 1.5111109999999999 1994.67 0.0 0.0 1.0
-85.15556666666667 14.666666666666666 1994.67 0.0 0.0 1.0
-85.68889999999999 31.377799999999997 1994.67 0.0 0.0 1.0
-85.5111 41.86666666666667 1994.67 0.0 0.0 1.0
-86.04446666666666 53.77776666666667 1994.67 0.0 0.0 1.0
-86.04446666666666 53.77776666666667 1994.67 0.0 0.0 1.0
-85.86666666666667 61.599999999999994 1994.67 0.0 0.0 1.0
-85.86666666666667 69.06666666666666 1994.67 0.0 0.0 1.0
-85.5108 59.40373333333333 1627.5666666666666 -0.8430549678163849 0.5364943324863383 0.03784379011346882
-85.33333333333333 83.2889 1994.67 0.0 0.0 1.0
-85.86666666666667 89.8667 1994.67 0.0 0.0 1.0
-85.5111 97.15553333333332 1994.67 0.0 0.0 1.0
-86.22223333333334 105.68900000000001 1994.67 0.0 0.0 1.0
-85.6889 124.53333333333335 1994.67 0.0 0.0 1.0
-84.9778 133.2446666666667 1994.67 0.0 0.0 1.0
-86.57776666666666 -139.111 1994.67 0.0 0.0 1.0
-87.28890000000001 -131.111 1994.67 0.0 0.0 1.0
-86.57780000000001 -120.79966666666667 1994.67 0.0 0.0 1.0
-85.6889 -107.289 1994.67 0.0 0.0 1.0
-87.46666666666665 -101.42233333333333 1994.67 0.0 0.0 1.0
-84.5219 -82.71526666666666 1691.9933333333336 -0.8062043343915416 0.06201888441291692 0.5883776246463392
-86.39999999999999 -89.15556666666667 1994.67 0.0 0.0 1.0
-86.57776666666666 -70.84446666666668 1994.67 0.0 0.0 1.0
-86.57776666666666 -68.53333333333333 1994.67 0.0 0.0 1.0
-86.57776666666666 -68.53333333333333 1994.67 0.0 0.0 1.0
-86.04443333333332 -46.666666666666664 1994.67 0.0 0.0 1.0
-86.57780000000001 -34.2222 1994.67 0.0 0.0 1.0
-85.33333333333333 -32.6222 1994.67 0.0 0.0 1.0
-86.39999999999999 -0.088889 1994.67 0.0 0.0 1.0
-86.2222 28.177766666666667 1994.67 0.0 0.0 1.0
-86.57776666666666 35.288900000000005 1994.67 0.0 0.0 1.0
-86.04446666666666 53.77776666666667 1994.67 0.0 0.0 1.0
-86.75556666666667 60.0 1994.67 0.0 0.0 1.0
-86.57776666666666 60.35556666666667 1994.67 0.0 0.0 1.0
-87.28890000000001 66.22223333333334 1994.67 0.0 0.0 1.0
-85.86666666666667 69.06666666666666 1994.67 0.0 0.0 1.0
-86.57776666666666 73.15553333333332 1994.67 0.0 0.0 1.0
-85.86666666666667 84.53333333333335 1994.67 0.0 0.0 1.0
-86.39999999999999 111.37766666666666 1994.67 0.0 0.0 1.0
-86.75556666666667 122.40000000000002 1994.67 0.0 0.0 1.0
-86.57776666666666 122.93333333333334 1994.67 0.0 0.0 1.0
-86.40000000000002 124.35566666666666 1994.67 0.0 0.0 1.0
-85.36233333333332 102.97066666666667 1626.09 0.0 0.0 1.0
-85.36233333333332 102.97066666666667 1626.09 0.0 0.0 1.0
-86.39999999999999 137.689 1994.67 0.0 0.0 1.0
-87.64443333333334 -136.26666666666668 1994.67 0.0 0.0 1.0
-87.64443333333334 -133.95533333333333 1994.67 0.0 0.0 1.0
-86.75556666666667 -121.51100000000001 1994.67 0.0 0.0 1.0
-84.5219 -82.71526666666666 1691.9933333333336 -0.8062043343915416 0.06201888441291688 0.5883776246463392
-86.93333333333334 -96.8 1994.67 0.0 0.0 1.0
-86.75556666666667 -94.13333333333333 1994.67 0.0 0.0 1.0
-86.39999999999999 -89.15556666666667 1994.67 0.0 0.0 1.0
-86.57776666666666 -68.53333333333333 1994.67 0.0 0.0 1.0
-86.40000000000002 -45.77776666666667 1994.67 0.0 0.0 1.0
-85.68886666666667 -10.933333333333332 1994.67 0.0 0.0 1.0
-87.11110000000001 -0.799999 1994.67 0.0 0.0 1.0
-87.46666666666665 12.000033333333334 1994.67 0.0 0.0 1.0
-87.28886666666666 28.177766666666667 1994.67 0.0 0.0 1.0
-86.57776666666666 32.622233333333334 1994.67 0.0 0.0 1.0
-86.39999999999999 61.06666666666666 1994.67 0.0 0.0 1.0
-85.86663333333333 77.77776666666666 1994.67 0.0 0.0 1.0
-85.68886666666667 82.22223333333334 1994.67 0.0 0.0 1.0
-86.93333333333334 89.51113333333332 1994.67 0.0 0.0 1.0
-86.75556666666667 96.44443333333334 1994.67 0.0 0.0 1.0
-85.65216666666667 81.3768 1626.09 0.0 0.0 1.0
-86.57776666666666 123.64433333333334 1994.67 0.0 0.0 1.0
-85.36233333333332 102.97066666666667 1626.09 0.0 0.0 1.0
-86.39999999999999 143.73333333333332 1994.67 0.0 0.0 1.0
-88.0 -144.44433333333333 1994.67 0.0 0.0 1.0
-88.0 -139.46633333333332 1994.67 0.0 0.0 1.0
-87.64443333333334 -136.26666666666668 1994.67 0.0 0.0 1.0
-86.93333333333334 -132.35533333333333 1994.67 0.0 0.0 1.0
-87.64443333333334 -121.33333333333333 1994.67 0.0 0.0 1.0
-88.0 -110.13333333333333 1994.67 0.0 0.0 1.0
-86.75556666666667 -94.13333333333333 1994.67 0.0 0.0 1.0
-87.11113333333333 -85.95556666666666 1994.67 0.0 0.0 1.0
-88.17776666666667 -79.3778 1994.67 0.0 0.0 1.0
-88.17776666666667 -56.26666666666667 1994.67 0.0 0.0 1.0
-84.41300000000001 -45.290600000000005 1708.0866666666668 -0.5398399991175162 -0.8097304766375987 0.2300202829253263
-86.57780000000001 -34.2222 1994.67 0.0 0.0 1.0
-86.68566666666668 -24.691333333333333 1704.84 0.0 0.0 1.0
-88.1778 -12.888866666666667 1994.67 0.0 0.0 1.0
-88.1778 -12.888866666666667 1994.67 0.0 0.0 1.0
-87.64446666666667 -4.000003333333334 1994.67 0.0 0.0 1.0
-87.82223333333333 -2.044443333333333 1994.67 0.0 0.0 1.0
-87.64446666666667 12.888900000000001 1994.67 0.0 0.0 1.0
-87.82223333333333 13.955566666666668 1994.67 0.0 0.0 1.0
-88.1778 19.822233333333333 1994.67 0.0 0.0 1.0
-86.57776666666666 32.622233333333334 1994.67 0.0 0.0 1.0
-86.94556666666666 45.071666666666665 1623.1599999999999 0.11552950886790134 -0.770161298153727 0.6272993762207225
-86.75556666666667 60.0 1994.67 0.0 0.0 1.0
-87.97103333333332 55.72463333333334 1626.09 0.0 0.0 1.0
-87.64443333333334 95.91109999999999 1994.67 0.0 0.0 1.0
-86.22223333333334 105.68900000000001 1994.67 0.0 0.0 1.0
-87.46666666666665 112.26666666666667 1994.67 0.0 0.0 1.0
-87.28890000000001 122.40000000000002 1994.67 0.0 0.0 1.0
-86.57780000000001 124.889 1994.67 0.0 0.0 1.0
-86.75556666666667 129.33333333333334 1994.67 0.0 0.0 1.0
-87.64443333333334 144.79999999999998 1994.67 0.0 0.0 1.0
-88.0 -144.44433333333333 1994.67 0.0 0.0 1.0
-87.64443333333334 -138.933 1994.67 0.0 0.0 1.0
-87.82223333333333 -129.86666666666667 1994.67 0.0 0.0 1.0
-88.0 -117.60000000000001 1994.67 0.0 0.0 1.0
-88.0 -110.13333333333333 1994.67 0.0 0.0 1.0
-88.17776666666667 -105.15533333333333 1994.67 0.0 0.0 1.0
-88.17776666666667 -105.15533333333333 1994.67 0.0 0.0 1.0
-88.0 -103.55566666666668 1994.67 0.0 0.0 1.0
-88.0 -103.55566666666668 1994.67 0.0 0.0 1.0
-88.35556666666666 -99.82213333333334 1994.67 0.0 0.0 1.0
-88.35556666666666 -99.82213333333334 1994.67 0.0 0.0 1.0
-87.8222 -97.5111 1994.67 0.0 0.0 1.0
-88.17776666666667 -87.55556666666666 1994.67 0.0 0.0 1.0
-88.0 -70.31113333333333 1994.67 0.0 0.0 1.0
-89.06666666666666 -60.53333333333333 1994.67 0.0 0.0 1.0
-88.71109999999999 -49.155566666666665 1994.67 0.0 0.0 1.0
-86.68566666666668 -24.691333333333333 1704.84 0.0 0.0 1.0
-86.68566666666668 -24.691333333333333 1704.84 0.0 0.0 1.0
-87.2889 -20.711100000000002 1994.67 0.0 0.0 1.0
-87.2889 -20.7111 1994.67 0.0 0.0 1.0
-88.0 -1.3333333333333333 1994.67 0.0 0.0 1.0
-88.35556666666666 7.3777800000000004 1994.67 0.0 0.0 1.0
-88.35556666666666 7.3777800000000004 1994.67 0.0 0.0 1.0
-87.46666666666665 12.000033333333334 1994.67 0.0 0.0 1.0
-88.1778 19.822233333333333 1994.67 0.0 0.0 1.0
-88.35556666666666 36.53333333333333 1994.67 0.0 0.0 1.0
-88.35556666666666 36.8889 1994.67 0.0 0.0 1.0
-87.82223333333333 72.97776666666665 1994.67 0.0 0.0 1.0
-87.04403333333335 64.47443333333332 1612.9399999999998 -9.781737413003644e-26 -3.1104260151186987e-26 1.0
-86.93333333333334 89.51113333333332 1994.67 0.0 0.0 1.0
-87.24636666666667 73.98553333333332 1626.09 0.0 0.0 1.0
-87.82606666666668 84.5652 1626.09 0.0 0.0 1.0
-86.9565 97.89856666666667 1626.09 0.0 0.0 1.0
-86.9565 97.89856666666667 1626.09 0.0 0.0 1.0
-87.46666666666665 122.75566666666667 1994.67 0.0 0.0 1.0
-86.39999999999999 139.82233333333332 1994.67 0.0 0.0 1.0
-87.46666666666665 -146.22233333333335 1994.67 0.0 0.0 1.0
-88.35553333333333 -143.911 1994.67 0.0 0.0 1.0
-89.06663333333334 -143.20000000000002 1994.67 0.0 0.0 1.0
-88.0 -139.46633333333332 1994.67 0.0 0.0 1.0
-88.35556666666666 -135.73333333333332 1994.67 0.0 0.0 1.0
-88.7111 -120.97766666666666 1994.67 0.0 0.0 1.0
