ply
format ascii 1.0
comment VCGLIB generated
element vertex 591
property float x
property float y
property float z
property float nx
property float ny
property float nz
element face 0
property list uchar int vertex_indices
end_header
-34.31886666666666 -267.3623333333333 2601.74 0.0 0.0 1.0
-36.17393333333333 -116.63799999999999 2601.74 0.0 0.0 1.0
-36.17393333333333 -48.4638 2601.74 0.0 0.0 1.0
-36.405833333333334 -26.666666666666668 2601.74 0.0 0.0 1.0
-55.22273333333333 36.37803333333333 1463.0866666666668 -0.8258816443842456 -0.5503492204803188 -0.12261828976902212
-54.864066666666666 76.63036666666666 1540.9466666666667 -0.6965092816526502 -0.07738574973782321 0.7133626471222221
-55.9495 91.88923333333332 1507.3100000000002 -0.815939177147968 -0.363997553288992 0.44916482542016173
-55.21196666666666 100.87653333333333 1511.1166666666668 -0.6702573996663882 0.335259022409903 0.6620848934126256
-53.7352 129.69033333333334 1416.8933333333334 -0.4104449259717266 0.8212147423861637 0.3964105316861428
-35.710166666666666 314.4346666666667 2601.74 0.0 0.0 1.0
-88.76119999999999 -261.98266666666666 1922.1899999999998 -0.5122433687360589 -0.8313890029869457 0.21540440315440704
-34.55073333333333 -286.377 2601.74 0.0 0.0 1.0
-36.4058 -135.65200000000002 2601.74 0.0 0.0 1.0
-37.10143333333334 -76.52173333333333 2601.74 0.0 0.0 1.0
-50.624500000000005 8.756403333333333 1584.47 -0.39387882409043357 0.9190319787512967 0.015482053016749838
-58.57253333333333 12.4039 1405.8066666666666 -0.36042289352484275 0.9292195818093515 0.08152488335001776
-56.54623333333333 45.55666666666667 1377.7433333333336 -0.9347264078406986 -0.31156138358993823 0.17092702168103174
-56.54623333333333 45.55666666666667 1377.743333333333 -0.9347264078406986 -0.31156138358993823 0.17092702168103174
-52.5249 64.10643333333333 1556.9833333333333 -0.8634276025432641 0.370036172105147 0.34287899687814133
-35.942 222.14499999999998 2601.74 0.0 0.0 1.0
-54.90006666666667 130.57566666666665 1429.3 -0.23633166226013666 -0.30386257271067585 0.9229381790342243
-57.8588 132.60233333333335 1403.596666666667 0.8307114158463352 -2.2793682217165015e-16 0.5567032814548315
-57.61533333333333 139.77800000000002 1427.0266666666666 0.7005431065851534 -0.700502341784075 0.1361463366053209
-32.463766666666665 349.4493333333333 2601.74 0.0 0.0 1.0
-40.347833333333334 -350.84066666666666 2601.74 0.0 0.0 1.0
-53.6544 -146.789 1597.17 -0.9464037560033428 -0.24222001293964998 0.21365719261068936
-37.33336666666667 -169.275 2601.74 0.0 0.0 1.0
-36.869566666666664 -65.15943333333333 2601.74 0.0 0.0 1.0
-36.405833333333334 -26.666666666666668 2601.74 0.0 0.0 1.0
-36.405833333333334 -26.666666666666668 2601.74 0.0 0.0 1.0
-33.8551 -13.681166666666664 2601.74 0.0 0.0 1.0
-58.57253333333333 12.4039 1405.8066666666666 -0.3604228935248428 0.9292195818093514 0.08152488335001795
-54.127 18.150333333333336 1444.256666666667 -0.5712240958200636 -0.8160283752129366 0.08832170289280963
-53.333333333333336 94.22223333333334 1534.36 0.0 0.0 1.0
-54.538700000000006 97.0903 1527.83 0.1078521244138836 -0.8627377311333819 0.4940157148697159
-38.2609 305.85533333333336 2601.74 0.0 0.0 1.0
-38.2609 305.85533333333336 2601.74 0.0 0.0 1.0
-37.10146666666666 314.4346666666667 2601.74 0.0 0.0 1.0
-38.95653333333333 -331.82633333333337 2601.74 0.0 0.0 1.0
-34.782599999999995 -322.55100000000004 2601.74 0.0 0.0 1.0
-37.56523333333333 -308.1743333333333 2601.74 0.0 0.0 1.0
-58.53953333333333 -150.66733333333335 1514.9533333333331 0.9531563517251038 0.23827441947403266 0.18632839340906332
-37.10143333333333 -201.50699999999998 2601.74 0.0 0.0 1.0
-38.72463333333334 -142.84033333333332 2601.74 0.0 0.0 1.0
-38.028999999999996 -112.92766666666667 2601.74 0.0 0.0 1.0
-55.26416666666666 35.41136666666667 1460.7 -0.9613819821098221 -0.2136465233650944 0.17349307631314215
-56.86046666666667 43.46586666666667 1373.5466666666669 -0.9572166712302059 -0.2126098117172077 0.1962990379001835
-56.63396666666666 84.61686666666667 1523.9433333333334 -0.3874065625702974 -0.8609093462865757 0.32977454837189496
-55.9495 91.88923333333332 1507.3100000000002 -0.8159391771479682 -0.36399755328899197 0.4491648254201616
-58.6645 157.23666666666665 1408.0033333333333 -0.8824200239865655 -0.4414337074731578 0.16269967170849414
-36.173899999999996 328.116 2601.74 0.0 0.0 1.0
-36.63766666666667 330.203 2601.74 0.0 0.0 1.0
-37.7971 -370.78266666666667 2601.74 0.0 0.0 1.0
-38.72463333333334 -330.435 2601.74 0.0 0.0 1.0
-41.27536666666666 -178.78266666666664 2601.74 0.0 0.0 1.0
-37.333333333333336 -139.594 2601.74 0.0 0.0 1.0
-37.10146666666666 -114.551 2601.74 0.0 0.0 1.0
-38.95653333333333 -112.46366666666667 2601.74 0.0 0.0 1.0
-38.49276666666666 -86.49276666666667 2601.74 0.0 0.0 1.0
-37.10146666666667 -83.0145 2601.74 0.0 0.0 1.0
-52.835633333333334 8.022333333333334 1578.9133333333332 -0.3935788521046937 0.9183320582915955 0.04197520565611645
-57.2883 26.540666666666667 1431.5833333333333 -0.9943252554047569 -0.058584333806805736 0.08879843634139833
-57.02563333333333 93.26496666666667 1534.36 0.0 0.0 1.0
-37.10143333333333 -201.50699999999998 2601.74 0.0 0.0 1.0
-40.11593333333334 -153.50733333333332 2601.74 0.0 0.0 1.0
-37.7971 -131.01466666666667 2601.74 0.0 0.0 1.0
-38.49276666666666 -86.49276666666667 2601.74 0.0 0.0 1.0
-36.869566666666664 -65.15943333333333 2601.74 0.0 0.0 1.0
-63.15483333333333 11.102313333333333 1536.9966666666667 -0.027367401686268417 -0.8210153798422568 0.57024974474998
-57.597100000000005 25.84273333333333 1428.1666666666667 -0.9877180101475255 -0.08990478158749445 0.12778991618245186
-57.2883 26.540666666666667 1431.5833333333333 -0.9943252554047568 -0.05858433380680562 0.08879843634139833
-58.05523333333334 64.87253333333334 1529.13 -0.4334369250910838 -0.6501553876366306 0.6240435913417016
-57.61533333333333 139.778 1427.0266666666666 0.7005431065851534 -0.7005023417840751 0.13614633660532097
-36.869566666666664 312.8113333333333 2601.74 0.0 0.0 1.0
-38.9565 332.98566666666665 2601.74 0.0 0.0 1.0
-40.347833333333334 -350.84066666666666 2601.74 0.0 0.0 1.0
-37.333333333333336 -310.95633333333336 2601.74 0.0 0.0 1.0
-40.8116 -173.44899999999998 2601.74 0.0 0.0 1.0
-37.7971 -131.01466666666667 2601.74 0.0 0.0 1.0
-41.0435 -108.75366666666667 2601.74 0.0 0.0 1.0
-40.8116 -47.30433333333334 2601.74 0.0 0.0 1.0
-41.0435 3.942033333333334 2601.74 0.0 0.0 1.0
-58.14086666666666 26.813033333333333 1425.8933333333334 -0.9796557183479373 -0.15467678294114717 0.12786620478908403
-57.6521 56.2125 1538.3 0.0 0.0 1.0
-43.130433333333336 212.638 2601.74 0.0 0.0 1.0
-40.11593333333334 -368.4636666666667 2601.74 0.0 0.0 1.0
-39.88406666666666 -330.435 2601.74 0.0 0.0 1.0
-41.04346666666667 -144.46366666666665 2601.74 0.0 0.0 1.0
-37.10143333333334 -76.52173333333333 2601.74 0.0 0.0 1.0
-58.3676 67.2056 1526.5366666666669 -0.6044049662046618 0.634624725360018 0.4816078225993255
-44.52173333333334 193.855 2601.74 0.0 0.0 1.0
-57.8588 132.60233333333335 1403.5966666666666 0.8307114158463352 -2.2793682217165015e-16 0.5567032814548315
-57.8588 132.60233333333335 1403.5966666666666 0.830711415846335 4.0967268668531615e-16 0.5567032814548317
-59.796466666666674 139.7986666666667 1399.2233333333334 -0.9235604096349274 0.3078077264206755 0.22867132157465533
-60.24606666666667 155.15433333333337 1393.7966666666669 -0.9412698613159687 1.7259462627043596e-15 0.3376552208662222
-39.4203 304.232 2601.74 0.0 0.0 1.0
-42.43476666666667 337.85533333333336 2601.74 0.0 0.0 1.0
-43.1304 376.116 2601.74 0.0 0.0 1.0
-41.739133333333335 -335.5363333333333 2601.74 0.0 0.0 1.0
-40.347833333333334 -331.82633333333337 2601.74 0.0 0.0 1.0
-42.666666666666664 -291.94233333333335 2601.74 0.0 0.0 1.0
-42.89853333333334 -279.42033333333336 2601.74 0.0 0.0 1.0
-39.6522 -166.95633333333333 2601.74 0.0 0.0 1.0
-41.0435 -164.63766666666666 2601.74 0.0 0.0 1.0
-40.347833333333334 -159.76833333333335 2601.74 0.0 0.0 1.0
-41.971000000000004 -122.66666666666667 2601.74 0.0 0.0 1.0
-39.188433333333336 -113.15933333333334 2601.74 0.0 0.0 1.0
-40.8116 -47.30433333333334 2601.74 0.0 0.0 1.0
-41.0435 3.942033333333334 2601.74 0.0 0.0 1.0
-58.05523333333334 64.87253333333334 1529.13 -0.4334369250910837 -0.6501553876366307 0.6240435913417017
-38.2609 305.85533333333336 2601.74 0.0 0.0 1.0
-42.666666666666664 359.6523333333333 2601.74 0.0 0.0 1.0
-40.11593333333334 -368.4636666666667 2601.74 0.0 0.0 1.0
-40.347833333333334 -331.82633333333337 2601.74 0.0 0.0 1.0
-43.1304 -298.6666666666667 2601.74 0.0 0.0 1.0
-39.4203 -290.551 2601.74 0.0 0.0 1.0
-42.89853333333334 -279.42033333333336 2601.74 0.0 0.0 1.0
-41.739133333333335 -176.46366666666665 2601.74 0.0 0.0 1.0
-41.971000000000004 -122.66666666666667 2601.74 0.0 0.0 1.0
-40.8116 -47.30433333333334 2601.74 0.0 0.0 1.0
-58.95253333333333 28.90363333333333 1422.51 -0.9773346539837594 -0.15431031259638603 0.14493205838892564
-58.26323333333334 53.102666666666664 1543.6000000000001 -0.5108277945997167 0.8513933862747212 0.11909771648546957
-55.583866666666665 96.98216666666667 1530.4399999999998 -0.5406894052629516 -0.8410304714193659 0.017964219451862315
-40.81156666666667 220.058 2601.74 0.0 0.0 1.0
-56.978366666666666 137.74566666666666 1435.0166666666667 0.28677791013430826 0.9558847496812598 0.06358282461320579
-58.089866666666666 139.48999999999998 1429.3 0.7069728521385484 -0.7069317131887615 -0.020903091328537057
-58.6645 157.23666666666665 1408.0033333333333 -0.8824200239865658 -0.44143370747315713 0.16269967170849461
-41.50723333333334 -306.08733333333333 2601.74 0.0 0.0 1.0
-60.015566666666665 -141.39633333333336 1546.2733333333333 -0.943416085905775 -0.3253102086089371 0.06433783512861954
-58.90076666666666 -138.7553333333333 1567.86 0.924418943394136 0.3361778809990315 -0.18009455688906956
-55.590466666666664 -132.108 1639.46 -0.883130499715105 -0.20049626696045622 0.4241247073772882
-43.36233333333333 -35.0145 2601.74 0.0 0.0 1.0
-43.8261 -3.47826 2601.74 0.0 0.0 1.0
-43.8261 -2.3188400000000002 2601.74 0.0 0.0 1.0
-39.88406666666666 30.840566666666664 2601.74 0.0 0.0 1.0
-58.5237 92.48323333333333 1506.04 0.48990631935559015 0.8709505706144093 0.037906487596365446
-54.25816666666666 101.61046666666668 1520.07 -0.2732964281578321 -0.7287792587849937 0.627845406386768
-61.6727 127.42633333333333 1389.4833333333336 0.4126869487149899 0.7564387286567182 0.5074346580088108
-59.393100000000004 130.87199999999999 1427.0266666666666 0.6037769785605759 0.7763040478552138 0.1811225702221337
-58.616899999999994 138.74266666666665 1428.1666666666667 0.5548084261687605 -0.8319128981545756 0.010418259749016294
-59.796466666666674 139.79866666666666 1399.2233333333334 -0.9235604096349275 0.3078077264206753 0.2286713215746557
-59.23466666666667 157.00300000000001 1403.6066666666666 0.8365530853426781 0.5221665001308788 -0.16589479058944148
-42.2029 339.7103333333333 2601.74 0.0 0.0 1.0
-43.82606666666667 -337.855 2601.74 0.0 0.0 1.0
-43.1304 -298.6666666666667 2601.74 0.0 0.0 1.0
-44.5217 -275.01466666666664 2601.74 0.0 0.0 1.0
-57.936033333333334 -132.94933333333333 1597.1633333333332 0.9277937666764159 0.3478616769361704 -0.13487394201825542
-58.149166666666666 -129.38 1612.9399999999998 1.7028561713277325e-26 6.739678095945786e-27 1.0
-41.971000000000004 -122.66666666666667 2601.74 0.0 0.0 1.0
-58.95253333333333 28.90363333333333 1422.51 -0.9773346539837594 -0.15431031259638597 0.14493205838892592
-57.6521 56.212500000000006 1538.3 0.0 0.0 1.0
-55.047333333333334 80.47633333333334 1538.3100000000002 0.4449720482116118 0.788035005117439 0.42544177864887783
-42.666666666666664 209.15966666666668 2601.74 0.0 0.0 1.0
-60.11366666666666 145.55700000000002 1385.1933333333334 -0.4545768141302746 0.03410439963852728 0.8900543859677706
-42.666666666666664 359.6523333333334 2601.74 0.0 0.0 1.0
-45.449233333333325 375.65200000000004 2601.74 0.0 0.0 1.0
-58.4172 -132.463 1592.92 -0.9638056891669293 -0.24098498124892154 0.11403873176214169
-41.739133333333335 -176.46366666666665 2601.74 0.0 0.0 1.0
-40.57973333333333 -135.42033333333333 2601.74 0.0 0.0 1.0
-44.28986666666666 -37.7971 2601.74 0.0 0.0 1.0
-43.36233333333333 -35.0145 2601.74 0.0 0.0 1.0
-57.6521 56.212500000000006 1538.3 0.0 0.0 1.0
-44.52173333333334 193.855 2601.74 0.0 0.0 1.0
-44.52173333333334 341.3333333333333 2601.74 0.0 0.0 1.0
-43.82606666666667 360.58 2601.74 0.0 0.0 1.0
-45.91299999999999 -353.6233333333334 2601.74 0.0 0.0 1.0
-44.057966666666665 -304.464 2601.74 0.0 0.0 1.0
-44.28983333333334 -300.058 2601.74 0.0 0.0 1.0
-44.5217 -275.01466666666664 2601.74 0.0 0.0 1.0
-59.5951 -133.254 1578.92 -0.9646833367147152 -0.2489671857418624 0.08603139129841253
-58.149166666666666 -129.38 1612.9399999999998 1.702856171327732e-26 6.739678095945786e-27 1.0
-46.84056666666667 -185.27566666666667 2601.74 0.0 0.0 1.0
-45.449233333333325 -59.362300000000005 2601.74 0.0 0.0 1.0
-60.32306666666667 49.7344 1533.05 -0.5730071608076599 0.5730071608076595 0.5859399178467786
-60.76726666666667 51.8329 1530.43 0.0 0.0 1.0
-46.6087 213.33366666666666 2601.74 0.0 0.0 1.0
-61.6727 127.42633333333333 1389.4833333333336 0.41268694871498995 0.7564387286567184 0.5074346580088109
-61.557633333333335 137.0716666666667 1398.13 0.0 0.0 1.0
-60.24606666666667 155.15433333333337 1393.7966666666669 -0.9412698613159688 -1.0921149657468249e-15 0.33765522086622163
-60.24606666666667 155.15433333333337 1393.7966666666669 -0.9412698613159688 -1.0921149657468249e-15 0.33765522086622163
-42.43476666666667 337.85533333333336 2601.74 0.0 0.0 1.0
-43.82606666666667 360.58 2601.74 0.0 0.0 1.0
-44.28983333333333 -329.2753333333333 2601.74 0.0 0.0 1.0
-44.753600000000006 -302.377 2601.74 0.0 0.0 1.0
-45.21736666666666 -294.9566666666667 2601.74 0.0 0.0 1.0
-58.53953333333334 -150.66733333333332 1514.9533333333331 0.9531563517251038 0.2382744194740325 0.18632839340906338
-58.90076666666666 -138.7553333333333 1567.86 0.9244189433941356 0.33617788099903195 -0.18009455688907047
-57.936033333333334 -132.94933333333333 1597.1633333333332 0.9277937666764162 0.34786167693617037 -0.13487394201825578
-44.75363333333333 -144.46366666666665 2601.74 0.0 0.0 1.0
-48.231899999999996 -107.59433333333334 2601.74 0.0 0.0 1.0
-42.666666666666664 -47.07243333333333 2601.74 0.0 0.0 1.0
-44.75363333333333 -42.43476666666667 2601.74 0.0 0.0 1.0
-58.26323333333334 53.102666666666664 1543.6000000000001 -0.5108277945997167 0.8513933862747212 0.11909771648546956
-62.132666666666665 98.60629999999999 1507.3 0.0 0.0 1.0
-55.623200000000004 108.875 1402.5033333333333 -0.04165227382887806 0.9988659555085794 0.023062762428139764
-46.6087 213.33366666666666 2601.74 0.0 0.0 1.0
-44.75363333333333 300.9853333333333 2601.74 0.0 0.0 1.0
-48.0 326.9563333333333 2601.74 0.0 0.0 1.0
-45.91299999999999 -353.6233333333333 2601.74 0.0 0.0 1.0
-44.5217 -275.01466666666664 2601.74 0.0 0.0 1.0
-58.56836666666666 -152.89666666666668 1502.4233333333332 -0.8394391791778316 -0.5390065704510129 0.06938142022102028
-45.449233333333325 -60.98546666666667 2601.74 0.0 0.0 1.0
-45.44923333333333 -59.362300000000005 2601.74 0.0 0.0 1.0
-45.44923333333333 -59.362300000000005 2601.74 0.0 0.0 1.0
-60.601166666666664 40.0373 1543.5966666666666 -0.9444596828200378 0.31480717016477394 -0.09429927433613106
-60.32306666666667 49.7344 1533.05 -0.5730071608076603 0.5730071608076592 0.5859399178467786
-64.28233333333333 151.37800000000001 1422.506666666667 0.4126421056638736 0.235826514673016 0.8798365459620681
-44.5217 377.739 2601.74 0.0 0.0 1.0
-50.31886666666666 -378.4346666666667 2601.74 0.0 0.0 1.0
-58.53953333333334 -150.66733333333332 1514.9533333333331 0.9531563517251038 0.23827441947403422 0.18632839340906177
-59.299200000000006 -127.08 1612.9399999999998 -1.2505468945521894e-26 -8.655571582133626e-27 1.0
-49.855066666666666 -94.8406 2601.74 0.0 0.0 1.0
-46.144933333333334 -80.2319 2601.74 0.0 0.0 1.0
-48.92756666666667 -23.420266666666663 2601.74 0.0 0.0 1.0
-48.000033333333334 -4.637683333333333 2601.74 0.0 0.0 1.0
-47.536233333333335 -0.927536 2601.74 0.0 0.0 1.0
-63.30756666666667 29.104799999999997 1547.5866666666668 -0.4390560253325426 -0.43907119658428245 0.7838662455733351
-61.2098 49.70773333333333 1527.8366666666668 0.7521388986214362 -0.5014259324142962 0.42762028890475534
-45.91299999999999 -353.6233333333334 2601.74 0.0 0.0 1.0
-43.82606666666666 -337.855 2601.74 0.0 0.0 1.0
-44.7536 -330.6666666666667 2601.74 0.0 0.0 1.0
-44.52173333333334 -293.3336666666667 2601.74 0.0 0.0 1.0
-60.015566666666665 -141.39633333333333 1546.2733333333333 -0.943416085905775 -0.3253102086089371 0.06433783512861954
-59.263266666666674 -136.742 1571.9933333333336 -0.960715192361709 -0.26681808006709345 0.076383449219805
-58.79836666666667 -133.846 1585.8833333333334 -0.9627109642870116 -0.2543385578762987 0.09219271781966797
-60.108399999999996 -125.54900000000002 1617.3066666666666 0.8221064982868339 0.5692512019794825 -0.00969404556796653
-58.467666666666666 -126.54866666666668 1632.0333333333335 -0.8413476913286111 -0.5353244360664213 0.0745775465283238
-61.388233333333325 -112.32956666666666 1630.54 -0.9164223766845061 3.681860795382218e-18 0.40021247795629905
-70.4546 15.578866666666665 1354.8799999999999 -0.1304010674961049 -0.9704399692937757 0.20308084004398824
-70.4546 15.578866666666665 1354.8799999999999 -0.1304010674961049 -0.9704399692937756 0.20308084004398833
-60.60116666666667 40.037299999999995 1543.5966666666666 -0.9444596828200379 0.31480717016477416 -0.09429927433613128
-62.40133333333333 106.801 1507.3 0.0 0.0 1.0
-64.24980000000001 124.22466666666666 1379.8733333333337 0.023284637589891986 -0.6839249160675905 0.7291807285126553
-48.463766666666665 341.5653333333333 2601.74 0.0 0.0 1.0
-48.69566666666666 348.28999999999996 2601.74 0.0 0.0 1.0
-48.463766666666665 365.681 2601.74 0.0 0.0 1.0
-45.44923333333333 375.652 2601.74 0.0 0.0 1.0
-50.08696666666666 -313.0433333333333 2601.74 0.0 0.0 1.0
-46.84056666666667 -185.27566666666667 2601.74 0.0 0.0 1.0
-46.6087 -181.79733333333334 2601.74 0.0 0.0 1.0
-58.57253333333333 12.4039 1405.8066666666666 -0.3604228935248428 0.9292195818093514 0.08152488335001795
-61.57636666666667 22.158133333333335 1554.2933333333333 -0.9685133718479173 0.22141842834624292 0.11382323198915825
-60.76726666666667 51.832899999999995 1530.43 0.0 0.0 1.0
-58.05523333333333 64.87253333333332 1529.13 -0.4334369250910838 -0.6501553876366306 0.6240435913417016
-63.7312 71.53043333333333 1508.57 0.0 -0.9046028152552229 0.4262554945479588
-57.02563333333333 93.26496666666667 1534.36 0.0 0.0 1.0
-59.92876666666666 96.85283333333332 1501.03 -0.9504475886477923 -0.287908403903656 0.11729506466704469
-62.40133333333333 106.801 1507.3 0.0 0.0 1.0
-48.0 326.9563333333333 2601.74 0.0 0.0 1.0
-48.463766666666665 343.4203333333333 2601.74 0.0 0.0 1.0
-50.08696666666666 -313.0433333333333 2601.74 0.0 0.0 1.0
-44.057966666666665 -284.7536666666667 2601.74 0.0 0.0 1.0
-59.299200000000006 -127.08 1612.9399999999998 -1.2505468945522034e-26 -8.655571582133731e-27 1.0
-49.15943333333333 -141.913 2601.74 0.0 0.0 1.0
-48.92756666666667 -23.420266666666663 2601.74 0.0 0.0 1.0
-48.000033333333334 -4.637683333333333 2601.74 0.0 0.0 1.0
-48.000033333333334 -4.637683333333333 2601.74 0.0 0.0 1.0
-61.58076666666667 35.73883333333333 1542.2699999999998 -3.350115974117477e-26 7.320678761755997e-27 1.0
-60.00146666666666 95.30439999999999 1506.04 0.6333930592225069 -0.2639105005147053 0.727436925270385
-60.538700000000006 134.30866666666668 1427.0266666666666 -0.6990839938907843 9.85418834402125e-18 0.7150395579866261
-64.40933333333334 151.886 1422.506666666667 0.4353697532825476 0.24881545072937253 0.8651844019658658
-51.2464 306.78266666666667 2601.74 0.0 0.0 1.0
-48.69566666666666 348.28999999999996 2601.74 0.0 0.0 1.0
-48.463766666666665 365.68100000000004 2601.74 0.0 0.0 1.0
-49.62316666666667 -350.6086666666667 2601.74 0.0 0.0 1.0
-48.231899999999996 -302.6086666666667 2601.74 0.0 0.0 1.0
-61.35966666666667 -168.02566666666667 1700.006666666667 -0.5102959871132386 -0.6547711278649115 0.5575596610683354
-59.961999999999996 -164.85366666666667 1703.2266666666667 -0.9999306600028297 1.0588518286126521e-16 0.011776042896728062
-59.961999999999996 -164.85366666666667 1703.2266666666667 -0.9999306600028299 -3.792611153502025e-16 0.011776042896728307
-60.518166666666666 -138.44566666666668 1550.26 0.0 0.0 1.0
-48.231899999999996 -111.30433333333333 2601.74 0.0 0.0 1.0
-50.08696666666666 -105.50733333333334 2601.74 0.0 0.0 1.0
-48.927533333333336 -97.85513333333334 2601.74 0.0 0.0 1.0
-47.536233333333335 -0.927536 2601.74 0.0 0.0 1.0
-43.53818999999999 17.27595666666667 1806.2233333333334 -0.5461862438953 0.8376231432889172 0.00824965492236944
-60.76726666666667 51.832899999999995 1530.43 0.0 0.0 1.0
-51.0145 194.087 2601.74 0.0 0.0 1.0
-62.29410000000001 133.17999999999998 1439.6166666666668 -0.4168357590202031 0.47634612699322704 0.7741720204842097
-48.463766666666665 365.68100000000004 2601.74 0.0 0.0 1.0
-53.33336666666667 -375.884 2601.74 0.0 0.0 1.0
-48.231899999999996 -302.6086666666667 2601.74 0.0 0.0 1.0
-61.53543333333334 -136.28400000000002 1546.2733333333333 0.991728354811684 0.1239660443514607 0.033275968962034094
-60.53966666666667 -125.11800000000001 1617.3066666666666 -0.8561546466408825 -0.5137538583335752 0.055282855231894606
-52.6377 -155.1303333333333 2601.74 0.0 0.0 1.0
-48.231899999999996 -107.59433333333334 2601.74 0.0 0.0 1.0
-50.55076666666667 -67.0145 2601.74 0.0 0.0 1.0
-48.69566666666666 -64.69563333333333 2601.74 0.0 0.0 1.0
-65.71196666666667 80.85693333333333 1484.8833333333332 0.3446465404413062 -0.935493922514446 -0.07790945449927696
-61.70956666666667 108.28633333333335 1446.5900000000001 0.12451804525241444 0.6092182837750358 0.7831655885703339
-51.0145 212.17399999999998 2601.74 0.0 0.0 1.0
-60.3316 130.303 1405.7933333333333 0.5354919323189988 4.722735037925272e-15 0.8445403426842704
-63.37986666666666 127.87600000000002 1391.63 0.0 0.0 1.0
-64.03993333333334 133.934 1399.2233333333334 0.7361053099527838 -0.5889236329440309 0.33364341327129515
-60.1741 139.66533333333334 1425.8933333333334 0.2668791212926943 0.8543495903903534 0.4459398076174348
-48.463766666666665 341.5653333333333 2601.74 0.0 0.0 1.0
-48.92756666666667 345.73933333333326 2601.74 0.0 0.0 1.0
-47.999966666666666 -355.4783333333333 2601.74 0.0 0.0 1.0
-50.31883333333334 -192.23199999999997 2601.74 0.0 0.0 1.0
-53.10146666666666 -130.319 2601.74 0.0 0.0 1.0
-49.855066666666666 -101.56533333333333 2601.74 0.0 0.0 1.0
-47.30433333333334 -52.4058 2601.74 0.0 0.0 1.0
-62.95593333333333 27.767166666666668 1542.2733333333333 0.9896501742298174 -0.09909119233817976 0.10379531900760156
-64.1665 29.0521 1544.9233333333334 0.5559149708098539 0.5559341800348309 0.6179771295917669
-64.16436666666667 39.18106666666667 1531.74 0.8036842752354647 0.5740601965967631 0.15667315156889924
-67.43253333333332 56.264199999999995 1499.756666666667 0.17665826709208024 0.5650588172834315 0.8059158700995239
-51.942033333333335 214.26099999999997 2601.74 0.0 0.0 1.0
-51.246399999999994 306.78266666666667 2601.74 0.0 0.0 1.0
-51.47826666666666 326.7246666666667 2601.74 0.0 0.0 1.0
-49.6232 362.6666666666667 2601.74 0.0 0.0 1.0
-48.46373333333333 371.9416666666666 2601.74 0.0 0.0 1.0
-68.8913 -233.17133333333334 1662.2300000000002 -0.25013117897506215 -0.5461304713886087 0.7994847725412921
-50.7826 -326.493 2601.74 0.0 0.0 1.0
-63.71386666666666 -168.89833333333334 1691.993333333333 0.8559430118877058 -0.5136163126946173 -0.05966442603920286
-70.96223333333333 -98.91976666666666 1775.6966666666667 -0.5464621457993615 -0.8327128095186204 0.08926645546880078
-53.10146666666666 -86.95653333333333 2601.74 0.0 0.0 1.0
-51.94206666666667 -70.029 2601.74 0.0 0.0 1.0
-51.4783 -23.420266666666667 2601.74 0.0 0.0 1.0
-51.246399999999994 -7.188413333333333 2601.74 0.0 0.0 1.0
-50.08696666666666 10.89855 2601.74 0.0 0.0 1.0
-64.1553 80.26726666666667 1481.2066666666667 -0.9290313478921883 0.35731835770307296 0.09604345829884836
-64.6275 85.16699999999999 1526.5366666666669 -0.35146828808496317 0.8786301026774573 0.32323240112901136
-51.246399999999994 193.62333333333333 2601.74 0.0 0.0 1.0
-68.78596666666668 158.36366666666666 1413.5466666666669 -0.22328547894269157 -0.6700040473254001 0.7079817592713217
-51.47826666666666 379.13033333333334 2601.74 0.0 0.0 1.0
-52.63766666666667 -348.98533333333336 2601.74 0.0 0.0 1.0
-61.6304 -152.41566666666665 1703.2266666666667 -0.9746924146125929 -0.1772115015260348 0.13627465143438042
-47.072466666666664 -40.347833333333334 2601.74 0.0 0.0 1.0
-47.146633333333334 11.47154 1766.9833333333333 0.4598500609349789 -0.8813771798085144 0.10822286436278457
-64.1665 29.0521 1544.9233333333334 0.555914970809854 0.5559341800348307 0.617977129591767
-63.7312 71.53043333333333 1508.57 1.733812561290876e-17 -0.9046028152552229 0.4262554945479588
-51.47826666666666 194.78266666666664 2601.74 0.0 0.0 1.0
-52.869566666666664 211.47833333333332 2601.74 0.0 0.0 1.0
-69.41973333333333 146.30366666666666 1397.0433333333333 0.4549701284494586 0.11368170722888431 0.8832206132446239
-65.40843333333333 -155.18833333333333 1688.8266666666668 0.6058086535416992 -0.7938804094987767 0.052438256149952296
-60.995000000000005 -132.47266666666667 1567.86 -0.9430033693161488 -0.3050838721613857 0.13292282123625862
-64.09653333333334 12.169659999999999 1551.6033333333335 -0.9821100988855338 0.16368106760112514 0.09310350034237512
-64.64920000000001 14.104033333333334 1551.6033333333332 0.28541962273667326 0.856258868210019 0.43053035847493104
-65.20843333333333 32.7103 1522.6533333333334 0.44352445451865624 -0.7122748494403572 0.5440134162855222
-65.12623333333333 73.56413333333334 1503.5233333333333 0.6683498869128321 -0.6671151606330215 -0.3290376743128096
-52.17393333333333 193.85500000000002 2601.74 0.0 0.0 1.0
-62.29410000000001 133.17999999999998 1439.6166666666668 -0.4168357590202029 0.4763461269932269 0.7741720204842099
-67.64633333333335 160.12933333333334 1428.18 -0.9025340547087911 0.25787008087138746 0.34486997764707317
-55.88403333333333 -337.62333333333333 2601.74 0.0 0.0 1.0
-50.7826 -326.493 2601.74 0.0 0.0 1.0
-50.08696666666666 -313.0433333333333 2601.74 0.0 0.0 1.0
-66.55333333333334 -190.97233333333335 1695.18 0.0 0.0 1.0
-65.75116666666666 -172.89433333333332 1682.4966666666667 -0.5056687474340248 -0.851789275988817 0.13694578189543147
-54.72463333333334 -158.14466666666667 2601.74 0.0 0.0 1.0
-56.8116 -137.507 2601.74 0.0 0.0 1.0
-56.5797 -124.98566666666666 2601.74 0.0 0.0 1.0
-54.72463333333334 -92.52173333333333 2601.74 0.0 0.0 1.0
-53.10146666666666 -86.95653333333333 2601.74 0.0 0.0 1.0
-52.869566666666664 -5.56522 2601.74 0.0 0.0 1.0
-64.20736666666666 9.972616666666665 1554.2933333333333 -0.9821219842356185 0.16355673240707658 0.093196584515806
-61.998333333333335 103.44253333333332 1507.3 0.0 0.0 1.0
-68.6982 139.90900000000002 1409.1066666666666 0.2512709319955507 -0.37688137100806646 0.8915286596185047
-53.333333333333336 323.7103333333334 2601.74 0.0 0.0 1.0
-57.0435 -385.3913333333333 2601.74 0.0 0.0 1.0
-55.6522 -381.68133333333327 2601.74 0.0 0.0 1.0
-63.98473333333334 -174.088 1663.7633333333333 -0.9826026332722887 0.06549701668309674 0.17378781859491294
-63.787233333333326 -149.649 1684.0666666666668 -0.975088763415597 -0.18057020759353282 0.12882664161682558
-63.316066666666664 -144.688 1701.6133333333335 -0.9733488068600692 -0.19466976137201364 0.12122616958166654
-55.188433333333336 -184.81166666666664 2601.74 0.0 0.0 1.0
-54.49276666666666 -181.1016666666667 2601.74 0.0 0.0 1.0
-52.6377 -155.1303333333333 2601.74 0.0 0.0 1.0
-54.49276666666666 -131.24666666666667 2601.74 0.0 0.0 1.0
-54.49276666666666 -131.24666666666667 2601.74 0.0 0.0 1.0
-53.10146666666666 -86.95653333333333 2601.74 0.0 0.0 1.0
-56.5797 -72.34783333333333 2601.74 0.0 0.0 1.0
-51.4783 -23.420266666666663 2601.74 0.0 0.0 1.0
-60.698033333333335 5.283096666666666 1788.4466666666667 -0.29340300518958523 -0.9533045749574238 0.07158955168853771
-64.09653333333334 12.16966 1551.6033333333332 -0.9821100988855339 0.16368106760112525 0.09310350034237506
-64.16436666666667 39.18106666666666 1531.74 0.8036842752354645 0.5740601965967631 0.1566731515688994
-64.16436666666667 39.18106666666667 1531.74 0.8036842752354648 0.5740601965967631 0.15667315156889933
-65.02816666666666 74.1868 1499.756666666667 -0.9760570173004682 -0.10838826278796791 0.18858601079698384
-66.85273333333333 131.597 1391.63 0.0 0.0 1.0
-64.58843333333333 146.43733333333333 1383.0566666666666 -0.5168702350202031 -0.08615669614420995 0.8517171971139682
-54.72463333333334 308.174 2601.74 0.0 0.0 1.0
-55.88403333333333 -337.62333333333333 2601.74 0.0 0.0 1.0
-66.80366666666667 -168.45166666666668 1663.7633333333333 0.5137836047060226 0.8565115726764633 -0.04913586680396342
-54.49276666666666 -181.1016666666667 2601.74 0.0 0.0 1.0
-54.49276666666666 -131.24666666666667 2601.74 0.0 0.0 1.0
-65.66816666666666 15.711033333333333 1546.2600000000002 0.9083198304177583 -0.40340301085894936 0.11054906829000903
-65.20843333333333 32.7103 1522.6533333333334 0.44352445451865585 -0.7122748494403575 0.5440134162855222
-65.6 72.39999999999999 1496.0 0.0 0.0 1.0
-65.6 72.39999999999999 1496.0 0.0 0.0 1.0
-65.6 72.39999999999999 1496.0 0.0 0.0 1.0
-66.02223333333333 76.3619 1479.9733333333334 0.9333303012881459 -0.3589717948780078 -0.0058137061707811116
-64.6275 85.16700000000002 1526.5366666666669 -0.3514682880849641 0.8786301026774571 0.32323240112901097
-64.6275 85.16700000000002 1526.5366666666669 -0.35146828808496305 0.8786301026774573 0.32323240112901136
-63.899300000000004 85.76146666666666 1506.05 -0.6762641151634077 0.6762547695937018 0.292140947393587
-55.88403333333333 213.56533333333334 2601.74 0.0 0.0 1.0
-54.72466666666667 -375.18833333333333 2601.74 0.0 0.0 1.0
-64.29496666666667 -175.70366666666666 1662.2300000000002 -0.9807623919019828 0.1223602105017696 0.1520957248467689
-63.22423333333333 -170.27133333333333 1695.1933333333334 -0.2902429649089773 -0.8659335935278968 0.4073303731870597
-54.95653333333333 -192.23199999999997 2601.74 0.0 0.0 1.0
-55.1884 -100.40589999999999 2601.74 0.0 0.0 1.0
-67.4857 16.494233333333334 1542.2733333333333 -0.5882432784088355 -0.685389490913904 0.4291981956527834
-68.58533333333332 64.25946666666665 1489.8066666666666 0.7685912725147024 0.46907127798331394 0.43501677207359596
-63.7312 71.53043333333333 1508.57 0.0 -0.9046028152552229 0.4262554945479588
-68.90426666666667 150.50733333333335 1384.1266666666668 0.7449975538578342 0.12418306090580081 0.6554061428838682
-56.11593333333334 323.7103333333333 2601.74 0.0 0.0 1.0
-55.6522 328.57966666666664 2601.74 0.0 0.0 1.0
-55.6522 331.82599999999996 2601.74 0.0 0.0 1.0
-55.6522 331.826 2601.74 0.0 0.0 1.0
-56.8116 346.89866666666666 2601.74 0.0 0.0 1.0
-58.666666666666664 377.04366666666664 2601.74 0.0 0.0 1.0
-56.5797 -346.89866666666666 2601.74 0.0 0.0 1.0
-67.76466666666667 -198.36066666666667 1674.6466666666668 0.8518092937242631 -0.5171334490102548 0.08362967798413694
-64.45836666666666 -174.05999999999997 1660.6866666666667 -0.989231016105417 0.06593884259145771 0.13066776883663087
-65.7917 -166.22133333333332 1660.6866666666667 0.2682356080625832 0.447166667844466 0.8532828544721692
-62.094500000000004 -121.29766666666667 1620.22 -0.8995609820965821 -0.41765384235072994 0.12788787064887774
-54.72463333333334 -158.14466666666667 2601.74 0.0 0.0 1.0
-56.3478 -95.07246666666667 2601.74 0.0 0.0 1.0
-53.7971 -7.188413333333333 2601.74 0.0 0.0 1.0
-64.35263333333333 35.377766666666666 1526.5366666666669 0.13512899652534868 -0.8783412007877587 0.4585377730315905
-61.68306666666667 47.917100000000005 1544.9233333333334 -0.523899610180842 0.024945589068169894 0.8514146557573482
-55.88403333333334 206.84066666666664 2601.74 0.0 0.0 1.0
-55.88403333333333 213.5653333333333 2601.74 0.0 0.0 1.0
-55.88403333333333 213.5653333333333 2601.74 0.0 0.0 1.0
-66.3982 129.91933333333333 1400.3166666666666 0.7296981232483892 -0.09120009565749505 0.6776600854999815
-56.8116 346.89866666666666 2601.74 0.0 0.0 1.0
-65.22493333333333 -182.5956666666667 1657.6266666666668 -0.9934364131992945 0.05526891053493724 0.10014709410662621
-65.9283 -150.2023333333333 1662.2300000000002 0.002343492966277201 -0.39600404037900544 0.9182457775803927
-65.3146 -139.26700000000002 1698.3933333333334 -0.8990573524951978 -0.179811470499039 0.3992038476784746
-56.57973333333334 -187.36233333333334 2601.74 0.0 0.0 1.0
-55.188433333333336 -129.85533333333333 2601.74 0.0 0.0 1.0
-65.09056666666667 15.598500000000001 1548.9233333333334 0.2854330193146664 0.8562990579439991 0.43044153476300695
-64.1665 29.0521 1544.9233333333334 0.555914970809854 0.5559341800348307 0.617977129591767
-64.9899 49.04906666666667 1516.2333333333336 -0.8161873273412145 -0.40855959222941085 0.4085551447295004
-63.8873 68.6155 1518.8066666666666 -0.00011258942115637853 0.882024159035732 0.4712041703984932
-66.71626666666667 135.60433333333333 1432.7333333333333 -0.9342994123393865 -0.34002567271022316 0.10708477949847563
-67.13086666666666 157.716 1429.3066666666666 -0.9607610174901208 0.274506562922097 0.039804700527008935
-56.8116 309.10133333333334 2601.74 0.0 0.0 1.0
-59.8261 -370.5506666666667 2601.74 0.0 0.0 1.0
-65.38703333333332 -181.989 1656.0933333333332 -0.9939290488000603 0.04322236093123979 0.10117743556216925
-63.71386666666666 -168.89833333333334 1691.993333333333 0.855943011887706 -0.5136163126946174 -0.05966442603920281
-65.50323333333334 -145.226 1676.2166666666665 -0.978356313101162 -0.18117530340345453 0.09997216638528625
-56.5797 -72.34783333333333 2601.74 0.0 0.0 1.0
-56.5797 -72.34783333333333 2601.74 0.0 0.0 1.0
-66.98863333333333 -6.913593333333334 1621.7366666666667 -0.9662928732918038 -0.2114052883259453 0.14692136363815092
-54.49273333333334 0.23188399999999998 2601.74 0.0 0.0 1.0
-69.60193333333333 41.20483333333333 1496.006666666667 0.42902498675672823 -0.6433574552749977 0.6340573676572717
-70.6502 61.49793333333333 1477.53 0.0 0.0 1.0
-66.21203333333334 62.29833333333334 1533.0633333333333 0.8071112220260707 -0.10461018326487188 0.5810578153995286
-69.014 92.54413333333332 1450.0833333333333 0.45560243483686463 -0.24120088210532853 0.8568830467702883
-70.76423333333334 124.806 1400.3166666666666 -0.11758484432930061 -0.8224511131561051 0.5565500614071818
-68.66863333333333 138.48466666666664 1428.1666666666667 -0.8399879908926884 -0.5346462691637965 0.09259342322917949
-57.0435 -385.3913333333333 2601.74 0.0 0.0 1.0
-57.0435 -385.3913333333333 2601.74 0.0 0.0 1.0
-56.11596666666667 -377.5073333333333 2601.74 0.0 0.0 1.0
-15.004466666666668 -256.08366666666666 2255.646666666667 -0.29331696246195776 0.6708678255760759 0.681103164094044
-67.51729999999999 -213.38400000000001 1687.2333333333336 -0.9399199606002568 0.3132927904071568 0.1356395780888046
-56.57973333333334 -187.36233333333334 2601.74 0.0 0.0 1.0
-56.8116 -137.50700000000003 2601.74 0.0 0.0 1.0
-56.8116 -137.50700000000003 2601.74 0.0 0.0 1.0
-66.77446666666667 -20.844566666666665 1612.9399999999998 -2.8228672963503437e-28 2.1716106714870854e-29 1.0
-67.58173333333333 -18.697333333333333 1601.43 -0.9558416138550777 -1.1499401245744293e-17 0.29388230505241497
-67.07279999999999 -16.664833333333334 1611.493333333333 -0.9563399382958789 -2.3318444506974678e-17 0.2922566037239101
-73.43296666666667 140.893 1365.18 -0.5838665824885262 0.7784852167063516 0.23034882509540516
-58.43476666666667 347.5943333333333 2601.74 0.0 0.0 1.0
-58.202866666666665 -338.78266666666667 2601.74 0.0 0.0 1.0
-56.5797 -124.98566666666666 2601.74 0.0 0.0 1.0
-59.362300000000005 -97.39133333333332 2601.74 0.0 0.0 1.0
-55.652166666666666 -86.029 2601.74 0.0 0.0 1.0
-67.61753333333333 -24.7735 1615.8533333333335 0.9367416634132059 -0.3122713552559168 0.15811912190653188
-67.48380000000002 50.59676666666667 1509.8566666666666 -0.8534544765537628 0.5117867265483108 0.09843679687650918
-66.32546666666667 51.89653333333334 1504.7933333333333 0.5482058133412206 -0.822490486275731 -0.15159085132290126
-65.87046666666667 74.41843333333334 1509.84 -0.704799571339762 -0.4145867759606871 0.5756521253654944
-66.44466666666666 101.1074 1448.9166666666667 0.8622388896946203 -0.09953951381188722 0.4966245888881074
-58.89853333333334 207.30466666666666 2601.74 0.0 0.0 1.0
-69.07483333333334 124.29366666666665 1376.6866666666667 -0.34070606047683066 -0.21146644929211153 0.916079320352853
-68.47376666666666 135.45833333333334 1390.5533333333333 0.5740964754530635 0.4857922005435962 0.6591048283569013
-66.80723333333333 151.87833333333333 1423.6333333333332 0.46698299727751785 0.11674574931937905 0.8765257042834297
-56.8116 309.10133333333334 2601.74 0.0 0.0 1.0
-58.89853333333334 324.406 2601.74 0.0 0.0 1.0
-65.2068 -200.59433333333334 1693.5866666666668 0.5420314677515989 -0.30489643772740005 0.7830964501440347
-67.47923333333334 -174.70866666666666 1633.4866666666667 -0.994456978536543 7.966622155921384e-15 0.10514427155089952
-67.47923333333334 -174.70866666666666 1633.4866666666667 -0.9944569785365448 -5.878363913664141e-16 0.1051442715508842
-55.88406666666666 -65.6232 2601.74 0.0 0.0 1.0
-70.15486666666666 6.97088 1534.3633333333335 -0.7511311925022546 0.6256434696295858 0.2106470521037366
-70.59003333333334 24.469033333333332 1508.57 0.6615976489923767 0.22053862963075835 0.7166946795451652
-69.17386666666665 41.701100000000004 1499.756666666667 0.44110393520427676 0.7720277699366805 0.45760292917976075
-67.68079999999999 66.6181 1486.0933333333332 -0.8372214537915621 -1.1593235065955536e-15 0.5468640025738973
-67.68079999999999 66.6181 1486.0933333333332 -0.8372214537915476 1.3409790982028199e-14 0.5468640025739193
-66.80723333333333 151.87833333333333 1423.6333333333332 0.4669829972775176 0.11674574931937966 0.8765257042834298
-63.536233333333335 367.07233333333335 2601.74 0.0 0.0 1.0
-58.666666666666664 377.0436666666667 2601.74 0.0 0.0 1.0
-56.34780000000001 -361.7393333333334 2601.74 0.0 0.0 1.0
-60.28983333333334 -340.406 2601.74 0.0 0.0 1.0
-70.49626666666667 -203.6353333333333 1665.3066666666666 -0.5310359514868166 0.062473993289606816 0.8450430867067913
-67.63606666666668 -171.78599999999997 1632.0033333333333 -0.994456978536544 2.8974454348963218e-15 0.10514427155089032
-67.63606666666668 -171.78599999999997 1632.0033333333333 -0.994456978536544 2.8974454348963218e-15 0.10514427155089032
-69.47403333333334 -141.78133333333332 1662.2299999999998 -0.7705283100655101 -0.37860517337256006 0.512780894810954
-68.43733333333334 -23.403233333333333 1601.43 0.8414302835097331 -0.4589522199181422 0.28523312890500546
-68.46933333333332 -14.5192 1597.1533333333334 -0.9313385119794204 -0.31044617065980723 0.19034639798698785
-68.46933333333332 -14.5192 1597.1533333333334 -0.9313385119794204 -0.31044617065980723 0.19034639798698785
-67.66863333333333 -12.762633333333333 1608.61 -0.9268874128847915 -0.37058894188257 0.05952780854436887
-60.5217 322.78266666666667 2601.74 0.0 0.0 1.0
-57.27536666666666 330.66633333333334 2601.74 0.0 0.0 1.0
-59.82606666666667 346.4346666666667 2601.74 0.0 0.0 1.0
-59.82606666666667 346.4346666666667 2601.74 0.0 0.0 1.0
-58.666666666666664 377.0436666666667 2601.74 0.0 0.0 1.0
-60.28983333333334 -340.406 2601.74 0.0 0.0 1.0
-68.6458 -222.211 1698.3933333333334 -0.9504349718562239 0.1357550894747495 0.2797211467772176
-66.80366666666667 -168.45166666666668 1663.7633333333333 0.5137836047060226 0.8565115726764633 -0.04913586680396342
-68.26003333333334 -160.88466666666667 1626.0966666666666 -0.996761228373103 -0.07361433363508946 -0.03237257320023328
-68.65436666666666 -137.16466666666668 1696.7866666666669 -0.5575406650397882 0.5145968829489072 0.6514126609809325
-69.31963333333333 -98.69176666666665 1873.93 0.8263995718811353 0.5626693062396231 -0.02161016914550516
-58.89853333333334 -94.6087 2601.74 0.0 0.0 1.0
-68.80093333333333 -48.914500000000004 1721.3833333333332 -0.7646954006920841 -0.6402734420009804 0.07273832297070078
-68.79923333333333 -33.629266666666666 1632.0333333333335 -0.9911935878142211 0.0901215973117261 0.09702251890130895
-68.1322 -12.580800000000002 1604.2966666666664 -0.9589225708540103 -0.2740373093057655 0.07328749016845965
-68.06743333333333 -7.762056666666666 1612.9466666666667 -0.9715986833386411 -0.20239629103677545 0.12260399630181794
-60.52176666666666 192.46400000000003 2601.74 0.0 0.0 1.0
-60.52173333333334 210.55100000000002 2601.74 0.0 0.0 1.0
-59.5942 212.638 2601.74 0.0 0.0 1.0
-68.6458 -222.211 1698.3933333333334 -0.9504349718562239 0.1357550894747499 0.2797211467772172
-67.7966 -216.045 1690.4000000000003 7.336655438821519e-26 -2.1924363129691383e-26 1.0
-68.44656666666667 -214.71833333333333 1682.4966666666667 -0.9587608295639247 0.23146427048542964 0.16493017668863028
-68.57033333333334 -205.265 1665.3066666666666 -0.9704257245334345 0.11416622553109483 0.21269693489033165
-66.80366666666667 -168.45166666666668 1663.7633333333333 0.5137836047060228 0.8565115726764632 -0.049135866803963126
-72.474 -156.81866666666667 1624.62 0.15203312227981938 0.47299668472330353 0.8678479509514401
-78.46216666666668 -98.6846 1719.55 0.017788307362954572 -0.6035210623878963 0.797148608087191
-71.72766666666666 6.7816366666666665 1521.36 -0.8814249116633729 0.4700913617854578 0.045871959560378345
-69.07530000000001 37.96873333333333 1494.756666666667 -0.9343162090957671 0.32497955098983244 0.1464292076717006
-64.46376666666667 221.44933333333333 2601.74 0.0 0.0 1.0
-69.32086666666667 135.86166666666668 1410.22 -0.5185209398398045 0.7777297642477681 0.3553483484564928
-68.47376666666666 135.45833333333334 1390.5533333333333 0.5740964754530634 0.4857922005435963 0.6591048283569013
-68.6982 139.90900000000002 1409.1066666666666 0.2512709319955507 -0.3768813710080665 0.8915286596185047
-60.5217 322.78266666666667 2601.74 0.0 0.0 1.0
-62.144933333333334 350.14466666666664 2601.74 0.0 0.0 1.0
-69.03323333333333 -167.48333333333332 1618.7766666666666 -0.9944690130627921 -9.171601820815604e-06 0.10503038595472353
-66.56113333333333 -171.50300000000001 1674.6466666666668 0.06387715485342932 0.8959099183618005 0.4396192981077868
-72.55773333333333 -99.65750000000001 1815.1766666666665 0.7411618459951922 0.6705521961152993 0.03223151138170077
-67.53446666666667 -102.01700000000001 1864.22 -0.9957447925840303 0.0005764992178644221 0.0921519163687776
-64.92756666666666 -99.24643333333334 2601.74 0.0 0.0 1.0
-71.05776666666667 -44.28966666666667 1645.47 0.7557537603445322 -0.6045938636962774 0.2515999080005927
-67.61753333333333 -24.7735 1615.8533333333332 0.9367416634132057 -0.3122713552559185 0.15811912190653096
-69.84083333333334 -14.250133333333332 1583.0766666666666 -0.9723618190316851 -0.2243462075632762 0.06466275621536413
-68.46933333333332 -14.5192 1597.1533333333334 -0.9313385119794204 -0.31044617065980723 0.19034639798698796
-68.54083333333334 -9.451993333333334 1607.1633333333332 -0.9810965327525073 -0.17313184080168326 0.08645784592290728
-68.78596666666665 158.36366666666666 1413.5466666666669 -0.2232854789426916 -0.6700040473254002 0.7079817592713217
-70.89983333333333 157.47133333333332 1418.0166666666667 -0.992964512691622 -2.7257751895160662e-05 0.11841231267104262
-69.46233333333333 -220.65533333333335 1688.8100000000002 -0.949330912990463 0.21093908855754415 0.23297106807328355
-69.91923333333334 -176.27433333333332 1615.8466666666666 0.9948322425162727 -0.08290029049864599 0.058620398201341704
-71.1486 -109.14966666666668 1576.1266666666668 -0.9352386983781275 -0.34013441009720297 0.09816903851935085
-73.27416666666666 -52.72573333333333 1607.2033333333336 0.8085137434721021 -0.5854770298423594 -0.059347907660646036
-71.05776666666667 -44.28966666666667 1645.47 0.7557537603445322 -0.6045938636962774 0.2515999080005927
-69.84083333333334 -14.250133333333332 1583.0766666666668 -0.9723618190316853 -0.22434620756327595 0.06466275621536399
-69.45586666666667 36.7004 1497.2633333333333 -0.9620432080061719 0.26236071790582993 0.07509806674696204
-67.27326666666666 76.75796666666666 1487.3266666666666 0.1307297560700654 -0.3548472940965716 0.9257392336669125
-70.76423333333334 124.806 1400.3166666666666 -0.11758484432930061 -0.8224511131561052 0.5565500614071818
-73.74286666666667 134.727 1376.6866666666667 0.4291319928467579 -0.36785837833113677 0.8249399652138066
-70.84743333333334 138.90233333333333 1425.8933333333334 -0.38810437626324323 0.3881935370979603 0.8358712645382024
-70.11723333333333 154.67866666666666 1421.3833333333332 -0.9601747457815125 -0.08012535695884876 0.2676646871285509
-71.24856666666666 -207.15466666666666 1663.7633333333333 -0.5336547527564147 -0.6306709818932345 0.5634418492252005
-71.7319 -206.101 1657.64 0.612074538411825 0.7233471605718671 0.3195835488891264
-67.47826666666667 -155.1303333333333 2601.74 0.0 0.0 1.0
-70.23786666666666 -99.8421 1854.57 -0.6894428097128397 -0.7222173414728199 0.055414112022096236
-71.04020000000001 -51.80083333333334 1695.4633333333331 -0.7946749148540403 0.6012813429431926 0.08338181054735269
-73.22143333333334 -61.25813333333334 1737.9533333333331 0.9485887445582285 -0.29267790522401516 0.12049496873781282
-71.03293333333333 -22.278433333333336 1571.9933333333336 -0.9384323190449303 0.3412793313203259 0.0536022442207912
-70.5694 -13.233066666666668 1578.8999999999999 -0.6808666649121338 -0.6784349549761118 -0.2759467276087708
-70.80456666666666 -1.5561466666666668 1587.2699999999998 1.768470781973697e-24 -6.676906021270867e-25 1.0
-71.1237 6.418960000000001 1531.74 -0.7857963452118293 0.5612870226817243 0.2597710184389649
-71.79533333333333 8.744066666666667 1508.58 -0.9552644037349615 0.11939512092097733 0.27058219464176425
-70.59003333333334 24.469033333333332 1508.57 0.6615976489923767 0.2205386296307584 0.7166946795451652
-69.7425 59.62526666666667 1534.3633333333335 -0.8568414269318795 0.5140749777733642 0.03936605543682788
-73.8049 71.1585 1448.9166666666667 0.03747281486953427 -0.7820743973972795 0.6220574130105965
-67.04623333333335 81.69806666666666 1530.4399999999998 -0.6833929318275992 0.6838686340409963 0.25553432666274023
-71.0852 84.25933333333333 1450.0833333333333 0.880873354909695 -0.46634393054412937 -0.08115091530470109
-72.74096666666668 101.33343333333333 1428.1666666666667 -0.031114898454694437 -0.38146853891224364 0.92385800690058
-74.13780000000001 110.06333333333333 1429.3 -0.6213819680139699 -0.29773450892924674 0.7247334765413739
-64.23186666666668 203.36233333333334 2601.74 0.0 0.0 1.0
-72.08126666666666 126.96 1388.4066666666668 0.0005868567553124303 0.9904670754888956 0.13774842275548438
-71.90033333333332 147.66366666666667 1398.13 0.0 0.0 1.0
-70.78833333333334 158.74066666666667 1415.7866666666669 -0.9650512286722966 -0.2518507648877882 0.07243837562733342
-66.08696666666667 368.69533333333334 2601.74 0.0 0.0 1.0
-65.62323333333335 -383.99966666666666 2601.74 0.0 0.0 1.0
-66.087 -381.681 2601.74 0.0 0.0 1.0
-70.01716666666665 -225.78133333333335 1696.7866666666669 -0.9213300717430142 0.3685117037452578 0.1238952101769075
-70.19776666666667 -180.359 1691.993333333333 -0.8477882329450949 0.4945222954659334 0.19157977807414353
-76.7701 -143.51766666666666 1651.5266666666666 0.5069450408573999 0.6421891746586683 0.574978077409311
-72.8433 -125.10533333333335 1709.72 0.8705089739432852 0.05448679189640297 0.4891270957461333
-72.39389999999999 -94.27783333333332 1891.78 -0.7048409841236867 -0.7048409841237475 -0.07998983809847275
-64.92756666666666 -99.24643333333334 2601.74 0.0 0.0 1.0
-68.43733333333334 -23.403233333333333 1601.43 0.8414302835097337 -0.45895221991814183 0.285233128905004
-70.80456666666666 -1.5561466666666668 1587.2699999999998 1.768470781973565e-24 -6.6769060212703675e-25 1.0
-71.79533333333333 8.744066666666667 1508.58 -0.9552644037349615 0.11939512092097722 0.27058219464176436
-70.81920000000001 59.8106 1494.7699999999998 0.8023359016591262 -0.13684006259742929 0.5809749548622287
