ply
format ascii 1.0
comment VCGLIB generated
element vertex 848
property float x
property float y
property float z
property float nx
property float ny
property float nz
element face 0
property list uchar int vertex_indices
end_header
-134.32066666666665 -45.881 2014.8100000000002 -2.113344979398725e-25 -4.4514836895983174e-26 1.0
-139.35799999999998 -38.8148 2216.3 0.0 0.0 1.0
-140.148 -27.950633333333332 2216.3 0.0 0.0 1.0
-139.55566666666667 -24.790133333333333 2216.3 0.0 0.0 1.0
-139.95066666666665 -22.2222 2216.3 0.0 0.0 1.0
-139.95066666666665 -20.8395 2216.3 0.0 0.0 1.0
-140.3456666666667 -12.345666666666666 2216.3 0.0 0.0 1.0
-140.74066666666667 12.1481 2216.3 0.0 0.0 1.0
-139.95066666666665 15.703699999999998 2216.3 0.0 0.0 1.0
-139.75300000000001 17.283966666666664 2216.3 0.0 0.0 1.0
-140.3456666666667 36.24693333333334 2216.3 0.0 0.0 1.0
-140.3456666666667 36.8395 2216.3 0.0 0.0 1.0
-137.97533333333334 43.55553333333334 2216.3 0.0 0.0 1.0
-129.80499999999998 40.287200000000006 1841.2300000000002 -4.797305622634047e-27 -2.2395439997168976e-26 1.0
-140.3456666666667 54.8148 2216.3 0.0 0.0 1.0
-140.543 56.592600000000004 2216.3 0.0 0.0 1.0
-140.543 56.592600000000004 2216.3 0.0 0.0 1.0
-140.3456666666667 71.80246666666666 2216.3 0.0 0.0 1.0
-141.33333333333331 76.7407 2216.3 0.0 0.0 1.0
-140.938 84.64193333333334 2216.3 0.0 0.0 1.0
-133.19033333333334 69.38153333333334 1833.7233333333334 1.9461896499381135e-16 -0.9579222315995213 0.2870278700882432
-141.33333333333331 92.7407 2216.3 0.0 0.0 1.0
-130.16266666666667 79.7561 1824.39 0.0 0.0 1.0
-139.16066666666666 128.09900000000002 2216.3 0.0 0.0 1.0
-139.358 136.19766666666666 2216.3 0.0 0.0 1.0
-130.617 121.89299999999999 1846.91 0.0 0.0 1.0
-140.3456666666667 159.70366666666666 2216.3 0.0 0.0 1.0
-140.148 160.49366666666666 2216.3 0.0 0.0 1.0
-140.148 160.49366666666666 2216.3 0.0 0.0 1.0
-139.35799999999998 162.469 2216.3 0.0 0.0 1.0
-140.54333333333332 -161.481 2216.3 0.0 0.0 1.0
-140.54333333333332 -151.21 2216.3 0.0 0.0 1.0
-141.33333333333334 -134.81466666666668 2216.3 0.0 0.0 1.0
-141.53099999999998 -132.44466666666668 2216.3 0.0 0.0 1.0
-140.741 -122.568 2216.3 0.0 0.0 1.0
-140.93833333333333 -108.93833333333333 2216.3 0.0 0.0 1.0
-140.3456666666667 -107.75333333333333 2216.3 0.0 0.0 1.0
-141.136 -81.08643333333335 2216.3 0.0 0.0 1.0
-140.54333333333332 -60.740700000000004 2216.3 0.0 0.0 1.0
-140.54333333333332 -60.740700000000004 2216.3 0.0 0.0 1.0
-141.33333333333334 -54.8148 2216.3 0.0 0.0 1.0
-136.29633333333334 -39.95506666666667 2014.8100000000002 0.0 0.0 1.0
-140.346 -18.271633333333334 2216.3 0.0 0.0 1.0
-140.346 -18.271633333333334 2216.3 0.0 0.0 1.0
-140.93866666666668 -9.975323333333334 2216.3 0.0 0.0 1.0
-140.74066666666667 12.1481 2216.3 0.0 0.0 1.0
-141.531 27.555566666666667 2216.3 0.0 0.0 1.0
-140.14833333333334 30.913566666666668 2216.3 0.0 0.0 1.0
-141.33366666666666 32.09876666666667 2216.3 0.0 0.0 1.0
-140.3456666666667 36.24693333333334 2216.3 0.0 0.0 1.0
-140.74066666666667 37.6296 2216.3 0.0 0.0 1.0
-131.118 37.0051 1841.2300000000002 0.0 0.0 1.0
-141.33333333333334 52.24693333333334 2216.3 0.0 0.0 1.0
-140.3456666666667 54.8148 2216.3 0.0 0.0 1.0
-130.16266666666667 79.75609999999999 1824.39 0.0 0.0 1.0
-140.741 131.25933333333333 2216.3 0.0 0.0 1.0
-131.111 119.91766666666666 1846.91 0.0 0.0 1.0
-141.136 157.72833333333332 2216.3 0.0 0.0 1.0
-140.93833333333333 158.71599999999998 2216.3 0.0 0.0 1.0
-141.13566666666668 -161.87633333333335 2216.3 0.0 0.0 1.0
-141.13566666666668 -161.87633333333335 2216.3 0.0 0.0 1.0
-140.74066666666667 -152.39499999999998 2216.3 0.0 0.0 1.0
-141.53099999999998 -134.22233333333335 2216.3 0.0 0.0 1.0
-141.13566666666668 -129.67866666666666 2216.3 0.0 0.0 1.0
-140.74066666666667 -128.29633333333334 2216.3 0.0 0.0 1.0
-141.13566666666665 -124.346 2216.3 0.0 0.0 1.0
-141.72833333333332 -116.83966666666667 2216.3 0.0 0.0 1.0
-141.92566666666667 -112.296 2216.3 0.0 0.0 1.0
-141.13566666666668 -110.91333333333334 2216.3 0.0 0.0 1.0
-140.938 -88.0 2216.3 0.0 0.0 1.0
-141.72833333333332 -87.4074 2216.3 0.0 0.0 1.0
-141.33333333333334 -79.90123333333334 2216.3 0.0 0.0 1.0
-135.76566666666668 -63.513533333333335 2021.62 0.0 0.0 1.0
-141.92600000000002 -64.2963 2216.3 0.0 0.0 1.0
-141.53099999999998 -55.80246666666667 2216.3 0.0 0.0 1.0
-142.321 -40.98766666666666 2216.3 0.0 0.0 1.0
-140.543 -27.358033333333335 2216.3 0.0 0.0 1.0
-140.93833333333336 -24.197533333333336 2216.3 0.0 0.0 1.0
-140.3456666666667 -12.345666666666666 2216.3 0.0 0.0 1.0
-142.12366666666665 -6.617286666666666 2216.3 0.0 0.0 1.0
-140.9383333333333 -0.493827 2216.3 0.0 0.0 1.0
-141.13566666666668 11.753066666666667 2216.3 0.0 0.0 1.0
-141.13566666666668 12.345633333333334 2216.3 0.0 0.0 1.0
-141.13566666666668 12.345633333333334 2216.3 0.0 0.0 1.0
-141.72833333333332 24.5926 2216.3 0.0 0.0 1.0
-141.13566666666668 26.172866666666668 2216.3 0.0 0.0 1.0
-140.74066666666667 37.6296 2216.3 0.0 0.0 1.0
-130.79 36.5128 1841.2300000000002 -1.0010915499452517e-25 3.0013632070553887e-26 1.0
-130.79 36.512800000000006 1841.2300000000002 -8.009871205257824e-26 2.0014507626679907e-26 1.0
-129.80499999999998 40.287200000000006 1841.2300000000002 -4.797305622634049e-27 -2.2395439997168976e-26 1.0
-140.543 56.592600000000004 2216.3 0.0 0.0 1.0
-141.92566666666667 68.8395 2216.3 0.0 0.0 1.0
-141.72833333333332 72.98766666666667 2216.3 0.0 0.0 1.0
-141.72833333333332 72.98766666666667 2216.3 0.0 0.0 1.0
-140.938 84.64193333333334 2216.3 0.0 0.0 1.0
-140.938 84.64193333333334 2216.3 0.0 0.0 1.0
-141.72833333333332 90.37036666666665 2216.3 0.0 0.0 1.0
-130.81333333333333 82.03250000000001 1824.39 0.0 0.0 1.0
-131.4523333333333 99.38653333333333 1835.58 0.0 0.0 1.0
-131.7793333333333 100.04093333333333 1835.58 0.0 0.0 1.0
-130.85 100.96383333333334 1837.4633333333331 0.9996190446473657 1.5695571192438873e-16 0.027600101055750725
-140.3456666666667 136.79 2216.3 0.0 0.0 1.0
-131.44 122.88066666666667 1846.91 0.0 0.0 1.0
-142.12333333333333 -163.25933333333333 2216.3 0.0 0.0 1.0
-142.51866666666666 -157.53099999999998 2216.3 0.0 0.0 1.0
-141.92600000000002 -135.60466666666667 2216.3 0.0 0.0 1.0
-141.92600000000002 -130.46900000000002 2216.3 0.0 0.0 1.0
-141.33333333333334 -123.55566666666668 2216.3 0.0 0.0 1.0
-141.33333333333334 -117.43233333333335 2216.3 0.0 0.0 1.0
-141.72833333333332 -116.83966666666667 2216.3 0.0 0.0 1.0
-141.136 -108.54333333333334 2216.3 0.0 0.0 1.0
-143.30866666666665 -93.13576666666667 2216.3 0.0 0.0 1.0
-136.6663333333333 -64.41443333333335 2021.62 0.0 0.0 1.0
-136.6663333333333 -64.41443333333335 2021.62 0.0 0.0 1.0
-141.72833333333332 -67.4568 2216.3 0.0 0.0 1.0
-142.51866666666666 -63.90123333333333 2216.3 0.0 0.0 1.0
-141.53099999999998 -53.432066666666664 2216.3 0.0 0.0 1.0
-142.71599999999998 -52.839466666666674 2216.3 0.0 0.0 1.0
-141.13566666666665 -28.740733333333335 2216.3 0.0 0.0 1.0
-142.12333333333333 -24.0 2216.3 0.0 0.0 1.0
-141.72833333333332 -22.024666666666665 2216.3 0.0 0.0 1.0
-141.72866666666667 62.716033333333336 2216.3 0.0 0.0 1.0
-142.321 76.93823333333334 2216.3 0.0 0.0 1.0
-142.321 76.93823333333333 2216.3 0.0 0.0 1.0
-141.72833333333332 90.37036666666665 2216.3 0.0 0.0 1.0
-142.12366666666665 92.7407 2216.3 0.0 0.0 1.0
-142.12366666666665 92.7407 2216.3 0.0 0.0 1.0
-130.97566666666668 80.7317 1824.39 0.0 0.0 1.0
-131.30100000000002 83.0081 1824.39 0.0 0.0 1.0
-132.26333333333332 126.66666666666667 1846.91 0.0 0.0 1.0
-141.136 157.72833333333332 2216.3 0.0 0.0 1.0
-143.11133333333333 -155.75333333333333 2216.3 0.0 0.0 1.0
-142.12366666666665 -133.03733333333332 2216.3 0.0 0.0 1.0
-141.92633333333333 -132.44466666666665 2216.3 0.0 0.0 1.0
-141.72866666666667 -107.55566666666665 2216.3 0.0 0.0 1.0
-137.94333333333336 -95.18643333333334 2028.47 0.0 0.0 1.0
-136.49699999999999 -92.83616666666666 2028.47 0.0 0.0 1.0
-143.11133333333333 -81.87656666666668 2216.3 0.0 0.0 1.0
-142.519 -81.08643333333333 2216.3 0.0 0.0 1.0
-142.12366666666665 -79.90123333333334 2216.3 0.0 0.0 1.0
-136.6663333333333 -64.41443333333333 2021.62 0.0 0.0 1.0
-142.51866666666666 -63.90123333333333 2216.3 0.0 0.0 1.0
-141.53099999999998 -55.80246666666667 2216.3 0.0 0.0 1.0
-136.29633333333334 -39.95506666666666 2014.8100000000002 1.1134665654299973e-27 -1.3360275985557568e-27 1.0
-136.29633333333334 -39.95506666666667 2014.8100000000002 0.0 0.0 1.0
-142.321 -40.98766666666666 2216.3 0.0 0.0 1.0
-142.91366666666667 -9.77779 2216.3 0.0 0.0 1.0
-142.321 -7.0123500000000005 2216.3 0.0 0.0 1.0
-142.91366666666667 -5.827163333333334 2216.3 0.0 0.0 1.0
-142.51866666666666 0.09876566666666668 2216.3 0.0 0.0 1.0
-143.11133333333333 1.4814796666666668 2216.3 0.0 0.0 1.0
-143.30866666666665 7.209879999999999 2216.3 0.0 0.0 1.0
-142.5186666666667 24.0 2216.3 0.0 0.0 1.0
-142.12366666666665 27.950633333333332 2216.3 0.0 0.0 1.0
-141.33366666666666 32.09876666666667 2216.3 0.0 0.0 1.0
-132.923 33.3949 1841.2300000000002 -7.991178109208795e-28 1.1197070705217888e-26 1.0
-131.77433333333335 36.841 1841.2300000000002 5.924604747927252e-27 2.95447992203135e-27 1.0
-142.321 58.3704 2216.3 0.0 0.0 1.0
-142.321 73.7778 2216.3 0.0 0.0 1.0
-142.51866666666666 77.72836666666666 2216.3 0.0 0.0 1.0
-142.12366666666665 92.7407 2216.3 0.0 0.0 1.0
-131.947 91.2538 1829.97 0.0 0.0 1.0
-131.947 91.2538 1829.97 0.0 0.0 1.0
-143.50633333333334 131.852 2216.3 0.0 0.0 1.0
-143.506 -162.27166666666668 2216.3 0.0 0.0 1.0
-143.506 -162.27166666666668 2216.3 0.0 0.0 1.0
-143.30866666666665 -158.51866666666666 2216.3 0.0 0.0 1.0
-143.11133333333333 -155.75333333333333 2216.3 0.0 0.0 1.0
-143.30866666666665 -140.938 2216.3 0.0 0.0 1.0
-143.30866666666665 -140.938 2216.3 0.0 0.0 1.0
-143.506 -138.37033333333332 2216.3 0.0 0.0 1.0
-143.111 -136.0 2216.3 0.0 0.0 1.0
-144.29633333333334 -120.0 2216.3 0.0 0.0 1.0
-142.91333333333333 -112.88866666666667 2216.3 0.0 0.0 1.0
-138.48566666666667 -95.9096 2028.47 0.0 0.0 1.0
-143.30866666666665 -93.13576666666667 2216.3 0.0 0.0 1.0
-136.48666666666668 -69.27929999999999 2021.62 0.0 0.0 1.0
-142.71599999999998 -67.06173333333334 2216.3 0.0 0.0 1.0
-142.91366666666667 -64.49383333333334 2216.3 0.0 0.0 1.0
-142.51866666666666 -63.90123333333333 2216.3 0.0 0.0 1.0
-143.30866666666665 -41.77779999999999 2216.3 0.0 0.0 1.0
-142.71599999999998 -23.4074 2216.3 0.0 0.0 1.0
-142.71599999999998 -22.41973333333333 2216.3 0.0 0.0 1.0
-142.91366666666667 -9.777790000000001 2216.3 0.0 0.0 1.0
-142.91366666666667 -9.777790000000001 2216.3 0.0 0.0 1.0
-142.71633333333332 -6.617286666666666 2216.3 0.0 0.0 1.0
-142.91366666666667 -5.827163333333334 2216.3 0.0 0.0 1.0
-143.30866666666665 -1.2839486666666666 2216.3 0.0 0.0 1.0
-143.11133333333333 1.4814796666666668 2216.3 0.0 0.0 1.0
-143.30866666666665 7.209879999999999 2216.3 0.0 0.0 1.0
-142.716 10.172853333333334 2216.3 0.0 0.0 1.0
-142.321 27.555566666666667 2216.3 0.0 0.0 1.0
-142.716 37.03703333333333 2216.3 0.0 0.0 1.0
-132.923 33.3949 1841.2300000000002 -7.991178109208795e-28 1.1197070705217885e-26 1.0
-131.77433333333335 36.841 1841.2300000000002 5.924604747927252e-27 2.9544799220313504e-27 1.0
-143.506 51.851866666666666 2216.3 0.0 0.0 1.0
-143.30866666666665 52.444433333333336 2216.3 0.0 0.0 1.0
-143.50633333333334 60.14816666666667 2216.3 0.0 0.0 1.0
-142.321 73.7778 2216.3 0.0 0.0 1.0
-142.51866666666666 77.72836666666666 2216.3 0.0 0.0 1.0
-132.114 81.0569 1824.39 0.0 0.0 1.0
-132.92566666666667 88.318 1829.97 0.0 0.0 1.0
-132.59933333333333 89.949 1829.97 0.0 0.0 1.0
-131.111 119.91766666666666 1846.91 0.0 0.0 1.0
-142.321 162.27133333333333 2216.3 0.0 0.0 1.0
-143.70366666666666 -155.556 2216.3 0.0 0.0 1.0
-144.09900000000002 -147.45666666666668 2216.3 0.0 0.0 1.0
-143.704 -145.8766666666667 2216.3 0.0 0.0 1.0
-143.90133333333333 -144.09900000000002 2216.3 0.0 0.0 1.0
-143.30866666666665 -140.938 2216.3 0.0 0.0 1.0
-144.494 -129.87633333333335 2216.3 0.0 0.0 1.0
-143.70366666666666 -123.556 2216.3 0.0 0.0 1.0
-143.50633333333334 -117.43200000000002 2216.3 0.0 0.0 1.0
-144.29633333333334 -111.50633333333333 2216.3 0.0 0.0 1.0
-143.7036666666667 -87.60493333333334 2216.3 0.0 0.0 1.0
-139.54933333333335 -67.47746666666667 2021.62 0.0 0.0 1.0
-143.70400000000004 -59.9506 2216.3 0.0 0.0 1.0
-143.11133333333333 1.4814796666666668 2216.3 0.0 0.0 1.0
-144.09866666666667 9.58025 2216.3 0.0 0.0 1.0
-144.494 24.790133333333333 2216.3 0.0 0.0 1.0
-142.5186666666667 36.24693333333334 2216.3 0.0 0.0 1.0
-143.90133333333333 53.432066666666664 2216.3 0.0 0.0 1.0
-143.90133333333333 53.432066666666664 2216.3 0.0 0.0 1.0
-143.50633333333334 62.518499999999996 2216.3 0.0 0.0 1.0
-132.927 83.17070000000001 1824.39 0.0 0.0 1.0
-132.11 90.60140000000001 1829.97 0.0 0.0 1.0
-133.41466666666668 95.00510000000001 1829.97 0.0 0.0 1.0
-133.25166666666667 98.24130000000001 1835.58 0.0 0.0 1.0
-143.50633333333334 131.852 2216.3 0.0 0.0 1.0
-133.91133333333335 117.48200000000001 1852.63 0.0 0.0 1.0
-132.757 123.37466666666666 1846.91 0.0 0.0 1.0
-145.08633333333333 163.852 2216.3 0.0 0.0 1.0
-144.88866666666667 -162.27166666666668 2216.3 0.0 0.0 1.0
-144.49366666666666 -160.49366666666666 2216.3 0.0 0.0 1.0
-144.09866666666667 -155.75333333333333 2216.3 0.0 0.0 1.0
-144.09866666666667 -155.75333333333333 2216.3 0.0 0.0 1.0
-143.90133333333333 -142.5186666666667 2216.3 0.0 0.0 1.0
-143.506 -136.98766666666666 2216.3 0.0 0.0 1.0
-143.70366666666666 -133.037 2216.3 0.0 0.0 1.0
-144.691 -132.24666666666667 2216.3 0.0 0.0 1.0
-144.09866666666667 -112.49366666666667 2216.3 0.0 0.0 1.0
-138.847 -95.72879999999999 2028.47 0.0 0.0 1.0
-138.847 -95.72879999999999 2028.47 0.0 0.0 1.0
-138.847 -95.72880000000002 2028.47 0.0 0.0 1.0
-144.29633333333334 -82.27163333333334 2216.3 0.0 0.0 1.0
-137.38733333333332 -64.23426666666667 2021.62 0.0 0.0 1.0
-145.08633333333333 -52.83950000000001 2216.3 0.0 0.0 1.0
-144.09866666666667 -42.96296666666666 2216.3 0.0 0.0 1.0
-143.90099999999998 -31.50616666666667 2216.3 0.0 0.0 1.0
-144.88866666666667 -19.259266666666665 2216.3 0.0 0.0 1.0
-144.49366666666666 -17.283966666666668 2216.3 0.0 0.0 1.0
-144.09866666666667 -1.67901 2216.3 0.0 0.0 1.0
-143.90133333333333 2.6666666666666665 2216.3 0.0 0.0 1.0
-143.30866666666665 7.209879999999999 2216.3 0.0 0.0 1.0
-144.29633333333334 21.432066666666667 2216.3 0.0 0.0 1.0
-144.49366666666666 47.308633333333326 2216.3 0.0 0.0 1.0
-144.296 47.7037 2216.3 0.0 0.0 1.0
-144.49366666666666 48.09876666666667 2216.3 0.0 0.0 1.0
-143.90099999999998 51.259299999999996 2216.3 0.0 0.0 1.0
-143.90099999999998 51.259299999999996 2216.3 0.0 0.0 1.0
-143.90133333333333 53.432066666666664 2216.3 0.0 0.0 1.0
-145.08633333333333 68.44443333333334 2216.3 0.0 0.0 1.0
-144.494 79.50616666666667 2216.3 0.0 0.0 1.0
-132.927 83.1707 1824.39 0.0 0.0 1.0
-133.08866666666668 89.29660000000001 1829.97 0.0 0.0 1.0
-133.25166666666667 98.24130000000001 1835.58 0.0 0.0 1.0
-144.09866666666667 132.83966666666666 2216.3 0.0 0.0 1.0
-144.29599999999996 137.185 2216.3 0.0 0.0 1.0
-133.91133333333335 117.48200000000001 1852.63 0.0 0.0 1.0
-143.506 157.926 2216.3 0.0 0.0 1.0
-143.506 157.926 2216.3 0.0 0.0 1.0
-144.88866666666667 -162.27166666666668 2216.3 0.0 0.0 1.0
-144.09866666666667 -159.30866666666665 2216.3 0.0 0.0 1.0
-144.69133333333335 -154.37033333333332 2216.3 0.0 0.0 1.0
-144.69133333333335 -154.37033333333332 2216.3 0.0 0.0 1.0
-145.08666666666667 -148.44433333333333 2216.3 0.0 0.0 1.0
-145.08633333333333 -130.469 2216.3 0.0 0.0 1.0
-144.494 -129.87633333333335 2216.3 0.0 0.0 1.0
-143.22000000000003 -117.823 2035.37 0.0 0.0 1.0
-145.679 -122.568 2216.3 0.0 0.0 1.0
-143.90133333333333 -118.41966666666667 2216.3 0.0 0.0 1.0
-145.08666666666667 -111.11133333333333 2216.3 0.0 0.0 1.0
-140.11333333333334 -87.59323333333333 2028.47 0.0 0.0 1.0
-144.69133333333335 -93.13576666666667 2216.3 0.0 0.0 1.0
-145.08633333333333 -52.83950000000001 2216.3 0.0 0.0 1.0
-145.08633333333333 -45.135766666666676 2216.3 0.0 0.0 1.0
-144.69133333333335 -43.9506 2216.3 0.0 0.0 1.0
-144.88866666666667 -15.506166666666667 2216.3 0.0 0.0 1.0
-145.08633333333333 -1.8765433333333332 2216.3 0.0 0.0 1.0
-144.29633333333334 2.271606333333333 2216.3 0.0 0.0 1.0
-135.14433333333332 11.772093333333332 1822.55 -2.7804417036414294e-16 0.9576551354137784 0.2879177688431502
-144.494 24.790133333333333 2216.3 0.0 0.0 1.0
-144.889 25.1852 2216.3 0.0 0.0 1.0
-144.889 25.1852 2216.3 0.0 0.0 1.0
-143.50633333333334 28.5432 2216.3 0.0 0.0 1.0
-134.89266666666666 31.09743333333334 1841.2300000000002 -1.6662809823763404e-27 -1.2497636211602684e-27 1.0
-144.88866666666667 47.1111 2216.3 0.0 0.0 1.0
-144.49366666666666 48.09876666666667 2216.3 0.0 0.0 1.0
-143.90133333333333 61.333333333333336 2216.3 0.0 0.0 1.0
-145.08633333333333 68.44443333333334 2216.3 0.0 0.0 1.0
-144.29633333333334 72.5926 2216.3 0.0 0.0 1.0
-145.679 89.18520000000001 2216.3 0.0 0.0 1.0
-134.06499999999997 80.7317 1824.39 0.0 0.0 1.0
-132.927 83.1707 1824.39 0.0 0.0 1.0
-134.06733333333332 88.48110000000001 1829.97 0.0 0.0 1.0
-133.741 94.5158 1829.97 0.0 0.0 1.0
-133.74099999999999 94.51580000000001 1829.97 0.0 0.0 1.0
-133.74233333333333 99.7138 1835.58 0.0 0.0 1.0
-141.92600000000002 142.12333333333333 2216.3 0.0 0.0 1.0
-132.757 123.37466666666666 1846.91 0.0 0.0 1.0
-133.251 126.33733333333333 1846.91 0.0 0.0 1.0
-144.49366666666666 156.74066666666667 2216.3 0.0 0.0 1.0
-144.88866666666667 -162.27166666666668 2216.3 0.0 0.0 1.0
-144.88866666666667 -131.45666666666668 2216.3 0.0 0.0 1.0
-146.07399999999998 -123.358 2216.3 0.0 0.0 1.0
-145.67866666666666 -113.48166666666667 2216.3 0.0 0.0 1.0
-145.87633333333335 -109.531 2216.3 0.0 0.0 1.0
-145.67866666666666 -91.55556666666666 2216.3 0.0 0.0 1.0
-145.67866666666666 -90.3704 2216.3 0.0 0.0 1.0
-147.06166666666664 -78.12343333333334 2216.3 0.0 0.0 1.0
-145.87633333333335 -64.88889999999999 2216.3 0.0 0.0 1.0
-145.28366666666668 -53.827133333333336 2216.3 0.0 0.0 1.0
-145.28366666666668 -49.08643333333333 2216.3 0.0 0.0 1.0
-145.28366666666668 -46.716033333333336 2216.3 0.0 0.0 1.0
-145.4813333333333 -33.283966666666664 2216.3 0.0 0.0 1.0
-144.88866666666667 -15.506166666666667 2216.3 0.0 0.0 1.0
-146.07399999999998 -3.25926 2216.3 0.0 0.0 1.0
-145.87633333333335 4.444446666666667 2216.3 0.0 0.0 1.0
-144.49366666666666 8.790126666666666 2216.3 0.0 0.0 1.0
-145.87633333333335 19.259266666666665 2216.3 0.0 0.0 1.0
-134.72833333333332 33.559000000000005 1841.2300000000002 -1.7390997753742947e-26 5.922399256999668e-27 1.0
-134.72833333333332 34.7077 1841.2300000000002 -3.996401990612923e-26 -1.3326751847632434e-26 1.0
-144.88866666666667 47.1111 2216.3 0.0 0.0 1.0
-135.391 53.0864 1846.91 0.0 0.0 1.0
-145.08633333333333 71.20986666666667 2216.3 0.0 0.0 1.0
-135.477 67.86233333333332 1828.11 -1.202207825025089e-16 -0.9782318604902076 0.20751488409718205
-145.679 91.95060000000001 2216.3 0.0 0.0 1.0
-133.90433333333334 88.9704 1829.97 0.0 0.0 1.0
-134.23033333333333 94.842 1829.97 0.0 0.0 1.0
-136.03266666666667 105.43966666666665 1835.58 0.0 0.0 1.0
-145.48133333333334 133.43233333333333 2216.3 0.0 0.0 1.0
-133.91133333333335 117.48200000000001 1852.63 0.0 0.0 1.0
-136.205 127.75399999999998 1841.2300000000002 -9.68482218945237e-28 3.1601410179121508e-27 1.0
-146.07399999999998 163.852 2216.3 0.0 0.0 1.0
-146.86433333333332 -143.30866666666665 2216.3 0.0 0.0 1.0
-146.46933333333334 -127.70366666666666 2216.3 0.0 0.0 1.0
-146.07399999999998 -123.358 2216.3 0.0 0.0 1.0
-140.65566666666666 -87.77403333333332 2028.47 0.0 0.0 1.0
-140.65566666666666 -86.87006666666667 2028.47 0.0 0.0 1.0
-145.48133333333334 -92.5432 2216.3 0.0 0.0 1.0
-146.27133333333333 -89.58026666666666 2216.3 0.0 0.0 1.0
-145.48133333333334 -81.87656666666668 2216.3 0.0 0.0 1.0
-145.48133333333334 -81.87656666666668 2216.3 0.0 0.0 1.0
-140.63033333333334 -67.47746666666667 2021.62 0.0 0.0 1.0
-140.63033333333334 -67.47746666666667 2021.62 0.0 0.0 1.0
-146.27166666666668 -66.46916666666665 2216.3 0.0 0.0 1.0
-146.27166666666668 -65.67903333333334 2216.3 0.0 0.0 1.0
-145.87633333333335 -64.8889 2216.3 0.0 0.0 1.0
-147.06166666666664 -56.79013333333334 2216.3 0.0 0.0 1.0
-145.28366666666668 -53.827133333333336 2216.3 0.0 0.0 1.0
-147.06166666666664 -41.97533333333333 2216.3 0.0 0.0 1.0
-146.66666666666666 -35.851866666666666 2216.3 0.0 0.0 1.0
-145.08633333333333 -22.617266666666666 2216.3 0.0 0.0 1.0
-146.27166666666668 -21.6296 2216.3 0.0 0.0 1.0
-146.86433333333332 -8.790123333333334 2216.3 0.0 0.0 1.0
-131.75633333333334 -8.439423333333332 1992.46 0.3646993885395998 0.9117484713489996 0.18896846560102237
-146.07399999999998 -3.25926 2216.3 0.0 0.0 1.0
-146.86433333333332 13.530833333333334 2216.3 0.0 0.0 1.0
-145.87633333333335 19.259266666666665 2216.3 0.0 0.0 1.0
-145.87633333333335 19.259266666666665 2216.3 0.0 0.0 1.0
-146.27166666666668 23.012333333333334 2216.3 0.0 0.0 1.0
-146.27166666666668 23.80246666666667 2216.3 0.0 0.0 1.0
-145.679 55.4074 2216.3 0.0 0.0 1.0
-136.261 52.97753333333333 1843.1233333333332 -0.21640316408682825 0.9738801747600435 0.06875373286270746
-146.66666666666666 67.25926666666666 2216.3 0.0 0.0 1.0
-146.66666666666666 88.5926 2216.3 0.0 0.0 1.0
-145.679 89.18520000000001 2216.3 0.0 0.0 1.0
-134.39 80.0813 1824.39 0.0 0.0 1.0
-134.39 80.0813 1824.39 0.0 0.0 1.0
-134.06499999999997 80.73169999999999 1824.39 0.0 0.0 1.0
-134.06733333333332 88.48110000000001 1829.97 0.0 0.0 1.0
-134.233 102.0041 1835.58 0.0 0.0 1.0
-146.07399999999998 163.852 2216.3 0.0 0.0 1.0
-146.86433333333335 -148.64166666666665 2216.3 0.0 0.0 1.0
-146.86433333333332 -143.30866666666665 2216.3 0.0 0.0 1.0
-147.45666666666668 -140.14833333333334 2216.3 0.0 0.0 1.0
-146.46933333333334 -127.70366666666666 2216.3 0.0 0.0 1.0
-146.46933333333334 -127.70366666666666 2216.3 0.0 0.0 1.0
-146.86433333333332 -126.12333333333333 2216.3 0.0 0.0 1.0
-146.864 -122.568 2216.3 0.0 0.0 1.0
-147.25933333333333 -112.49399999999999 2216.3 0.0 0.0 1.0
-148.64200000000002 -101.827 2216.3 0.0 0.0 1.0
-147.6543333333333 -86.2222 2216.3 0.0 0.0 1.0
-146.27166666666668 -66.46916666666665 2216.3 0.0 0.0 1.0
-146.66666666666666 -57.97533333333334 2216.3 0.0 0.0 1.0
-146.66666666666666 -42.567933333333336 2216.3 0.0 0.0 1.0
-146.66666666666666 -35.851866666666666 2216.3 0.0 0.0 1.0
-148.04966666666667 -28.938266666666667 2216.3 0.0 0.0 1.0
-145.679 -20.2469 2216.3 0.0 0.0 1.0
-146.86433333333332 -8.790123333333334 2216.3 0.0 0.0 1.0
-145.531 0.46224333333333395 1994.6833333333334 0.7257685580940989 0.6617549204695155 0.18799049262236048
-146.66666666666666 -3.45679 2216.3 0.0 0.0 1.0
-146.86433333333332 13.530833333333334 2216.3 0.0 0.0 1.0
-146.27166666666668 21.827133333333336 2216.3 0.0 0.0 1.0
-145.87666666666667 24.39506666666667 2216.3 0.0 0.0 1.0
-134.89266666666666 31.09743333333334 1841.2300000000002 -1.6662809823763365e-27 -1.2497636211602668e-27 1.0
-135.05666666666664 32.24616666666667 1841.2300000000002 -3.559265928233331e-26 1.0410975042709227e-26 1.0
-134.072 35.8564 1841.2300000000002 -2.665282432420052e-28 9.331433180963082e-28 1.0
-146.07433333333333 48.8889 2216.3 0.0 0.0 1.0
-146.07433333333333 48.8889 2216.3 0.0 0.0 1.0
-147.062 51.25926666666667 2216.3 0.0 0.0 1.0
-147.25933333333333 56.39506666666667 2216.3 0.0 0.0 1.0
-135.88466666666667 52.9218 1846.91 0.0 0.0 1.0
-147.062 65.87656666666668 2216.3 0.0 0.0 1.0
-147.062 65.87656666666668 2216.3 0.0 0.0 1.0
-146.07399999999998 80.2963 2216.3 0.0 0.0 1.0
-146.66666666666666 93.33330000000001 2216.3 0.0 0.0 1.0
-135.535 92.39550000000001 1829.97 0.0 0.0 1.0
-134.88266666666667 94.842 1829.97 0.0 0.0 1.0
-146.46900000000002 134.42 2216.3 0.0 0.0 1.0
-147.25933333333333 160.09866666666667 2216.3 0.0 0.0 1.0
-146.07399999999998 163.852 2216.3 0.0 0.0 1.0
-146.864 -154.1726666666667 2216.3 0.0 0.0 1.0
-147.85166666666666 -152.19733333333335 2216.3 0.0 0.0 1.0
-147.45666666666668 -140.14833333333334 2216.3 0.0 0.0 1.0
-148.04899999999998 -117.82733333333333 2216.3 0.0 0.0 1.0
-147.25933333333333 -112.49399999999999 2216.3 0.0 0.0 1.0
-146.46900000000002 -109.72866666666665 2216.3 0.0 0.0 1.0
-147.06166666666664 -89.58026666666666 2216.3 0.0 0.0 1.0
-141.351 -67.47746666666667 2021.62 0.0 0.0 1.0
-146.864 -64.2963 2216.3 0.0 0.0 1.0
-146.864 -64.2963 2216.3 0.0 0.0 1.0
-147.06166666666664 -56.79013333333334 2216.3 0.0 0.0 1.0
-147.45666666666668 -42.76546666666667 2216.3 0.0 0.0 1.0
-147.25933333333333 -35.851866666666666 2216.3 0.0 0.0 1.0
-146.469 -3.85185 2216.3 0.0 0.0 1.0
-137.56766666666667 12.389633333333334 1817.0033333333333 -4.6533745226127846e-17 -0.9651685213353515 0.2616289842951874
-136.37833333333333 51.76953333333333 1846.91 0.0 0.0 1.0
-135.88466666666667 52.9218 1846.91 0.0 0.0 1.0
-135.88466666666667 52.9218 1846.91 0.0 0.0 1.0
-147.259 67.85186666666667 2216.3 0.0 0.0 1.0
-146.07399999999998 80.2963 2216.3 0.0 0.0 1.0
-135.477 67.86233333333332 1828.11 -1.202207825025089e-16 -0.9782318604902076 0.20751488409718205
-147.06166666666667 87.4074 2216.3 0.0 0.0 1.0
-135.535 92.39550000000001 1829.97 0.0 0.0 1.0
-135.535 94.35269999999998 1829.97 0.0 0.0 1.0
-146.469 134.42 2216.3 0.0 0.0 1.0
-147.25933333333333 160.09866666666667 2216.3 0.0 0.0 1.0
-148.04933333333335 -152.0 2216.3 0.0 0.0 1.0
-147.852 -143.50633333333334 2216.3 0.0 0.0 1.0
-147.6543333333333 -138.76566666666668 2216.3 0.0 0.0 1.0
-147.062 -127.70366666666666 2216.3 0.0 0.0 1.0
-147.457 -126.12333333333333 2216.3 0.0 0.0 1.0
-147.25933333333333 -112.49399999999999 2216.3 0.0 0.0 1.0
-142.102 -85.9661 2028.47 0.0 0.0 1.0
-148.24699999999999 -90.17286666666666 2216.3 0.0 0.0 1.0
-147.6543333333333 -86.2222 2216.3 0.0 0.0 1.0
-147.65433333333334 -80.09876666666666 2216.3 0.0 0.0 1.0
-147.45666666666668 -77.9259 2216.3 0.0 0.0 1.0
-147.25933333333333 -65.4815 2216.3 0.0 0.0 1.0
-147.85166666666666 -56.19753333333333 2216.3 0.0 0.0 1.0
-146.27166666666668 -52.44446666666667 2216.3 0.0 0.0 1.0
-147.85166666666666 -36.444433333333336 2216.3 0.0 0.0 1.0
-147.852 -27.160500000000003 2216.3 0.0 0.0 1.0
-148.44466666666668 -17.4815 2216.3 0.0 0.0 1.0
-148.44466666666668 -17.4815 2216.3 0.0 0.0 1.0
-146.86433333333335 -8.790123333333334 2216.3 0.0 0.0 1.0
-147.852 -1.4814813333333332 2216.3 0.0 0.0 1.0
-147.85166666666666 5.432100000000001 2216.3 0.0 0.0 1.0
-149.43200000000002 9.58025 2216.3 0.0 0.0 1.0
-146.86433333333335 13.530833333333334 2216.3 0.0 0.0 1.0
-148.44433333333333 28.7407 2216.3 0.0 0.0 1.0
-147.062 51.25926666666667 2216.3 0.0 0.0 1.0
-147.062 65.87656666666668 2216.3 0.0 0.0 1.0
-147.0616666666667 87.4074 2216.3 0.0 0.0 1.0
-146.46900000000002 90.96296666666666 2216.3 0.0 0.0 1.0
-147.457 92.93826666666666 2216.3 0.0 0.0 1.0
-134.06533333333334 83.33330000000001 1824.39 0.0 0.0 1.0
-135.535 94.35269999999998 1829.97 0.0 0.0 1.0
-138.01 122.50266666666666 1841.2300000000002 -2.3652214737577337e-27 -7.090940158958937e-28 1.0
-136.53333333333333 128.41033333333334 1841.2300000000002 4.404154596137716e-28 -3.3593422994620364e-27 1.0
-147.852 159.11133333333333 2216.3 0.0 0.0 1.0
-147.25933333333333 160.09866666666667 2216.3 0.0 0.0 1.0
-147.85166666666666 -163.45666666666668 2216.3 0.0 0.0 1.0
-148.24666666666667 -152.59266666666667 2216.3 0.0 0.0 1.0
-148.64166666666665 -140.148 2216.3 0.0 0.0 1.0
-148.24666666666667 -138.963 2216.3 0.0 0.0 1.0
-147.85166666666666 -120.98766666666667 2216.3 0.0 0.0 1.0
-148.64166666666665 -118.42 2216.3 0.0 0.0 1.0
-148.04899999999998 -117.82733333333333 2216.3 0.0 0.0 1.0
-147.6543333333333 -86.2222 2216.3 0.0 0.0 1.0
-141.351 -67.65763333333335 2021.62 0.0 0.0 1.0
-142.7926666666667 -66.21623333333334 2021.62 0.0 0.0 1.0
-147.85166666666666 -56.19753333333333 2216.3 0.0 0.0 1.0
-148.44433333333333 -42.3704 2216.3 0.0 0.0 1.0
-148.24666666666667 -37.037 2216.3 0.0 0.0 1.0
-148.24666666666667 -37.037 2216.3 0.0 0.0 1.0
-147.85166666666666 19.061766666666667 2216.3 0.0 0.0 1.0
-149.037 27.950599999999998 2216.3 0.0 0.0 1.0
-148.83933333333334 57.97533333333333 2216.3 0.0 0.0 1.0
-136.37833333333333 51.769533333333335 1846.91 0.0 0.0 1.0
-148.64166666666665 68.0494 2216.3 0.0 0.0 1.0
-137.34166666666667 105.93066666666665 1835.58 0.0 0.0 1.0
-148.44433333333333 -152.395 2216.3 0.0 0.0 1.0
-148.64200000000002 -149.037 2216.3 0.0 0.0 1.0
-147.852 -143.50633333333334 2216.3 0.0 0.0 1.0
-149.23433333333332 -140.938 2216.3 0.0 0.0 1.0
-144.12699999999998 -123.08366666666666 2035.37 0.0 0.0 1.0
-149.23433333333332 -118.815 2216.3 0.0 0.0 1.0
-148.64200000000002 -101.827 2216.3 0.0 0.0 1.0
-149.037 -79.1111 2216.3 0.0 0.0 1.0
-149.82733333333334 -67.45683333333334 2216.3 0.0 0.0 1.0
-149.62966666666668 -61.530833333333334 2216.3 0.0 0.0 1.0
-149.037 -25.7778 2216.3 0.0 0.0 1.0
-149.82733333333334 -11.160493333333333 2216.3 0.0 0.0 1.0
-147.65433333333334 -1.2839513333333332 2216.3 0.0 0.0 1.0
-137.56766666666667 12.389633333333334 1817.0033333333333 -4.6533745226127846e-17 -0.9651685213353515 0.2616289842951874
-149.62933333333334 19.2593 2216.3 0.0 0.0 1.0
-149.037 27.950599999999998 2216.3 0.0 0.0 1.0
-149.827 46.12343333333333 2216.3 0.0 0.0 1.0
-149.2346666666667 48.49383333333333 2216.3 0.0 0.0 1.0
-149.2346666666667 48.49383333333333 2216.3 0.0 0.0 1.0
-149.2346666666667 56.98766666666666 2216.3 0.0 0.0 1.0
-148.83933333333334 57.97533333333333 2216.3 0.0 0.0 1.0
-149.432 69.03703333333333 2216.3 0.0 0.0 1.0
-149.827 75.1605 2216.3 0.0 0.0 1.0
-149.827 78.91356666666665 2216.3 0.0 0.0 1.0
-139.26833333333332 67.0732 1824.39 0.0 0.0 1.0
-137.34166666666667 105.93066666666665 1835.58 0.0 0.0 1.0
-147.06166666666667 133.03733333333332 2216.3 0.0 0.0 1.0
-135.49766666666667 118.64233333333334 1845.0166666666667 -0.09403273413059518 0.9399466419774911 0.32811302191038233
-148.83966666666666 159.11133333333333 2216.3 0.0 0.0 1.0
-150.2223333333333 -164.24666666666667 2216.3 0.0 0.0 1.0
-144.67133333333334 -120.90666666666665 2035.37 0.0 0.0 1.0
-150.61733333333333 -105.77766666666666 2216.3 0.0 0.0 1.0
-144.81366666666668 -85.24293333333333 2028.47 0.0 0.0 1.0
-148.24699999999999 -90.17286666666666 2216.3 0.0 0.0 1.0
-149.82733333333334 -67.45683333333334 2216.3 0.0 0.0 1.0
-149.62966666666668 -61.530833333333334 2216.3 0.0 0.0 1.0
-150.025 -32.69136666666667 2216.3 0.0 0.0 1.0
-150.42 -29.333299999999998 2216.3 0.0 0.0 1.0
-150.22233333333335 -20.8395 2216.3 0.0 0.0 1.0
-149.62966666666668 -17.876566666666665 2216.3 0.0 0.0 1.0
-149.03733333333332 -14.913566666666668 2216.3 0.0 0.0 1.0
-149.43233333333333 -12.938266666666665 2216.3 0.0 0.0 1.0
-150.42 -8.0 2216.3 0.0 0.0 1.0
-150.025 -5.827159999999999 2216.3 0.0 0.0 1.0
-149.82733333333334 27.7531 2216.3 0.0 0.0 1.0
-150.02499999999998 31.308633333333333 2216.3 0.0 0.0 1.0
-139.15866666666668 29.456400000000002 1841.2300000000002 2.750275537478778e-26 -3.9999883292490633e-26 1.0
-149.2346666666667 48.49383333333333 2216.3 0.0 0.0 1.0
-149.2346666666667 56.98766666666666 2216.3 0.0 0.0 1.0
-138.47066666666666 86.68706666666667 1829.97 0.0 0.0 1.0
-137.492 88.15493333333332 1829.97 0.0 0.0 1.0
-137.16599999999997 91.58 1829.97 0.0 0.0 1.0
-139.141 98.56853333333333 1835.58 0.0 0.0 1.0
-138.487 110.02033333333333 1835.58 0.0 0.0 1.0
-138.50233333333333 125.29266666666666 1841.2300000000002 -5.430219145231196e-27 1.3154647498027803e-27 1.0
-150.22233333333335 157.33333333333334 2216.3 0.0 0.0 1.0
-149.43233333333333 158.12333333333333 2216.3 0.0 0.0 1.0
-149.43233333333333 158.91366666666667 2216.3 0.0 0.0 1.0
-149.037 -149.827 2216.3 0.0 0.0 1.0
-149.23433333333332 -140.938 2216.3 0.0 0.0 1.0
-150.222 -138.37033333333332 2216.3 0.0 0.0 1.0
-150.222 -138.37033333333332 2216.3 0.0 0.0 1.0
-150.222 -138.37033333333332 2216.3 0.0 0.0 1.0
-149.827 -118.22233333333334 2216.3 0.0 0.0 1.0
-149.62933333333334 -117.82733333333333 2216.3 0.0 0.0 1.0
-150.02466666666666 -104.19733333333333 2216.3 0.0 0.0 1.0
-149.827 -102.222 2216.3 0.0 0.0 1.0
-145.898 -89.94349999999999 2028.47 0.0 0.0 1.0
-148.83933333333334 -86.61726666666665 2216.3 0.0 0.0 1.0
-150.41966666666667 -78.71603333333333 2216.3 0.0 0.0 1.0
-149.62966666666668 -61.530833333333334 2216.3 0.0 0.0 1.0
-150.41966666666667 -42.76546666666667 2216.3 0.0 0.0 1.0
-150.41966666666667 -42.76546666666667 2216.3 0.0 0.0 1.0
-150.81466666666668 -39.20986666666666 2216.3 0.0 0.0 1.0
-150.222 -24.5926 2216.3 0.0 0.0 1.0
-151.01233333333334 6.419753333333333 2216.3 0.0 0.0 1.0
-150.41966666666667 8.987656666666666 2216.3 0.0 0.0 1.0
-150.222 9.975323333333334 2216.3 0.0 0.0 1.0
-150.222 9.975323333333334 2216.3 0.0 0.0 1.0
-151.01233333333332 23.604933333333335 2216.3 0.0 0.0 1.0
-143.311 45.4746 1981.46 0.0 0.0 1.0
-150.02433333333332 67.65436666666666 2216.3 0.0 0.0 1.0
-149.827 78.91356666666667 2216.3 0.0 0.0 1.0
-149.827 78.91356666666667 2216.3 0.0 0.0 1.0
-138.97766666666666 103.47633333333334 1835.58 0.0 0.0 1.0
-138.32333333333332 106.09433333333334 1835.58 0.0 0.0 1.0
-138.487 110.02033333333333 1835.58 0.0 0.0 1.0
-139.46833333333333 112.14733333333334 1835.58 0.0 0.0 1.0
-138.50233333333333 124.472 1841.2300000000002 -8.155602089886251e-26 4.8262814129350624e-26 1.0
-145.21533333333335 -124.17233333333333 2035.37 0.0 0.0 1.0
-144.67133333333334 -120.90666666666668 2035.37 0.0 0.0 1.0
-144.67133333333334 -120.90666666666668 2035.37 0.0 0.0 1.0
-143.153 -66.39640000000001 2021.62 0.0 0.0 1.0
-150.61733333333333 -66.6667 2216.3 0.0 0.0 1.0
-151.40733333333333 -45.72836666666666 2216.3 0.0 0.0 1.0
-150.41966666666667 -42.76546666666667 2216.3 0.0 0.0 1.0
-150.81466666666665 -39.20986666666666 2216.3 0.0 0.0 1.0
-151.01266666666666 -34.271633333333334 2216.3 0.0 0.0 1.0
-150.42 -29.333299999999998 2216.3 0.0 0.0 1.0
-151.605 -28.7407 2216.3 0.0 0.0 1.0
-150.815 -8.790123333333334 2216.3 0.0 0.0 1.0
-150.815 -8.790123333333334 2216.3 0.0 0.0 1.0
-150.42 -8.0 2216.3 0.0 0.0 1.0
-150.61733333333333 -5.037036666666666 2216.3 0.0 0.0 1.0
-150.41966666666667 7.80247 2216.3 0.0 0.0 1.0
-151.01233333333332 26.962999999999997 2216.3 0.0 0.0 1.0
-150.61733333333333 27.358066666666662 2216.3 0.0 0.0 1.0
-139.159 34.3795 1841.2300000000002 -4.6723570836804523e-26 -1.3348424664097455e-26 1.0
-143.311 45.4746 1981.46 0.0 0.0 1.0
-150.61733333333333 70.02466666666668 2216.3 0.0 0.0 1.0
-151.01233333333334 86.02466666666668 2216.3 0.0 0.0 1.0
-151.01233333333332 86.02466666666668 2216.3 0.0 0.0 1.0
-151.605 89.7778 2216.3 0.0 0.0 1.0
-137.32899999999998 92.23239999999998 1829.97 0.0 0.0 1.0
-138.814 104.62166666666667 1835.58 0.0 0.0 1.0
-139.32299999999998 127.26166666666666 1841.2300000000002 -2.620291925748306e-26 9.87879969157277e-28 1.0
-152.79 -159.111 2216.3 0.0 0.0 1.0
-144.81366666666668 -85.24293333333333 2028.47 0.0 0.0 1.0
-145.356 -84.70056666666666 2028.47 0.0 0.0 1.0
-145.53666666666666 -83.43503333333334 2028.47 0.0 0.0 1.0
-146.079 -77.83053333333334 2028.47 0.0 0.0 1.0
-151.40733333333336 -65.67903333333334 2216.3 0.0 0.0 1.0
-152.39499999999998 -52.64196666666667 2216.3 0.0 0.0 1.0
-151.01233333333332 -44.54319999999999 2216.3 0.0 0.0 1.0
-150.81466666666668 -39.20986666666666 2216.3 0.0 0.0 1.0
-151.40733333333333 -24.5926 2216.3 0.0 0.0 1.0
-151.21 -17.679033333333333 2216.3 0.0 0.0 1.0
-150.61733333333333 -5.037036666666666 2216.3 0.0 0.0 1.0
-150.81466666666668 19.851866666666666 2216.3 0.0 0.0 1.0
-151.40733333333336 27.160533333333333 2216.3 0.0 0.0 1.0
-139.159 34.3795 1841.2300000000002 -4.6723570836804523e-26 -1.3348424664097455e-26 1.0
-139.159 34.3795 1841.2300000000002 -4.6723570836804523e-26 -1.3348424664097455e-26 1.0
-150.0246666666667 47.50616666666667 2216.3 0.0 0.0 1.0
-143.311 45.4746 1981.46 0.0 0.0 1.0
-150.617 51.25926666666667 2216.3 0.0 0.0 1.0
-152.39466666666667 52.64196666666667 2216.3 0.0 0.0 1.0
-151.01233333333334 57.58026666666666 2216.3 0.0 0.0 1.0
-137.08400000000003 52.3191 1843.1233333333332 -0.2069472942443631 0.9313258793385896 0.29967469676157205
-150.81466666666668 68.24693333333333 2216.3 0.0 0.0 1.0
-151.80233333333334 71.80246666666666 2216.3 0.0 0.0 1.0
-151.80233333333334 84.44443333333334 2216.3 0.0 0.0 1.0
-151.01233333333332 86.02466666666668 2216.3 0.0 0.0 1.0
-151.605 89.7778 2216.3 0.0 0.0 1.0
-151.99966666666668 91.95060000000001 2216.3 0.0 0.0 1.0
-140.12266666666667 100.85883333333334 1835.58 0.0 0.0 1.0
-139.65099999999998 123.48733333333332 1841.2300000000002 -3.996552513952173e-26 7.992503545188801e-26 1.0
-138.9946666666667 125.78500000000001 1841.2300000000002 1.0761972206014595e-42 -0.9980525784828884 0.0623782861551807
-150.22233333333335 157.33333333333334 2216.3 0.0 0.0 1.0
-149.62966666666668 161.08633333333333 2216.3 0.0 0.0 1.0
-152.79033333333334 -152.593 2216.3 0.0 0.0 1.0
-147.02933333333334 -118.18599999999999 2035.37 0.0 0.0 1.0
-153.18533333333335 -118.02466666666665 2216.3 0.0 0.0 1.0
-152.59266666666667 -107.55566666666665 2216.3 0.0 0.0 1.0
-152.395 -107.16033333333333 2216.3 0.0 0.0 1.0
-146.07899999999998 -90.12426666666666 2028.47 0.0 0.0 1.0
-146.44066666666666 -81.8079 2028.47 0.0 0.0 1.0
-152.0 -84.0494 2216.3 0.0 0.0 1.0
-146.079 -77.83053333333334 2028.47 0.0 0.0 1.0
-152.0 -78.32096666666666 2216.3 0.0 0.0 1.0
-152.0 -78.32096666666666 2216.3 0.0 0.0 1.0
-152.0 -78.32096666666666 2216.3 0.0 0.0 1.0
-151.40733333333336 -65.67903333333334 2216.3 0.0 0.0 1.0
-153.38266666666667 -56.592600000000004 2216.3 0.0 0.0 1.0
-151.40733333333333 -45.728366666666666 2216.3 0.0 0.0 1.0
-152.19766666666666 4.6419733333333335 2216.3 0.0 0.0 1.0
-152.19766666666666 4.6419733333333335 2216.3 0.0 0.0 1.0
-152.395 20.444433333333333 2216.3 0.0 0.0 1.0
-151.40733333333336 27.160533333333333 2216.3 0.0 0.0 1.0
-139.97933333333333 29.128200000000003 1841.2300000000002 -6.656617936063853e-27 -1.3332165925165326e-26 1.0
-139.97933333333333 29.128200000000003 1841.2300000000002 -6.656617936063856e-27 -1.3332165925165332e-26 1.0
-143.66433333333333 44.7682 1981.46 0.0 0.0 1.0
-150.81466666666668 58.765433333333334 2216.3 0.0 0.0 1.0
-151.605 70.81479999999999 2216.3 0.0 0.0 1.0
-151.80233333333334 71.80246666666666 2216.3 0.0 0.0 1.0
-150.81466666666665 79.1111 2216.3 0.0 0.0 1.0
-137.80466666666666 79.2683 1824.39 0.0 0.0 1.0
-138.814 105.60333333333334 1835.58 0.0 0.0 1.0
-139.46833333333333 111.002 1835.58 0.0 0.0 1.0
-140.14333333333335 126.113 1841.2300000000002 5.339371848412616e-26 9.349326925624847e-26 1.0
-140.14366666666663 128.246 1841.2300000000002 -1.7951402291784255e-25 -5.455811494642863e-25 1.0
-140.53333333333333 128.87133333333333 1843.1233333333337 -0.23621518094274324 -0.9458209480837669 0.2227669689566017
-152.3953333333333 -163.259 2216.3 0.0 0.0 1.0
-152.79033333333334 -157.13566666666668 2216.3 0.0 0.0 1.0
-152.79033333333334 -157.13566666666665 2216.3 0.0 0.0 1.0
-152.79033333333334 -152.593 2216.3 0.0 0.0 1.0
-152.59266666666667 -139.55566666666667 2216.3 0.0 0.0 1.0
-147.39233333333334 -120.36266666666667 2035.37 0.0 0.0 1.0
-153.383 -116.247 2216.3 0.0 0.0 1.0
-152.98799999999997 -114.46900000000001 2216.3 0.0 0.0 1.0
-152.59266666666667 -106.17266666666667 2216.3 0.0 0.0 1.0
-146.80233333333334 -81.26553333333332 2028.47 0.0 0.0 1.0
-152.98799999999997 -67.4568 2216.3 0.0 0.0 1.0
-152.98799999999997 -67.4568 2216.3 0.0 0.0 1.0
-153.38266666666667 -50.469166666666666 2216.3 0.0 0.0 1.0
-153.58033333333333 -42.172866666666664 2216.3 0.0 0.0 1.0
-153.77766666666665 -35.25926666666667 2216.3 0.0 0.0 1.0
-153.58033333333333 -24.987666666666666 2216.3 0.0 0.0 1.0
-152.59266666666667 -17.4815 2216.3 0.0 0.0 1.0
-152.00033333333332 -8.790126666666668 2216.3 0.0 0.0 1.0
-153.18533333333332 -8.197533333333334 2216.3 0.0 0.0 1.0
-152.19766666666666 4.6419733333333335 2216.3 0.0 0.0 1.0
-151.80266666666668 6.814816666666666 2216.3 0.0 0.0 1.0
-152.593 30.913566666666668 2216.3 0.0 0.0 1.0
-139.97933333333333 29.128200000000003 1841.2300000000002 -6.656617936063853e-27 -1.3332165925165326e-26 1.0
-139.48733333333334 33.8872 1841.2300000000002 3.670479215516643e-26 -4.3390528804743105e-26 1.0
-152.59266666666667 56.98766666666666 2216.3 0.0 0.0 1.0
-152.395 89.97533333333332 2216.3 0.0 0.0 1.0
-140.24366666666666 80.7317 1824.39 0.0 0.0 1.0
-140.45000000000002 101.51333333333332 1835.58 0.0 0.0 1.0
-139.79566666666665 113.947 1835.58 0.0 0.0 1.0
-153.18533333333335 -158.12333333333333 2216.3 0.0 0.0 1.0
-154.56766666666667 -145.67866666666666 2216.3 0.0 0.0 1.0
-147.93633333333332 -125.26066666666667 2035.37 0.0 0.0 1.0
-147.2106666666667 -117.09733333333332 2035.37 0.0 0.0 1.0
-152.59266666666667 -106.17266666666667 2216.3 0.0 0.0 1.0
-146.44066666666666 -81.8079 2028.47 0.0 0.0 1.0
-146.80233333333334 -81.26553333333332 2028.47 0.0 0.0 1.0
-152.39499999999998 -52.64196666666667 2216.3 0.0 0.0 1.0
-153.38266666666667 -50.469166666666666 2216.3 0.0 0.0 1.0
-153.18499999999997 -39.407399999999996 2216.3 0.0 0.0 1.0
-151.605 -28.7407 2216.3 0.0 0.0 1.0
-153.38266666666667 -14.913566666666666 2216.3 0.0 0.0 1.0
-151.80233333333334 -4.6419733333333335 2216.3 0.0 0.0 1.0
-153.77766666666668 -2.6666633333333336 2216.3 0.0 0.0 1.0
-153.77766666666665 17.086433333333336 2216.3 0.0 0.0 1.0
-153.77766666666665 17.086433333333336 2216.3 0.0 0.0 1.0
-141.057 66.5854 1824.39 0.0 0.0 1.0
-151.80233333333334 85.6296 2216.3 0.0 0.0 1.0
-153.18533333333332 90.17286666666666 2216.3 0.0 0.0 1.0
-152.79 92.34566666666666 2216.3 0.0 0.0 1.0
-138.47066666666663 86.68706666666667 1829.97 0.0 0.0 1.0
-141.24366666666666 94.84199999999998 1829.97 0.0 0.0 1.0
-139.79533333333333 98.0777 1835.58 0.0 0.0 1.0
-140.44966666666667 112.14733333333334 1835.58 0.0 0.0 1.0
-153.9753333333333 -158.91366666666667 2216.3 0.0 0.0 1.0
-153.58033333333333 -152.593 2216.3 0.0 0.0 1.0
-147.39233333333334 -120.36266666666667 2035.37 0.0 0.0 1.0
-147.39233333333334 -120.36266666666666 2035.37 0.0 0.0 1.0
-153.97533333333334 -117.82733333333333 2216.3 0.0 0.0 1.0
-153.97533333333334 -117.82733333333333 2216.3 0.0 0.0 1.0
-153.778 -115.45666666666666 2216.3 0.0 0.0 1.0
-154.173 -108.14833333333333 2216.3 0.0 0.0 1.0
-154.173 -108.14833333333333 2216.3 0.0 0.0 1.0
-148.24866666666665 -88.1356 2028.47 0.0 0.0 1.0
-153.778 -79.50616666666667 2216.3 0.0 0.0 1.0
-153.778 -79.50616666666666 2216.3 0.0 0.0 1.0
-153.18533333333332 -78.71603333333333 2216.3 0.0 0.0 1.0
-152.98799999999997 -67.4568 2216.3 0.0 0.0 1.0
-154.37066666666666 -61.530833333333334 2216.3 0.0 0.0 1.0
-154.37066666666666 -61.530833333333334 2216.3 0.0 0.0 1.0
-153.38266666666667 -56.592600000000004 2216.3 0.0 0.0 1.0
-153.58033333333333 -42.172866666666664 2216.3 0.0 0.0 1.0
-153.58033333333333 -24.987666666666666 2216.3 0.0 0.0 1.0
-153.58033333333333 -17.086433333333336 2216.3 0.0 0.0 1.0
-153.778 5.037036666666666 2216.3 0.0 0.0 1.0
-153.38266666666667 20.641966666666665 2216.3 0.0 0.0 1.0
-149.237 22.676066666666667 1882.0900000000001 -0.9464705912238892 -3.5390586315856956e-14 0.3227900555288245
-149.237 22.676066666666667 1882.0900000000001 -0.9464705912238892 -3.5390586315856956e-14 0.3227900555288245
-153.58033333333333 56.79013333333333 2216.3 0.0 0.0 1.0
-153.18533333333332 73.9753 2216.3 0.0 0.0 1.0
-153.18533333333332 76.14813333333335 2216.3 0.0 0.0 1.0
-140.56933333333333 67.56099999999999 1824.39 0.0 0.0 1.0
-140.56933333333333 67.56099999999999 1824.39 0.0 0.0 1.0
-153.58033333333333 90.96300000000001 2216.3 0.0 0.0 1.0
-153.58033333333333 90.96300000000001 2216.3 0.0 0.0 1.0
-141.59466666666668 98.7321 1835.58 0.0 0.0 1.0
-140.44966666666667 112.14733333333334 1835.58 0.0 0.0 1.0
-142.11266666666666 120.36966666666667 1841.2300000000002 -9.789450890656557e-26 -8.603325753114356e-26 1.0
-141.29233333333335 123.15899999999999 1841.2300000000002 8.334298160243202e-28 2.0023491413067752e-26 1.0
-141.94866666666667 126.93333333333334 1841.2300000000002 0.0 0.0 1.0
-154.7653333333333 -160.69133333333335 2216.3 0.0 0.0 1.0
-154.37033333333332 -152.98799999999997 2216.3 0.0 0.0 1.0
-155.75300000000001 -144.296 2216.3 0.0 0.0 1.0
-147.93633333333335 -125.26066666666667 2035.37 0.0 0.0 1.0
-147.93633333333335 -125.26066666666667 2035.37 0.0 0.0 1.0
-147.755 -122.721 2035.37 0.0 0.0 1.0
-147.93633333333332 -116.009 2035.37 0.0 0.0 1.0
-148.48066666666668 -114.92066666666666 2035.37 0.0 0.0 1.0
-153.97533333333334 -117.82733333333333 2216.3 0.0 0.0 1.0
-154.56799999999998 -104.59266666666667 2216.3 0.0 0.0 1.0
-148.24866666666665 -88.1356 2028.47 0.0 0.0 1.0
-154.963 -74.17286666666666 2216.3 0.0 0.0 1.0
-153.38266666666667 -56.592600000000004 2216.3 0.0 0.0 1.0
-155.16066666666669 -50.86423333333334 2216.3 0.0 0.0 1.0
-154.56766666666667 -45.3333 2216.3 0.0 0.0 1.0
-154.56766666666667 -45.3333 2216.3 0.0 0.0 1.0
-154.76533333333336 -42.3704 2216.3 0.0 0.0 1.0
-153.77766666666665 -35.25926666666667 2216.3 0.0 0.0 1.0
-153.77766666666665 -35.25926666666667 2216.3 0.0 0.0 1.0
-153.58033333333333 -24.987666666666666 2216.3 0.0 0.0 1.0
-153.58033333333333 -17.086433333333336 2216.3 0.0 0.0 1.0
-154.96266666666668 -13.3333 2216.3 0.0 0.0 1.0
-154.173 -7.40741 2216.3 0.0 0.0 1.0
-137.56766666666667 12.38963333333333 1817.0033333333333 -9.07408031909493e-16 -0.9651685213353511 0.2616289842951881
-154.37033333333332 19.654333333333334 2216.3 0.0 0.0 1.0
-154.76533333333336 54.22220000000001 2216.3 0.0 0.0 1.0
-154.37033333333332 56.79013333333333 2216.3 0.0 0.0 1.0
-141.24366666666666 94.84199999999998 1829.97 0.0 0.0 1.0
-143.26166666666666 116.10233333333333 1841.2300000000002 -3.085390177724967e-27 -3.304112798292205e-27 1.0
-141.62066666666666 127.75366666666667 1841.2300000000002 -1.9995568509394793e-26 -6.67421481051561e-27 1.0
-141.62066666666666 127.75366666666667 1841.2300000000002 -1.9995568509394762e-26 -6.6742148105156e-27 1.0
-154.7653333333333 -160.69133333333335 2216.3 0.0 0.0 1.0
-154.37033333333332 -159.90133333333333 2216.3 0.0 0.0 1.0
-154.37033333333332 -152.98799999999997 2216.3 0.0 0.0 1.0
-154.76566666666668 -140.93833333333333 2216.3 0.0 0.0 1.0
-148.48066666666668 -114.92066666666666 2035.37 0.0 0.0 1.0
-154.963 -118.22233333333332 2216.3 0.0 0.0 1.0
-154.76566666666668 -115.654 2216.3 0.0 0.0 1.0
-154.173 -108.14833333333333 2216.3 0.0 0.0 1.0
-148.79100000000003 -84.88136666666666 2028.47 0.0 0.0 1.0
-148.06766666666667 -83.43503333333334 2028.47 0.0 0.0 1.0
-155.55566666666667 -75.7531 2216.3 0.0 0.0 1.0
-154.963 -74.17286666666666 2216.3 0.0 0.0 1.0
-154.56766666666667 -45.3333 2216.3 0.0 0.0 1.0
-155.358 -41.1852 2216.3 0.0 0.0 1.0
-153.77766666666668 -2.6666633333333336 2216.3 0.0 0.0 1.0
-153.778 5.037036666666666 2216.3 0.0 0.0 1.0
-154.17266666666666 18.469166666666666 2216.3 0.0 0.0 1.0
-142.27700000000002 29.128200000000003 1841.2300000000002 3.5420125478794324e-27 -7.499851160454763e-27 1.0
-155.55566666666667 42.76546666666667 2216.3 0.0 0.0 1.0
-155.55566666666667 46.518499999999996 2216.3 0.0 0.0 1.0
-154.37033333333332 56.79013333333333 2216.3 0.0 0.0 1.0
-154.173 69.82713333333334 2216.3 0.0 0.0 1.0
-155.55566666666667 89.58026666666666 2216.3 0.0 0.0 1.0
-143.65833333333333 83.6585 1824.39 0.0 0.0 1.0
-142.54833333333332 94.0265 1829.97 0.0 0.0 1.0
-141.75866666666667 101.0225 1835.58 0.0 0.0 1.0
-142.57666666666668 105.767 1835.58 0.0 0.0 1.0
-143.06733333333332 109.03866666666666 1835.58 0.0 0.0 1.0
-142.11266666666666 120.36966666666666 1841.2300000000002 -3.1143323272897335e-26 -2.3734556868096442e-26 1.0
-154.568 -152.19766666666666 2216.3 0.0 0.0 1.0
-155.75333333333333 -120.19766666666668 2216.3 0.0 0.0 1.0
-155.35833333333335 -119.01233333333333 2216.3 0.0 0.0 1.0
-154.963 -116.44433333333332 2216.3 0.0 0.0 1.0
-147.70633333333333 -91.93216666666666 2028.47 0.0 0.0 1.0
-148.42933333333335 -86.6893 2028.47 0.0 0.0 1.0
-148.24866666666668 -81.6271 2028.47 0.0 0.0 1.0
-156.14833333333334 -75.35806666666666 2216.3 0.0 0.0 1.0
-155.16066666666666 -60.93823333333333 2216.3 0.0 0.0 1.0
-155.16066666666669 -50.86423333333334 2216.3 0.0 0.0 1.0
-155.16066666666669 -50.86423333333334 2216.3 0.0 0.0 1.0
-156.54333333333332 -48.09876666666667 2216.3 0.0 0.0 1.0
-155.16066666666669 -7.012346666666667 2216.3 0.0 0.0 1.0
-155.16066666666669 -7.012346666666667 2216.3 0.0 0.0 1.0
-154.568 27.950599999999998 2216.3 0.0 0.0 1.0
