ply
format ascii 1.0
comment VCGLIB generated
element vertex 797
property float x
property float y
property float z
property float nx
property float ny
property float nz
element face 0
property list uchar int vertex_indices
end_header
-55.9736 -2.20022 1974.92 0.0 0.0 1.0
-55.701766666666664 7.63158 1968.42 0.0 0.0 1.0
-53.432066666666664 11.753099999999998 2216.3 0.0 0.0 1.0
-53.432066666666664 11.753099999999998 2216.3 0.0 0.0 1.0
-59.37890000000001 14.492766666666668 1858.39 0.0 0.0 1.0
-52.83950000000001 26.962999999999997 2216.3 0.0 0.0 1.0
-56.52996666666667 28.34906666666667 1887.7 0.0 0.0 1.0
-53.23453333333333 48.296299999999995 2216.3 0.0 0.0 1.0
-53.037 60.148133333333334 2216.3 0.0 0.0 1.0
-55.512 65.79520000000001 1955.5600000000002 2.954922923255491e-27 -2.9549229592767965e-27 1.0
-52.24693333333334 112.49366666666667 2216.3 0.0 0.0 1.0
-56.92476666666666 94.14966666666668 1804.2233333333334 0.3564037689924034 0.8910464014983278 0.2810919134818541
-53.23453333333333 129.28400000000002 2216.3 0.0 0.0 1.0
-57.20296666666667 127.95 1887.7 0.0 0.0 1.0
-58.15096666666667 128.84699999999998 1864.1866666666667 0.00033509685058467713 0.9998606700586833 0.016689163547097745
-57.8049 130.488 1824.39 0.0 0.0 1.0
-50.86416666666667 163.06166666666667 2216.3 0.0 0.0 1.0
-53.6296 -163.457 2216.3 0.0 0.0 1.0
-54.02466666666667 -146.27133333333333 2216.3 0.0 0.0 1.0
-53.23453333333333 -130.27133333333333 2216.3 0.0 0.0 1.0
-56.10739999999999 -76.15213333333332 2008.05 0.0 0.0 1.0
-55.60493333333334 -80.09876666666666 2216.3 0.0 0.0 1.0
-56.187266666666666 -65.0167 2001.34 0.0 0.0 1.0
-56.36566666666667 -56.633199999999995 2001.34 0.0 0.0 1.0
-56.26666666666667 -43.1111 1994.67 0.0 0.0 1.0
-56.0889 -40.444433333333336 1994.67 0.0 0.0 1.0
-56.34553333333333 -25.07196666666667 1988.04 0.0 0.0 1.0
-56.345499999999994 -22.59136666666667 1988.04 0.0 0.0 1.0
-56.345499999999994 -22.59136666666667 1988.04 0.0 0.0 1.0
-55.60493333333334 -22.8148 2216.3 0.0 0.0 1.0
-56.677699999999994 -0.26402600000000004 1974.92 0.0 0.0 1.0
-59.112500000000004 15.768833333333333 1852.63 0.0 0.0 1.0
-58.35390000000001 19.176933333333334 1846.91 0.0 0.0 1.0
-53.03703333333334 53.234566666666666 2216.3 0.0 0.0 1.0
-53.037 60.148133333333334 2216.3 0.0 0.0 1.0
-54.617266666666666 68.64193333333334 2216.3 0.0 0.0 1.0
-54.617266666666666 77.53083333333335 2216.3 0.0 0.0 1.0
-54.617266666666666 77.53083333333335 2216.3 0.0 0.0 1.0
-55.68626666666666 71.02396666666667 1955.5600000000002 -6.617363944028772e-27 1.8434343548587068e-26 1.0
-53.4321 97.87656666666668 2216.3 0.0 0.0 1.0
-55.01233333333334 109.33333333333333 2216.3 0.0 0.0 1.0
-58.006033333333335 131.722 1807.8499999999997 0.0 1.0 0.0
-55.01233333333334 -159.111 2216.3 0.0 0.0 1.0
-53.6296 -152.59266666666667 2216.3 0.0 0.0 1.0
-54.22220000000001 -152.19766666666666 2216.3 0.0 0.0 1.0
-54.41973333333334 -151.01266666666666 2216.3 0.0 0.0 1.0
-54.02466666666667 -146.27133333333333 2216.3 0.0 0.0 1.0
-54.22220000000001 -145.28366666666668 2216.3 0.0 0.0 1.0
-54.41973333333334 -144.691 2216.3 0.0 0.0 1.0
-53.827133333333336 -137.18533333333332 2216.3 0.0 0.0 1.0
-54.8148 -135.40733333333336 2216.3 0.0 0.0 1.0
-53.4321 -125.13566666666668 2216.3 0.0 0.0 1.0
-54.61726666666667 -124.54333333333334 2216.3 0.0 0.0 1.0
-56.644299999999994 -85.1007 2008.05 0.0 0.0 1.0
-56.64430000000001 -83.84786666666668 2008.05 0.0 0.0 1.0
-56.46533333333334 -79.1946 2008.05 0.0 0.0 1.0
-57.2575 -61.627633333333335 2001.34 0.0 0.0 1.0
-56.900800000000004 -53.60086666666667 2001.34 0.0 0.0 1.0
-57.333333333333336 -50.755566666666674 1994.67 0.0 0.0 1.0
-56.26666666666667 -43.1111 1994.67 0.0 0.0 1.0
-56.34553333333333 -25.07196666666667 1988.04 0.0 0.0 1.0
-56.6004 -12.2737 1981.46 0.0 0.0 1.0
-53.432066666666664 11.753099999999998 2216.3 0.0 0.0 1.0
-58.35390000000001 19.176933333333334 1846.91 0.0 0.0 1.0
-58.3539 19.176933333333334 1846.91 0.0 0.0 1.0
-57.7826 28.468000000000004 1895.6733333333334 0.10831695587433375 0.9749167843557959 0.1944343093475846
-57.77776666666667 33.62683333333333 1881.76 0.0 0.0 1.0
-60.85686666666667 35.69486666666666 1875.86 0.0 0.0 1.0
-53.827133333333336 50.074099999999994 2216.3 0.0 0.0 1.0
-54.61726666666667 51.061766666666664 2216.3 0.0 0.0 1.0
-60.80346666666667 59.50053333333333 1949.1899999999998 -1.0246718855450686e-26 -2.4128785099373593e-26 1.0
-56.38343333333333 69.45533333333333 1955.5600000000002 -4.963565368606597e-27 -2.127164809900087e-27 1.0
-55.68626666666666 80.08716666666666 1955.5600000000002 -2.631472211800974e-27 3.185511437495664e-27 1.0
-54.8148 122.96300000000001 2216.3 0.0 0.0 1.0
-54.8148 122.96300000000001 2216.3 0.0 0.0 1.0
-53.23453333333333 128.29633333333334 2216.3 0.0 0.0 1.0
-57.20296666666667 127.95 1887.7 0.0 0.0 1.0
-59.4403 128.78233333333333 1868.0566666666666 2.3504540525484145e-17 0.9998616158957631 0.01663577645658642
-58.68313333333333 130.28766666666667 1846.91 0.0 0.0 1.0
-57.8049 130.488 1824.39 0.0 0.0 1.0
-54.8148 -163.457 2216.3 0.0 0.0 1.0
-55.20986666666667 -149.8273333333333 2216.3 0.0 0.0 1.0
-54.41973333333334 -144.691 2216.3 0.0 0.0 1.0
-54.8148 -135.40733333333333 2216.3 0.0 0.0 1.0
-55.80246666666667 -118.61733333333332 2216.3 0.0 0.0 1.0
-56.592600000000004 -102.22233333333334 2216.3 0.0 0.0 1.0
-57.1812 -76.15213333333334 2008.05 0.0 0.0 1.0
-56.82326666666666 -75.25726666666667 2008.05 0.0 0.0 1.0
-57.257533333333335 -67.6923 2001.34 0.0 0.0 1.0
-57.792633333333335 -61.806000000000004 2001.34 0.0 0.0 1.0
-57.792633333333335 -58.5953 2001.34 0.0 0.0 1.0
-57.257533333333335 -55.9197 2001.34 0.0 0.0 1.0
-57.333333333333336 -50.755566666666674 1994.67 0.0 0.0 1.0
-57.5858 -33.75416666666666 1988.04 0.0 0.0 1.0
-57.5858 -33.75416666666666 1988.04 0.0 0.0 1.0
-58.013200000000005 -12.9801 1981.46 0.0 0.0 1.0
-57.1302 -7.858720000000001 1981.46 0.0 0.0 1.0
-57.381766666666664 0.6160606666666667 1974.92 0.0 0.0 1.0
-55.701766666666664 7.63158 1968.42 0.0 0.0 1.0
-58.518499999999996 18.6831 1846.91 0.0 0.0 1.0
-54.617266666666666 68.64193333333334 2216.3 0.0 0.0 1.0
-55.20986666666667 72.5926 2216.3 0.0 0.0 1.0
-55.60493333333333 104.0 2216.3 0.0 0.0 1.0
-61.098099999999995 97.38663333333334 1789.8366666666668 -0.3097201390719099 0.9291604172157275 0.20182753660680758
-58.71880000000001 120.13033333333333 1949.1899999999998 -7.859163857626088e-27 -1.1310373715621771e-26 1.0
-58.71880000000001 120.13033333333333 1949.1899999999998 -7.859163857626075e-27 -1.1310373715621754e-26 1.0
-59.784933333333335 126.194 1930.32 0.0 0.0 1.0
-59.02333333333333 126.79399999999998 1905.7300000000002 -3.561184602180356e-27 9.788406856900004e-27 1.0
-58.38506666666666 129.10966666666664 1858.39 0.0 0.0 1.0
-57.38603333333333 131.55 1818.84 0.0 0.0 1.0
-50.86416666666667 163.06166666666667 2216.3 0.0 0.0 1.0
-55.20986666666667 -160.49366666666666 2216.3 0.0 0.0 1.0
-55.20986666666667 -157.72833333333332 2216.3 0.0 0.0 1.0
-54.8148 -135.40733333333333 2216.3 0.0 0.0 1.0
-55.407399999999996 -127.70366666666666 2216.3 0.0 0.0 1.0
-55.407399999999996 -123.75333333333333 2216.3 0.0 0.0 1.0
-55.80246666666667 -122.96333333333332 2216.3 0.0 0.0 1.0
-57.53913333333333 -85.45863333333334 2008.05 0.0 0.0 1.0
-57.360166666666665 -82.953 2008.05 0.0 0.0 1.0
-58.07603333333333 -82.4161 2008.05 0.0 0.0 1.0
-57.53913333333333 -79.01563333333333 2008.05 0.0 0.0 1.0
-57.61426666666667 -65.37343333333332 2001.34 0.0 0.0 1.0
-57.792633333333335 -61.806000000000004 2001.34 0.0 0.0 1.0
-57.792633333333335 -58.5953 2001.34 0.0 0.0 1.0
-57.333333333333336 -50.755566666666674 1994.67 0.0 0.0 1.0
-57.5858 -33.75416666666666 1988.04 0.0 0.0 1.0
-58.013200000000005 -6.622516666666666 1981.46 0.0 0.0 1.0
-54.8148 -4.246910000000001 2216.3 0.0 0.0 1.0
-57.381766666666664 0.6160606666666667 1974.92 0.0 0.0 1.0
-59.37890000000001 14.492766666666668 1858.39 0.0 0.0 1.0
-59.11249999999999 15.768833333333333 1852.63 0.0 0.0 1.0
-59.287200000000006 33.4591 1881.76 0.0 0.0 1.0
-55.60493333333334 51.45683333333333 2216.3 0.0 0.0 1.0
-55.20986666666667 60.74073333333333 2216.3 0.0 0.0 1.0
-54.617266666666666 68.64193333333334 2216.3 0.0 0.0 1.0
-55.20986666666667 72.5926 2216.3 0.0 0.0 1.0
-55.20986666666667 72.5926 2216.3 0.0 0.0 1.0
-55.60493333333333 98.86406666666666 2216.3 0.0 0.0 1.0
-55.60493333333333 104.0 2216.3 0.0 0.0 1.0
-55.01233333333334 109.33333333333333 2216.3 0.0 0.0 1.0
-59.29506666666666 92.89026666666666 1807.8499999999997 1.0803936967611264e-27 -2.2902200837349373e-26 1.0
-60.62973333333333 115.09266666666666 1949.1899999999998 -7.287895369930164e-28 -1.967834502941549e-26 1.0
-57.502700000000004 124.99466666666666 1949.1899999999998 1.4879439809665494e-26 -3.869842439355045e-26 1.0
-59.02333333333333 126.79399999999998 1905.7300000000002 -3.5611846021803556e-27 9.788406856900001e-27 1.0
-58.759866666666674 130.132 1826.25 0.808734627467394 0.5389354525663873 0.23557775850499676
-60.90633333333333 131.722 1807.8499999999997 0.0 1.0 0.0
-56.39506666666667 -162.86433333333332 2216.3 0.0 0.0 1.0
-56.592600000000004 -162.07399999999998 2216.3 0.0 0.0 1.0
-55.20986666666666 -157.72833333333332 2216.3 0.0 0.0 1.0
-55.80246666666667 -146.66666666666666 2216.3 0.0 0.0 1.0
-55.80246666666667 -118.61733333333332 2216.3 0.0 0.0 1.0
-56.39506666666667 -109.926 2216.3 0.0 0.0 1.0
-58.61293333333333 -90.29083333333334 2008.05 0.0 0.0 1.0
-57.53913333333333 -85.45863333333334 2008.05 0.0 0.0 1.0
-57.53913333333333 -79.01563333333333 2008.05 0.0 0.0 1.0
-57.1812 -76.15213333333334 2008.05 0.0 0.0 1.0
-56.592600000000004 -81.87656666666668 2216.3 0.0 0.0 1.0
-58.68450000000001 -68.4058 2001.34 0.0 0.0 1.0
-57.792633333333335 -61.806000000000004 2001.34 0.0 0.0 1.0
-58.32776666666667 -58.0602 2001.34 0.0 0.0 1.0
-58.14940000000001 -55.56296666666666 2001.34 0.0 0.0 1.0
-59.180499999999995 -24.8948 1988.04 0.0 0.0 1.0
-56.0 -22.41973333333333 2216.3 0.0 0.0 1.0
-58.71960000000001 -16.6887 1981.46 0.0 0.0 1.0
-58.71960000000001 -16.6887 1981.46 0.0 0.0 1.0
-58.013200000000005 -6.622516666666667 1981.46 0.0 0.0 1.0
-56.19753333333333 -5.0370333333333335 2216.3 0.0 0.0 1.0
-58.81623333333334 13.042566666666668 1864.17 0.0 0.0 1.0
-60.43343333333333 15.933966666666668 1852.63 0.0 0.0 1.0
-58.564600000000006 20.28616666666667 1843.1233333333332 0.18017949583985854 0.9008974791992926 0.39486590287242385
-56.39506666666667 46.716033333333336 2216.3 0.0 0.0 1.0
-56.39506666666667 46.716033333333336 2216.3 0.0 0.0 1.0
-56.98766666666668 81.08643333333333 2216.3 0.0 0.0 1.0
-59.695 76.9499 1955.5600000000002 -2.8870282610308015e-12 -2.887028261030813e-12 1.0
-60.04356666666666 82.52720000000001 1955.5600000000002 -1.8055089508539367e-27 -8.20691595362002e-28 1.0
-56.19753333333333 108.93833333333333 2216.3 0.0 0.0 1.0
-54.8148 122.96300000000001 2216.3 0.0 0.0 1.0
-59.23993333333334 123.43133333333333 1949.1899999999998 -1.0828162896550362e-25 5.876431376933251e-26 1.0
-58.21243333333333 128.118 1887.7 0.0 0.0 1.0
-60.689666666666675 128.48466666666667 1875.86 0.0 0.0 1.0
-56.19753333333333 -149.43233333333333 2216.3 0.0 0.0 1.0
-56.98766666666666 -128.09866666666667 2216.3 0.0 0.0 1.0
-56.39506666666667 -123.556 2216.3 0.0 0.0 1.0
-56.592600000000004 -118.81466666666665 2216.3 0.0 0.0 1.0
-57.382733333333334 -111.50633333333333 2216.3 0.0 0.0 1.0
-57.1852 -107.55566666666668 2216.3 0.0 0.0 1.0
-56.206500000000005 -93.64756666666666 2014.8100000000002 -1.1361441708114314e-27 -2.067819510309975e-26 1.0
-58.61293333333333 -90.29083333333334 2008.05 0.0 0.0 1.0
-58.61293333333333 -90.29083333333334 2008.05 0.0 0.0 1.0
-58.79193333333333 -82.23713333333333 2008.05 0.0 0.0 1.0
-56.592600000000004 -81.87656666666668 2216.3 0.0 0.0 1.0
-59.04123333333334 -65.0167 2001.34 0.0 0.0 1.0
-59.04126666666667 -57.16833333333333 2001.34 0.0 0.0 1.0
-59.04126666666667 -55.9197 2001.34 0.0 0.0 1.0
-58.14940000000001 -53.77923333333334 2001.34 0.0 0.0 1.0
-59.180499999999995 -24.8948 1988.04 0.0 0.0 1.0
-59.0728 -16.8653 1981.46 0.0 0.0 1.0
-60.32920000000001 18.5185 1846.91 0.0 0.0 1.0
-62.1941 28.43883333333333 1893.67 0.0 0.0 1.0
-59.05363333333333 31.377499999999998 1887.7 0.0 0.0 1.0
-57.1852 56.0 2216.3 0.0 0.0 1.0
-55.20986666666667 60.74073333333333 2216.3 0.0 0.0 1.0
-57.382733333333334 79.30863333333333 2216.3 0.0 0.0 1.0
-56.79013333333333 103.40733333333333 2216.3 0.0 0.0 1.0
-59.29506666666666 92.89026666666666 1807.8499999999997 1.0803936967611264e-27 -2.2902200837349373e-26 1.0
-61.14353333333333 94.4424 1800.6066666666666 -0.349900274002977 0.9097465208452247 0.22345260361573466
-60.04246666666666 126.62433333333333 1905.7300000000002 1.5081839593804268e-25 3.8333854605424943e-25 1.0
-56.39506666666667 -162.86433333333335 2216.3 0.0 0.0 1.0
-57.382733333333334 -149.62966666666668 2216.3 0.0 0.0 1.0
-56.592600000000004 -147.6543333333333 2216.3 0.0 0.0 1.0
-56.39506666666667 -123.556 2216.3 0.0 0.0 1.0
-56.592600000000004 -118.81466666666665 2216.3 0.0 0.0 1.0
-57.1852 -107.55566666666668 2216.3 0.0 0.0 1.0
-57.58026666666667 -104.39533333333334 2216.3 0.0 0.0 1.0
-57.382733333333334 -103.40766666666667 2216.3 0.0 0.0 1.0
-58.970933333333335 -83.31093333333334 2008.05 0.0 0.0 1.0
-56.592600000000004 -81.87656666666668 2216.3 0.0 0.0 1.0
-56.79013333333334 -81.08643333333333 2216.3 0.0 0.0 1.0
-59.75473333333334 -63.58976666666666 2001.34 0.0 0.0 1.0
-59.75473333333334 -63.58976666666666 2001.34 0.0 0.0 1.0
-58.044466666666665 -50.04443333333334 1994.67 0.0 0.0 1.0
-58.755566666666674 -38.311099999999996 1994.67 0.0 0.0 1.0
-59.3577 -31.273533333333333 1988.04 0.0 0.0 1.0
-60.42083333333334 -26.666700000000002 1988.04 0.0 0.0 1.0
-57.1852 -23.60493333333333 2216.3 0.0 0.0 1.0
-59.60263333333334 -17.5717 1981.46 0.0 0.0 1.0
-59.425999999999995 -16.5121 1981.46 0.0 0.0 1.0
-59.42600000000001 -16.5121 1981.46 0.0 0.0 1.0
-60.30903333333333 -14.746099999999998 1981.46 0.0 0.0 1.0
-57.1852 -5.234566666666667 2216.3 0.0 0.0 1.0
-60.37403333333333 -1.6721663333333332 1974.92 0.0 0.0 1.0
-60.37406666666667 4.312433333333334 1974.92 0.0 0.0 1.0
-58.3704 8.395063333333333 2216.3 0.0 0.0 1.0
-57.97533333333333 26.76546666666667 2216.3 0.0 0.0 1.0
-60.4612 33.4591 1881.76 0.0 0.0 1.0
-60.85686666666667 35.69486666666667 1875.86 0.0 0.0 1.0
-57.58026666666667 48.09876666666667 2216.3 0.0 0.0 1.0
-57.58026666666667 48.09876666666667 2216.3 0.0 0.0 1.0
-57.1852 50.86423333333334 2216.3 0.0 0.0 1.0
-57.1852 56.0 2216.3 0.0 0.0 1.0
-56.98766666666666 81.08643333333333 2216.3 0.0 0.0 1.0
-59.695 76.9499 1955.5600000000002 -2.984679389974856e-12 -2.984679389974867e-12 1.0
-56.79013333333333 107.35799999999999 2216.3 0.0 0.0 1.0
-57.3827 119.605 2216.3 0.0 0.0 1.0
-60.43133333333333 126.46600000000001 1934.4866666666667 0.7072338623170136 0.7069607990497058 0.005166488087757756
-59.784933333333335 126.194 1930.32 0.0 0.0 1.0
-60.68966666666666 128.48466666666667 1875.86 0.0 0.0 1.0
-57.1852 -161.28366666666668 2216.3 0.0 0.0 1.0
-56.98766666666666 -160.691 2216.3 0.0 0.0 1.0
-58.567933333333336 -139.16066666666666 2216.3 0.0 0.0 1.0
-58.76546666666667 -134.02466666666666 2216.3 0.0 0.0 1.0
-57.77779999999999 -106.76566666666668 2216.3 0.0 0.0 1.0
-57.382733333333334 -103.40766666666667 2216.3 0.0 0.0 1.0
-59.32886666666667 -82.77403333333334 2008.05 0.0 0.0 1.0
-58.172866666666664 -83.06173333333334 2216.3 0.0 0.0 1.0
-59.21963333333334 -56.276466666666664 2001.34 0.0 0.0 1.0
-59.1805 -24.8948 1988.04 0.0 0.0 1.0
-60.37403333333333 -1.6721663333333332 1974.92 0.0 0.0 1.0
-60.8696 14.492766666666668 1858.39 0.0 0.0 1.0
-61.6461 18.3539 1846.91 0.0 0.0 1.0
-58.172866666666664 54.02466666666667 2216.3 0.0 0.0 1.0
-58.172866666666664 54.02466666666667 2216.3 0.0 0.0 1.0
-57.1852 68.2469 2216.3 0.0 0.0 1.0
-56.98766666666666 81.08643333333333 2216.3 0.0 0.0 1.0
-60.39216666666667 77.99566666666666 1955.5600000000002 0.0 0.0 1.0
-61.26363333333333 80.43573333333333 1955.5600000000002 -9.09153568469215e-28 -4.546235969992535e-28 1.0
-58.172866666666664 101.827 2216.3 0.0 0.0 1.0
-57.58026666666666 103.80233333333332 2216.3 0.0 0.0 1.0
-58.71880000000001 120.13033333333333 1949.1899999999998 -7.859163857626088e-27 -1.1310373715621771e-26 1.0
-60.74073333333333 143.11100000000002 2216.3 0.0 0.0 1.0
-64.07843333333334 -127.76466666666666 1760.0 0.0 0.0 1.0
-58.172866666666664 -149.8273333333333 2216.3 0.0 0.0 1.0
-58.76546666666667 -140.14833333333334 2216.3 0.0 0.0 1.0
-58.76546666666667 -140.14833333333334 2216.3 0.0 0.0 1.0
-58.567933333333336 -105.97533333333332 2216.3 0.0 0.0 1.0
-60.939600000000006 -79.9105 2008.05 0.0 0.0 1.0
-60.6466 -67.33553333333333 2001.34 0.0 0.0 1.0
-60.28983333333334 -63.94649999999999 2001.34 0.0 0.0 1.0
-60.8889 -47.55553333333334 1994.67 0.0 0.0 1.0
-58.755566666666674 -38.311099999999996 1994.67 0.0 0.0 1.0
-59.555566666666664 -40.0 2216.3 0.0 0.0 1.0
-60.42083333333333 -26.666700000000002 1988.04 0.0 0.0 1.0
-57.1852 -23.60493333333333 2216.3 0.0 0.0 1.0
-61.0155 -16.688699999999997 1981.46 0.0 0.0 1.0
-60.309066666666666 -16.5121 1981.46 0.0 0.0 1.0
-58.3704 -5.432100000000001 2216.3 0.0 0.0 1.0
-60.9021 4.312433333333334 1974.92 0.0 0.0 1.0
-60.9021 4.312433333333334 1974.92 0.0 0.0 1.0
-58.3704 8.395063333333333 2216.3 0.0 0.0 1.0
-60.9955 13.5263 1862.2433333333336 -2.3737401327308564e-17 0.9866839575968548 0.16264921709312938
-60.8696 14.492766666666668 1858.39 0.0 0.0 1.0
-62.08463333333333 16.2642 1852.63 0.0 0.0 1.0
-57.97533333333333 26.76546666666667 2216.3 0.0 0.0 1.0
-57.97533333333333 26.76546666666667 2216.3 0.0 0.0 1.0
-61.97063333333333 33.4591 1881.76 0.0 0.0 1.0
-57.58026666666667 48.09876666666667 2216.3 0.0 0.0 1.0
-59.16049999999999 65.87656666666668 2216.3 0.0 0.0 1.0
-58.96296666666667 67.4568 2216.3 0.0 0.0 1.0
-57.382733333333334 79.30863333333333 2216.3 0.0 0.0 1.0
-60.392133333333334 74.33550000000001 1955.5600000000002 7.093143460656515e-26 -6.206610044795892e-26 1.0
-60.56646666666666 79.2157 1955.5600000000002 1.7732929309771147e-26 0.0 -1.0
-60.74073333333333 83.05006666666667 1955.5600000000002 -1.8089758783520455e-28 1.08538120324855e-27 1.0
-58.172866666666664 101.827 2216.3 0.0 0.0 1.0
-57.77779999999999 102.81466666666665 2216.3 0.0 0.0 1.0
-59.784933333333335 126.194 1930.32 0.0 0.0 1.0
-62.65369999999999 126.25666666666666 1936.57 0.0 0.0 1.0
-60.04246666666666 126.62433333333333 1905.7300000000002 1.5081839593804557e-25 3.8333854605425678e-25 1.0
-60.68966666666666 128.48466666666667 1875.86 0.0 0.0 1.0
-58.68313333333333 130.28766666666667 1846.91 0.0 0.0 1.0
-57.58026666666667 -158.12333333333333 2216.3 0.0 0.0 1.0
-58.963 -149.432 2216.3 0.0 0.0 1.0
-59.9506 -145.679 2216.3 0.0 0.0 1.0
-58.76546666666667 -133.037 2216.3 0.0 0.0 1.0
-58.172866666666664 -127.50633333333333 2216.3 0.0 0.0 1.0
-58.963 -125.72866666666665 2216.3 0.0 0.0 1.0
-57.58026666666667 -123.556 2216.3 0.0 0.0 1.0
-59.950633333333336 -114.074 2216.3 0.0 0.0 1.0
-60.939600000000006 -79.9105 2008.05 0.0 0.0 1.0
-60.28983333333334 -63.94649999999999 2001.34 0.0 0.0 1.0
-59.555566666666664 -62.123466666666666 2216.3 0.0 0.0 1.0
-61.48396666666667 -30.387600000000003 1988.04 0.0 0.0 1.0
-60.42083333333333 -26.666700000000002 1988.04 0.0 0.0 1.0
-60.37403333333334 -1.6721663333333334 1974.92 0.0 0.0 1.0
-61.782166666666676 2.5522533333333333 1974.92 0.0 0.0 1.0
-61.43013333333334 3.9604 1974.92 0.0 0.0 1.0
-60.938266666666664 15.703699999999998 2216.3 0.0 0.0 1.0
-62.586733333333335 31.377499999999998 1887.7 0.0 0.0 1.0
-58.172866666666664 49.67903333333334 2216.3 0.0 0.0 1.0
-58.96296666666667 54.02466666666667 2216.3 0.0 0.0 1.0
-62.13506666666667 73.98693333333334 1955.5600000000002 -1.8090706126758884e-27 -3.738730555347165e-27 1.0
-58.37036666666666 125.53099999999999 2216.3 0.0 0.0 1.0
-62.01953333333333 113.87633333333333 1949.1899999999998 7.928244954061919e-27 1.9805402324059377e-27 1.0
-62.019533333333335 114.745 1949.1899999999998 -1.8994533864816186e-25 1.2460224074044208e-25 1.0
-62.52586666666667 128.944 1858.39 0.0 0.0 1.0
-59.555566666666664 -148.24699999999999 2216.3 0.0 0.0 1.0
-59.555566666666664 -139.75333333333333 2216.3 0.0 0.0 1.0
-59.35803333333333 -134.41966666666667 2216.3 0.0 0.0 1.0
-59.753099999999996 -132.24699999999999 2216.3 0.0 0.0 1.0
-60.14816666666667 -113.67899999999999 2216.3 0.0 0.0 1.0
-59.555566666666664 -104.98766666666667 2216.3 0.0 0.0 1.0
-60.939600000000006 -79.9105 2008.05 0.0 0.0 1.0
-58.172866666666664 -83.06173333333334 2216.3 0.0 0.0 1.0
-62.0736 -71.61650000000002 2001.34 0.0 0.0 1.0
-60.3457 -60.938266666666664 2216.3 0.0 0.0 1.0
-59.555566666666664 -40.0 2216.3 0.0 0.0 1.0
-61.015499999999996 -16.6887 1981.46 0.0 0.0 1.0
-60.662266666666675 -14.746099999999998 1981.46 0.0 0.0 1.0
-59.35803333333333 -5.6296333333333335 2216.3 0.0 0.0 1.0
-62.1342 3.2563266666666664 1974.92 0.0 0.0 1.0
-61.60616666666667 5.544553333333333 1974.92 0.0 0.0 1.0
-60.345666666666666 8.0 2216.3 0.0 0.0 1.0
-61.6461 18.3539 1846.91 0.0 0.0 1.0
-60.148133333333334 46.518499999999996 2216.3 0.0 0.0 1.0
-62.71443333333334 61.06406666666667 1949.1899999999998 -8.920664506876175e-27 -2.230246356538405e-27 1.0
-63.061866666666674 66.44949999999999 1949.1899999999998 -1.0903743633624945e-26 -3.370108850650191e-26 1.0
-60.938266666666664 98.86406666666666 2216.3 0.0 0.0 1.0
-62.019533333333335 114.745 1949.1899999999998 -1.8994533864816186e-25 1.2460224074044208e-25 1.0
-60.897600000000004 128.71733333333333 1871.9533333333331 -4.5837133599077616e-17 0.9998601907716573 0.016721211381507964
-64.07843333333334 -127.76466666666666 1760.0 0.0 0.0 1.0
-59.75306666666666 -152.0 2216.3 0.0 0.0 1.0
-59.555566666666664 -146.864 2216.3 0.0 0.0 1.0
-60.938233333333336 -142.51866666666666 2216.3 0.0 0.0 1.0
-61.33330000000001 -120.79033333333335 2216.3 0.0 0.0 1.0
-60.34563333333333 -99.45683333333334 2216.3 0.0 0.0 1.0
-60.34563333333333 -99.45683333333334 2216.3 0.0 0.0 1.0
-60.34563333333333 -95.90123333333332 2216.3 0.0 0.0 1.0
-62.43033333333333 -70.36786666666667 2001.34 0.0 0.0 1.0
-60.54319999999999 -63.7037 2216.3 0.0 0.0 1.0
-60.83886666666667 -18.4547 1981.46 0.0 0.0 1.0
-62.2517 -12.2737 1981.46 0.0 0.0 1.0
-60.345666666666666 -6.617286666666668 2216.3 0.0 0.0 1.0
-62.1342 3.2563266666666664 1974.92 0.0 0.0 1.0
-61.95816666666667 3.608363333333333 1974.92 0.0 0.0 1.0
-62.66226666666666 5.7205699999999995 1974.92 0.0 0.0 1.0
-60.938266666666664 15.703699999999998 2216.3 0.0 0.0 1.0
-58.96296666666666 27.358033333333335 2216.3 0.0 0.0 1.0
-64.21943333333333 28.270066666666665 1893.67 0.0 0.0 1.0
-59.35803333333333 47.50616666666667 2216.3 0.0 0.0 1.0
-59.75306666666666 54.22220000000001 2216.3 0.0 0.0 1.0
-59.75306666666666 54.22220000000001 2216.3 0.0 0.0 1.0
-61.3333 60.148133333333334 2216.3 0.0 0.0 1.0
-63.061866666666674 66.44949999999999 1949.1899999999998 -1.0903743633624945e-26 -3.370108850650191e-26 1.0
-62.1351 77.47279999999999 1955.5600000000002 -6.566076897016104e-28 1.8382755116253727e-26 1.0
-61.9608 80.08716666666666 1955.5600000000002 2.1886085853967027e-27 2.626430758806459e-27 1.0
-62.4837 81.1329 1955.5600000000002 1.0 0.0 0.0
-62.4837 81.1329 1955.5600000000002 1.0 0.0 0.0
-60.148133333333334 124.93833333333333 2216.3 0.0 0.0 1.0
-62.019533333333335 113.87633333333333 1949.1899999999998 -3.964122477030959e-27 -9.902701162029689e-28 1.0
-61.13576666666666 -152.98766666666666 2216.3 0.0 0.0 1.0
-60.54319999999999 -144.69133333333335 2216.3 0.0 0.0 1.0
-60.93823333333333 -141.531 2216.3 0.0 0.0 1.0
-60.74073333333333 -139.95100000000002 2216.3 0.0 0.0 1.0
-60.74073333333333 -134.22233333333332 2216.3 0.0 0.0 1.0
-60.54319999999999 -131.6543333333333 2216.3 0.0 0.0 1.0
-60.543200000000006 -104.98766666666667 2216.3 0.0 0.0 1.0
-60.34563333333333 -99.45683333333334 2216.3 0.0 0.0 1.0
-61.135766666666676 -92.93826666666666 2216.3 0.0 0.0 1.0
-61.53083333333333 -88.39506666666666 2216.3 0.0 0.0 1.0
-62.0736 -71.61650000000002 2001.34 0.0 0.0 1.0
-62.6087 -68.9409 2001.34 0.0 0.0 1.0
-63.555566666666664 -48.800000000000004 1994.67 0.0 0.0 1.0
-61.333333333333336 -41.9753 2216.3 0.0 0.0 1.0
-58.765433333333334 -25.9753 2216.3 0.0 0.0 1.0
-62.2517 -12.2737 1981.46 0.0 0.0 1.0
-60.93823333333333 8.19753 2216.3 0.0 0.0 1.0
-60.93823333333333 8.19753 2216.3 0.0 0.0 1.0
-64.21943333333333 28.270066666666665 1893.67 0.0 0.0 1.0
-64.65406666666667 33.962266666666665 1881.76 0.0 0.0 1.0
-64.8694 35.6949 1875.86 0.0 0.0 1.0
-64.75 37.416666666666664 1870.0 0.0 0.0 1.0
-60.938266666666664 46.12343333333333 2216.3 0.0 0.0 1.0
-63.7568 46.992399999999996 1949.1899999999998 6.641511624651604e-12 -6.6415116246516045e-12 1.0
-61.72836666666666 66.27163333333333 2216.3 0.0 0.0 1.0
-62.71443333333334 61.06406666666667 1949.1899999999998 -8.920664506876175e-27 -2.230246356538405e-27 1.0
-63.7568 61.75896666666667 1949.1899999999998 1.1152836618563051e-27 2.2304959940624395e-27 1.0
-64.4517 70.79263333333334 1949.1899999999998 6.333435228351785e-28 6.057984632326513e-28 1.0
-64.9799 91.16466666666668 1802.41 0.0 0.0 1.0
-64.9799 91.96789999999999 1802.41 0.0 0.0 1.0
-59.9506 118.02466666666668 2216.3 0.0 0.0 1.0
-60.74073333333333 143.11100000000002 2216.3 0.0 0.0 1.0
-66.9264 124.762 1942.86 0.0 0.0 1.0
-65.09566666666667 131.561 1807.8499999999997 -6.913804481275908e-27 1.3839060398545517e-26 1.0
-64.07843333333334 -127.76466666666666 1760.0 0.0 0.0 1.0
-61.3333 -131.45666666666668 2216.3 0.0 0.0 1.0
-61.3333 -120.79033333333332 2216.3 0.0 0.0 1.0
-61.530833333333334 -116.04933333333334 2216.3 0.0 0.0 1.0
-61.530833333333334 -116.04933333333334 2216.3 0.0 0.0 1.0
-61.530833333333334 -115.65433333333333 2216.3 0.0 0.0 1.0
-61.728366666666666 -106.76566666666668 2216.3 0.0 0.0 1.0
-61.728366666666666 -106.76566666666666 2216.3 0.0 0.0 1.0
-63.500566666666664 -67.33556666666668 2001.34 0.0 0.0 1.0
-63.1438 -66.62206666666667 2001.34 0.0 0.0 1.0
-63.1438 -66.62206666666667 2001.34 0.0 0.0 1.0
-63.96453333333333 -36.41196666666667 1988.04 0.0 0.0 1.0
-64.14173333333333 -34.6401 1988.04 0.0 0.0 1.0
-61.3333 -7.60494 2216.3 0.0 0.0 1.0
-63.014266666666664 2.3762366666666668 1974.92 0.0 0.0 1.0
-63.3663 2.5522533333333333 1974.92 0.0 0.0 1.0
-63.014266666666664 2.90429 1974.92 0.0 0.0 1.0
-60.93823333333333 8.19753 2216.3 0.0 0.0 1.0
-64.8447 15.155300000000002 1858.39 0.0 0.0 1.0
-64.89166666666667 16.264166666666664 1852.63 0.0 0.0 1.0
-64.89166666666667 16.264166666666664 1852.63 0.0 0.0 1.0
-65.32493333333333 31.111100000000004 1881.76 0.0 0.0 1.0
-64.75 37.416666666666664 1870.0 0.0 0.0 1.0
-63.7568 46.992399999999996 1949.1899999999998 -4.473927017283013e-10 4.473927017283013e-10 1.0
-63.355133333333335 77.82136666666666 1955.5600000000002 1.7076321620068589e-26 1.838953699947178e-26 1.0
-60.938266666666664 98.86406666666666 2216.3 0.0 0.0 1.0
-64.9799 91.96789999999999 1802.41 0.0 0.0 1.0
-61.925900000000006 121.185 2216.3 0.0 0.0 1.0
-65.14659999999999 116.82933333333334 1949.1899999999998 -5.966735838902798e-27 1.7893368256236615e-26 1.0
-66.74796666666667 131.30066666666667 1824.39 0.0 0.0 1.0
-60.93823333333333 -143.704 2216.3 0.0 0.0 1.0
-61.92589999999999 -140.54333333333332 2216.3 0.0 0.0 1.0
-62.716033333333336 -138.76533333333336 2216.3 0.0 0.0 1.0
-61.530833333333334 -134.22233333333335 2216.3 0.0 0.0 1.0
-62.12343333333333 -133.82733333333334 2216.3 0.0 0.0 1.0
-62.12343333333333 -131.45666666666668 2216.3 0.0 0.0 1.0
-61.728366666666666 -130.46900000000002 2216.3 0.0 0.0 1.0
-62.518499999999996 -126.51866666666668 2216.3 0.0 0.0 1.0
-61.92589999999999 -117.03666666666668 2216.3 0.0 0.0 1.0
-61.92589999999999 -115.85200000000002 2216.3 0.0 0.0 1.0
-61.72836666666666 -115.06166666666667 2216.3 0.0 0.0 1.0
-61.530833333333334 -88.39506666666666 2216.3 0.0 0.0 1.0
-61.530833333333334 -88.39506666666666 2216.3 0.0 0.0 1.0
-63.9111 -50.400000000000006 1994.67 0.0 0.0 1.0
-63.9111 -50.400000000000006 1994.67 0.0 0.0 1.0
-63.555566666666664 -48.79999999999999 1994.67 0.0 0.0 1.0
-64.67333333333333 -31.450733333333336 1988.04 0.0 0.0 1.0
-63.89436666666666 5.7205699999999995 1974.92 0.0 0.0 1.0
-64.8447 15.155300000000002 1858.39 0.0 0.0 1.0
-64.8694 35.6949 1875.86 0.0 0.0 1.0
-60.740700000000004 54.8148 2216.3 0.0 0.0 1.0
-61.3333 60.148133333333334 2216.3 0.0 0.0 1.0
-61.3333 60.148133333333334 2216.3 0.0 0.0 1.0
-61.72836666666666 66.27163333333333 2216.3 0.0 0.0 1.0
-63.70373333333333 75.72986666666667 1955.5600000000002 -2.068036407551937e-26 1.9203185126683599e-26 1.0
-63.355133333333335 78.69283333333334 1955.5600000000002 2.21605094809896e-27 -2.585328023943364e-27 1.0
-62.518499999999996 97.08643333333335 2216.3 0.0 0.0 1.0
-60.74073333333333 104.98766666666667 2216.3 0.0 0.0 1.0
-62.518499999999996 116.83933333333334 2216.3 0.0 0.0 1.0
-63.58303333333333 113.52866666666667 1949.1899999999998 2.643751643057777e-27 -1.9838049147415345e-27 1.0
-63.58303333333333 113.52866666666667 1949.1899999999998 2.643751643057777e-27 -1.9838049147415345e-27 1.0
-65.09566666666667 131.561 1807.8499999999997 -6.913804481275911e-27 1.3839060398545526e-26 1.0
-62.12343333333333 -152.79 2216.3 0.0 0.0 1.0
-62.518499999999996 -132.83966666666666 2216.3 0.0 0.0 1.0
-61.3333 -120.79033333333332 2216.3 0.0 0.0 1.0
-62.32096666666666 -116.04933333333334 2216.3 0.0 0.0 1.0
-62.32096666666666 -116.04933333333334 2216.3 0.0 0.0 1.0
-63.1111 -110.51866666666666 2216.3 0.0 0.0 1.0
-62.12343333333334 -109.13600000000001 2216.3 0.0 0.0 1.0
-62.518499999999996 -106.76566666666668 2216.3 0.0 0.0 1.0
-62.12343333333333 -88.98766666666667 2216.3 0.0 0.0 1.0
-64.0357 -68.04903333333334 2001.34 0.0 0.0 1.0
-62.91356666666667 -67.4568 2216.3 0.0 0.0 1.0
-63.1111 -65.28396666666667 2216.3 0.0 0.0 1.0
-61.53086666666667 -61.333333333333336 2216.3 0.0 0.0 1.0
-63.9111 -50.4 1994.67 0.0 0.0 1.0
-63.96453333333333 -36.41196666666667 1988.04 0.0 0.0 1.0
-63.96453333333333 -36.41196666666667 1988.04 0.0 0.0 1.0
-63.07863333333333 -28.26136666666667 1988.04 0.0 0.0 1.0
-61.3333 -7.60494 2216.3 0.0 0.0 1.0
-64.59843333333333 -6.952696666666667 1974.92 0.0 0.0 1.0
-65.65453333333333 -5.19252 1974.92 0.0 0.0 1.0
-65.0 8.157893333333334 1968.42 0.0 0.0 1.0
-65.0 9.21054 1968.42 0.0 0.0 1.0
-64.8447 15.155300000000002 1858.39 0.0 0.0 1.0
-63.1111 28.148133333333334 2216.3 0.0 0.0 1.0
-65.49263333333333 33.2914 1881.76 0.0 0.0 1.0
-64.65406666666667 33.96226666666667 1881.76 0.0 0.0 1.0
-62.32096666666666 46.716033333333336 2216.3 0.0 0.0 1.0
-63.756800000000005 46.9924 1949.1899999999998 -6.1848952341756335e-12 6.1848952341756335e-12 1.0
-62.716033333333336 66.27163333333333 2216.3 0.0 0.0 1.0
-65.3203 67.6656 1949.1899999999998 0.0 0.0 1.0
-65.27233333333334 75.38126666666666 1955.5600000000002 1.5363000132321004e-25 4.3135829127540865e-25 1.0
-62.518499999999996 97.08643333333333 2216.3 0.0 0.0 1.0
-61.925900000000006 103.40733333333334 2216.3 0.0 0.0 1.0
-65.7831 91.004 1802.41 0.0 0.0 1.0
-65.49403333333333 120.65133333333334 1949.1899999999998 -9.909670938003385e-28 4.293060809885031e-27 1.0
-64.94216666666667 128.454 1887.7 0.0 0.0 1.0
-67.45586666666667 128.847 1864.17 0.0 0.0 1.0
-67.65429999999999 160.889 2216.3 0.0 0.0 1.0
-66.06243333333333 131.561 1807.8499999999997 0.0 0.0 1.0
-63.506166666666665 -150.81466666666668 2216.3 0.0 0.0 1.0
-63.506166666666665 -148.04933333333332 2216.3 0.0 0.0 1.0
-62.716033333333336 -139.55566666666667 2216.3 0.0 0.0 1.0
-62.716033333333336 -138.76533333333336 2216.3 0.0 0.0 1.0
-62.518499999999996 -132.04933333333335 2216.3 0.0 0.0 1.0
-63.506166666666665 -104.79033333333335 2216.3 0.0 0.0 1.0
-64.0357 -70.36786666666667 2001.34 0.0 0.0 1.0
-64.57083333333334 -68.9409 2001.34 0.0 0.0 1.0
-62.91356666666667 -67.4568 2216.3 0.0 0.0 1.0
-62.91356666666667 -67.4568 2216.3 0.0 0.0 1.0
-64.6733 -34.108533333333334 1988.04 0.0 0.0 1.0
-65.2049 -32.15946666666667 1988.04 0.0 0.0 1.0
-65.9603 -15.0993 1981.46 0.0 0.0 1.0
-66.53466666666667 -9.240923333333333 1974.92 0.0 0.0 1.0
-64.59843333333333 4.31243 1974.92 0.0 0.0 1.0
-65.0 8.157893333333334 1968.42 0.0 0.0 1.0
-64.89166666666667 16.264166666666668 1852.63 0.0 0.0 1.0
-63.7037 28.7407 2216.3 0.0 0.0 1.0
-65.66036666666666 32.4528 1881.76 0.0 0.0 1.0
-62.586733333333335 31.377499999999998 1887.7 0.0 0.0 1.0
-65.49403333333333 49.2508 1949.1899999999998 1.7845394634469988e-26 -1.7843682681799706e-26 1.0
-65.49403333333333 49.2508 1949.1899999999998 1.7845394634469988e-26 -1.7843682681799706e-26 1.0
-64.62543333333333 61.932700000000004 1949.1899999999998 -5.054711610132147e-26 8.920357862078798e-26 1.0
-65.32030000000002 67.6656 1949.1899999999998 -7.80703915375654e-27 -1.1156581634784674e-27 1.0
-65.3203 71.48753333333333 1949.1899999999998 -1.4686628212299208e-28 1.468437384671102e-29 1.0
-62.518499999999996 97.08643333333333 2216.3 0.0 0.0 1.0
-65.49403333333333 120.65133333333334 1949.1899999999998 -9.909670938003385e-28 4.293060809885031e-27 1.0
-64.88889999999999 -163.06166666666667 2216.3 0.0 0.0 1.0
-67.46843333333334 -123.50966666666666 1768.67 0.7082338443849485 0.5313437431566294 0.46484260591733456
-67.9646 -119.96066666666667 1765.1899999999998 -4.466551771871339e-26 -4.698221322886245e-26 1.0
-63.506166666666665 -150.81466666666668 2216.3 0.0 0.0 1.0
-63.506166666666665 -150.81466666666668 2216.3 0.0 0.0 1.0
-64.09876666666666 -146.864 2216.3 0.0 0.0 1.0
-63.703700000000005 -143.309 2216.3 0.0 0.0 1.0
-63.703700000000005 -125.33333333333333 2216.3 0.0 0.0 1.0
-64.49383333333333 -112.09899999999999 2216.3 0.0 0.0 1.0
-63.90123333333333 -105.383 2216.3 0.0 0.0 1.0
-63.506166666666665 -104.0 2216.3 0.0 0.0 1.0
-63.90123333333333 -103.20966666666665 2216.3 0.0 0.0 1.0
-63.90123333333333 -101.62966666666667 2216.3 0.0 0.0 1.0
-63.90123333333333 -101.62966666666667 2216.3 0.0 0.0 1.0
-64.09876666666666 -97.87656666666668 2216.3 0.0 0.0 1.0
-63.8573 -65.19510000000001 2001.34 0.0 0.0 1.0
-63.1111 -65.28396666666667 2216.3 0.0 0.0 1.0
-61.333333333333336 -41.9753 2216.3 0.0 0.0 1.0
-65.73646666666666 -32.51383333333334 1988.04 0.0 0.0 1.0
-65.2049 -32.15946666666667 1988.04 0.0 0.0 1.0
-64.77446666666667 5.0165 1974.92 0.0 0.0 1.0
-65.0 8.157893333333334 1968.42 0.0 0.0 1.0
-62.91356666666667 15.7037 2216.3 0.0 0.0 1.0
-63.7037 28.740700000000004 2216.3 0.0 0.0 1.0
-64.21943333333333 28.270066666666665 1893.67 0.0 0.0 1.0
-65.66036666666666 32.4528 1881.76 0.0 0.0 1.0
-66.2069 35.5277 1875.86 0.0 0.0 1.0
-64.75 37.416666666666664 1870.0 0.0 0.0 1.0
-63.703700000000005 46.91356666666667 2216.3 0.0 0.0 1.0
-63.50616666666667 66.0741 2216.3 0.0 0.0 1.0
-66.18893333333334 61.585266666666676 1949.1899999999998 1.9030705102365763e-27 3.853818241959272e-26 1.0
-66.53636666666667 65.23343333333332 1949.1899999999998 -1.6173799447886626e-26 -2.4736485121869628e-26 1.0
-63.50616666666667 122.17266666666667 2216.3 0.0 0.0 1.0
-66.0152 115.961 1949.1899999999998 4.75968516297557e-26 -7.934331216975635e-27 1.0
-60.74073333333333 143.11100000000002 2216.3 0.0 0.0 1.0
-65.67286666666666 129.2753333333333 1858.39 0.0 0.0 1.0
-67.9646 -119.96066666666667 1765.1899999999998 -4.466551771871339e-26 -4.698221322886245e-26 1.0
-63.1111 -131.45666666666668 2216.3 0.0 0.0 1.0
-64.49383333333334 -112.09899999999999 2216.3 0.0 0.0 1.0
-65.08643333333333 -107.55566666666668 2216.3 0.0 0.0 1.0
-63.90123333333333 -101.62966666666667 2216.3 0.0 0.0 1.0
-63.90123333333333 -99.25926666666668 2216.3 0.0 0.0 1.0
-64.09876666666666 -97.87656666666668 2216.3 0.0 0.0 1.0
-64.85046666666666 -36.41196666666667 1988.04 0.0 0.0 1.0
-65.38206666666666 -33.754133333333336 1988.04 0.0 0.0 1.0
-66.84330000000001 -15.9823 1981.46 0.0 0.0 1.0
-64.49383333333334 22.0247 2216.3 0.0 0.0 1.0
-64.49383333333334 22.0247 2216.3 0.0 0.0 1.0
-64.49383333333333 28.740700000000004 2216.3 0.0 0.0 1.0
-66.18893333333334 49.07706666666667 1949.1899999999998 7.132451810456266e-32 8.920985453522975e-27 1.0
-64.69136666666667 58.96296666666667 2216.3 0.0 0.0 1.0
-64.69136666666667 58.96296666666666 2216.3 0.0 0.0 1.0
-64.88889999999999 63.90123333333333 2216.3 0.0 0.0 1.0
-64.09876666666666 64.88889999999999 2216.3 0.0 0.0 1.0
-66.53636666666667 65.23343333333332 1949.1899999999998 -1.6173799447886626e-26 -2.4736485121869628e-26 1.0
-65.32030000000002 67.6656 1949.1899999999998 -7.80703915375654e-27 -1.1156581634784674e-27 1.0
-63.901233333333344 94.32096666666666 2216.3 0.0 0.0 1.0
-68.47936666666668 87.25076666666666 1807.8499999999997 -4.5370556893346766e-27 -3.9971186386527486e-27 1.0
-66.9076 91.48593333333334 1802.41 0.0 0.0 1.0
-64.49383333333334 121.38266666666668 2216.3 0.0 0.0 1.0
-66.01520000000001 115.96100000000001 1949.1899999999998 -3.5699922640341305e-26 1.1903019729727801e-26 1.0
-66.0152 115.961 1949.1899999999998 4.75968516297557e-26 -7.934331216975635e-27 1.0
-68.36516666666665 126.964 1905.7300000000002 -7.777979372768404e-28 -7.770353902795065e-28 1.0
-66.74796666666667 131.30066666666664 1824.39 0.0 0.0 1.0
-66.06243333333333 131.561 1807.8499999999997 0.0 0.0 1.0
-66.7324 -123.64800000000001 1761.7300000000002 -0.8183338085869493 -0.49098289599346484 0.2987734485616964
-64.49383333333334 -138.76533333333336 2216.3 0.0 0.0 1.0
-64.69136666666667 -105.778 2216.3 0.0 0.0 1.0
-64.09876666666668 -90.76543333333335 2216.3 0.0 0.0 1.0
-63.1111 -89.38273333333332 2216.3 0.0 0.0 1.0
-65.87656666666668 -84.0494 2216.3 0.0 0.0 1.0
-63.50616666666667 -68.04936666666667 2216.3 0.0 0.0 1.0
-68.35556666666668 -45.77779999999999 1994.67 0.0 0.0 1.0
-66.09083333333332 -32.33663333333333 1988.04 0.0 0.0 1.0
-66.62236666666666 -31.6279 1988.04 0.0 0.0 1.0
-66.66669999999999 -20.573966666666667 1981.46 0.0 0.0 1.0
-66.8433 -20.044133333333335 1981.46 0.0 0.0 1.0
-64.2963 17.086433333333332 2216.3 0.0 0.0 1.0
-65.28396666666667 23.802466666666664 2216.3 0.0 0.0 1.0
-65.4815 45.92589999999999 2216.3 0.0 0.0 1.0
-65.4815 45.92589999999999 2216.3 0.0 0.0 1.0
-64.8889 92.14813333333335 2216.3 0.0 0.0 1.0
-66.9076 91.48593333333334 1802.41 0.0 0.0 1.0
-64.49383333333334 116.64166666666667 2216.3 0.0 0.0 1.0
-68.0999 111.79166666666667 1949.1899999999998 -3.640587574853446e-28 1.2134433266865208e-27 1.0
-66.53636666666667 120.47766666666666 1949.1899999999998 0.0 0.0 1.0
-65.22953333333334 125.52733333333333 1938.6666666666667 -0.25736035229460436 0.943290279665125 0.20968809540860298
-64.88889999999999 -163.06166666666667 2216.3 0.0 0.0 1.0
-64.88889999999999 -163.06166666666664 2216.3 0.0 0.0 1.0
-68.87573333333334 -122.68233333333335 1770.41 0.0 0.0 1.0
-64.88889999999999 -145.679 2216.3 0.0 0.0 1.0
-65.28396666666667 -143.11133333333333 2216.3 0.0 0.0 1.0
-64.49383333333334 -139.16066666666669 2216.3 0.0 0.0 1.0
-66.27163333333333 -136.395 2216.3 0.0 0.0 1.0
-65.08643333333333 -125.926 2216.3 0.0 0.0 1.0
-66.8642 -120.19733333333333 2216.3 0.0 0.0 1.0
-64.49383333333334 -112.09899999999999 2216.3 0.0 0.0 1.0
-65.08643333333333 -107.55566666666668 2216.3 0.0 0.0 1.0
-65.4815 -106.76566666666668 2216.3 0.0 0.0 1.0
-65.28396666666667 -106.173 2216.3 0.0 0.0 1.0
-65.4815 -103.20966666666665 2216.3 0.0 0.0 1.0
-65.87656666666668 -84.0494 2216.3 0.0 0.0 1.0
-66.27163333333333 -79.70369999999998 2216.3 0.0 0.0 1.0
-67.82223333333333 -51.64443333333333 1994.67 0.0 0.0 1.0
-66.62236666666666 -31.6279 1988.04 0.0 0.0 1.0
-67.54970000000002 -24.2826 1981.46 0.0 0.0 1.0
-67.1965 -21.8102 1981.46 0.0 0.0 1.0
-67.01989999999999 -21.2804 1981.46 0.0 0.0 1.0
-67.7263 -14.922699999999999 1981.46 0.0 0.0 1.0
-67.59076666666667 -8.71287 1974.92 0.0 0.0 1.0
-62.518499999999996 7.012346666666667 2216.3 0.0 0.0 1.0
-67.28070000000001 7.63158 1968.42 0.0 0.0 1.0
-67.45616666666666 10.78948 1968.42 0.0 0.0 1.0
-65.28396666666667 28.5432 2216.3 0.0 0.0 1.0
-68.57143333333333 27.3439 1899.68 0.0 0.0 1.0
-68.54753333333333 33.5214 1875.86 0.0 0.0 1.0
-68.04596666666667 35.3605 1875.86 0.0 0.0 1.0
-67.5787 49.07706666666667 1949.1899999999998 -5.948464932911205e-27 1.1894647262240853e-26 1.0
-67.405 49.771966666666664 1949.1899999999998 1.9829484637245365e-27 -1.321796539106917e-27 1.0
-64.69136666666667 58.96296666666666 2216.3 0.0 0.0 1.0
-66.49236666666667 75.38126666666668 1955.5600000000002 0.0 -4.432384470437296e-27 1.0
-65.87656666666666 90.17283333333334 2216.3 0.0 0.0 1.0
-71.92366666666666 92.55793333333332 1795.2066666666667 1.857928202942551e-14 0.8678944796511711 0.49674860059291864
-64.49383333333334 121.38266666666668 2216.3 0.0 0.0 1.0
-69.22596666666666 -120.68599999999999 1873.9066666666665 -7.354839471067289e-15 0.2247698632814785 0.974411878293992
-66.27163333333333 -136.395 2216.3 0.0 0.0 1.0
-66.46916666666665 -127.11099999999999 2216.3 0.0 0.0 1.0
-66.46916666666667 -108.54333333333334 2216.3 0.0 0.0 1.0
-65.87656666666668 -77.33333333333333 2216.3 0.0 0.0 1.0
-66.0741 -74.5679 2216.3 0.0 0.0 1.0
-65.67903333333334 -71.60493333333334 2216.3 0.0 0.0 1.0
-67.82223333333333 -51.64443333333333 1994.67 0.0 0.0 1.0
-68.21706666666667 -34.6401 1988.04 0.0 0.0 1.0
-67.1965 -21.8102 1981.46 0.0 0.0 1.0
-67.0199 -20.044133333333335 1981.46 0.0 0.0 1.0
-67.9029 -17.218500000000002 1981.46 0.0 0.0 1.0
-67.9029 -17.218500000000002 1981.46 0.0 0.0 1.0
-68.2561 -12.8035 1981.46 0.0 0.0 1.0
-67.59076666666667 -8.71287 1974.92 0.0 0.0 1.0
-67.94283333333334 -0.44004233333333337 1974.92 0.0 0.0 1.0
-68.6469 0.6160610000000001 1974.92 0.0 0.0 1.0
-67.80703333333334 10.087726666666667 1968.42 0.0 0.0 1.0
-67.80703333333334 11.315800000000001 1968.42 0.0 0.0 1.0
-66.27163333333333 27.7531 2216.3 0.0 0.0 1.0
-67.7524 48.5559 1949.1899999999998 1.0 0.0 0.0
-67.5787 49.07706666666667 1949.1899999999998 -5.948464932911202e-27 1.189464726224085e-26 1.0
-67.5787 49.07706666666667 1949.1899999999998 -5.948464932911202e-27 1.189464726224085e-26 1.0
-64.8889 63.90123333333333 2216.3 0.0 0.0 1.0
-64.69136666666667 65.67903333333334 2216.3 0.0 0.0 1.0
-68.09986666666667 61.75896666666666 1949.1899999999998 -1.7841114971769594e-26 -8.922126666344911e-27 1.0
-66.71006666666666 66.2758 1949.1899999999998 1.652229827285709e-27 9.9123644773014e-28 1.0
-68.79476666666666 69.75026666666668 1949.1899999999998 -6.796475531855163e-27 1.5292885028168515e-26 1.0
-66.49236666666667 75.38126666666668 1955.5600000000002 0.0 -4.432384470437296e-27 1.0
-68.96276666666667 85.47833333333334 1807.8499999999997 1.2444848066296327e-25 -4.148282688765447e-26 1.0
-69.69696666666665 125.28133333333334 1942.86 0.0 0.0 1.0
-68.36516666666665 126.964 1905.7300000000002 -7.7779793727684025e-28 -7.7703539027950635e-28 1.0
-67.45586666666667 128.847 1864.17 0.0 0.0 1.0
-68.65423333333332 129.60666666666665 1858.39 0.0 0.0 1.0
-68.5132 130.59033333333332 1828.11 -0.9999802165080109 5.549453468256422e-17 0.006290198136101368
-68.5132 130.59033333333332 1828.11 -0.9999802165080109 9.436732289337934e-16 0.006290198136101479
-66.74796666666667 131.30066666666664 1824.39 0.0 0.0 1.0
-68.64196666666668 -157.92600000000002 2216.3 0.0 0.0 1.0
-69.22596666666666 -120.68599999999999 1873.9066666666665 1.9370770623387103e-15 0.2247698632814793 0.9744118782939919
-67.9646 -119.96066666666667 1765.1899999999998 -4.466551771871286e-26 -4.6982213228861904e-26 1.0
-65.28396666666667 -143.11133333333333 2216.3 0.0 0.0 1.0
-66.46916666666665 -133.827 2216.3 0.0 0.0 1.0
-66.46916666666667 -121.38266666666668 2216.3 0.0 0.0 1.0
-66.6667 -107.16066666666666 2216.3 0.0 0.0 1.0
-66.46916666666665 -104.19733333333333 2216.3 0.0 0.0 1.0
-66.27163333333334 -103.01233333333333 2216.3 0.0 0.0 1.0
-68.71113333333334 -54.13333333333333 1994.67 0.0 0.0 1.0
-69.24443333333333 -48.622233333333334 1994.67 0.0 0.0 1.0
-68.21706666666667 -34.6401 1988.04 0.0 0.0 1.0
-67.7263 -14.922699999999999 1981.46 0.0 0.0 1.0
-67.7263 -14.922699999999999 1981.46 0.0 0.0 1.0
-67.59076666666667 -9.592963333333335 1974.92 0.0 0.0 1.0
-67.94279999999999 -8.184816666666666 1974.92 0.0 0.0 1.0
-68.64686666666667 -7.480746666666666 1974.92 0.0 0.0 1.0
-68.64686666666667 -5.544553333333333 1974.92 0.0 0.0 1.0
-66.66669999999999 26.3704 2216.3 0.0 0.0 1.0
-68.57143333333333 27.3439 1899.68 0.0 0.0 1.0
-65.48150000000001 45.925900000000006 2216.3 0.0 0.0 1.0
-68.09986666666667 61.75896666666667 1949.1899999999998 -1.7842826924439876e-26 8.923267968125104e-27 1.0
-68.09986666666667 61.75896666666666 1949.1899999999998 -1.784111497176959e-26 -8.922126666344913e-27 1.0
-68.44733333333333 69.4028 1949.1899999999998 0.0 0.0 1.0
-68.04936666666667 97.87656666666665 2216.3 0.0 0.0 1.0
-69.28503333333333 84.83383333333335 1807.8499999999997 -4.1482825704165154e-26 4.148854786777838e-26 1.0
-69.28503333333333 84.83383333333335 1807.8499999999997 -4.148282570416521e-26 4.14885478677784e-26 1.0
-66.0741 118.81466666666665 2216.3 0.0 0.0 1.0
-68.96853333333334 112.66033333333333 1949.1899999999998 5.9518897145224295e-27 -4.16655180546185e-26 1.0
-66.7101 120.99900000000001 1949.1899999999998 -2.1045340911343247e-28 5.229782532037235e-27 1.0
-69.61576666666666 128.847 1864.17 0.0 0.0 1.0
-71.00103333333334 130.196 1852.63 0.0 0.0 1.0
-67.06176666666666 -137.38266666666667 2216.3 0.0 0.0 1.0
-67.65433333333333 -133.43200000000002 2216.3 0.0 0.0 1.0
-67.65433333333333 -123.35833333333333 2216.3 0.0 0.0 1.0
-67.65433333333333 -123.35833333333333 2216.3 0.0 0.0 1.0
-67.45679999999999 -113.87666666666667 2216.3 0.0 0.0 1.0
-67.4568 -104.59266666666667 2216.3 0.0 0.0 1.0
-66.66669999999999 -83.06176666666666 2216.3 0.0 0.0 1.0
-66.66669999999999 -83.06176666666666 2216.3 0.0 0.0 1.0
-68.2469 -67.2593 2216.3 0.0 0.0 1.0
-68.04936666666667 -62.518499999999996 2216.3 0.0 0.0 1.0
-67.54970000000002 -24.2826 1981.46 0.0 0.0 1.0
-67.9029 -17.218500000000002 1981.46 0.0 0.0 1.0
-68.24693333333333 -12.543199999999999 2216.3 0.0 0.0 1.0
-67.94283333333334 -0.44004233333333326 1974.92 0.0 0.0 1.0
-68.33333333333334 10.263160000000001 1968.42 0.0 0.0 1.0
-68.33333333333334 10.964913333333334 1968.42 0.0 0.0 1.0
-66.50103333333334 14.989666666666666 1858.39 0.0 0.0 1.0
-68.0494 21.827133333333336 2216.3 0.0 0.0 1.0
-66.66669999999999 26.3704 2216.3 0.0 0.0 1.0
-66.27163333333333 29.333333333333332 2216.3 0.0 0.0 1.0
-70.3564 33.62683333333333 1881.76 0.0 0.0 1.0
-69.0491 36.02923333333334 1875.86 0.0 0.0 1.0
-68.44443333333334 51.654333333333334 2216.3 0.0 0.0 1.0
-66.86423333333333 89.7778 2216.3 0.0 0.0 1.0
-69.28503333333333 84.83383333333335 1807.8499999999997 -4.148282570416521e-26 4.14885478677784e-26 1.0
-69.7684 87.89526666666666 1807.8499999999997 -1.9018505721746602e-26 -1.6424800811630673e-26 1.0
-66.0741 118.81466666666665 2216.3 0.0 0.0 1.0
-67.52303333333333 131.58933333333334 1806.0366666666669 -0.31347815563055964 -0.9411483922978631 0.12637701380239397
-68.24693333333333 -137.58 2216.3 0.0 0.0 1.0
-66.46916666666665 -127.11099999999999 2216.3 0.0 0.0 1.0
-67.2593 -108.54333333333334 2216.3 0.0 0.0 1.0
-67.85186666666668 -107.35833333333333 2216.3 0.0 0.0 1.0
-68.64196666666668 -96.29630000000002 2216.3 0.0 0.0 1.0
-69.42223333333334 -52.355533333333334 1994.67 0.0 0.0 1.0
-69.42223333333334 -52.355533333333334 1994.67 0.0 0.0 1.0
-70.3433 -42.96790000000001 1988.04 0.0 0.0 1.0
-70.52050000000001 -39.778533333333336 1988.04 0.0 0.0 1.0
-68.21706666666667 -34.640100000000004 1988.04 0.0 0.0 1.0
-67.5083 -30.741966666666666 1988.04 0.0 0.0 1.0
-69.1391 -20.92716666666667 1981.46 0.0 0.0 1.0
-68.78590000000001 -12.626900000000001 1981.46 0.0 0.0 1.0
-68.33333333333333 7.982456666666667 1968.42 0.0 0.0 1.0
-67.85186666666667 21.234533333333335 2216.3 0.0 0.0 1.0
-68.57143333333333 27.3439 1899.68 0.0 0.0 1.0
-68.64196666666668 54.41973333333333 2216.3 0.0 0.0 1.0
-69.31596666666667 68.88163333333334 1949.1899999999998 -7.137016543252083e-28 2.8549892168253276e-27 1.0
-68.24693333333333 92.34566666666666 2216.3 0.0 0.0 1.0
-68.24693333333333 93.53083333333332 2216.3 0.0 0.0 1.0
-68.44446666666666 93.72836666666666 2216.3 0.0 0.0 1.0
-69.4897 109.70666666666666 1949.1899999999998 2.5780740343671475e-26 -2.642790296667265e-27 1.0
-69.316 112.313 1949.1899999999998 1.0 0.0 0.0
-69.316 112.31299999999999 1949.1899999999998 1.0 0.0 0.0
-69.316 112.31299999999999 1949.1899999999998 1.0 0.0 0.0
-68.64193333333334 -123.75333333333333 2216.3 0.0 0.0 1.0
