ply
format ascii 1.0
comment VCGLIB generated
element vertex 562
property float x
property float y
property float z
property float nx
property float ny
property float nz
element face 0
property list uchar int vertex_indices
end_header
-189.21733333333336 334.6086666666667 2601.74 0.0 0.0 1.0
-173.07666666666668 283.84633333333335 2157.7000000000003 -0.8681076567355953 0.49609218464786164 0.016782152673171152
-172.08633333333333 290.07199999999995 2152.52 0.0 0.0 1.0
-169.50300000000001 292.9163333333333 2155.11 -0.7903042320609361 -8.05738965642135e-16 0.6127146324240786
-191.768 -222.14499999999998 2601.74 0.0 0.0 1.0
-191.768 -222.14499999999998 2601.74 0.0 0.0 1.0
-193.8546666666667 -181.797 2601.74 0.0 0.0 1.0
-183.20033333333333 -132.32666666666668 2334.4666666666667 0.6401835616388534 0.768220273966624 0.001618046364582639
-172.84166666666667 -87.66146666666667 2325.3933333333334 0.20727659135944074 -0.8291063654377793 0.5192485430552184
-173.72 -49.8551 2168.12 0.0 0.0 1.0
-190.60866666666666 48.0 2601.74 0.0 0.0 1.0
-182.40633333333335 131.93733333333333 2349.75 -0.9252165904907235 -0.2774912547097295 0.258791159509634
-172.56499999999997 267.30400000000003 2119.49 -0.3532693191914476 -0.6476950120663401 0.6750495977795963
-173.80733333333333 -341.2773333333334 2387.2666666666664 -0.832952960778294 8.253308509062061e-17 0.5533438037338757
-190.8406666666667 -268.058 2601.74 0.0 0.0 1.0
-187.20066666666665 -96.77480000000001 2597.986666666666 -0.11352434534328519 -0.6244124579454386 0.7728009480952481
-183.64499999999998 -6.171446666666667 2377.806666666667 0.8681045628981285 -0.49598197734140537 0.019908441123274483
-187.82600000000002 4.173913333333333 2601.74 0.0 0.0 1.0
-186.04166666666666 35.625 2337.5 0.0 0.0 1.0
-190.60866666666666 48.0 2601.74 0.0 0.0 1.0
-196.63766666666666 116.17399999999999 2601.74 0.0 0.0 1.0
-153.23933333333332 91.05563333333333 1600.1433333333334 -0.9033439472198795 0.3993908192784981 0.15638633731006663
-192.232 192.46366666666665 2601.74 0.0 0.0 1.0
-171.75633333333334 192.68833333333336 2144.8 0.0 0.0 1.0
-166.03733333333332 184.94433333333336 1852.67 -0.5382922279329018 -0.8343583698006065 0.11869114579743012
-190.27633333333333 -360.52833333333336 2583.0333333333333 -0.10352724949242009 0.7252917754716048 0.680612921597718
-192.6436666666667 -354.94233333333335 2579.31 0.0 0.0 1.0
-190.8406666666667 -268.058 2601.74 0.0 0.0 1.0
-194.783 -259.94166666666666 2601.74 0.0 0.0 1.0
-179.8503333333333 -199.48833333333334 2272.4166666666665 0.9326208007005928 -0.10373809454368378 0.3456253026632033
-191.768 -222.14499999999998 2601.74 0.0 0.0 1.0
-184.81166666666664 -90.89853333333333 2601.74 0.0 0.0 1.0
-189.44966666666664 -32.69566666666666 2601.74 0.0 0.0 1.0
-192.765 -32.44056666666666 2476.1499999999996 -0.7963014035875263 0.03791010189720443 0.603710939787146
-189.44966666666664 -32.69566666666666 2601.74 0.0 0.0 1.0
-193.93966666666665 -15.499369999999999 2349.75 0.4231597898541387 0.4231483542046248 0.8011749263328942
-191.30466666666666 23.4203 2601.74 0.0 0.0 1.0
-194.78266666666664 82.7826 2601.74 0.0 0.0 1.0
-189.44933333333333 165.56499999999997 2601.74 0.0 0.0 1.0
-195.47866666666667 181.56500000000003 2601.74 0.0 0.0 1.0
-193.85533333333333 188.05766666666668 2601.74 0.0 0.0 1.0
-164.52133333333333 182.8836666666667 2070.59 0.0 0.0 1.0
-186.86566666666667 197.35799999999998 2266.733333333333 -0.7186511580721248 0.6673490676520409 0.19541170616302847
-173.07666666666668 283.84633333333335 2157.7 -0.8681076567355953 0.4960921846478616 0.01678215267317098
-183.26200000000003 -304.9253333333333 2384.0866666666666 -0.9566502805130873 -0.2868595824901188 0.05031720111280258
-185.018 -251.91799999999998 2343.7066666666665 -0.8265683976039743 -0.461629261313224 0.3219986167389632
-193.62299999999996 -204.75366666666665 2601.74 0.0 0.0 1.0
-182.23733333333334 -135.13666666666666 2365.2433333333333 -0.6575966393622832 0.6586709397817682 0.36567643209049394
-183.29566666666665 -131.962 2365.2433333333333 0.9958180785916032 0.05242925363903949 0.07481662724943135
-183.32066666666665 130.09166666666667 2346.67 0.0 0.0 1.0
-183.32066666666665 130.09166666666667 2346.67 0.0 0.0 1.0
-183.73866666666666 135.5293333333333 2346.67 0.0 0.0 1.0
-170.99166666666667 195.74666666666667 2144.8 0.0 0.0 1.0
-173.97133333333332 239.8066666666667 2147.3733333333334 -0.9195813864732943 0.3678967039709997 0.13792058896019818
-173.97133333333332 239.80666666666664 2147.3733333333334 -0.9195813864732946 0.3678967039709993 0.13792058896019815
-171.306 242.30466666666666 2010.4866666666667 0.517038889005146 0.5647455330460414 0.6432210119087116
-173.07666666666668 283.84633333333335 2157.7000000000003 -0.8681076567355953 0.4960921846478616 0.01678215267317098
-177.36633333333336 283.5586666666666 2129.54 0.0 0.0 1.0
-191.60366666666664 -338.14866666666666 2422.6966666666667 -0.5611086235654568 0.33399921749857303 0.7573649287304104
-182.013 -288.92066666666665 2235.6266666666666 -0.6161777727492203 0.4107851818328105 0.6719973859743764
-180.606 -234.34333333333333 2266.67 0.0 0.0 1.0
-192.69566666666665 -172.52166666666668 2601.74 0.0 0.0 1.0
-184.58900000000003 -132.722 2319.4 -0.8671685541572342 -0.44952469501881287 0.21435075751929464
-181.2686666666667 -135.50833333333333 2328.4266666666667 -0.9293760915902578 -0.3377823349684465 0.14887301489417465
-182.7206666666667 -134.84666666666666 2371.4733333333334 -0.9428120823915588 -0.3143036918934491 0.11098903801114854
-147.22133333333332 -48.72013333333333 1729.5433333333333 0.8199414067815618 -0.5654591505366344 0.0891742032174171
-194.63966666666667 -76.02043333333334 2496.87 0.6825515083892639 -0.2556775424515054 0.6846549734585291
-192.92766666666668 189.9126666666667 2601.74 0.0 0.0 1.0
-177.36633333333336 283.5586666666666 2129.54 0.0 0.0 1.0
-181.4226666666667 -308.4283333333333 2452.4866666666667 -0.4480214934985092 0.8170789490104289 0.36284808453039713
-185.461 -303.296 2371.523333333333 -0.9742891602164447 0.19484318399903278 0.11312279139879025
-182.42399999999998 -277.17199999999997 2266.67 0.0 0.0 1.0
-185.86800000000002 -258.82 2258.133333333333 0.7121125772195184 -0.6897545797165353 0.1308980409549405
-179.85033333333334 -199.48833333333332 2272.4166666666665 0.9326208007005931 -0.10373809454368296 0.3456253026632027
-196.63766666666666 -172.29 2601.74 0.0 0.0 1.0
-190.585 -100.61136666666665 2486.4366666666665 0.957289522130392 -2.5091942496178258e-15 0.28913106166471536
-190.585 -100.61136666666665 2486.4366666666665 0.957289522130392 -2.5091942496178258e-15 0.28913106166471536
-187.44799999999998 -7.459813333333334 2396.8033333333333 -0.9761774988269836 -1.900920090312278e-13 0.21697347944828313
-176.40633333333335 198.528 2068.21 -0.7993521636138593 -0.5921345001134779 0.10204338440684825
-177.14733333333334 268.609 2528.4566666666665 0.4124037015622925 0.05498172991399278 0.9093405282474681
-173.97133333333332 239.80666666666664 2147.3733333333334 -0.9195813864732946 0.3678967039709993 0.13792058896019815
-171.86366666666666 270.813 2147.3733333333334 -0.16425532728960668 -0.9863919392731264 0.007150496065654629
-143.90233333333333 254.40033333333335 1773.9233333333334 0.5254803265965278 0.34008966582760175 0.7798778401501588
-183.136 -274.542 2286.91 0.970920148021215 -0.2081108846754861 0.11833818422659678
-189.95700000000002 -209.49033333333333 2521.48 0.8888051470960225 -0.28205445077596264 0.36120727746418346
-179.85033333333334 -199.48833333333332 2272.4166666666665 0.9326208007005927 -0.10373809454368384 0.3456253026632034
-179.47733333333335 -164.257 2272.456666666667 0.8292822551605809 -0.10005524246258624 0.5497998633425933
-174.53166666666667 -87.15390000000001 2232.86 0.8596999141235496 0.5069847865926982 -0.062309580479394805
-173.72 -49.8551 2168.12 0.0 0.0 1.0
-184.78433333333336 134.69299999999998 2346.67 0.0 0.0 1.0
-184.57500000000002 166.48366666666666 2346.67 0.0 0.0 1.0
-172.444 189.66133333333335 2147.3733333333334 0.6737466917719525 0.37440525324587753 0.6370919099064436
-195.24633333333335 343.884 2601.74 0.0 0.0 1.0
-168.98033333333333 301.1863333333333 2334.5866666666666 -0.7756274005290285 0.2216330573005449 0.5909999352455086
-176.44266666666667 297.1313333333333 2227.346666666667 -0.6752986608726619 0.2624398847193214 0.6892728237295439
-196.174 375.88433333333325 2601.74 0.0 0.0 1.0
-180.606 -234.34333333333333 2266.67 0.0 0.0 1.0
-180.606 -234.34333333333333 2266.67 0.0 0.0 1.0
-177.32266666666666 -210.97 2352.83 0.5566972633570444 -0.5566972633570552 0.6165843932030255
-147.08666666666667 -62.322366666666674 1779.21 -0.07685329090035993 0.9922332167378813 0.09781009804606737
-180.40533333333335 -42.160133333333334 2149.9466666666667 -0.8656006390525952 -0.4946678151242528 -0.07771284547574628
-187.73333333333332 -14.933333333333332 2393.6 0.0 0.0 1.0
-188.13066666666668 81.35946666666666 2346.67 0.0 0.0 1.0
-184.784 86.79736666666668 2346.67 0.0 0.0 1.0
-188.13066666666668 92.86273333333334 2346.67 0.0 0.0 1.0
-196.63766666666666 116.17399999999999 2601.74 0.0 0.0 1.0
-184.78433333333336 134.69299999999998 2346.67 0.0 0.0 1.0
-184.57500000000002 166.48366666666666 2346.67 0.0 0.0 1.0
-184.57500000000002 166.48366666666666 2346.67 0.0 0.0 1.0
-183.10933333333332 216.572 2178.7233333333334 -0.6650866949306581 -0.5912725172882779 0.45613210644044444
-180.89333333333332 221.02466666666666 2119.523333333333 0.6274286217492021 0.7683130040105192 0.12660352474646572
-176.34433333333334 226.71433333333334 2144.8 0.0 0.0 1.0
-176.04 266.3616666666667 2104.576666666667 0.18499719896246186 -0.5553201887150436 0.8107993120258129
-196.17399999999998 375.88433333333336 2601.74 0.0 0.0 1.0
-189.04866666666666 -345.374 2496.81 0.24292137532108865 0.7287641259632658 0.6402281266244931
-182.48000000000002 -276.86133333333333 2272.4166666666665 -0.995451248260374 6.033111566559563e-18 0.09527230624301719
-182.48000000000002 -276.86133333333333 2272.4166666666665 -0.995451248260374 -3.547893714366163e-16 0.09527230624301719
-180.15266666666665 -175.06366666666668 2283.97 0.0 0.0 1.0
-189.44833333333335 -131.57466666666667 2278.183333333333 0.5601182646865498 0.5601796475100768 0.6103001655579116
-182.24533333333332 -79.99673333333332 2331.433333333333 0.4722245545378728 0.799118726239987 0.37203928752765913
-197.56533333333334 23.884066666666666 2601.74 0.0 0.0 1.0
-187.29166666666666 40.416666666666664 2337.5 0.0 0.0 1.0
-188.96733333333336 63.58169999999999 2346.67 0.0 0.0 1.0
-184.78433333333336 134.693 2346.67 0.0 0.0 1.0
-197.56533333333334 179.47799999999998 2601.74 0.0 0.0 1.0
-194.55100000000002 188.05766666666668 2601.74 0.0 0.0 1.0
-193.32133333333334 176.388 2449.1233333333334 -0.05949405618195671 -0.5593675447003996 0.8267819586897531
-166.03733333333332 184.94433333333336 1852.67 -0.5382922279329018 -0.8343583698006065 0.11869114579743012
-176.34433333333334 226.71433333333334 2144.8 0.0 0.0 1.0
-196.17399999999998 375.88433333333336 2601.74 0.0 0.0 1.0
-176.10433333333333 -339.11 2304.5466666666666 -0.6368215638457632 0.6929260684176565 0.3381002211301938
-182.29133333333334 -326.44 2246.8566666666666 -0.6303904711366954 0.3461008290928449 0.6948539918582181
-187.66466666666665 -345.63433333333336 2396.8033333333333 0.40518321218686243 0.911662227420439 0.06854595288374223
-191.75666666666666 -350.9696666666667 2517.8233333333333 0.6347987006881747 -0.7708366287893244 0.05330573441304925
-183.60333333333332 -267.7916666666667 2244.0066666666667 0.5898604198637436 -0.35399500497831077 0.7257769778165838
-181.61599999999999 -233.53533333333334 2266.67 0.0 0.0 1.0
-195.24166666666667 -214.66133333333332 2359.013333333333 0.2658600749483539 -0.2658600749483467 0.9266265920514666
-190.585 -100.61136666666665 2486.4366666666665 0.9572895221303915 5.268756416367705e-15 0.28913106166471675
-189.59699999999998 -87.94146666666667 2406.44 -0.990608877911536 0.0566001808863677 0.12446071880910119
-187.73333333333335 -14.933333333333332 2393.6 0.0 0.0 1.0
-187.73333333333335 -14.933333333333332 2393.6 0.0 0.0 1.0
-186.11033333333333 62.03756666666666 2343.6133333333332 0.8499026123492999 -0.5098386244354652 0.13315452134865055
-190.08433333333332 111.95666666666666 2343.6133333333332 0.8079009150815414 7.579630454835877e-17 0.5893183447088748
-185.41166666666666 135.1113333333333 2346.67 0.0 0.0 1.0
-184.99333333333334 163.76466666666667 2346.67 0.0 0.0 1.0
-176.1496666666667 172.183 2170.7633333333333 -0.5871741100111131 -0.8072855647843451 -0.05930077085062366
-176.34433333333334 226.71433333333334 2144.8 0.0 0.0 1.0
-198.9563333333333 358.4926666666667 2601.74 0.0 0.0 1.0
-196.1016666666667 -356.345 2564.61 -0.9374917585670985 -0.2250221531181007 0.2654698348680374
-183.8276666666667 -284.309 2275.29 0.0 0.0 1.0
-182.42399999999998 -277.17199999999997 2266.67 0.0 0.0 1.0
-181.90833333333333 -259.7273333333333 2224.54 0.0 0.0 1.0
-160.224 -139.28966666666668 1584.5033333333333 0.6169164472522439 -0.24073962348866357 0.7493053655167603
-188.82533333333333 -185.59533333333331 2586.7866666666664 -0.20908633568357518 0.9757025476195827 0.06547856747876796
-190.298 -117.68833333333333 2384.0866666666666 0.5330722557408665 -0.3422514271717495 0.7737557306787749
-183.90300000000002 -77.99876666666667 2403.236666666666 0.2949473056854854 0.4610708892802634 0.8369108207731454
-199.42033333333333 90.89853333333333 2601.74 0.0 0.0 1.0
-180.19433333333333 174.22933333333333 2157.7000000000003 -0.2843013019420246 0.9481087298020425 0.14234678144316282
-177.61033333333333 282.35433333333333 2235.6466666666665 -0.6529614616331784 0.7255217031669506 0.21739270423726495
-179.035 301.436 2124.523333333333 0.4970090803541352 -0.8522115548456196 -0.163454702695116
-187.00933333333333 -307.569 2359.06 -0.9823168821885954 -0.07574939040600681 0.1712179103376609
-197.33366666666666 -265.739 2601.74 0.0 0.0 1.0
-200.11599999999999 -62.84056666666667 2601.74 0.0 0.0 1.0
-180.28966666666668 -42.7053 2168.12 0.0 0.0 1.0
-180.28966666666668 -42.7053 2168.12 0.0 0.0 1.0
-186.02666666666664 -37.12 2393.6 0.0 0.0 1.0
-178.297 8.369826666666667 2183.94 0.0 0.0 1.0
-186.73866666666666 48.04573333333334 2343.6133333333332 6.9762484864652184e-15 -0.8950665835756793 0.44593251839954606
-189.38566666666668 61.28103333333333 2346.67 0.0 0.0 1.0
-199.42033333333333 90.89853333333333 2601.74 0.0 0.0 1.0
-180.19433333333333 174.22933333333333 2157.7 -0.2843013019420246 0.9481087298020425 0.14234678144316282
-178.208 237.99900000000002 2139.693333333333 -0.7675957336790098 0.47239839741289985 0.4331703403506598
-175.47799999999998 256.8343333333333 2186.626666666667 0.600526487103865 0.736988609580548 0.3101866013147923
-179.84166666666667 269.04699999999997 2109.523333333333 0.31318886198013296 -0.9401228716632909 0.1344682970337505
-177.65333333333334 269.75399999999996 2119.49 -0.33367572336290124 -0.611771501030512 0.717214153628551
-180.25900000000001 303.03900000000004 2114.49 0.0 0.0 1.0
-194.48299999999998 -348.58233333333334 2503.7966666666666 0.7802439100492037 -0.585378738020904 -0.22034330918860134
-182.013 -288.92066666666665 2235.6266666666666 -0.6161777727492203 0.4107851818328105 0.6719973859743764
-182.42399999999998 -277.172 2266.67 0.0 0.0 1.0
-184.35299999999998 -277.9893333333333 2286.91 -0.9770587235123298 0.20942665135177416 -0.0386875756805589
-183.60333333333332 -267.7916666666667 2244.0066666666667 0.589860419863743 -0.35399500497831116 0.7257769778165839
-179.63566666666665 -173.54433333333336 2241.2833333333333 -0.6853759492720533 0.7281312355888602 -0.009203907826115472
-183.20033333333333 -132.32666666666668 2334.4666666666667 0.6401835616388534 0.768220273966624 0.0016180463645825577
-192.65133333333333 -99.36206666666668 2403.236666666667 -0.7231067079409335 0.657281105688996 -0.21236345503658544
-187.61533333333333 -65.81993333333334 2313.4533333333334 -0.9068852199648508 -0.4029490480301232 -0.12325283972761729
-187.89866666666668 -58.68226666666666 2301.56 0.7772279913067102 0.5012541399419127 0.3803431828236568
-186.73866666666666 48.04573333333334 2343.6133333333332 1.1859622426990868e-15 -0.8950665835756799 0.44593251839954473
-201.04333333333332 109.44933333333334 2601.74 0.0 0.0 1.0
-193.356 134.07133333333334 2486.55 0.4255533621818908 0.8117834347778845 0.3998899735626147
-187.43233333333333 137.87733333333333 2340.58 -0.1868541687945418 0.9333782285166653 0.30641573415083084
-197.797 170.89833333333334 2601.74 0.0 0.0 1.0
-182.26666666666668 161.06833333333336 2390.42 -0.5218070595678636 -0.8429190962250127 0.1311670301727831
-182.982 185.5536666666667 2139.693333333333 0.29372615297039406 -0.9544172634576048 0.05303427453363743
-198.9563333333333 358.4926666666667 2601.74 0.0 0.0 1.0
-200.11566666666667 360.81166666666667 2601.74 0.0 0.0 1.0
-195.18066666666664 -352.27299999999997 2514.316666666667 -0.9184332644290835 0.38292043571631995 0.09925864547212326
-192.6436666666667 -354.94233333333335 2579.31 0.0 0.0 1.0
-190.422 -313.91499999999996 2346.693333333333 -0.49978196481110787 -0.5620022960432219 0.6590685904302337
-200.81166666666664 -268.98566666666665 2601.74 0.0 0.0 1.0
-191.07933333333335 -151.3743333333333 2117.06 -0.7254157432122802 0.21552695699894392 0.6536972772672001
-179.60299999999998 -167.38200000000003 2439.1666666666665 0.704361311158449 0.1759549778066839 0.6876881481661583
-190.44166666666663 -35.88113333333333 2396.8033333333333 -0.6384208126789543 -0.638420812678957 0.4299275891085421
-190.4416666666667 -35.88113333333333 2396.8033333333333 -0.6384208126789543 -0.638420812678957 0.4299275891085421
-203.36233333333334 12.9855 2601.74 0.0 0.0 1.0
-188.75 36.875 2337.5 0.0 0.0 1.0
-182.46633333333332 43.25396666666666 2390.42 -0.631322310168316 -2.498238057939493e-16 0.7755205610967001
-200.81133333333332 85.10143333333333 2601.74 0.0 0.0 1.0
-202.203 102.0292 2601.74 0.0 0.0 1.0
-204.52166666666668 155.13066666666668 2601.74 0.0 0.0 1.0
-176.40633333333335 198.528 2068.21 -0.7993521636138593 -0.5921345001134778 0.10204338440684814
-192.01766666666666 225.28 2310.4933333333333 -0.9652110992389255 0.259859921967016 0.028988874784674136
-179.00199999999998 226.79733333333334 2112.023333333333 -0.9539190591336966 -0.28840054444149343 0.08284657257444705
-181.216 252.65 2134.6066666666666 4.555649491220269e-15 0.9686245415732916 0.24852866527209852
-183.8276666666667 -284.309 2275.29 0.0 0.0 1.0
-191.47866666666667 -223.75933333333333 2249.62 0.0 0.0 1.0
-179.989 -172.39233333333334 2396.8033333333333 0.47658506961292074 3.7798896605776874e-16 0.8791283588999091
-195.01433333333333 -176.69566666666665 2601.74 0.0 0.0 1.0
-195.76200000000003 -30.5973 2469.3366666666666 -0.9885592347825668 0.04706306073703949 0.14330285286821015
-176.69266666666667 -26.1388 2219.0666666666666 0.6684642963753203 0.6684424436894162 0.3260984267762878
-200.81166666666664 28.985533333333336 2601.74 0.0 0.0 1.0
-188.75 36.875 2337.5 0.0 0.0 1.0
-203.362 58.89856666666666 2601.74 0.0 0.0 1.0
-200.81133333333332 85.10143333333333 2601.74 0.0 0.0 1.0
-179.76833333333335 70.44946666666667 2449.286666666667 0.4683607251866309 0.8297907609983108 0.30345596725801466
-200.11599999999999 88.5797 2601.74 0.0 0.0 1.0
-202.66633333333334 137.50699999999998 2601.74 0.0 0.0 1.0
-202.66633333333334 144.23166666666665 2601.74 0.0 0.0 1.0
-189.80366666666666 134.90166666666667 2346.67 0.0 0.0 1.0
-189.80366666666666 134.90166666666667 2346.67 0.0 0.0 1.0
-200.34766666666667 190.37666666666667 2601.74 0.0 0.0 1.0
-191.99966666666668 217.0436666666667 2601.74 0.0 0.0 1.0
-179.84166666666667 269.04699999999997 2109.523333333333 0.3131888619801323 -0.940122871663291 0.13446829703374974
-187.35800000000003 -317.91900000000004 2334.4666666666667 -0.3158391305286402 0.9475173915859206 0.049562448175264104
-185.39133333333334 -211.77 2278.183333333333 -0.2535425619440091 -0.8619780327498145 0.4389875172936332
-154.06666666666666 -151.832 1731.1500000000003 0.2794338597551899 0.11973270419538133 0.9526703509443223
-187.45966666666666 -214.523 2224.54 0.0 0.0 1.0
-180.44766666666666 -179.91233333333332 2213.6133333333332 0.8503285962277136 0.3251000016154005 0.41382516524140056
-200.537 -106.59000000000002 2445.7866666666664 -0.5685688429991724 0.8123655903801321 0.12958247696707223
-192.765 -32.44056666666666 2476.15 -0.7963014035875263 0.03791010189720443 0.603710939787146
-198.62466666666668 -13.63467 2322.4333333333334 0.7532113855352209 -0.4190952374579976 0.5069830279606383
-182.38433333333333 13.43065666666667 2183.94 0.0 0.0 1.0
-188.75 36.875 2337.5 0.0 0.0 1.0
-203.13033333333337 55.4203 2601.74 0.0 0.0 1.0
-200.57966666666667 105.04366666666665 2601.74 0.0 0.0 1.0
-204.28966666666668 116.40566666666666 2601.74 0.0 0.0 1.0
-191.89566666666667 126.536 2346.67 0.0 0.0 1.0
-179.64 270.27333333333337 2170.7466666666664 0.10689868747499104 0.7840056699574522 0.6114799915701989
-186.59633333333332 295.5266666666667 2162.9 -0.23132804687064498 -0.4626560937412995 0.8558251419858233
-193.35666666666668 -351.64766666666674 2553.6333333333337 0.516212921177745 0.12390438841653767 0.8474502478259494
-184.876 -290.945 2232.84 0.0 0.0 1.0
-182.49300000000002 -279.0113333333333 2539.186666666667 -0.2618727543678659 -0.12323022779071492 0.9572026804592828
-199.65200000000002 -228.174 2601.74 0.0 0.0 1.0
-200.81166666666664 -208.46400000000003 2601.74 0.0 0.0 1.0
-183.68833333333336 -169.566 2281.0766666666664 0.6776443076308007 0.2581653089344321 0.6885846829536378
-157.236 -65.02823333333333 1632.0033333333333 0.035726991721267004 0.26029882817139616 0.9648668831062379
-195.04466666666667 -98.0845 2292.72 0.0 0.0 1.0
-187.59833333333336 -263.19733333333335 2244.0066666666667 -0.567185930780187 -0.7247171302441181 0.3912610395321045
-202.4346666666667 -273.39166666666665 2601.74 0.0 0.0 1.0
-163.98600000000002 -163.72833333333332 1782.7866666666666 -0.7835817048914219 -0.15046679393818962 0.602793045481959
-176.95666666666668 -83.7555 1760.0100000000002 -0.3400263340511998 -0.8964092727816889 0.2843105833814585
-183.811 -98.74119999999999 2550.07 -0.39864462595010675 0.375178897149305 0.8368531874438494
-182.41533333333336 -40.772933333333334 2168.12 0.0 0.0 1.0
-194.356 -31.009866666666667 2416.1833333333334 0.9349701057639096 0.26712547900872213 0.23339854282360942
-195.76200000000003 -30.5973 2469.3366666666666 -0.9885592347825668 0.04706306073703948 0.14330285286821015
-180.28099999999998 -10.692196666666666 2205.5333333333333 -0.17180463667101947 0.8589766370569106 0.4823300776529899
-203.36233333333334 12.9855 2601.74 0.0 0.0 1.0
-205.44933333333333 21.333333333333332 2601.74 0.0 0.0 1.0
-154.81 32.13736666666667 2017.0966666666666 0.014677755023661365 0.42569562951140577 0.9047473650264771
-189.8036666666667 134.90166666666667 2346.67 0.0 0.0 1.0
-201.9706666666667 174.37666666666667 2601.74 0.0 0.0 1.0
-201.04333333333332 177.85500000000002 2601.74 0.0 0.0 1.0
-204.98533333333333 192.0 2601.74 0.0 0.0 1.0
-183.80966666666666 230.857 2137.14 0.0 0.0 1.0
-183.48600000000002 253.558 2142.2466666666664 0.6110118875447037 0.785760678501689 -0.09614899583263099
-200.11566666666667 360.81166666666667 2601.74 0.0 0.0 1.0
-192.8023333333333 -304.08033333333333 2322.3866666666668 -0.33377127138843826 0.2920288398865683 0.8962789158907235
-202.4346666666667 -273.39166666666665 2601.74 0.0 0.0 1.0
-184.21633333333332 -177.07399999999998 2227.346666666667 -0.8665691183965928 0.4953030674060108 0.061096926760260274
-187.35133333333337 -128.20866666666666 2316.3933333333334 -0.8714914336345483 -0.4067272302203056 0.2739993454351998
-191.21866666666665 -120.91700000000002 2319.4 0.752511504074412 -0.5025039304358847 0.425695003649507
-193.40533333333335 -75.94113333333333 2334.4666666666667 0.30583940834726425 0.917518225041793 0.2542096831711045
-183.71333333333334 -45.253233333333334 2246.813333333333 0.17863803316913043 -0.9825339313957443 0.052110716378566777
-180.40533333333335 -42.160133333333334 2149.9466666666667 -0.8656006390525949 -0.4946678151242529 -0.0777128454757463
-184.85933333333332 -35.0173 2170.7466666666664 -0.9709202138585753 -1.4837026129513082e-16 0.23940329638670027
-186.53266666666664 233.3216666666667 2205.4533333333334 -0.2856429422156796 -0.9514743528055009 0.11447561100829866
-176.37766666666667 202.47033333333334 1913.8633333333335 0.7905292916795281 -0.6109274474468055 -0.04279127192307118
-211.942 300.52166666666665 2601.74 0.0 0.0 1.0
-183.40600000000003 -293.29866666666663 2235.6266666666666 -0.7393489081140822 0.138627920271392 0.6588971784669767
-194.13466666666667 -228.28366666666668 2286.8866666666668 -0.5142203309706159 -0.8572210102534212 -0.02737865585769136
-196.90333333333334 -208.63733333333334 2546.66 0.7249771748014125 -0.5698246010285806 0.38692120655190393
-167.12266666666667 -124.76633333333332 1893.6833333333334 0.1687891167694729 0.16131551173459924 0.9723618358070136
-180.40533333333335 -42.160133333333334 2149.9466666666667 -0.8656006390525952 -0.4946678151242528 -0.07771284547574643
-212.17399999999998 -13.217386666666664 2601.74 0.0 0.0 1.0
-205.44933333333333 21.333333333333332 2601.74 0.0 0.0 1.0
-189.51133333333334 83.22876666666667 2340.556666666667 -0.7910724656240052 -3.8743634943681253e-16 0.6117224486084821
-189.51133333333334 86.366 2340.556666666667 -0.7910724656240051 -1.430790482157438e-17 0.6117224486084822
-203.59433333333334 96.92766666666667 2601.74 0.0 0.0 1.0
-195.8696666666667 102.9018 2346.67 0.0 0.0 1.0
-194.6146666666667 118.58833333333332 2346.67 0.0 0.0 1.0
-191.89566666666667 126.536 2346.67 0.0 0.0 1.0
-187.34833333333336 205.15166666666667 2252.5833333333335 -0.917878069302105 -0.19849339183257533 0.34365713042659224
-180.381 235.619 2137.14 0.0 0.0 1.0
-182.66666666666666 251.80966666666666 2137.14 0.0 0.0 1.0
-187.75933333333333 280.8136666666667 2155.11 0.6249166766919205 0.49104474123576414 0.6069219136734372
-206.3766666666667 -234.203 2601.74 0.0 0.0 1.0
-204.75333333333333 -187.13066666666668 2601.74 0.0 0.0 1.0
-190.74733333333333 -128.39899999999997 2246.8566666666666 0.7848495040762222 -0.5471791861709469 -0.29087143925213493
-168.14766666666668 -77.09093333333334 2178.646666666667 -0.1663938690399375 0.7653912064067657 0.6216827016260915
-185.304 17.3236 2183.94 0.0 0.0 1.0
-205.681 118.029 2601.74 0.0 0.0 1.0
-184.3563333333333 173.28533333333334 2160.29 0.0 0.0 1.0
-193.55266666666668 184.915 2390.42 -0.9833382085482097 -0.17878876519058304 0.032871645088498866
-191.34433333333334 200.58633333333333 2157.7000000000003 -0.09384361379020469 -0.5394688053668824 0.8367596932135437
-186.53266666666664 233.3216666666667 2205.4533333333334 -0.28564294221567976 -0.9514743528055006 0.11447561100829869
-182.66666666666666 251.80966666666666 2137.14 0.0 0.0 1.0
-182.66666666666666 251.80966666666666 2137.14 0.0 0.0 1.0
-186.386 271.7873333333334 2227.346666666667 -0.9539564704328445 0.03529691860893851 0.2978610079483778
-182.89766666666665 303.2273333333333 2114.49 0.0 0.0 1.0
-198.6206666666667 -357.701 2579.31 0.0 0.0 1.0
-204.85433333333333 -343.50399999999996 2466.0 0.8383243486758085 -0.43216397941183843 0.33233504376789
-185.766 -271.96866666666665 2150.17 -0.9662302032928656 0.23938172867189286 0.09537076188583184
-183.68866666666668 -195.044 2272.4166666666665 -0.6585469675757076 0.07325207365362775 0.7489659706570675
-190.63966666666667 -161.82466666666667 2328.4266666666667 0.2746819634012044 -0.3068138576127036 0.9112711318586094
-199.45166666666668 -24.814766666666667 2419.4133333333334 -0.8587002096045357 -0.2453348009753614 0.4499386463235919
-172.4093333333333 7.399076666666667 2072.986666666667 0.320403522411187 0.8396953176722504 0.4384670527027115
-201.971 90.43476666666668 2601.74 0.0 0.0 1.0
-205.681 118.029 2601.74 0.0 0.0 1.0
-205.681 118.029 2601.74 0.0 0.0 1.0
-205.913 134.26066666666668 2601.74 0.0 0.0 1.0
-193.56866666666667 125.90866666666666 2346.67 0.0 0.0 1.0
-205.913 153.27533333333335 2601.74 0.0 0.0 1.0
-206.37666666666667 157.21766666666667 2601.74 0.0 0.0 1.0
-190.553 166.88633333333334 2340.556666666667 -0.7393823330967012 0.10562604758524313 0.6649487977100182
-195.64733333333334 198.17033333333333 2380.9599999999996 -0.9987123797183954 -0.04554942870713906 0.022334550402296427
-185.5856666666667 253.31866666666667 2149.9466666666667 -6.369038813980677e-17 -0.9820445348994873 0.18864922866009753
-185.883 272.6426666666667 2168.1366666666668 -0.2743152121254561 0.6825825644333403 0.6773715428981136
-182.89766666666665 303.2273333333333 2114.49 0.0 0.0 1.0
-190.56133333333332 300.13733333333334 2054.5933333333337 0.12858686300052796 -0.9802417201131283 0.15030498598961672
-210.965 357.8233333333333 2452.5699999999997 0.22115711570399232 -0.9635046577222737 0.15082541139004102
-191.8033333333333 -289.2823333333333 2181.3133333333335 0.7926442844291258 -0.275686906788219 0.5437938651615911
-178.53400000000002 -228.16833333333332 2412.9266666666667 0.5291860142785799 0.4233313934925219 0.7353588876022579
-207.30466666666666 -209.62333333333333 2601.74 0.0 0.0 1.0
-195.23933333333332 -116.68 2325.3933333333334 -0.26587328638624613 -0.9306632787721006 0.2513508645923863
-166.22666666666666 -83.16263333333332 1830.0133333333333 -0.48677064667626363 -0.46029770182641844 0.7424152229229205
-187.89866666666668 -58.68226666666666 2301.56 0.77722799130671 0.501254139941913 0.38034318282365703
-186.47333333333336 -37.681133333333335 2168.12 0.0 0.0 1.0
-186.47333333333336 -37.681133333333335 2168.12 0.0 0.0 1.0
-186.47333333333336 -35.942 2168.12 0.0 0.0 1.0
-207.76833333333335 15.304333333333334 2601.74 0.0 0.0 1.0
-207.30433333333335 51.942033333333335 2601.74 0.0 0.0 1.0
-196.915 64.00003333333333 2346.67 0.0 0.0 1.0
-191.477 137.41133333333332 2346.67 0.0 0.0 1.0
-190.97133333333332 164.16733333333335 2340.556666666667 -0.7429450398597935 0.10613500569425688 0.6608842775509263
-185.71766666666667 299.31199999999995 2129.54 0.0 0.0 1.0
-210.087 376.8113333333333 2601.74 0.0 0.0 1.0
-187.45966666666666 -214.523 2224.54 0.0 0.0 1.0
-169.418 -135.85633333333334 2010.3366666666668 -0.5863796483216827 0.5943931415116365 0.5503232698678728
-169.418 -135.85633333333334 2010.3366666666668 -0.5863796483216825 0.5943931415116365 0.5503232698678728
-194.37300000000002 -123.498 2275.29 0.0 0.0 1.0
-191.91133333333332 -117.72733333333333 2238.4333333333334 -0.7467511039891414 -0.622292586657619 -0.23476525569591503
-222.50300000000001 -17.75709 2546.5033333333336 -0.06881954830667782 0.9062019338073193 0.4172072925234407
-207.304 62.3768 2601.74 0.0 0.0 1.0
-196.706 69.43793333333333 2346.67 0.0 0.0 1.0
-194.40533333333335 99.34633333333333 2346.67 0.0 0.0 1.0
-206.37666666666667 157.21766666666667 2601.74 0.0 0.0 1.0
-186.287 186.5773333333333 2144.82 0.7009209336155283 0.7011299395484508 -0.13086883772816774
-183.15333333333334 303.99966666666666 2112.0066666666667 0.7064218275637443 0.7066717999018716 0.03978905333064487
-190.83266666666668 -318.12166666666667 2337.523333333333 0.5115673050537726 -0.8526066001438272 0.10658741854085994
-219.77233333333334 -313.7483333333334 2575.7466666666664 0.40930637125703484 -0.8745319221830743 0.26011961004733114
-193.13133333333334 -267.2726666666667 2266.67 0.0 0.0 1.0
-206.84066666666664 -261.5653333333333 2601.74 0.0 0.0 1.0
-187.45966666666666 -214.523 2224.54 0.0 0.0 1.0
-204.75333333333333 -187.13066666666668 2601.74 0.0 0.0 1.0
-200.537 -106.58999999999999 2445.7866666666664 -0.5685688429991727 0.8123655903801319 0.12958247696707248
-207.76833333333335 15.304333333333334 2601.74 0.0 0.0 1.0
-198.75 49.166666666666664 2337.5 0.0 0.0 1.0
-192.31366666666668 61.908500000000004 2346.67 0.0 0.0 1.0
-207.53633333333335 120.11599999999999 2601.74 0.0 0.0 1.0
-191.8953333333333 150.588 2346.67 0.0 0.0 1.0
-195.64733333333334 198.17033333333333 2380.9599999999996 -0.9987123797183954 -0.04554942870713906 0.022334550402296427
-178.96866666666665 194.13766666666666 2139.693333333333 -0.6017858159059557 -0.3139652544827771 0.7343566236863178
-189.10699999999997 212.59399999999997 2295.7966666666666 0.8841969893124448 0.35610376841711416 0.3023008273391569
-183.48300000000003 226.535 2194.6666666666665 0.8146873890834654 0.5523499437460876 -0.1766182258773433
-180.16033333333334 316.2863333333333 2340.77 0.7571900886979747 0.652902213074335 -0.019541487665707395
-211.01466666666667 -290.551 2601.74 0.0 0.0 1.0
-195.91266666666664 -238.4523333333333 2322.3866666666668 0.9145345929156056 0.3047356400614503 0.26601253360889926
-179.24766666666665 -149.15333333333334 1903.7266666666667 -0.8657483497362742 -2.1676239675218e-14 0.5004795649463799
-211.337 -156.76933333333332 2594.233333333333 0.7587030217016323 0.18964152410336593 0.6232221250858839
-194.37300000000002 -123.498 2275.29 0.0 0.0 1.0
-195.93266666666668 -107.59203333333333 2400.0066666666667 -0.8875159936320491 0.3722061160348271 0.2716210010908304
-195.21433333333334 -113.49633333333333 2393.623333333333 0.7336525732874488 0.4999455950178506 0.46022636140376827
-200.052 -5.64706 2346.67 0.0 0.0 1.0
-207.76833333333335 15.304333333333332 2601.74 0.0 0.0 1.0
-194.40533333333335 99.34633333333333 2346.67 0.0 0.0 1.0
-206.8406666666667 118.26100000000001 2601.74 0.0 0.0 1.0
-182.98199999999997 185.55366666666666 2139.693333333333 0.29372615297039406 -0.9544172634576049 0.05303427453363744
-176.40633333333335 198.528 2068.21 -0.7993521636138594 -0.5921345001134777 0.10204338440684825
-182.89766666666665 303.2273333333333 2114.49 0.0 0.0 1.0
-193.13133333333334 -267.2726666666667 2266.67 0.0 0.0 1.0
-193.50266666666667 -206.90300000000002 2278.1833333333334 -0.6358971240033334 -0.7697441438753038 0.05593568319029235
-214.49266666666665 -138.66633333333334 2601.74 0.0 0.0 1.0
-181.68866666666668 -81.89763333333333 2241.22 0.5070172565646976 0.7707598239011192 0.3858274166068597
-193.15333333333334 -65.42426666666667 2514.403333333333 -0.567883518729473 -0.8135362694967174 0.12516807647637954
-207.99966666666668 4.637686666666666 2601.74 0.0 0.0 1.0
-188.22366666666667 20.6326 2183.94 0.0 0.0 1.0
-196.875 61.875 2337.5 0.0 0.0 1.0
-196.875 61.875 2337.5 0.0 0.0 1.0
-180.36533333333333 169.67233333333334 1979.3666666666668 -0.9921798588184207 -0.1037250064447078 0.06942802599169533
-172.22433333333333 195.43433333333334 1748.0466666666664 0.4562053132790225 0.420847751152017 0.7840687995873059
-187.434 250.55166666666665 2152.52 0.0 0.0 1.0
-176.06266666666667 249.28033333333335 2109.56 -0.5150033611042694 0.6411124387020944 0.5689871518696699
-195.68766666666667 261.083 2219.0466666666666 0.4105276903889462 -0.48386448368166723 0.772879147639132
-184.115 254.16233333333332 2147.3733333333334 0.6127355500020604 0.7879773067041991 0.060389650461555096
-172.554 203.79899999999998 1784.54 -0.8860510361639639 -0.1716416510870229 0.4306422005852267
-179.84166666666667 269.04699999999997 2109.523333333333 0.31318886198013013 -0.9401228716632922 0.13446829703374705
-177.36633333333336 283.5586666666666 2129.54 0.0 0.0 1.0
-189.231 290.00466666666665 2157.7000000000003 -0.36730255855248506 -0.7346051171049887 0.5704771269770281
-209.39133333333334 372.8693333333333 2601.74 0.0 0.0 1.0
-198.8803333333333 -360.007 2521.3566666666666 0.8562016860708734 -0.513729466702871 -0.054778716766432645
-195.9126666666667 -238.4523333333333 2322.3866666666668 0.9145345929156056 0.3047356400614504 0.26601253360889937
-194.94133333333335 -232.4913333333333 2246.813333333333 -0.8700442796010148 0.3625787189027244 0.33400542530385696
-164.45199999999997 -168.92566666666667 1608.9333333333334 0.9391591870973253 -0.34306947488025524 -0.01683320219319431
-189.46033333333332 -210.49566666666666 2258.133333333333 -0.3171276637763343 -0.48948297180839345 0.8123031855024254
-211.80066666666667 -155.61 2594.233333333333 0.7421707601943598 0.1855092046325897 0.6440255411931346
-185.32233333333332 -50.5909 2122.146666666667 -0.9166228216480165 -0.2824083233963005 0.2829278030001995
-186.47333333333336 -37.68113333333333 2168.12 0.0 0.0 1.0
-188.708 34.25039999999999 2147.4100000000003 0.701244120140608 0.7011904871699398 0.12879667957912153
-179.13266666666667 28.776066666666665 1623.1899999999998 0.37858523060393623 -0.9237356359261686 0.058186751830991146
-194.40533333333335 126.95433333333334 2346.67 0.0 0.0 1.0
-202.16566666666668 144.56266666666667 2371.4733333333334 -0.843930855939736 0.35162862609013 0.40513950647498176
-180.36533333333333 169.67233333333334 1979.3666666666668 -0.9921798588184207 -0.1037250064447078 0.06942802599169533
-203.64 213.37800000000001 2304.5466666666666 -0.3885509010021942 0.8249888315831867 0.41039203829191373
-194.98266666666666 -309.44433333333336 2235.6266666666666 0.4937931267082807 -0.14812966723262735 0.8568698557547761
-211.01466666666667 -290.551 2601.74 0.0 0.0 1.0
-195.91266666666664 -238.4523333333333 2322.3866666666668 0.9145345929156058 0.3047356400614502 0.26601253360889915
-194.13466666666667 -228.28366666666668 2286.8866666666668 -0.5142203309706156 -0.8572210102534215 -0.027378655857691704
-195.22666666666666 -128.85633333333334 2283.9933333333333 0.8980306998569568 0.09967582916077795 0.42849223002936226
-166.17733333333334 -86.62896666666666 1690.4000000000003 2.0392614144939683e-28 -4.890582260274179e-28 1.0
-189.75866666666664 -25.89373333333333 2168.12 0.0 0.0 1.0
-201.975 -20.193166666666666 2439.193333333333 -0.0017703842732298594 -0.9333169506634934 0.3590492101978829
-199.79166666666666 53.958333333333336 2337.5 0.0 0.0 1.0
-196.91533333333334 112.52300000000001 2346.67 0.0 0.0 1.0
-212.174 134.02900000000002 2601.74 0.0 0.0 1.0
-214.95633333333333 188.52200000000002 2601.74 0.0 0.0 1.0
-182.289 187.76566666666668 2272.4166666666665 0.24295692679486072 -0.22561304849366584 0.9434355749449941
-188.65099999999998 189.32233333333338 2149.9466666666667 -0.5087008060879944 -0.8139566407349579 0.28053177518578465
-190.41433333333336 218.54533333333333 2139.693333333333 -0.3703889062182429 -0.9258102406522482 0.0754152269364748
-195.1353333333333 -347.343 2455.8233333333333 -0.06027219753035744 -0.497228395867092 0.8655236475962399
-192.981 -280.8546666666666 2109.56 -0.916357439456784 0.39909232789136523 -0.03184897126215664
-206.3766666666667 -234.203 2601.74 0.0 0.0 1.0
-189.75866666666664 -25.89373333333333 2168.12 0.0 0.0 1.0
-215.65200000000002 1.391304 2601.74 0.0 0.0 1.0
-188.708 34.2504 2147.41 0.7012441201406082 0.7011904871699397 0.12879667957912175
-198.23266666666666 50.911966666666665 2331.4333333333334 -0.5200766627194726 -0.7802611886273966 0.3474373935205279
-196.875 61.875 2337.5 0.0 0.0 1.0
-201.429 136.038 2377.7533333333336 -0.7151903955279496 0.29798817569280517 0.6322228604628664
-213.56533333333334 150.95633333333333 2601.74 0.0 0.0 1.0
-212.8696666666667 176.92766666666668 2601.74 0.0 0.0 1.0
-189.583 225.82500000000002 2134.6066666666666 -0.7982238487004468 0.5323044685324456 0.2819408451186827
-191.083 279.43266666666665 2178.6666666666665 0.5190983279533818 -0.5623626955179304 0.6436498462718768
-210.087 376.8113333333333 2601.74 0.0 0.0 1.0
-198.45166666666668 -341.20433333333335 2403.236666666666 0.41469839471914044 0.9083876286430602 0.053452385780297706
-191.8033333333333 -289.2823333333333 2181.3133333333335 0.792644284429126 -0.27568690678821894 0.5437938651615912
-193.13133333333334 -267.2726666666667 2266.67 0.0 0.0 1.0
-201.716 -143.67666666666668 2260.9633333333336 0.5340913325290638 -0.7805217537290946 0.32485726169040346
-194.80966666666666 -78.4564 2304.52 -0.787167268267352 0.6149750505162811 0.04661951320007268
-190.53166666666667 -27.246400000000005 2168.12 0.0 0.0 1.0
-188.22366666666667 20.6326 2183.94 0.0 0.0 1.0
-210.7826666666667 50.08693333333333 2601.74 0.0 0.0 1.0
-190.44066666666666 290.0373333333333 2155.11 -0.6893173084892705 -0.5168632316006866 0.5076357434582428
-208.23166666666665 363.13033333333334 2601.74 0.0 0.0 1.0
-209.39133333333334 372.8693333333333 2601.74 0.0 0.0 1.0
-178.26700000000002 -200.20833333333334 2191.9600000000005 0.0067924262700394585 -0.47680280989691626 0.8789840404806968
-212.8696666666667 -209.39133333333334 2601.74 0.0 0.0 1.0
-196.46766666666667 -54.243533333333325 2230.1133333333332 -0.816309995589768 -0.5138905555489096 0.26373184869838173
-190.53166666666667 -27.246399999999998 2168.12 0.0 0.0 1.0
-190.53166666666667 -27.246399999999998 2168.12 0.0 0.0 1.0
-202.20366666666666 11.55692 2355.933333333333 -0.832526331210011 0.5352724501541197 -0.1427701367513688
-188.56933333333333 35.9949 2137.1600000000003 -0.7011024169464904 -0.7013124138430205 -0.12890422468431864
-161.13266666666667 52.6324 1591.6933333333334 -0.999364842727568 -0.033700053383081637 -0.011585228615831963
-217.50733333333335 74.2029 2601.74 0.0 0.0 1.0
-213.56533333333334 150.95633333333333 2601.74 0.0 0.0 1.0
-212.86966666666663 176.92766666666668 2601.74 0.0 0.0 1.0
-184.33766666666668 252.11966666666663 2087.4833333333336 -0.7543484362648827 -0.00042626251139444 0.6564741084041301
-214.261 312.348 2601.74 0.0 0.0 1.0
-192.8023333333333 -304.08033333333333 2322.3866666666668 -0.33377127138843826 0.2920288398865683 0.8962789158907235
-196.18766666666667 -260.0013333333333 2244.0066666666667 -0.09369560725857487 0.9365653486188533 0.33773729575942973
-211.01466666666667 -290.551 2601.74 0.0 0.0 1.0
-194.94133333333335 -232.4913333333333 2246.813333333333 -0.8700442796010148 0.3625787189027244 0.33400542530385696
-215.18833333333336 -259.94233333333335 2601.74 0.0 0.0 1.0
-193.62699999999998 -62.9581 2104.65 0.20496633817468052 -0.7880447838641766 0.5804948051789315
-200.33 -20.1503 2406.44 0.7365465471883645 0.6663524713261859 -0.11607569850051852
-201.74033333333333 -20.1194 2452.4866666666667 -0.7709402508530195 -0.6368906048786366 0.004635410662278299
-188.56933333333333 35.9949 2137.1600000000003 -0.7011024169464899 -0.7013124138430211 -0.12890422468431892
-215.65200000000002 48.69563333333334 2601.74 0.0 0.0 1.0
-198.23266666666666 50.911966666666665 2331.4333333333334 -0.5200766627194725 -0.7802611886273968 0.3474373935205278
-212.86933333333332 64.92753333333333 2601.74 0.0 0.0 1.0
-199.636 91.75420000000001 2334.4666666666667 0.42748151524478795 0.890586490093308 0.15529088121104204
-196.91533333333334 108.13066666666667 2346.67 0.0 0.0 1.0
-201.417 110.307 2352.83 0.9642019910142772 0.2629641793675323 -0.03412273279888435
-189.74733333333333 173.47799999999998 2160.29 0.0 0.0 1.0
-166.03733333333332 184.94433333333333 1852.67 -0.538292227932902 -0.8343583698006066 0.11869114579742993
-176.37766666666667 202.47033333333334 1913.8633333333335 0.7905292916795281 -0.6109274474468055 -0.04279127192307118
-214.261 312.348 2601.74 0.0 0.0 1.0
-187.75933333333333 280.8136666666666 2155.11 0.6249166766919205 0.49104474123576414 0.6069219136734372
-190.95733333333337 292.307 2157.7000000000003 -0.43873105906490173 -0.8774621181298243 0.19384346535003946
-199.2876666666667 -229.211 2283.97 0.0 0.0 1.0
-214.49266666666665 -138.66633333333334 2601.74 0.0 0.0 1.0
-205.436 -21.938 2365.2433333333333 -0.27098257986711105 0.8666838743898275 0.41884066574438833
-196.915 64.00003333333333 2346.67 0.0 0.0 1.0
-196.915 129.88266666666667 2346.67 0.0 0.0 1.0
-212.86966666666663 176.92766666666668 2601.74 0.0 0.0 1.0
-192.11666666666665 173.6543333333333 2157.7 0.5541619953170915 0.8312429929756374 0.044040544672881966
-187.187 208.899 2109.56 0.7080458361487604 -0.49274389059195517 0.5058404414404866
-191.23833333333332 220.38133333333334 2137.14 0.0 0.0 1.0
-190.47633333333332 223.23833333333334 2137.14 0.0 0.0 1.0
-189.79133333333334 252.93633333333332 2149.9466666666667 5.071268387399189e-17 -0.9465782543425082 0.322474198046743
-198.45166666666668 -341.2043333333333 2403.2366666666667 0.4146983947191405 0.9083876286430603 0.053452385780297575
-193.2006666666667 -280.65766666666667 2092.3266666666664 0.7029558691264984 0.5406916778534548 0.46206661376973
-186.96433333333334 -263.897 2017.11 -0.4561238717194156 -0.8268617684156009 0.3290146342950648
-223.6833333333333 -275.25100000000003 2403.236666666667 -0.5883863957370219 -0.6921923841755746 0.417936780627083
-193.81166666666664 -145.62 2334.4666666666667 0.3212540245535268 -0.2827035416071037 0.9038111303092934
-200.537 -106.58999999999999 2445.7866666666664 -0.5685688429991725 0.8123655903801319 0.12958247696707254
-200.052 -5.647060000000001 2346.67 0.0 0.0 1.0
-202.20366666666666 11.55692 2355.933333333333 -0.8325263312100113 0.5352724501541192 -0.14277013675136846
-215.65233333333333 21.7971 2601.74 0.0 0.0 1.0
-157.26000000000002 72.92649999999999 1588.7933333333333 -0.9131348128305967 -0.03079224985977396 0.4064931130356384
-202.16566666666668 144.56266666666667 2371.4733333333334 -0.843930855939736 0.35162862609013 0.40513950647498176
-216.38466666666667 186.16600000000003 2597.986666666666 1.5660427812917735e-15 -0.9974415841203064 0.07148626628642321
-190.05233333333334 215.44000000000003 2232.92 -0.5559765245150029 0.597431762083955 0.5778973904089539
-189.583 225.82500000000002 2134.6066666666666 -0.7982238487004466 0.5323044685324456 0.2819408451186828
-190.46333333333337 -289.443 2089.896666666667 0.919059301435455 -0.024208605088793664 0.39337506769574054
-189.45399999999998 -289.9546666666667 2278.1833333333334 0.25703996304613874 0.5140799260922793 0.8183228500941401
-192.61433333333335 -261.71 2224.54 0.0 0.0 1.0
-196.47799999999998 -224.04633333333334 1891.83 0.1449290618997198 -0.983106336669235 0.11179220821534971
-194.94133333333335 -232.4913333333333 2246.813333333333 -0.8700442796010148 0.36257871890272453 0.33400542530385696
-191.47866666666667 -223.75933333333333 2249.62 0.0 0.0 1.0
-198.21966666666665 -141.86800000000002 2286.8866666666668 0.9429101793626916 -0.3300262826899882 0.04475540624376785
-201.06799999999998 -126.16733333333333 2286.8866666666668 -0.7069284061235629 -0.7069284061235621 0.02246012536026882
-196.13666666666666 -136.92533333333333 2524.9866666666667 -0.45230533266247575 -0.5766720586937264 0.6803449292579657
-203.68366666666668 -73.67053333333332 2328.4 0.0 0.0 1.0
-192.65066666666667 -50.1236 2241.22 -0.3669538769771955 -0.7007990230907014 0.6117397987760187
-222.37699999999998 -34.5507 2601.74 0.0 0.0 1.0
-200.052 -5.647060000000001 2346.67 0.0 0.0 1.0
-201.98433333333332 -3.5539233333333335 2343.6133333333332 0.6807535307364299 0.6813502546856156 0.2689543842917072
-202.86533333333333 106.17966666666666 2340.556666666667 -0.2724384530879742 0.9535345858079092 0.1286432390262723
-200.58033333333333 112.81700000000001 2352.83 0.8822954027066628 0.24062601892000055 0.40454164356886557
-176.37766666666667 202.47033333333334 1913.8633333333335 0.7905292916795281 -0.6109274474468055 -0.04279127192307118
-167.12900000000002 181.96466666666666 1665.3799999999999 0.9954524203771749 0.0710693669987268 0.06343204111191769
-213.797 295.88399999999996 2601.74 0.0 0.0 1.0
-190.19066666666666 -269.46633333333335 2010.3033333333333 0.44116535943677093 -0.4962660963330165 0.7477252752605157
-191.0713333333333 -272.39799999999997 2080.2599999999998 0.7072874020498401 0.5114394631752961 0.4880309482077471
-160.23333333333335 -114.26696666666668 1587.2966666666669 0.9126113490602697 0.23629765117957496 0.3336224596957023
-217.971 -162.55066666666667 2601.74 0.0 0.0 1.0
-194.37300000000002 -123.498 2275.29 0.0 0.0 1.0
-195.23933333333332 -116.68 2325.3933333333334 -0.26587328638624613 -0.9306632787721006 0.2513508645923863
-202.35733333333334 -18.722066666666667 2412.9266666666667 -0.8447260144294022 -0.5350480049718563 0.012711920462856135
-210.1256666666667 102.25053333333334 2304.6366666666668 -0.55267082037577 0.6594115073698394 0.5096385270497215
-205.83333333333334 126.25 2337.5 0.0 0.0 1.0
-213.56533333333334 150.95633333333333 2601.74 0.0 0.0 1.0
-193.42999999999998 191.61633333333336 2149.9466666666667 -0.47010280567640894 -0.7521971577970328 0.4617388741455872
-180.36533333333333 169.67233333333334 1979.3666666666668 -0.9921798588184207 -0.1037250064447078 0.06942802599169533
