ply
format ascii 1.0
comment VCGLIB generated
element vertex 787
property float x
property float y
property float z
property float nx
property float ny
property float nz
element face 0
property list uchar int vertex_indices
end_header
-18.270166666666665 80.31096666666667 1744.61 0.0 0.0 1.0
-21.377399999999998 88.8154 1648.4800000000002 0.0 -1.0 0.0
-19.09176666666667 116.01933333333334 1734.49 0.0 0.0 1.0
-14.0 -136.58333333333334 1870.0 0.0 0.0 1.0
-6.269006666666666 -149.05266666666668 2099.65 0.0 0.0 1.0
-14.294666666666666 -107.41933333333333 1875.86 0.0 0.0 1.0
-12.957133333333333 -97.2205 1875.86 0.0 0.0 1.0
-14.461866666666667 -84.3469 1875.86 0.0 0.0 1.0
-13.960300000000002 -78.66246666666666 1875.86 0.0 0.0 1.0
-13.752633333333334 -63.98319999999999 1881.76 0.0 0.0 1.0
-13.920333333333332 -63.480066666666666 1881.76 0.0 0.0 1.0
-12.914033333333334 -61.4675 1881.76 0.0 0.0 1.0
-14.0 -50.083333333333336 1870.0 0.0 0.0 1.0
0.615385 -56.10256666666667 2301.54 0.0 0.0 1.0
2.0512833333333336 -46.87180000000001 2301.54 0.0 0.0 1.0
0.615385 -21.846166666666665 2301.54 0.0 0.0 1.0
0.0 -18.974366666666665 2301.54 0.0 0.0 1.0
-16.254633333333334 -7.459156666666668 1797.03 -0.9694135216660317 -0.2423824703602425 -0.038576703761835224
2.46154 -4.205126666666667 2301.54 0.0 0.0 1.0
1.6410266666666666 -0.5128206666666667 2301.54 0.0 0.0 1.0
1.4358966666666666 0.7179479999999999 2301.54 0.0 0.0 1.0
1.4358966666666666 0.7179479999999999 2301.54 0.0 0.0 1.0
1.8461533333333333 7.692306666666667 2301.54 0.0 0.0 1.0
1.4358966666666666 9.74359 2301.54 0.0 0.0 1.0
-18.1341 15.7816 1761.7300000000002 -0.7798892929179072 0.623904805159326 0.05015460986898706
-18.892166666666665 40.50536666666667 1744.61 0.0 0.0 1.0
-18.892166666666665 40.50536666666667 1744.61 0.0 0.0 1.0
-17.7517 46.68620000000001 1754.84 0.0 0.0 1.0
-19.5738 50.87323333333333 1742.9166666666667 6.259578685570247e-17 0.9883259951413118 0.15235395409353744
-19.37986666666667 51.24026666666666 1739.53 0.0 0.0 1.0
-16.8133 59.82399999999999 1754.84 0.0 0.0 1.0
-18.1147 77.66763333333334 1744.61 0.0 0.0 1.0
-21.53233333333333 84.8597 1677.7600000000002 -1.4693311499857932e-16 0.9989990119722498 0.04473224875264456
-21.377399999999998 88.8154 1648.4800000000002 0.0 -1.0 0.0
-19.5761 124.62433333333333 1729.4800000000002 2.8252921170739655e-27 1.1149702140187359e-26 1.0
-18.555733333333333 124.81133333333334 1727.82 -0.7062567159755859 -0.705849651585972 -0.05456849361438078
-14.294666666666666 -107.41933333333333 1875.86 0.0 0.0 1.0
-14.294666666666666 -102.57033333333334 1875.86 0.0 0.0 1.0
-14.461866666666667 -85.85163333333333 1875.86 0.0 0.0 1.0
-14.796233333333333 -85.35006666666668 1875.86 0.0 0.0 1.0
-14.088 -70.85953333333333 1881.76 0.0 0.0 1.0
-14.088 -70.85953333333333 1881.76 0.0 0.0 1.0
-13.7526 -70.18866666666666 1881.76 0.0 0.0 1.0
-13.081766666666667 -57.610066666666675 1881.76 0.0 0.0 1.0
-12.622799999999998 -53.249766666666666 1875.86 0.0 0.0 1.0
-14.0 -50.083333333333336 1870.0 0.0 0.0 1.0
0.615385 -56.10256666666667 2301.54 0.0 0.0 1.0
1.0256416666666666 -49.94873333333334 2301.54 0.0 0.0 1.0
-0.20512666666666668 -23.6923 2301.54 0.0 0.0 1.0
0.615385 -21.846166666666665 2301.54 0.0 0.0 1.0
1.4358950000000001 15.282066666666665 2301.54 0.0 0.0 1.0
-19.587033333333334 38.15143333333334 1765.1899999999998 4.79444627569703e-28 2.067620834902089e-27 1.0
-19.587033333333334 46.17503333333334 1765.1899999999998 -1.7125529372370378e-26 2.5385068197034946e-26 1.0
-19.37986666666667 51.24026666666666 1739.53 0.0 0.0 1.0
-17.882333333333335 56.39216666666667 1760.0 0.0 0.0 1.0
-18.401566666666668 58.869400000000006 1749.71 0.0 0.0 1.0
-18.71343333333333 70.72123333333333 1749.71 0.0 0.0 1.0
-18.71343333333333 75.08773333333333 1749.71 0.0 0.0 1.0
-18.58113333333333 81.55486666666667 1744.61 0.0 0.0 1.0
-18.425633333333334 82.48783333333334 1744.61 0.0 0.0 1.0
-22.322066666666668 83.8202 1680.9000000000003 2.9994884878831412e-27 -2.999321645715616e-27 1.0
-23.32426666666667 94.0963 1630.5199999999998 -6.139824683377447e-27 6.235267002457728e-26 1.0
-1.4358966666666666 134.46166666666667 2301.54 0.0 0.0 1.0
-19.689933333333332 108.29466666666667 1739.53 0.0 0.0 1.0
-19.555533333333333 116.63766666666668 1734.49 0.0 0.0 1.0
-2.6666666666666665 -170.154 2301.54 0.0 0.0 1.0
-15.833333333333334 -112.58333333333333 1870.0 0.0 0.0 1.0
-14.294666666666666 -107.41933333333333 1875.86 0.0 0.0 1.0
-14.294666666666666 -104.91133333333333 1875.86 0.0 0.0 1.0
-15.464966666666667 -90.36569999999999 1875.86 0.0 0.0 1.0
-14.461866666666667 -85.85163333333333 1875.86 0.0 0.0 1.0
-15.130600000000001 -82.67503333333333 1875.86 0.0 0.0 1.0
-13.732999999999999 -68.41253333333333 1926.1866666666665 0.0 0.9930276114196811 0.1178819874201426
-13.732999999999999 -68.41253333333333 1926.1866666666665 -2.10877244941134e-17 0.9930276114196812 0.11788198742014258
-13.920333333333332 -63.480066666666666 1881.76 0.0 0.0 1.0
0.41025666666666666 -56.51283333333333 2301.54 0.0 0.0 1.0
0.20512833333333333 -56.30769999999999 2301.54 0.0 0.0 1.0
-0.410255 -50.76923333333334 2301.54 0.0 0.0 1.0
-0.41025666666666666 -40.9231 2301.54 0.0 0.0 1.0
-0.41025666666666666 -40.9231 2301.54 0.0 0.0 1.0
0.615385 -21.846166666666665 2301.54 0.0 0.0 1.0
-1.4358966666666666 -11.38462 2301.54 0.0 0.0 1.0
0.41025666666666666 0.5128203333333333 2301.54 0.0 0.0 1.0
0.41025666666666666 0.9230763333333334 2301.54 0.0 0.0 1.0
-1.4358966666666666 5.8461533333333335 2301.54 0.0 0.0 1.0
-17.282500000000002 48.25020000000001 1754.84 0.0 0.0 1.0
-17.098033333333333 53.88233333333333 1760.0 0.0 0.0 1.0
-18.98036666666667 56.70590000000001 1760.0 0.0 0.0 1.0
-18.425666666666668 78.9116 1744.61 0.0 0.0 1.0
-22.314233333333334 89.0453 1663.7633333333333 2.209060192751636e-16 0.9990923660441332 0.04259629223695534
-19.710133333333335 115.86466666666666 1734.49 0.0 0.0 1.0
-19.555533333333333 117.41066666666666 1734.49 0.0 0.0 1.0
-19.7101 118.33800000000001 1734.49 0.0 0.0 1.0
-20.17386666666667 118.64733333333334 1734.49 0.0 0.0 1.0
-20.500966666666667 120.61633333333333 1729.4800000000002 -1.5090065616026224e-26 5.275208284931457e-26 1.0
-7.578949999999999 -151.11133333333333 2099.65 0.0 0.0 1.0
-6.8304100000000005 -141.006 2099.65 0.0 0.0 1.0
-16.333333333333332 -124.75 1870.0 0.0 0.0 1.0
-15.333333333333334 -113.58333333333333 1870.0 0.0 0.0 1.0
-14.796233333333333 -103.57366666666667 1875.86 0.0 0.0 1.0
-15.464966666666667 -91.70323333333333 1875.86 0.0 0.0 1.0
-14.963433333333334 -84.68130000000001 1875.86 0.0 0.0 1.0
-15.2978 -83.51096666666668 1875.86 0.0 0.0 1.0
-15.2978 -83.51096666666668 1875.86 0.0 0.0 1.0
-15.2978 -83.51096666666666 1875.86 0.0 0.0 1.0
-15.130600000000001 -78.3281 1875.86 0.0 0.0 1.0
-14.017133333333334 -66.41026666666667 1917.95 0.0 0.0 1.0
0.0 -55.69230000000001 2301.54 0.0 0.0 1.0
-1.4358983333333333 -36.0 2301.54 0.0 0.0 1.0
-1.23077 -33.1282 2301.54 0.0 0.0 1.0
-0.41025666666666666 -20.205133333333333 2301.54 0.0 0.0 1.0
-0.41025666666666666 -20.205133333333333 2301.54 0.0 0.0 1.0
-19.4297 34.37563333333333 1765.1899999999998 -1.480050718261417e-28 1.2579647180053443e-27 1.0
-18.892166666666665 40.50536666666667 1744.61 0.0 0.0 1.0
-20.9135 58.54229999999999 1744.61 0.0 0.0 1.0
-19.961000000000002 71.50096666666666 1749.71 0.0 0.0 1.0
-19.6491 71.9688 1749.71 0.0 0.0 1.0
-19.6491 71.9688 1749.71 0.0 0.0 1.0
-21.601499999999998 87.52326666666666 1671.51 0.0 0.0 1.0
-21.601499999999998 87.52326666666666 1671.51 0.0 0.0 1.0
-1.4358966666666666 134.46166666666667 2301.54 0.0 0.0 1.0
-19.689933333333332 108.29466666666667 1739.53 0.0 0.0 1.0
-19.689933333333332 108.29466666666667 1739.53 0.0 0.0 1.0
-20.48306666666667 115.71 1734.49 0.0 0.0 1.0
-20.500966666666667 120.61633333333333 1729.4800000000002 -1.509006561602623e-26 5.27520828493146e-26 1.0
-15.833333333333334 -135.91666666666666 1870.0 0.0 0.0 1.0
-1.7653900000000002 -146.899 2085.02 0.0 0.0 1.0
-16.333333333333332 -124.75 1870.0 0.0 0.0 1.0
-17.471266666666665 -72.14210000000001 1875.86 0.0 0.0 1.0
-15.429766666666668 -69.51780000000001 1881.76 0.0 0.0 1.0
-15.7652 -62.306099999999994 1881.76 0.0 0.0 1.0
-1.23077 -41.7436 2301.54 0.0 0.0 1.0
-1.4358983333333333 -36.0 2301.54 0.0 0.0 1.0
-20.5128 10.4931 1770.41 0.0 0.0 1.0
-20.7059 14.823533333333332 1760.0 0.0 0.0 1.0
-21.902 31.8924 1724.5 0.0 0.0 1.0
-19.744333333333334 46.4897 1765.1899999999998 0.0 0.0 1.0
-20.155033333333332 51.24026666666666 1739.53 0.0 0.0 1.0
-20.7059 57.64706666666667 1760.0 0.0 0.0 1.0
-20.9135 58.54229999999999 1744.61 0.0 0.0 1.0
-18.401566666666668 58.869400000000006 1749.71 0.0 0.0 1.0
-19.825066666666668 61.4966 1744.61 0.0 0.0 1.0
-22.131566666666668 84.56006666666667 1677.7600000000002 0.0 0.9733450280106131 0.22934571381872126
-2.8717966666666666 169.74333333333334 2301.54 0.0 0.0 1.0
-9.4503 -140.07033333333334 2099.65 0.0 0.0 1.0
-16.666666666666668 -118.25 1870.0 0.0 0.0 1.0
-16.666666666666668 -118.25 1870.0 0.0 0.0 1.0
-16.133733333333335 -98.05643333333335 1875.86 0.0 0.0 1.0
-15.464966666666667 -91.70323333333333 1875.86 0.0 0.0 1.0
-16.969666666666665 -87.69066666666667 1875.86 0.0 0.0 1.0
-16.133733333333332 -78.4953 1875.86 0.0 0.0 1.0
-17.471266666666665 -72.14210000000001 1875.86 0.0 0.0 1.0
-15.429766666666666 -63.31236666666666 1881.76 0.0 0.0 1.0
-16.166666666666668 -49.583333333333336 1870.0 0.0 0.0 1.0
-2.461536666666667 -58.974333333333334 2301.54 0.0 0.0 1.0
-1.8461533333333333 -51.589733333333335 2301.54 0.0 0.0 1.0
-2.2564066666666664 -45.025666666666666 2301.54 0.0 0.0 1.0
-2.2564066666666664 -45.025666666666666 2301.54 0.0 0.0 1.0
-2.461536666666667 -25.538466666666665 2301.54 0.0 0.0 1.0
-1.0256383333333334 -24.717966666666666 2301.54 0.0 0.0 1.0
-1.8461533333333333 -11.794866666666666 2301.54 0.0 0.0 1.0
-2.2564100000000002 -8.102563333333334 2301.54 0.0 0.0 1.0
-1.8461533333333333 -0.923076 2301.54 0.0 0.0 1.0
-1.4358966666666666 5.8461533333333335 2301.54 0.0 0.0 1.0
0.20512833333333336 15.897433333333334 2301.54 0.0 0.0 1.0
-21.505399999999998 21.349 1754.84 0.0 0.0 1.0
-21.505399999999998 21.8182 1754.84 0.0 0.0 1.0
-22.8242 24.668599999999998 1724.5 0.0 0.0 1.0
-21.036199999999997 29.1691 1754.84 0.0 0.0 1.0
-21.474933333333336 29.49853333333333 1765.1899999999998 7.251809528030004e-27 -1.631682753191638e-26 1.0
-20.8798 30.4203 1754.84 0.0 0.0 1.0
-20.531 38.62343333333333 1765.1899999999998 1.812952382007493e-27 -2.719428573011267e-27 1.0
-20.155033333333332 51.24026666666666 1739.53 0.0 0.0 1.0
-21.6764 64.48343333333332 1749.71 0.0 0.0 1.0
-20.291533333333334 66.3168 1744.61 0.0 0.0 1.0
-19.961000000000002 71.50096666666667 1749.71 0.0 0.0 1.0
-19.6491 74.15203333333334 1749.71 0.0 0.0 1.0
-23.220933333333335 83.52056666666667 1680.9000000000003 3.9988730837712245e-27 1.9994365418856194e-27 1.0
-23.220933333333335 83.52056666666667 1680.9000000000003 3.998873083771225e-27 1.9994365418856205e-27 1.0
-21.860466666666667 110.62 1739.53 0.0 0.0 1.0
-20.17386666666667 118.64733333333334 1734.49 0.0 0.0 1.0
-21.271666666666665 120.30799999999999 1729.4800000000002 -4.914457403002567e-26 1.9298151820923596e-25 1.0
-9.076036666666665 -151.29833333333332 2099.65 0.0 0.0 1.0
-17.833333333333332 -127.75 1870.0 0.0 0.0 1.0
-17.5 -118.91666666666667 1870.0 0.0 0.0 1.0
-15.833333333333334 -112.58333333333333 1870.0 0.0 0.0 1.0
-16.9697 -86.52036666666667 1875.86 0.0 0.0 1.0
-16.9697 -86.52036666666667 1875.86 0.0 0.0 1.0
-16.468133333333334 -83.511 1875.86 0.0 0.0 1.0
-16.635299999999997 -79.16406666666666 1875.86 0.0 0.0 1.0
-16.635299999999997 -79.16406666666667 1875.86 0.0 0.0 1.0
-16.436066666666665 -69.18236666666667 1881.76 0.0 0.0 1.0
-13.732999999999999 -68.41253333333333 1926.1866666666665 0.0 0.9930276114196812 0.1178819874201426
-2.4615366666666665 -58.974333333333334 2301.54 0.0 0.0 1.0
-2.871793333333333 -45.84616666666667 2301.54 0.0 0.0 1.0
-2.25641 -42.564099999999996 2301.54 0.0 0.0 1.0
-1.4358983333333333 -36.0 2301.54 0.0 0.0 1.0
-3.0769233333333332 -30.051266666666667 2301.54 0.0 0.0 1.0
-3.2820533333333337 -27.58973333333333 2301.54 0.0 0.0 1.0
-2.8717966666666666 -9.333323333333333 2301.54 0.0 0.0 1.0
-2.2564100000000002 -8.102563333333334 2301.54 0.0 0.0 1.0
-2.461536666666667 6.871793333333334 2301.54 0.0 0.0 1.0
-20.5128 10.4931 1770.41 0.0 0.0 1.0
-19.349733333333333 17.768133333333335 1772.1633333333332 0.0 0.9677014231374834 0.25209909888313614
-21.036199999999997 29.1691 1754.84 0.0 0.0 1.0
-21.902 31.8924 1724.5 0.0 0.0 1.0
-20.531000000000002 38.62343333333333 1765.1899999999998 -3.625904764015006e-27 -2.719428573011277e-27 1.0
-21.846433333333334 61.4966 1744.61 0.0 0.0 1.0
-21.6764 64.48343333333332 1749.71 0.0 0.0 1.0
-21.224500000000003 78.75606666666665 1744.61 0.0 0.0 1.0
-23.564166666666665 93.7396 1657.62 0.0 0.0 1.0
-22.635633333333335 105.349 1739.53 0.0 0.0 1.0
-22.647366666666667 113.54633333333334 1734.49 0.0 0.0 1.0
-22.338166666666666 115.71033333333334 1734.49 0.0 0.0 1.0
-15.833333333333334 -135.91666666666666 1870.0 0.0 0.0 1.0
-18.333333333333332 -126.91666666666667 1870.0 0.0 0.0 1.0
-16.9697 -86.52036666666667 1875.86 0.0 0.0 1.0
-17.304066666666667 -83.00943333333333 1875.86 0.0 0.0 1.0
-17.339799999999997 -79.49476666666668 1879.7933333333333 -0.993060812826079 1.2603846172452488e-16 0.1176019643934863
-17.805666666666667 -76.6562 1875.86 0.0 0.0 1.0
-17.805666666666667 -76.6562 1875.86 0.0 0.0 1.0
-17.44236666666667 -74.88466666666666 1881.76 0.0 0.0 1.0
-16.436066666666665 -70.02096666666667 1881.76 0.0 0.0 1.0
-16.436066666666665 -69.18236666666667 1881.76 0.0 0.0 1.0
-16.268333333333334 -62.473800000000004 1881.76 0.0 0.0 1.0
-16.166666666666668 -49.583333333333336 1870.0 0.0 0.0 1.0
-2.4615366666666665 -58.974333333333334 2301.54 0.0 0.0 1.0
-2.871793333333333 -45.84616666666667 2301.54 0.0 0.0 1.0
-2.666663333333333 -45.43593333333333 2301.54 0.0 0.0 1.0
-3.28205 -43.17946666666666 2301.54 0.0 0.0 1.0
-3.8974333333333333 -16.102566666666664 2301.54 0.0 0.0 1.0
-2.461536666666667 5.23077 2301.54 0.0 0.0 1.0
-3.692306666666667 8.102563333333332 2301.54 0.0 0.0 1.0
-19.349733333333333 17.768133333333335 1772.1633333333332 2.4289355708841682e-17 0.9677014231374834 0.25209909888313614
-21.144000000000002 26.587766666666667 1770.41 0.0 0.0 1.0
-21.474933333333336 29.49853333333333 1765.1899999999998 7.251809528030004e-27 -1.631682753191638e-26 1.0
-20.531 38.62343333333333 1765.1899999999998 1.812952382007493e-27 -2.719428573011267e-27 1.0
-20.6883 45.860366666666664 1765.1899999999998 3.5818360779080256e-28 -1.835394582581893e-27 1.0
-21.379999999999995 50.6122 1744.61 0.0 0.0 1.0
-21.4902 57.64706666666667 1760.0 0.0 0.0 1.0
-21.4902 57.64706666666667 1760.0 0.0 0.0 1.0
-21.349 68.739 1754.84 0.0 0.0 1.0
-23.220933333333335 83.52056666666667 1680.9000000000003 3.9988730837712245e-27 1.9994365418856194e-27 1.0
-24.719099999999997 85.9176 1680.9000000000003 3.173829849711307e-28 1.1153704264467985e-27 1.0
-30.758 94.0274 1639.45 0.0 0.0 1.0
-25.358766666666668 94.0963 1630.5199999999998 7.556723969374683e-27 8.597054747630766e-26 1.0
-21.271666666666665 120.30799999999999 1729.4800000000002 -4.914457403002567e-26 1.9298151820923596e-25 1.0
-21.888233333333332 122.92866666666667 1729.4800000000002 -1.6527222285661145e-26 -3.776799017637878e-27 1.0
-23.12136666666667 124.47033333333333 1729.4800000000002 1.2590691149180381e-27 2.360312222194465e-27 1.0
-2.6666666666666665 -170.154 2301.54 0.0 0.0 1.0
-10.57312 -149.05266666666668 2099.65 0.0 0.0 1.0
-18.808766666666667 -96.21733333333333 1875.86 0.0 0.0 1.0
-18.307199999999998 -87.35629999999999 1875.86 0.0 0.0 1.0
-17.304066666666664 -86.0188 1875.86 0.0 0.0 1.0
-17.805633333333333 -82.50786666666666 1875.86 0.0 0.0 1.0
-17.44236666666667 -74.88466666666666 1881.76 0.0 0.0 1.0
-17.44236666666667 -74.88466666666666 1881.76 0.0 0.0 1.0
-1.8461533333333333 -51.589733333333335 2301.54 0.0 0.0 1.0
-3.2820533333333337 -27.58973333333333 2301.54 0.0 0.0 1.0
-3.897436666666666 -26.769233333333332 2301.54 0.0 0.0 1.0
-4.102563333333333 -22.666666666666668 2301.54 0.0 0.0 1.0
-3.897436666666666 -9.948706666666666 2301.54 0.0 0.0 1.0
-1.8461533333333333 -0.923076 2301.54 0.0 0.0 1.0
-3.692306666666667 8.102563333333332 2301.54 0.0 0.0 1.0
-23.3646 7.968773333333334 1736.17 -0.9553661694726934 -4.575197911195334e-18 0.2954242410958734
-21.144000000000002 26.587766666666667 1770.41 0.0 0.0 1.0
-22.8242 24.668599999999998 1724.5 0.0 0.0 1.0
-21.144000000000002 26.587766666666667 1770.41 0.0 0.0 1.0
-22.2874 29.1691 1754.84 0.0 0.0 1.0
-21.9746 29.794700000000002 1754.84 0.0 0.0 1.0
-21.902 31.8924 1724.5 0.0 0.0 1.0
-21.9469 45.70303333333333 1765.1899999999998 -9.064281708638605e-28 -4.078926799407037e-27 1.0
-21.818166666666666 48.40663333333333 1754.84 0.0 0.0 1.0
-21.6764 75.86743333333334 1749.71 0.0 0.0 1.0
-22.325566666666663 109.22466666666666 1739.53 0.0 0.0 1.0
-22.170533333333335 111.395 1739.53 0.0 0.0 1.0
-22.338166666666666 115.71033333333332 1734.49 0.0 0.0 1.0
-4.307693333333333 169.53833333333333 2301.54 0.0 0.0 1.0
-4.307693333333333 169.53833333333333 2301.54 0.0 0.0 1.0
-2.6666666666666665 -170.154 2301.54 0.0 0.0 1.0
-18.333333333333332 -126.91666666666667 1870.0 0.0 0.0 1.0
-16.202533333333335 -113.165 1893.67 0.0 0.0 1.0
-19.143133333333335 -102.90499999999999 1875.86 0.0 0.0 1.0
-18.6416 -88.35943333333334 1875.86 0.0 0.0 1.0
-18.307199999999998 -87.35629999999999 1875.86 0.0 0.0 1.0
-18.641566666666666 -82.0063 1875.86 0.0 0.0 1.0
-18.4744 -80.83596666666666 1875.86 0.0 0.0 1.0
-16.0684 -66.06836666666668 1917.95 0.0 0.0 1.0
-18.616366666666664 -57.610099999999996 1881.76 0.0 0.0 1.0
-19.477533333333337 -52.74816666666666 1875.86 0.0 0.0 1.0
-18.5849 -46.561566666666664 1862.2600000000002 -0.2921061376846398 0.8763184130539036 0.3830666303264359
-3.28205 -43.17946666666666 2301.54 0.0 0.0 1.0
-5.538460000000001 -39.282066666666665 2301.54 0.0 0.0 1.0
-4.923076666666667 -36.20513333333333 2301.54 0.0 0.0 1.0
-4.102563333333333 -31.0769 2301.54 0.0 0.0 1.0
-4.102563333333333 -25.538466666666665 2301.54 0.0 0.0 1.0
-4.30769 -24.102566666666664 2301.54 0.0 0.0 1.0
-4.102563333333333 -22.666666666666668 2301.54 0.0 0.0 1.0
-4.5128200000000005 -16.923066666666667 2301.54 0.0 0.0 1.0
-3.8974333333333333 -16.102566666666664 2301.54 0.0 0.0 1.0
-3.8974333333333333 -15.076933333333335 2301.54 0.0 0.0 1.0
-3.6923066666666666 8.102563333333334 2301.54 0.0 0.0 1.0
-20.5128 10.4931 1770.41 0.0 0.0 1.0
-22.2874 29.1691 1754.84 0.0 0.0 1.0
-21.395333333333337 51.08523333333333 1739.53 0.0 0.0 1.0
-21.4902 57.64706666666667 1760.0 0.0 0.0 1.0
-22.3129 59.31973333333334 1744.61 0.0 0.0 1.0
-23.0799 76.33526666666667 1749.71 0.0 0.0 1.0
-22.31293333333333 81.24393333333335 1744.61 0.0 0.0 1.0
-24.283066666666667 87.3743 1671.51 0.0 0.0 1.0
-25.185166666666664 90.44443333333334 1662.22 0.0 0.0 1.0
-4.307691666666667 134.25666666666666 2301.54 0.0 0.0 1.0
-23.2657 116.94666666666667 1734.49 0.0 0.0 1.0
-23.2657 116.94666666666667 1734.49 0.0 0.0 1.0
-18.333333333333332 -126.91666666666667 1870.0 0.0 0.0 1.0
-20.0 -121.41666666666667 1870.0 0.0 0.0 1.0
-19.5 -118.08333333333333 1870.0 0.0 0.0 1.0
-19.5 -118.08333333333333 1870.0 0.0 0.0 1.0
-18.808766666666667 -96.21733333333333 1875.86 0.0 0.0 1.0
-19.644733333333335 -92.20479999999999 1875.86 0.0 0.0 1.0
-19.644733333333335 -91.20166666666665 1875.86 0.0 0.0 1.0
-18.6416 -88.35943333333334 1875.86 0.0 0.0 1.0
-18.6416 -87.69066666666667 1875.86 0.0 0.0 1.0
-17.972833333333334 -84.5141 1875.86 0.0 0.0 1.0
-19.14316666666667 -80.1672 1875.86 0.0 0.0 1.0
-17.805666666666664 -76.6562 1875.86 0.0 0.0 1.0
-16.0684 -66.06836666666668 1917.95 0.0 0.0 1.0
-18.616366666666668 -57.610099999999996 1881.76 0.0 0.0 1.0
-4.923076666666667 -36.20513333333333 2301.54 0.0 0.0 1.0
-5.538463333333333 -34.97433333333333 2301.54 0.0 0.0 1.0
-5.333333333333333 -18.153833333333335 2301.54 0.0 0.0 1.0
-22.2874 29.1691 1754.84 0.0 0.0 1.0
-21.9469 35.31956666666667 1765.1899999999998 0.0 0.0 1.0
-22.261566666666667 38.466100000000004 1765.1899999999998 -2.175358490370359e-25 5.5104534401701315e-25 1.0
-23.125199999999996 48.203833333333336 1753.13 -0.31121894998515387 -0.9335573660076802 0.17780160163210132
-23.245866666666668 66.4723 1744.61 0.0 0.0 1.0
-23.85966666666667 72.2807 1749.71 0.0 0.0 1.0
-23.391833333333334 73.6842 1749.71 0.0 0.0 1.0
-23.556866666666668 77.82313333333333 1744.61 0.0 0.0 1.0
-23.556866666666664 82.48786666666668 1744.61 0.0 0.0 1.0
-24.494500000000002 87.69916666666666 1660.6866666666667 -1.3840680746239135e-16 -0.7356281449527206 0.6773855861718783
-24.283066666666667 87.3743 1671.51 0.0 0.0 1.0
-24.6628 102.582 1729.4800000000002 2.3628495880719604e-27 2.5072565663985008e-26 1.0
-23.255800000000004 105.96900000000001 1739.53 0.0 0.0 1.0
-23.255800000000004 105.969 1739.53 0.0 0.0 1.0
-23.410833333333333 106.899 1739.53 0.0 0.0 1.0
-22.170533333333335 111.395 1739.53 0.0 0.0 1.0
-10.57312 -149.05266666666668 2099.65 0.0 0.0 1.0
-9.4503 -140.07033333333334 2099.65 0.0 0.0 1.0
-19.310333333333336 -102.738 1875.86 0.0 0.0 1.0
-18.11323333333333 -74.88466666666666 1881.76 0.0 0.0 1.0
-19.454933333333333 -58.7841 1881.76 0.0 0.0 1.0
-5.128203333333333 -36.82053333333334 2301.54 0.0 0.0 1.0
-4.923076666666667 -36.20513333333333 2301.54 0.0 0.0 1.0
-5.538460000000001 -31.89743333333333 2301.54 0.0 0.0 1.0
-6.358976666666666 -8.923076666666667 2301.54 0.0 0.0 1.0
-25.275366666666667 3.3236733333333333 1734.49 0.0 0.0 1.0
-25.792766666666665 11.660566666666668 1732.82 0.0 -0.9951233447187706 0.09863837384976912
-24.2075 24.668599999999998 1724.5 0.0 0.0 1.0
-22.901933333333332 57.176500000000004 1760.0 0.0 0.0 1.0
-24.171533333333333 62.923966666666665 1749.71 0.0 0.0 1.0
-23.556866666666668 77.82313333333333 1744.61 0.0 0.0 1.0
-25.767799999999998 83.8202 1680.9000000000003 0.0 -1.0 0.0
-23.410833333333333 106.899 1739.53 0.0 0.0 1.0
-24.34783333333333 112.92766666666667 1734.49 0.0 0.0 1.0
-23.729466666666667 117.565 1734.49 0.0 0.0 1.0
-5.333333333333333 169.53833333333333 2301.54 0.0 0.0 1.0
-20.590700000000002 -113.165 1893.67 0.0 0.0 1.0
-20.815033333333336 -109.25766666666668 1875.86 0.0 0.0 1.0
-19.811899999999998 -103.40666666666668 1875.86 0.0 0.0 1.0
-19.811900000000005 -96.5517 1875.86 0.0 0.0 1.0
-19.644733333333335 -91.20166666666665 1875.86 0.0 0.0 1.0
-19.477533333333337 -87.85786666666667 1875.86 0.0 0.0 1.0
-19.477533333333337 -87.5235 1875.86 0.0 0.0 1.0
-18.641566666666666 -82.0063 1875.86 0.0 0.0 1.0
-20.125766666666667 -69.3501 1881.76 0.0 0.0 1.0
-18.78403333333333 -68.67923333333333 1881.76 0.0 0.0 1.0
-8.205129999999999 -80.10256666666666 2301.54 0.0 0.0 1.0
-20.31346666666667 -52.2466 1875.86 0.0 0.0 1.0
-18.918233333333333 -46.72823333333333 1862.2600000000002 -0.2906858048988371 0.8720574146964982 0.39372278103149555
-6.769233333333333 -8.307693333333333 2301.54 0.0 0.0 1.0
-25.895966666666666 7.01349 1729.4800000000002 -8.85357948202846e-29 1.5493720220459692e-28 1.0
-25.125266666666665 10.096353333333333 1729.4800000000002 -9.44403936057835e-28 -2.3609843118501406e-28 1.0
-24.007800000000003 21.505399999999998 1754.84 0.0 0.0 1.0
-24.007800000000003 22.6002 1754.84 0.0 0.0 1.0
-21.474933333333336 29.49853333333333 1765.1899999999998 7.251809528030004e-27 -1.631682753191638e-26 1.0
-23.36283333333333 37.9941 1765.1899999999998 -9.692499247171527e-19 1.938397178280057e-18 1.0
-23.362799999999996 46.332366666666665 1765.1899999999998 1.3598583354804423e-27 4.079358927256648e-27 1.0
-24.956266666666664 50.6122 1744.61 0.0 0.0 1.0
-23.5294 57.80393333333333 1760.0 0.0 0.0 1.0
-24.01556666666667 60.74073333333333 1749.71 0.0 0.0 1.0
-24.023299999999995 60.40816666666666 1744.61 0.0 0.0 1.0
-23.703699999999998 71.501 1749.71 0.0 0.0 1.0
-24.02333333333333 78.60056666666667 1744.61 0.0 0.0 1.0
-26.518933333333333 93.7396 1657.62 0.0 0.0 1.0
-25.358766666666668 94.0963 1630.5199999999998 7.556723969374683e-27 8.597054747630766e-26 1.0
-24.34783333333333 112.92766666666667 1734.49 0.0 0.0 1.0
-24.502433333333332 117.71966666666667 1734.49 0.0 0.0 1.0
-20.666666666666668 -122.08333333333333 1870.0 0.0 0.0 1.0
-20.0 -118.91666666666667 1870.0 0.0 0.0 1.0
-20.666666666666668 -118.41666666666667 1870.0 0.0 0.0 1.0
-21.166666666666668 -116.58333333333333 1870.0 0.0 0.0 1.0
-20.833333333333332 -114.08333333333333 1870.0 0.0 0.0 1.0
-22.0 -110.58333333333333 1870.0 0.0 0.0 1.0
-19.811899999999998 -103.40666666666668 1875.86 0.0 0.0 1.0
-20.1463 -91.70323333333333 1875.86 0.0 0.0 1.0
-20.313466666666667 -90.86726666666665 1875.86 0.0 0.0 1.0
-19.811933333333332 -79.33123333333333 1875.86 0.0 0.0 1.0
-19.811933333333332 -78.1609 1875.86 0.0 0.0 1.0
-18.474400000000003 -73.6468 1875.86 0.0 0.0 1.0
-20.628933333333336 -63.14463333333333 1881.76 0.0 0.0 1.0
-20.313466666666667 -52.2466 1875.86 0.0 0.0 1.0
-7.384616666666666 -46.051300000000005 2301.54 0.0 0.0 1.0
-7.384616666666666 -46.051300000000005 2301.54 0.0 0.0 1.0
-5.538460000000001 -39.28206666666667 2301.54 0.0 0.0 1.0
-6.358973333333334 -34.564099999999996 2301.54 0.0 0.0 1.0
-6.1538466666666665 -33.948699999999995 2301.54 0.0 0.0 1.0
-7.794873333333332 -28.820533333333334 2301.54 0.0 0.0 1.0
-6.358976666666666 -18.153833333333335 2301.54 0.0 0.0 1.0
-6.97436 -16.102566666666668 2301.54 0.0 0.0 1.0
-6.97436 -16.102566666666664 2301.54 0.0 0.0 1.0
-23.976266666666664 -9.099903333333332 1775.67 0.0 0.0 1.0
-6.769233333333333 -8.307693333333333 2301.54 0.0 0.0 1.0
-6.564103333333333 -7.282050000000001 2301.54 0.0 0.0 1.0
-24.007800000000003 22.6002 1754.84 0.0 0.0 1.0
-24.007800000000003 22.6002 1754.84 0.0 0.0 1.0
-23.2055 38.6234 1765.1899999999998 -1.0361295823454842e-27 -2.0722591646909633e-27 1.0
-24.627466666666663 54.039233333333335 1760.0 0.0 0.0 1.0
-23.85966666666667 72.2807 1749.71 0.0 0.0 1.0
-23.85966666666667 72.2807 1749.71 0.0 0.0 1.0
-24.015599999999996 74.93176666666666 1749.71 0.0 0.0 1.0
-26.367066666666663 82.17226666666666 1680.9000000000003 -1.342157184862194e-25 6.355254736988398e-26 1.0
-25.318366666666666 85.9176 1680.9000000000003 -2.5390073883375524e-28 1.015619096000534e-27 1.0
-24.6628 102.582 1729.4800000000002 2.3628495880719608e-27 2.5072565663985008e-26 1.0
-24.34783333333333 112.92766666666667 1734.49 0.0 0.0 1.0
-25.895933333333335 123.85366666666668 1729.4800000000002 1.718918094929378e-27 -4.122335235570754e-27 1.0
-5.333333333333333 169.74366666666666 2301.54 0.0 0.0 1.0
-10.46154 -153.333 2301.54 0.0 0.0 1.0
-20.666666666666668 -117.25 1870.0 0.0 0.0 1.0
-21.149400000000004 -108.589 1875.86 0.0 0.0 1.0
-21.1494 -98.72520000000002 1875.86 0.0 0.0 1.0
-21.1494 -98.72519999999999 1875.86 0.0 0.0 1.0
-20.480633333333333 -97.05326666666667 1875.86 0.0 0.0 1.0
-20.982233333333337 -90.19853333333333 1875.86 0.0 0.0 1.0
-20.647833333333335 -85.6844 1875.86 0.0 0.0 1.0
-21.299766666666667 -73.8784 1881.76 0.0 0.0 1.0
-20.628933333333332 -63.14463333333333 1881.76 0.0 0.0 1.0
-20.796633333333332 -59.79036666666667 1881.76 0.0 0.0 1.0
-20.31346666666667 -52.2466 1875.86 0.0 0.0 1.0
-8.41026 -58.15383333333333 2301.54 0.0 0.0 1.0
-8.205133333333334 -54.461533333333335 2301.54 0.0 0.0 1.0
-6.97436 -16.102566666666668 2301.54 0.0 0.0 1.0
-24.292766666666665 -9.732933333333333 1775.67 0.0 0.0 1.0
-6.769233333333333 -8.307693333333333 2301.54 0.0 0.0 1.0
-27.29783333333333 -3.3925066666666663 1770.41 0.0 0.0 1.0
-25.0934 -0.23598833333333333 1765.1899999999998 -2.124663100846462e-29 -4.957565499665192e-29 1.0
-24.627466666666667 15.2941 1760.0 0.0 0.0 1.0
-24.784333333333333 15.921566666666665 1760.0 0.0 0.0 1.0
-24.320600000000002 20.56696666666667 1754.84 0.0 0.0 1.0
-24.164200000000005 21.505399999999998 1754.84 0.0 0.0 1.0
-25.4371 25.2834 1724.5 0.0 0.0 1.0
-26.616033333333334 37.0154 1741.2233333333334 -1.5946207411573273e-16 -0.7631241122838284 0.6462519549301332
-23.8348 38.30873333333333 1765.1899999999998 -1.0358787158508985e-27 -1.5541473323132102e-27 1.0
-25.571833333333334 43.871 1754.84 0.0 0.0 1.0
-24.633433333333333 48.87586666666667 1754.84 0.0 0.0 1.0
-25.886933333333335 58.2456 1749.71 0.0 0.0 1.0
-24.95126666666667 75.39963333333334 1749.71 0.0 0.0 1.0
-24.645300000000002 79.37803333333333 1744.61 0.0 0.0 1.0
-25.422766666666664 79.68900000000001 1744.61 0.0 0.0 1.0
-24.4898 82.48786666666666 1744.61 0.0 0.0 1.0
-27.116133333333334 82.17226666666666 1680.9000000000003 6.499698237001979e-27 3.4997647802091454e-27 1.0
-29.803933333333333 82.0915 1676.1899999999998 -9.929404328567471e-29 4.468121178061424e-28 1.0
-24.6628 102.582 1729.4800000000002 2.3628495880719608e-27 2.5072565663985008e-26 1.0
-24.502433333333332 117.71966666666667 1734.49 0.0 0.0 1.0
-26.20423333333333 122.31233333333334 1729.4800000000002 -1.5735756361101875e-27 -3.0399464859517098e-27 1.0
-22.0 -112.25 1870.0 0.0 0.0 1.0
-20.815033333333336 -109.25766666666665 1875.86 0.0 0.0 1.0
-21.1494 -108.589 1875.86 0.0 0.0 1.0
-21.1494 -84.5141 1875.86 0.0 0.0 1.0
-21.1494 -84.5141 1875.86 0.0 0.0 1.0
-21.132066666666667 -69.68549999999999 1881.76 0.0 0.0 1.0
-21.132100000000005 -62.6415 1881.76 0.0 0.0 1.0
-8.41026 -51.589733333333335 2301.54 0.0 0.0 1.0
-7.794873333333332 -28.820533333333334 2301.54 0.0 0.0 1.0
-25.08406666666667 -13.056400000000002 1775.67 0.0 0.0 1.0
-24.609266666666667 -10.049446666666668 1775.67 0.0 0.0 1.0
-24.292766666666665 -9.732933333333333 1775.67 0.0 0.0 1.0
-25.275366666666667 3.3236733333333333 1734.49 0.0 0.0 1.0
-24.784333333333333 15.921566666666665 1760.0 0.0 0.0 1.0
-24.784333333333333 15.921566666666665 1760.0 0.0 0.0 1.0
-25.571833333333334 43.871 1754.84 0.0 0.0 1.0
-25.098033333333333 53.254933333333334 1760.0 0.0 0.0 1.0
-24.627466666666663 54.039233333333335 1760.0 0.0 0.0 1.0
-25.7255 57.80393333333333 1760.0 0.0 0.0 1.0
-25.267233333333333 60.40816666666666 1744.61 0.0 0.0 1.0
-24.795333333333335 64.48343333333332 1749.71 0.0 0.0 1.0
-25.578233333333333 82.17686666666667 1744.61 0.0 0.0 1.0
-28.97496666666667 91.50393333333334 1654.5666666666666 0.11117568989358229 -0.8893803662776542 0.44344394240592766
-29.333333333333332 92.96296666666667 1662.22 0.0 0.0 1.0
-7.179486666666667 134.25666666666666 2301.54 0.0 0.0 1.0
-26.20423333333333 122.31233333333334 1729.4800000000002 -1.5735756361101883e-27 -3.0399464859517105e-27 1.0
-13.941533333333334 -151.111 2099.65 0.0 0.0 1.0
-21.166666666666668 -116.58333333333333 1870.0 0.0 0.0 1.0
-21.985366666666668 -101.73466666666666 1875.86 0.0 0.0 1.0
-21.985366666666668 -101.73466666666666 1875.86 0.0 0.0 1.0
-21.818166666666666 -99.22676666666666 1875.86 0.0 0.0 1.0
-21.8182 -92.372 1875.86 0.0 0.0 1.0
-21.483800000000002 -89.52976666666666 1875.86 0.0 0.0 1.0
-21.483800000000002 -89.52976666666666 1875.86 0.0 0.0 1.0
-21.299766666666667 -73.87840000000001 1881.76 0.0 0.0 1.0
-21.299766666666667 -73.87840000000001 1881.76 0.0 0.0 1.0
-9.641013333333333 -63.48716666666667 2301.54 0.0 0.0 1.0
-9.23077 -59.589733333333335 2301.54 0.0 0.0 1.0
-9.025643333333333 -55.0769 2301.54 0.0 0.0 1.0
-8.820516666666665 -54.461533333333335 2301.54 0.0 0.0 1.0
-9.230763333333334 -49.53843333333333 2301.54 0.0 0.0 1.0
-8.615373333333332 -45.64106666666667 2301.54 0.0 0.0 1.0
-8.205129999999999 -32.71796666666666 2301.54 0.0 0.0 1.0
-7.794873333333332 -28.820533333333334 2301.54 0.0 0.0 1.0
-9.025640000000001 -20.8205 2301.54 0.0 0.0 1.0
-24.609266666666667 -10.049446666666666 1775.67 0.0 0.0 1.0
-25.0934 -0.23598833333333333 1765.1899999999998 -2.1246631008464615e-29 -4.9575654996651914e-29 1.0
-27.130433333333333 2.0869573333333333 1734.49 0.0 0.0 1.0
-25.895966666666666 7.01349 1729.4800000000002 -8.853579482028458e-29 1.549372022045969e-28 1.0
-25.741833333333332 10.096353333333333 1729.4800000000002 -4.722019680289176e-28 1.18049215592507e-28 1.0
-25.4622 15.4806 1763.46 0.9780614987997527 -0.17783963920622733 0.10848394946986363
-28.362233333333336 15.953766666666667 1729.4800000000002 7.003936802609417e-29 5.166233780083325e-30 1.0
-24.633400000000005 22.756600000000002 1754.84 0.0 0.0 1.0
-25.4371 25.2834 1724.5 0.0 0.0 1.0
-26.510266666666666 30.1075 1754.84 0.0 0.0 1.0
-23.746400000000005 31.8924 1724.5 0.0 0.0 1.0
-24.77873333333333 46.175033333333324 1765.1899999999998 2.5904023382956327e-28 -4.661881473833926e-27 1.0
-25.886933333333335 58.2456 1749.71 0.0 0.0 1.0
-24.795333333333335 64.48343333333332 1749.71 0.0 0.0 1.0
-25.42273333333333 66.7833 1744.61 0.0 0.0 1.0
-24.95126666666667 75.39963333333334 1749.71 0.0 0.0 1.0
-27.565566666666665 84.11983333333333 1680.9000000000003 -3.1992408279130623e-28 -8.797645347111268e-28 1.0
-29.4893 88.9137 1666.8499999999997 0.0 -1.0 0.0
-29.0305 93.59186666666666 1657.62 0.0 0.0 1.0
-27.588866666666664 125.956 1724.5 0.0 0.0 1.0
-24.166666666666668 -127.91666666666667 1870.0 0.0 0.0 1.0
-22.0 -121.08333333333333 1870.0 0.0 0.0 1.0
-22.486933333333337 -101.06566666666667 1875.86 0.0 0.0 1.0
-22.152533333333334 -85.8516 1875.86 0.0 0.0 1.0
-21.985366666666668 -77.65933333333334 1875.86 0.0 0.0 1.0
-8.205129999999999 -80.10256666666668 2301.54 0.0 0.0 1.0
-8.205129999999999 -80.10256666666668 2301.54 0.0 0.0 1.0
-21.97066666666667 -62.473800000000004 1881.76 0.0 0.0 1.0
-9.025643333333333 -55.0769 2301.54 0.0 0.0 1.0
-8.820516666666665 -54.461533333333335 2301.54 0.0 0.0 1.0
-9.84614 -39.28206666666667 2301.54 0.0 0.0 1.0
-9.23077 -32.9231 2301.54 0.0 0.0 1.0
-25.08406666666667 -13.056400000000002 1775.67 0.0 0.0 1.0
-25.08406666666667 -13.056400000000002 1775.67 0.0 0.0 1.0
-7.794873333333332 -8.102566666666666 2301.54 0.0 0.0 1.0
-25.0934 -0.23598833333333333 1765.1899999999998 -2.124663100846462e-29 -4.957565499665192e-29 1.0
-25.895966666666666 7.01349 1729.4800000000002 -8.853579482028458e-29 1.549372022045969e-28 1.0
-25.08973333333333 34.4931 1716.253333333333 0.0 0.9973400761051324 0.07288876864516773
-24.77873333333333 46.175033333333324 1765.1899999999998 2.5904023382956323e-28 -4.661881473833926e-27 1.0
-26.352933333333336 57.49023333333333 1760.0 0.0 0.0 1.0
-25.267233333333333 60.408166666666666 1744.61 0.0 0.0 1.0
-26.3539 68.739 1754.84 0.0 0.0 1.0
-26.2002 79.68900000000001 1744.61 0.0 0.0 1.0
-26.355666666666668 81.55489999999999 1744.61 0.0 0.0 1.0
-9.846156666666667 134.667 2301.54 0.0 0.0 1.0
-25.426333333333332 105.659 1739.53 0.0 0.0 1.0
-26.666633333333333 106.89933333333335 1739.53 0.0 0.0 1.0
-26.666666666666668 113.23666666666668 1734.49 0.0 0.0 1.0
-23.833333333333332 -118.08333333333333 1870.0 0.0 0.0 1.0
-21.818166666666666 -109.425 1875.86 0.0 0.0 1.0
-22.654133333333334 -99.72823333333332 1875.86 0.0 0.0 1.0
-22.82133333333333 -97.72206666666666 1875.86 0.0 0.0 1.0
-21.132066666666667 -69.01466666666666 1881.76 0.0 0.0 1.0
-22.4738 -61.970666666666666 1881.76 0.0 0.0 1.0
-22.809233333333335 -60.79663333333334 1881.76 0.0 0.0 1.0
-22.809233333333335 -60.79663333333334 1881.76 0.0 0.0 1.0
-9.641013333333333 -63.48716666666667 2301.54 0.0 0.0 1.0
-10.051266666666665 -43.58976666666667 2301.54 0.0 0.0 1.0
-9.641023333333333 -41.333333333333336 2301.54 0.0 0.0 1.0
-10.051273333333334 -33.94873333333333 2301.54 0.0 0.0 1.0
-27.4533 14.3953 1765.1899999999998 6.417509779568166e-29 -3.815908001688476e-29 1.0
-26.616033333333334 37.0154 1741.2233333333334 -5.581172594050645e-16 -0.7631241122838285 0.646251954930133
-26.509333333333334 38.93803333333333 1765.1899999999998 -1.2088483389083438e-27 -1.6117408674279124e-27 1.0
-26.509333333333334 38.93803333333333 1765.1899999999998 -1.2088483389083438e-27 -1.6117408674279124e-27 1.0
-26.196066666666667 53.09806666666666 1760.0 0.0 0.0 1.0
-26.352933333333336 57.49023333333333 1760.0 0.0 0.0 1.0
-29.333333333333332 92.96296666666667 1662.22 0.0 0.0 1.0
-27.441833333333335 107.82966666666668 1739.53 0.0 0.0 1.0
-27.5915 122.62033333333333 1729.4800000000002 -8.987227780614681e-27 3.784978286682174e-27 1.0
-27.899766666666665 123.54533333333332 1729.4800000000002 1.3485979494528638e-26 2.8383961342080123e-26 1.0
-9.025626666666666 169.74366666666666 2301.54 0.0 0.0 1.0
-14.502933333333333 -150.17533333333333 2099.65 0.0 0.0 1.0
-23.824466666666666 -104.24233333333332 1875.86 0.0 0.0 1.0
-23.490066666666667 -100.2297 1875.86 0.0 0.0 1.0
-23.1557 -92.372 1875.86 0.0 0.0 1.0
-22.319733333333335 -85.51723333333332 1875.86 0.0 0.0 1.0
-23.99166666666667 -82.00626666666666 1875.86 0.0 0.0 1.0
-23.99166666666667 -78.99686666666666 1875.86 0.0 0.0 1.0
-22.138366666666666 -74.38153333333334 1881.76 0.0 0.0 1.0
-11.282033333333333 -85.64103333333333 2301.54 0.0 0.0 1.0
-22.809233333333335 -60.79663333333334 1881.76 0.0 0.0 1.0
-9.641013333333333 -63.48716666666667 2301.54 0.0 0.0 1.0
-10.256396666666665 -45.8462 2301.54 0.0 0.0 1.0
-10.666656666666666 -37.84616666666667 2301.54 0.0 0.0 1.0
-28.090966666666663 -18.120700000000003 1775.67 0.0 0.0 1.0
-26.666666666666668 23.225800000000003 1754.84 0.0 0.0 1.0
-27.2923 30.107499999999998 1754.84 0.0 0.0 1.0
-26.823066666666666 30.733099999999997 1754.84 0.0 0.0 1.0
-27.4464 42.4951 1749.71 0.0 0.0 1.0
-27.4464 42.4951 1749.71 0.0 0.0 1.0
-26.666666666666668 43.5582 1754.84 0.0 0.0 1.0
-26.046533333333333 50.620133333333335 1739.53 0.0 0.0 1.0
-26.352933333333336 57.49023333333333 1760.0 0.0 0.0 1.0
-25.88693333333333 58.2456 1749.71 0.0 0.0 1.0
-27.444100000000002 66.9388 1744.61 0.0 0.0 1.0
-26.977633333333333 80.31096666666667 1744.61 0.0 0.0 1.0
-26.977633333333333 80.93293333333334 1744.61 0.0 0.0 1.0
-29.3633 85.16853333333334 1680.9000000000003 -5.53349671766841e-26 -5.44355125100957e-26 1.0
-31.447233333333333 86.12513333333334 1676.1899999999998 1.9492141507772193e-28 -2.051871233793164e-28 1.0
-29.4893 88.9137 1666.8499999999997 0.0 -1.0 0.0
-27.588866666666664 125.956 1724.5 0.0 0.0 1.0
-9.025626666666666 169.74366666666666 2301.54 0.0 0.0 1.0
-12.512799999999999 -161.94833333333335 2301.54 0.0 0.0 1.0
-24.166666666666668 -127.91666666666667 1870.0 0.0 0.0 1.0
-12.717933333333335 -152.71766666666667 2301.54 0.0 0.0 1.0
-23.833333333333332 -118.08333333333333 1870.0 0.0 0.0 1.0
-23.666666666666668 -111.75 1870.0 0.0 0.0 1.0
-23.824466666666666 -102.73766666666666 1875.86 0.0 0.0 1.0
-24.158833333333334 -96.55173333333335 1875.86 0.0 0.0 1.0
-23.99166666666667 -82.00626666666666 1875.86 0.0 0.0 1.0
-23.99166666666667 -78.99686666666666 1875.86 0.0 0.0 1.0
-11.282033333333333 -85.64103333333333 2301.54 0.0 0.0 1.0
-12.102566666666666 -70.66663333333334 2301.54 0.0 0.0 1.0
-10.871789999999999 -55.89743333333333 2301.54 0.0 0.0 1.0
-11.0769 -46.46156666666667 2301.54 0.0 0.0 1.0
-10.871783333333333 -33.94873333333333 2301.54 0.0 0.0 1.0
-26.666666666666668 23.225800000000003 1754.84 0.0 0.0 1.0
-28.869199999999996 35.4769 1765.1899999999998 4.619949463125105e-28 9.132490017351769e-29 1.0
-26.509333333333334 38.93803333333333 1765.1899999999998 -1.2088483389083438e-27 -1.6117408674279124e-27 1.0
-27.548233333333332 40.70153333333334 1746.3100000000002 -0.9926774474797277 -2.5180938539328202e-15 0.12079522037370717
-27.548233333333332 40.70153333333334 1746.3100000000002 -0.9926774474797277 -2.5180938539328202e-15 0.12079522037370717
-28.3871 48.87586666666667 1754.84 0.0 0.0 1.0
-28.3871 48.87586666666667 1754.84 0.0 0.0 1.0
-26.046533333333333 50.620133333333335 1739.53 0.0 0.0 1.0
-27.2941 53.09806666666666 1760.0 0.0 0.0 1.0
-26.8235 57.01963333333333 1760.0 0.0 0.0 1.0
-28.2261 73.6842 1749.71 0.0 0.0 1.0
-27.133133333333333 79.06703333333333 1744.61 0.0 0.0 1.0
-28.824633333333335 120.92466666666667 1729.4800000000002 1.8890121172424085e-27 -6.297615018117427e-28 1.0
-27.588866666666664 125.956 1724.5 0.0 0.0 1.0
-24.666666666666668 -116.91666666666667 1870.0 0.0 0.0 1.0
-23.824466666666666 -104.24233333333332 1875.86 0.0 0.0 1.0
-23.991633333333336 -100.73133333333332 1875.86 0.0 0.0 1.0
-23.991633333333336 -100.73133333333332 1875.86 0.0 0.0 1.0
-24.158833333333334 -92.03763333333332 1875.86 0.0 0.0 1.0
-12.512833333333333 -58.974333333333334 2301.54 0.0 0.0 1.0
-12.717933333333335 -54.46156666666667 2301.54 0.0 0.0 1.0
-11.487166666666667 -45.64106666666667 2301.54 0.0 0.0 1.0
-11.692300000000001 -33.7436 2301.54 0.0 0.0 1.0
-9.435896666666666 -28.820533333333334 2301.54 0.0 0.0 1.0
-9.025640000000001 -20.8205 2301.54 0.0 0.0 1.0
-28.057933333333335 5.024156666666666 1734.49 0.0 0.0 1.0
-29.4336 9.944693333333333 1756.5600000000002 7.806330823403522e-17 -0.7043263448362536 0.7098763272356691
-28.392166666666668 14.980366666666667 1760.0 0.0 0.0 1.0
-27.7615 30.889499999999998 1754.84 0.0 0.0 1.0
-27.585466666666665 33.63739999999999 1719.55 0.39774794949032766 0.8950789944095713 0.20156924974556503
-27.4464 42.4951 1749.71 0.0 0.0 1.0
-26.666666666666668 43.5582 1754.84 0.0 0.0 1.0
-28.538 71.9688 1749.71 0.0 0.0 1.0
-29.4893 88.9137 1666.8499999999997 0.0 -1.0 0.0
-30.8148 92.66666666666667 1662.22 0.0 0.0 1.0
-28.212566666666664 113.23666666666668 1734.49 0.0 0.0 1.0
-28.985500000000002 115.86466666666666 1734.49 0.0 0.0 1.0
-12.512799999999999 -161.94833333333335 2301.54 0.0 0.0 1.0
-25.333333333333332 -114.08333333333333 1870.0 0.0 0.0 1.0
-24.6604 -91.0345 1875.86 0.0 0.0 1.0
-25.663533333333334 -89.52980000000001 1875.86 0.0 0.0 1.0
-24.493233333333336 -82.67503333333333 1875.86 0.0 0.0 1.0
-24.493233333333336 -82.67503333333333 1875.86 0.0 0.0 1.0
-24.660433333333334 -78.82966666666665 1875.86 0.0 0.0 1.0
-11.282033333333333 -85.64103333333333 2301.54 0.0 0.0 1.0
-13.128200000000001 -74.35893333333333 2301.54 0.0 0.0 1.0
-12.102566666666668 -70.66663333333334 2301.54 0.0 0.0 1.0
-12.307666666666668 -64.10256666666666 2301.54 0.0 0.0 1.0
-11.692299999999998 -55.28206666666667 2301.54 0.0 0.0 1.0
-13.333333333333334 -50.35896666666667 2301.54 0.0 0.0 1.0
-12.307699999999999 -46.0513 2301.54 0.0 0.0 1.0
-12.9231 -40.512833333333326 2301.54 0.0 0.0 1.0
-12.102566666666666 -38.051300000000005 2301.54 0.0 0.0 1.0
-12.512833333333333 -33.538466666666665 2301.54 0.0 0.0 1.0
-28.565766666666665 -21.444100000000002 1775.67 0.0 0.0 1.0
-28.249266666666667 -11.948566666666665 1775.67 0.0 0.0 1.0
-28.0826 -0.3933136666666666 1765.1899999999998 0.0 1.6998085134001096e-28 1.0
-28.521766666666668 11.826100000000002 1734.49 0.0 0.0 1.0
-28.392166666666668 14.980366666666667 1760.0 0.0 0.0 1.0
-29.1691 21.348966666666666 1754.84 0.0 0.0 1.0
-27.7615 30.889499999999998 1754.84 0.0 0.0 1.0
-27.2941 53.098066666666675 1760.0 0.0 0.0 1.0
-28.4877 59.39553333333333 1751.42 -0.5507261667041443 -0.8260598214911504 0.11969068729591247
-28.538 71.1891 1749.71 0.0 0.0 1.0
-28.538 73.21636666666667 1749.71 0.0 0.0 1.0
-28.538 73.21636666666667 1749.71 0.0 0.0 1.0
-28.538 73.21636666666667 1749.71 0.0 0.0 1.0
-32.444433333333336 89.11110000000001 1662.22 0.0 0.0 1.0
-9.846156666666667 134.667 2301.54 0.0 0.0 1.0
-28.5271 107.67466666666667 1739.53 0.0 0.0 1.0
-28.985500000000002 115.86466666666666 1734.49 0.0 0.0 1.0
-29.4412 120.46233333333333 1729.4800000000002 -1.888603660112447e-27 6.296934121261733e-28 1.0
-28.824633333333335 120.92466666666667 1729.4800000000002 1.889012117242409e-27 -6.297615018117427e-28 1.0
-29.595366666666667 123.69966666666669 1729.4800000000002 4.532648978572839e-26 -3.022637455200393e-26 1.0
-13.333333333333334 -166.46133333333333 2301.54 0.0 0.0 1.0
-12.717933333333335 -152.71766666666667 2301.54 0.0 0.0 1.0
-25.0 -115.75 1870.0 0.0 0.0 1.0
-24.833333333333332 -112.41666666666667 1870.0 0.0 0.0 1.0
-20.590700000000002 -113.165 1893.67 0.0 0.0 1.0
-25.329166666666666 -109.92666666666666 1875.86 0.0 0.0 1.0
-24.660433333333334 -82.00626666666666 1875.86 0.0 0.0 1.0
-25.49636666666667 -78.66250000000001 1875.86 0.0 0.0 1.0
-13.538466666666666 -89.94869999999999 2301.54 0.0 0.0 1.0
-13.333333333333334 -89.53846666666668 2301.54 0.0 0.0 1.0
-13.128200000000001 -74.35893333333333 2301.54 0.0 0.0 1.0
-12.102566666666668 -70.66663333333334 2301.54 0.0 0.0 1.0
-12.512833333333333 -58.974333333333334 2301.54 0.0 0.0 1.0
-12.512833333333333 -58.974333333333334 2301.54 0.0 0.0 1.0
-13.333333333333334 -50.35896666666667 2301.54 0.0 0.0 1.0
-12.307700000000002 -46.051300000000005 2301.54 0.0 0.0 1.0
-12.9231 -40.512833333333326 2301.54 0.0 0.0 1.0
-29.891199999999998 -25.9272 1779.1899999999998 -0.5276679434364372 0.8442687094983004 0.09368504486648774
-28.249266666666667 -11.948566666666666 1775.67 0.0 0.0 1.0
-30.54263333333333 -5.813953333333333 1739.53 0.0 0.0 1.0
-29.191333333333333 -3.5502966666666667 1770.41 0.0 0.0 1.0
-30.995166666666666 1.1594213333333334 1734.49 0.0 0.0 1.0
-30.048000000000002 24.822300000000002 1724.5 0.0 0.0 1.0
-27.444100000000002 50.45673333333334 1744.61 0.0 0.0 1.0
-27.444100000000002 50.45673333333334 1744.61 0.0 0.0 1.0
-27.607833333333332 57.01963333333333 1760.0 0.0 0.0 1.0
-28.688033333333333 67.09429999999999 1744.61 0.0 0.0 1.0
-28.538 71.1891 1749.71 0.0 0.0 1.0
-29.1545 80.93293333333334 1744.61 0.0 0.0 1.0
-31.297866666666664 81.9421 1676.1899999999998 8.046008704622777e-27 -4.0221067609788784e-27 1.0
-31.297866666666664 81.9421 1676.1899999999998 8.046008704622777e-27 -4.0221067609788784e-27 1.0
-31.161033333333332 86.21723333333334 1680.9000000000003 -1.983495145550723e-27 -3.5382629784813e-27 1.0
-30.835733333333337 90.01026666666667 1651.5199999999998 0.11791862506370461 -0.9433223220876925 0.31022281430315385
-31.98526666666667 93.0009 1657.62 0.0 0.0 1.0
-28.555866666666663 94.0963 1630.5199999999998 -2.9890480532249065e-28 2.640497361104886e-26 1.0
-29.1401 114.00966666666666 1734.49 0.0 0.0 1.0
-28.9855 115.86466666666666 1734.49 0.0 0.0 1.0
-29.595366666666667 123.69966666666669 1729.4800000000002 4.532648978572826e-26 -3.022637455200387e-26 1.0
-25.666666666666668 -127.08333333333333 1870.0 0.0 0.0 1.0
-27.0 -123.25 1870.0 0.0 0.0 1.0
-24.833333333333332 -117.75 1870.0 0.0 0.0 1.0
-27.001033333333336 -95.38139999999999 1875.86 0.0 0.0 1.0
-27.00103333333333 -85.68443333333333 1875.86 0.0 0.0 1.0
-13.333366666666668 -40.307700000000004 2301.54 0.0 0.0 1.0
-13.333366666666668 -40.307700000000004 2301.54 0.0 0.0 1.0
-12.512833333333333 -33.538466666666665 2301.54 0.0 0.0 1.0
-29.198799999999995 -22.5519 1775.67 0.0 0.0 1.0
-28.565766666666665 -19.070233333333334 1775.67 0.0 0.0 1.0
-28.249266666666667 -11.948566666666665 1775.67 0.0 0.0 1.0
-31.149733333333334 6.72464 1734.49 0.0 0.0 1.0
-29.01963333333333 14.980366666666667 1760.0 0.0 0.0 1.0
-29.4819 20.097733333333334 1754.84 0.0 0.0 1.0
-30.048000000000002 24.822300000000002 1724.5 0.0 0.0 1.0
-30.048000000000002 24.8223 1724.5 0.0 0.0 1.0
-29.655833333333334 37.994099999999996 1765.1899999999998 -2.175542858409035e-26 -2.900723811212061e-26 1.0
-29.498499999999996 38.780766666666665 1765.1899999999998 2.175542858408984e-26 -3.263314287613475e-26 1.0
-28.711866666666666 45.860366666666664 1765.1899999999998 0.0 0.0 1.0
-29.931966666666664 66.9388 1744.61 0.0 0.0 1.0
-29.629633333333334 72.43666666666665 1749.71 0.0 0.0 1.0
-29.473699999999997 73.06043333333334 1749.71 0.0 0.0 1.0
-29.1618 73.52826666666667 1749.71 0.0 0.0 1.0
-31.297866666666664 81.9421 1676.1899999999998 8.046008704622777e-27 -4.0221067609788784e-27 1.0
-31.610500000000002 84.11983333333333 1680.9000000000003 1.3220217346560705e-28 1.652343329498387e-29 1.0
-32.444433333333336 89.11110000000001 1662.22 0.0 0.0 1.0
-32.646300000000004 89.33916666666666 1650.0 7.937768882687009e-17 -0.9454441269607583 0.3257842887485668
-29.922466666666665 106.58933333333333 1739.53 0.0 0.0 1.0
-30.387566666666668 109.53500000000001 1739.53 0.0 0.0 1.0
-30.995166666666666 118.64733333333334 1734.49 0.0 0.0 1.0
-29.4412 120.46233333333333 1729.4800000000002 -1.888603660112447e-27 6.296934121261733e-28 1.0
-30.520233333333334 122.46666666666665 1729.4800000000002 -6.799953500009755e-26 6.798973361856302e-26 1.0
-13.743566666666666 -161.74333333333334 2301.54 0.0 0.0 1.0
-13.9487 -152.10233333333335 2301.54 0.0 0.0 1.0
-27.168233333333333 -99.56103333333333 1875.86 0.0 0.0 1.0
-26.833866666666665 -79.49843333333332 1875.86 0.0 0.0 1.0
-13.9487 -89.12823333333334 2301.54 0.0 0.0 1.0
-14.564066666666667 -80.92306666666667 2301.54 0.0 0.0 1.0
-14.974333333333334 -80.51283333333333 2301.54 0.0 0.0 1.0
