ply
format ascii 1.0
comment VCGLIB generated
element vertex 730
property float x
property float y
property float z
property float nx
property float ny
property float nz
element face 0
property list uchar int vertex_indices
end_header
-108.26633333333332 -135.20000000000002 1994.67 0.0 0.0 1.0
-107.37766666666668 -135.02200000000002 1994.67 0.0 0.0 1.0
-107.55533333333334 -124.53333333333335 1994.67 0.0 0.0 1.0
-107.55533333333334 -124.53333333333335 1994.67 0.0 0.0 1.0
-107.02199999999999 -114.39999999999999 1994.67 0.0 0.0 1.0
-107.55566666666668 -103.911 1994.67 0.0 0.0 1.0
-108.08866666666665 -97.86666666666667 1994.67 0.0 0.0 1.0
-108.26666666666667 -90.22223333333334 1994.67 0.0 0.0 1.0
-107.73333333333333 -80.44446666666666 1994.67 0.0 0.0 1.0
-107.02199999999999 -77.7778 1994.67 0.0 0.0 1.0
-106.13333333333333 -68.53333333333332 1994.67 0.0 0.0 1.0
-102.74766666666666 -54.6398 1724.5 0.0 0.0 1.0
-103.97700000000002 -52.1806 1724.5 0.0 0.0 1.0
-107.2 -52.1778 1994.67 0.0 0.0 1.0
-108.26666666666667 -47.37776666666667 1994.67 0.0 0.0 1.0
-107.37766666666668 -39.377766666666666 1994.67 0.0 0.0 1.0
-107.37766666666668 -39.377766666666666 1994.67 0.0 0.0 1.0
-108.26666666666667 -32.622233333333334 1994.67 0.0 0.0 1.0
-107.55533333333334 -24.8 1994.67 0.0 0.0 1.0
-107.55533333333334 -24.8 1994.67 0.0 0.0 1.0
-108.08866666666667 -23.022233333333332 1994.67 0.0 0.0 1.0
-107.733 -18.933333333333334 1994.67 0.0 0.0 1.0
-108.26633333333332 -10.755533333333332 1994.67 0.0 0.0 1.0
-108.26633333333332 -10.755533333333332 1994.67 0.0 0.0 1.0
-107.55533333333334 0.6222213333333333 1994.67 0.0 0.0 1.0
-107.733 1.1555556666666666 1994.67 0.0 0.0 1.0
-107.733 1.1555556666666666 1994.67 0.0 0.0 1.0
-102.67 29.863766666666667 1630.5199999999998 -1.731103866587359e-27 -4.721842157610178e-27 1.0
-108.80000000000001 65.33333333333333 1994.67 0.0 0.0 1.0
-107.911 72.62223333333333 1994.67 0.0 0.0 1.0
-104.12333333333333 63.72386666666667 1630.5199999999998 1.7351024061358713e-27 2.1124249729846985e-27 1.0
-103.978 81.01726666666667 1630.5199999999998 1.3490682924509775e-27 2.4285457214713234e-27 1.0
-102.81533333333334 86.97546666666666 1630.5199999999998 -5.50717929458759e-26 2.719552348021688e-27 1.0
-102.52466666666668 87.70210000000002 1630.5199999999998 -2.9746517190828283e-26 1.9655232524799406e-26 1.0
-102.234 97.87463333333334 1630.5199999999998 8.498796049851872e-27 2.8333652363310152e-27 1.0
-108.62233333333332 -146.4 1994.67 0.0 0.0 1.0
-107.73366666666668 -145.33333333333334 1994.67 0.0 0.0 1.0
-108.089 -128.44433333333333 1994.67 0.0 0.0 1.0
-108.8 -120.44433333333332 1994.67 0.0 0.0 1.0
-109.15566666666666 -107.46666666666668 1994.67 0.0 0.0 1.0
-107.55566666666668 -103.911 1994.67 0.0 0.0 1.0
-108.97766666666666 -91.28890000000001 1994.67 0.0 0.0 1.0
-108.26666666666667 -72.62223333333333 1994.67 0.0 0.0 1.0
-104.899 -46.1864 1724.5 0.0 0.0 1.0
-108.62233333333332 -29.244433333333333 1994.67 0.0 0.0 1.0
-108.267 -28.177766666666667 1994.67 0.0 0.0 1.0
-108.62233333333332 -27.111100000000004 1994.67 0.0 0.0 1.0
-108.62233333333332 -1.68889 1994.67 0.0 0.0 1.0
-108.62233333333332 -1.68889 1994.67 0.0 0.0 1.0
-108.44466666666666 8.444443333333334 1994.67 0.0 0.0 1.0
-102.41966666666667 14.195166666666665 1633.4866666666667 -0.7061792124437357 0.7060176523402218 0.05338533971369863
-102.44066666666667 14.936266666666668 1634.97 0.0 0.0 1.0
-102.271 21.758233333333333 1643.96 0.0 0.0 1.0
-104.32233333333333 23.956033333333334 1643.96 0.0 0.0 1.0
-103.978 37.56583333333333 1630.5199999999998 1.0711851792654733e-27 -6.671018666725218e-28 1.0
-104.18633333333334 56.88816666666667 1605.7266666666667 0.0 -0.9483306616545784 0.3172837155698188
-108.44466666666666 83.8222 1994.67 0.0 0.0 1.0
-108.44466666666666 83.8222 1994.67 0.0 0.0 1.0
-108.267 90.57776666666666 1994.67 0.0 0.0 1.0
-102.81533333333334 86.97546666666666 1630.5199999999998 -5.507179294587593e-26 2.719552348021704e-27 1.0
-108.62233333333334 132.0 1994.67 0.0 0.0 1.0
-108.8 133.2446666666667 1994.67 0.0 0.0 1.0
-109.867 136.26666666666668 1994.67 0.0 0.0 1.0
-103.106 114.005 1630.5199999999998 0.0 1.0 0.0
-109.15566666666666 -144.089 1994.67 0.0 0.0 1.0
-105.44099999999999 -112.56700000000001 1719.54 0.0 0.0 1.0
-105.44099999999999 -112.56700000000001 1719.54 0.0 0.0 1.0
-108.8 -120.44433333333332 1994.67 0.0 0.0 1.0
-108.8 -101.77766666666666 1994.67 0.0 0.0 1.0
-108.97766666666666 -95.91109999999999 1994.67 0.0 0.0 1.0
-109.68900000000001 -88.62223333333333 1994.67 0.0 0.0 1.0
-109.86666666666667 -83.28886666666666 1994.67 0.0 0.0 1.0
-107.73333333333335 -80.44446666666666 1994.67 0.0 0.0 1.0
-104.59166666666665 -51.719500000000004 1724.5 0.0 0.0 1.0
-104.28433333333334 -50.951 1724.5 0.0 0.0 1.0
-104.899 -46.1864 1724.5 0.0 0.0 1.0
-108.97766666666666 -22.3111 1994.67 0.0 0.0 1.0
-109.68900000000001 -15.199966666666667 1994.67 0.0 0.0 1.0
-107.91133333333333 10.755566666666667 1994.67 0.0 0.0 1.0
-108.62233333333332 34.9333 1994.67 0.0 0.0 1.0
-103.25133333333333 35.53133333333333 1630.5199999999998 -6.292997797190574e-28 -2.3089086571629526e-27 1.0
-109.51133333333333 63.91113333333333 1994.67 0.0 0.0 1.0
-104.12333333333333 66.19433333333333 1630.5199999999998 0.0 0.0 1.0
-108.44466666666666 83.8222 1994.67 0.0 0.0 1.0
-103.68733333333334 93.07903333333333 1630.5199999999998 -2.550301770822315e-25 -1.360353341103114e-25 1.0
-103.68733333333334 93.07903333333333 1630.5199999999998 -2.5503017708223095e-25 -1.3603533411031107e-25 1.0
-103.25133333333332 94.0963 1630.5199999999998 3.9333388176996505e-27 -2.8112770430680664e-28 1.0
-108.97766666666666 132.71133333333333 1994.67 0.0 0.0 1.0
-108.8 133.2446666666667 1994.67 0.0 0.0 1.0
-109.68900000000001 -147.111 1994.67 0.0 0.0 1.0
-108.26633333333332 -135.2 1994.67 0.0 0.0 1.0
-108.089 -128.44433333333333 1994.67 0.0 0.0 1.0
-108.8 -120.44433333333332 1994.67 0.0 0.0 1.0
-110.04433333333333 -110.31133333333332 1994.67 0.0 0.0 1.0
-109.51100000000001 -106.93333333333334 1994.67 0.0 0.0 1.0
-109.15533333333333 -100.17776666666667 1994.67 0.0 0.0 1.0
-108.79966666666667 -98.93333333333334 1994.67 0.0 0.0 1.0
-109.86666666666667 -85.60000000000001 1994.67 0.0 0.0 1.0
-109.51100000000001 -72.44446666666666 1994.67 0.0 0.0 1.0
-106.207 -53.409933333333335 1719.54 0.0 0.0 1.0
-104.899 -46.1864 1724.5 0.0 0.0 1.0
-108.26633333333332 -39.377766666666666 1994.67 0.0 0.0 1.0
-109.51100000000001 -31.2 1994.67 0.0 0.0 1.0
-108.97766666666666 -30.3111 1994.67 0.0 0.0 1.0
-108.97766666666666 -26.2222 1994.67 0.0 0.0 1.0
-108.79966666666667 -25.688866666666666 1994.67 0.0 0.0 1.0
-110.04433333333334 -18.755566666666667 1994.67 0.0 0.0 1.0
-108.26633333333332 -10.755533333333332 1994.67 0.0 0.0 1.0
-109.15566666666666 -2.0444466666666665 1994.67 0.0 0.0 1.0
-110.222 3.466666666666667 1994.67 0.0 0.0 1.0
-109.68866666666668 4.533333333333334 1994.67 0.0 0.0 1.0
-104.98633333333333 20.091333333333335 1639.45 0.0 0.0 1.0
-104.26866666666666 30.1544 1630.5199999999998 2.738464850237961e-26 -3.777387078833199e-27 1.0
-104.26866666666666 34.6594 1630.5199999999998 3.39958340041348e-26 -2.31378497212109e-26 1.0
-108.44433333333332 61.60003333333333 1994.67 0.0 0.0 1.0
-103.36500000000001 56.491366666666664 1598.5833333333333 1.855950595797276e-16 0.9998920274359134 0.014694674889186524
-109.51100000000001 72.9778 1994.67 0.0 0.0 1.0
-103.978 76.36693333333334 1630.5199999999998 1.5938898094427715e-27 6.375559237771086e-27 1.0
-104.85000000000001 79.56403333333333 1630.5199999999998 -5.664564026220898e-27 -2.6002128202089242e-30 1.0
-103.68733333333334 93.07903333333333 1630.5199999999998 -2.5503017708223137e-25 -1.3603533411031126e-25 1.0
-104.55933333333333 100.19953333333335 1630.5199999999998 -1.0619838617964816e-27 2.12543017554863e-27 1.0
-109.33333333333333 133.067 1994.67 0.0 0.0 1.0
-109.68900000000001 -119.02233333333334 1994.67 0.0 0.0 1.0
-109.867 -117.77766666666668 1994.67 0.0 0.0 1.0
-109.867 -117.77766666666666 1994.67 0.0 0.0 1.0
-110.22233333333334 -109.42199999999998 1994.67 0.0 0.0 1.0
-110.22233333333334 -108.35533333333332 1994.67 0.0 0.0 1.0
-109.68900000000001 -88.62223333333333 1994.67 0.0 0.0 1.0
-109.86666666666667 -83.28886666666666 1994.67 0.0 0.0 1.0
-105.385 -45.614466666666665 1726.1599999999999 0.673594627194734 -0.6734485429121005 0.3045280582540072
-110.04433333333334 -47.37776666666667 1994.67 0.0 0.0 1.0
-110.39999999999999 -31.733333333333334 1994.67 0.0 0.0 1.0
-110.39999999999999 -14.1333 1994.67 0.0 0.0 1.0
-110.40033333333334 -7.022223333333333 1994.67 0.0 0.0 1.0
-110.40033333333334 -7.022223333333334 1994.67 0.0 0.0 1.0
-109.15566666666666 -2.0444466666666665 1994.67 0.0 0.0 1.0
-108.44466666666666 8.444443333333334 1994.67 0.0 0.0 1.0
-104.32233333333333 23.956033333333334 1643.96 0.0 0.0 1.0
-104.55933333333333 29.863766666666667 1630.5199999999998 4.589100348104745e-27 -4.4195610725138775e-27 1.0
-104.26866666666666 30.735699999999998 1630.5199999999998 6.374097037388601e-26 2.5496388149554662e-26 1.0
-104.26866666666666 30.735699999999998 1630.5199999999998 6.374097037388596e-26 2.5496388149554628e-26 1.0
-109.33333333333333 62.66669999999999 1994.67 0.0 0.0 1.0
-109.51133333333333 63.91113333333333 1994.67 0.0 0.0 1.0
-103.36500000000001 56.491366666666664 1598.5833333333333 1.855950595797276e-16 0.9998920274359134 0.014694674889186524
-104.414 65.03176666666667 1630.5199999999998 -6.373512257844564e-26 5.099277629911405e-26 1.0
-104.12333333333333 66.19433333333333 1630.5199999999998 0.0 0.0 1.0
-110.04466666666667 90.04443333333334 1994.67 0.0 0.0 1.0
-110.04433333333333 133.067 1994.67 0.0 0.0 1.0
-110.40033333333334 134.13333333333333 1994.67 0.0 0.0 1.0
-104.99533333333333 113.71466666666667 1630.5199999999998 -1.8864530076211275e-27 1.2305328711702649e-26 1.0
-111.289 146.75566666666668 1994.67 0.0 0.0 1.0
-111.11133333333333 -143.91133333333332 1994.67 0.0 0.0 1.0
-107.35833333333333 -120.269 1724.5 0.0 0.0 1.0
-109.15533333333333 -135.911 1994.67 0.0 0.0 1.0
-111.111 -112.622 1994.67 0.0 0.0 1.0
-110.57766666666669 -89.68889999999999 1994.67 0.0 0.0 1.0
-110.57766666666669 -89.5111 1994.67 0.0 0.0 1.0
-110.75566666666667 -87.73333333333333 1994.67 0.0 0.0 1.0
-110.75533333333334 -77.24443333333333 1994.67 0.0 0.0 1.0
-110.40000000000002 -71.55556666666666 1994.67 0.0 0.0 1.0
-109.15533333333333 -39.9111 1994.67 0.0 0.0 1.0
-108.29266666666668 -33.5772 1824.39 0.0 0.0 1.0
-108.29266666666668 -33.5772 1824.39 0.0 0.0 1.0
-110.39999999999999 -21.777766666666665 1994.67 0.0 0.0 1.0
-110.04433333333334 -18.755566666666667 1994.67 0.0 0.0 1.0
-110.04433333333334 -18.755566666666667 1994.67 0.0 0.0 1.0
-109.68900000000001 -15.199966666666667 1994.67 0.0 0.0 1.0
-110.40000000000002 3.8222233333333335 1994.67 0.0 0.0 1.0
-105.938 16.976333333333333 1634.97 0.0 0.0 1.0
-104.98633333333333 20.091333333333335 1639.45 0.0 0.0 1.0
-104.32233333333333 23.956033333333334 1643.96 0.0 0.0 1.0
-110.75566666666668 33.86663333333333 1994.67 0.0 0.0 1.0
-109.86666666666667 34.39996666666667 1994.67 0.0 0.0 1.0
-105.86733333333332 41.7802 1630.5199999999998 3.305177608379903e-27 -2.3611738073840696e-27 1.0
-111.64466666666668 57.155566666666665 1994.67 0.0 0.0 1.0
-104.18633333333334 56.88816666666667 1605.7266666666667 0.0 -0.9483306616545784 0.3172837155698188
-104.84999999999998 91.4805 1630.5199999999998 6.609687361208991e-27 -4.248910638776094e-27 1.0
-104.55933333333333 98.60126666666667 1630.5199999999998 1.2578218153780804e-26 5.371239103506388e-26 1.0
-104.99533333333333 100.4902 1630.5199999999998 -3.1214459360066004e-27 2.5055464172738737e-27 1.0
-104.99533333333333 113.71466666666667 1630.5199999999998 -1.8864530076211275e-27 1.2305328711702649e-26 1.0
-104.12333333333333 116.621 1630.5199999999998 -2.528901820031277e-28 -6.440269968346379e-28 1.0
-110.93333333333334 -143.378 1994.67 0.0 0.0 1.0
-105.44099999999999 -112.56700000000001 1719.54 0.0 0.0 1.0
-110.222 -121.51100000000001 1994.67 0.0 0.0 1.0
-110.75533333333333 -120.089 1994.67 0.0 0.0 1.0
-110.933 -111.2 1994.67 0.0 0.0 1.0
-110.933 -111.2 1994.67 0.0 0.0 1.0
-110.933 -110.66666666666667 1994.67 0.0 0.0 1.0
-111.111 -110.13333333333333 1994.67 0.0 0.0 1.0
-110.57766666666667 -106.75533333333334 1994.67 0.0 0.0 1.0
-111.11099999999999 -95.73333333333333 1994.67 0.0 0.0 1.0
-110.75533333333334 -90.40003333333333 1994.67 0.0 0.0 1.0
-110.75533333333334 -89.68889999999999 1994.67 0.0 0.0 1.0
-110.75533333333334 -89.5111 1994.67 0.0 0.0 1.0
-109.86666666666667 -83.28886666666666 1994.67 0.0 0.0 1.0
-111.111 -77.95556666666667 1994.67 0.0 0.0 1.0
-110.75533333333334 -77.24443333333333 1994.67 0.0 0.0 1.0
-110.57766666666667 -72.26666666666667 1994.67 0.0 0.0 1.0
-106.97333333333334 -53.5632 1719.54 0.0 0.0 1.0
-106.97333333333334 -53.5632 1719.54 0.0 0.0 1.0
-106.58999999999999 -51.8732 1724.5 0.0 0.0 1.0
-112.17766666666667 -44.35556666666667 1994.67 0.0 0.0 1.0
-110.57766666666667 -29.600000000000005 1994.67 0.0 0.0 1.0
-108.61766666666666 -21.0569 1824.39 0.0 0.0 1.0
-111.64433333333334 -12.711100000000002 1994.67 0.0 0.0 1.0
-110.57766666666667 3.1111133333333334 1994.67 0.0 0.0 1.0
-105.863 18.776233333333334 1639.45 0.0 0.0 1.0
-110.93333333333334 32.79996666666667 1994.67 0.0 0.0 1.0
-105.14066666666666 29.718466666666668 1630.5199999999998 3.3995184199408514e-26 8.498796049852101e-26 1.0
-105.57666666666665 32.62486666666667 1630.5199999999998 9.585016858670845e-26 -1.794378002421348e-26 1.0
-105.57666666666665 37.56583333333333 1630.5199999999998 1.2746537288817343e-25 -3.824068369403582e-26 1.0
-105.286 64.5958 1630.5199999999998 5.100213405957105e-28 -2.0400853623828753e-27 1.0
-104.85000000000001 79.56403333333333 1630.5199999999998 -5.6645640262208954e-27 -2.6002128202154214e-30 1.0
-104.85000000000001 79.56403333333333 1630.5199999999998 -5.664564026220898e-27 -2.6002128202089242e-30 1.0
-106.15800000000002 81.59856666666667 1630.5199999999998 -6.374097037388869e-27 2.549638814955631e-26 1.0
-112.88866666666667 101.24466666666666 1994.67 0.0 0.0 1.0
-105.86733333333332 87.99273333333333 1630.5199999999998 7.304726896049907e-27 -2.808171692987379e-28 1.0
-105.286 95.84016666666666 1630.5199999999998 -1.2750387333428316e-26 -2.5502236951085535e-26 1.0
-106.594 104.70466666666665 1630.5199999999998 1.5637784731721655e-24 -1.988718275664601e-24 1.0
-110.75566666666667 133.42233333333334 1994.67 0.0 0.0 1.0
-111.28899999999999 -146.9333333333333 1994.67 0.0 0.0 1.0
-111.11133333333333 -143.91133333333332 1994.67 0.0 0.0 1.0
-111.289 -143.378 1994.67 0.0 0.0 1.0
-107.81966666666666 -117.656 1724.5 0.0 0.0 1.0
-111.111 -110.13333333333333 1994.67 0.0 0.0 1.0
-111.82233333333333 -106.57766666666667 1994.67 0.0 0.0 1.0
-112.00033333333333 -105.86666666666667 1994.67 0.0 0.0 1.0
-111.82233333333333 -78.31113333333333 1994.67 0.0 0.0 1.0
-111.111 -74.57776666666666 1994.67 0.0 0.0 1.0
-110.93333333333334 -71.73333333333333 1994.67 0.0 0.0 1.0
-111.82233333333333 -29.244466666666668 1994.67 0.0 0.0 1.0
-108.61766666666666 -21.0569 1824.39 0.0 0.0 1.0
-108.61766666666666 -21.0569 1824.39 0.0 0.0 1.0
-111.64433333333334 -13.066666666666668 1994.67 0.0 0.0 1.0
-110.40033333333334 -7.022223333333334 1994.67 0.0 0.0 1.0
-111.46666666666665 3.466666666666667 1994.67 0.0 0.0 1.0
-106.22933333333333 14.936266666666667 1634.97 0.0 0.0 1.0
-106.22933333333333 15.2277 1634.97 0.0 0.0 1.0
-105.42466666666667 19.506833333333333 1639.45 0.0 0.0 1.0
-110.93333333333334 32.79996666666667 1994.67 0.0 0.0 1.0
-105.14066666666666 29.718466666666668 1630.5199999999998 3.3995184199408514e-26 8.498796049852101e-26 1.0
-105.286 31.898266666666668 1630.5199999999998 -5.455696335778654e-27 -3.147750359648597e-27 1.0
-105.57666666666665 32.62486666666667 1630.5199999999998 9.585016858670845e-26 -1.794378002421348e-26 1.0
-106.01266666666665 36.11260000000001 1630.5199999999998 1.8413949840346167e-26 2.8340150907429635e-27 1.0
-106.01266666666668 37.129866666666665 1630.5199999999998 -2.5496388149555477e-26 1.2748194074777739e-26 1.0
-105.57666666666665 37.56583333333333 1630.5199999999998 1.274653728881735e-25 -3.824068369403584e-26 1.0
-105.86733333333332 42.5068 1630.5199999999998 1.4022282423987834e-25 1.7423604014783702e-25 1.0
-111.64466666666668 57.155566666666665 1994.67 0.0 0.0 1.0
-104.18633333333334 56.88816666666667 1605.7266666666667 0.0 -0.9483306616545784 0.3172837155698188
-112.71133333333334 73.15556666666667 1994.67 0.0 0.0 1.0
-105.86733333333332 76.0763 1630.5199999999998 5.099277629910943e-26 8.498796049852103e-27 1.0
-105.86733333333332 76.07629999999999 1630.5199999999998 5.0992776299109014e-26 -1.699759209970337e-26 1.0
-106.01266666666668 86.53950000000002 1630.5199999999998 -1.912229111216633e-26 3.399518419940709e-26 1.0
-106.01266666666668 86.53950000000002 1630.5199999999998 -1.912229111216633e-26 3.399518419940709e-26 1.0
-110.22233333333334 131.289 1994.67 0.0 0.0 1.0
-111.46666666666665 134.311 1994.67 0.0 0.0 1.0
-111.11133333333333 135.911 1994.67 0.0 0.0 1.0
-105.43133333333333 113.13366666666667 1630.5199999999998 -1.2196890431171298e-30 2.127137691186207e-27 1.0
-104.99533333333333 113.71466666666667 1630.5199999999998 -1.8864530076211275e-27 1.2305328711702649e-26 1.0
-108.127 -118.73200000000001 1724.5 0.0 0.0 1.0
-107.96566666666666 -112.39733333333334 1714.61 0.0 0.0 1.0
-112.35533333333332 -119.73333333333333 1994.67 0.0 0.0 1.0
-111.111 -112.622 1994.67 0.0 0.0 1.0
-111.82233333333333 -87.91109999999999 1994.67 0.0 0.0 1.0
-107.586 -57.0881 1719.54 0.0 0.0 1.0
-107.586 -57.0881 1719.54 0.0 0.0 1.0
-107.586 -56.32183333333333 1719.54 0.0 0.0 1.0
-107.89266666666667 -55.862066666666664 1719.54 0.0 0.0 1.0
-106.97333333333331 -53.5632 1719.54 0.0 0.0 1.0
-107.051 -47.262233333333334 1724.5 0.0 0.0 1.0
-108.29266666666668 -33.5772 1824.39 0.0 0.0 1.0
-111.11133333333333 -31.2 1994.67 0.0 0.0 1.0
-112.17766666666667 -20.355566666666665 1994.67 0.0 0.0 1.0
-111.46666666666668 -10.222213333333332 1994.67 0.0 0.0 1.0
-111.28899999999999 4.1777766666666665 1994.67 0.0 0.0 1.0
-107.61633333333333 5.917806666666666 1639.45 0.0 0.0 1.0
-106.15533333333333 18.3379 1639.45 0.0 0.0 1.0
-106.08066666666667 21.904766666666664 1643.96 0.0 0.0 1.0
-113.42233333333333 27.8222 1994.67 0.0 0.0 1.0
-112.88900000000001 65.51113333333332 1994.67 0.0 0.0 1.0
-106.15800000000002 64.0145 1630.5199999999998 -6.629107707686728e-27 1.0200426811914312e-27 1.0
-112.88900000000001 84.00003333333333 1994.67 0.0 0.0 1.0
-112.88900000000001 89.33333333333333 1994.67 0.0 0.0 1.0
-105.86733333333332 76.07629999999999 1630.5199999999998 5.0992776299109014e-26 -1.6997592099703376e-26 1.0
-106.158 81.59856666666667 1630.5199999999998 0.0 2.549638814955631e-26 1.0
-106.158 90.3179 1630.5199999999998 -3.777242688822982e-27 4.249641697041511e-27 1.0
-106.01266666666668 98.89193333333333 1630.5199999999998 -1.699759209970368e-26 -3.399518419940751e-26 1.0
-111.64466666666665 135.55533333333335 1994.67 0.0 0.0 1.0
-105.43133333333333 114.44099999999999 1630.5199999999998 -2.518161792548704e-27 -7.764332193691738e-27 1.0
-112.17766666666667 146.75566666666668 1994.67 0.0 0.0 1.0
-112.17766666666667 146.75566666666668 1994.67 0.0 0.0 1.0
-108.127 -118.73200000000001 1724.5 0.0 0.0 1.0
-108.42399999999999 -111.02199999999999 1714.61 0.0 0.0 1.0
-113.59966666666666 -124.889 1994.67 0.0 0.0 1.0
-113.42200000000001 -101.77799999999998 1994.67 0.0 0.0 1.0
-113.42200000000001 -101.77799999999998 1994.67 0.0 0.0 1.0
-111.46633333333334 -90.75556666666667 1994.67 0.0 0.0 1.0
-108.28066666666666 -52.02689999999999 1724.5 0.0 0.0 1.0
-108.74166666666667 -47.7233 1724.5 0.0 0.0 1.0
-112.88866666666667 -48.26666666666667 1994.67 0.0 0.0 1.0
-112.88866666666667 -48.26666666666667 1994.67 0.0 0.0 1.0
-112.17766666666667 -44.35556666666667 1994.67 0.0 0.0 1.0
-111.64433333333334 -26.399966666666668 1994.67 0.0 0.0 1.0
-112.17766666666667 -13.066666666666668 1994.67 0.0 0.0 1.0
-112.17766666666667 -13.066666666666668 1994.67 0.0 0.0 1.0
-106.15533333333333 18.3379 1639.45 0.0 0.0 1.0
-106.08066666666667 21.904766666666664 1643.96 0.0 0.0 1.0
-111.46666666666665 34.57776666666667 1994.67 0.0 0.0 1.0
-106.30333333333333 36.1126 1630.5199999999998 0.0 0.0 1.0
-106.30333333333333 36.548566666666666 1630.5199999999998 0.0 0.0 1.0
-108.05666666666666 57.7047 1416.9433333333334 0.8787442511916044 -0.10749592155436 0.46503028702105575
-106.44866666666667 66.33966666666667 1630.5199999999998 -8.671462788562513e-25 -1.5303682563467818e-25 1.0
-105.86733333333332 67.21159999999999 1630.5199999999998 9.520211345698868e-27 -7.482216398413106e-26 1.0
-112.88866666666667 101.24466666666666 1994.67 0.0 0.0 1.0
-106.01266666666665 86.53949999999999 1630.5199999999998 1.912229111216647e-26 -1.6997592099703442e-26 1.0
-106.44866666666667 88.71933333333334 1630.5199999999998 4.264960753733371e-31 8.501172223305537e-27 1.0
-112.17766666666667 146.75566666666668 1994.67 0.0 0.0 1.0
-113.24466666666666 -146.2223333333333 1994.67 0.0 0.0 1.0
-108.127 -118.73199999999999 1724.5 0.0 0.0 1.0
-106.66699999999999 -113.94633333333333 1719.54 0.0 0.0 1.0
-108.42399999999999 -113.92566666666666 1714.61 0.0 0.0 1.0
-113.42233333333333 -116.35533333333335 1994.67 0.0 0.0 1.0
-113.067 -116.0 1994.67 0.0 0.0 1.0
-113.067 -116.0 1994.67 0.0 0.0 1.0
-113.60033333333332 -108.889 1994.67 0.0 0.0 1.0
-113.24466666666666 -108.35566666666666 1994.67 0.0 0.0 1.0
-113.59999999999998 -106.04466666666667 1994.67 0.0 0.0 1.0
-113.59999999999998 -88.44443333333334 1994.67 0.0 0.0 1.0
-113.59999999999998 -78.66666666666667 1994.67 0.0 0.0 1.0
-108.35266666666666 -56.16856666666666 1719.54 0.0 0.0 1.0
-112.17766666666667 -44.35556666666667 1994.67 0.0 0.0 1.0
-114.13333333333333 -34.04443333333334 1994.67 0.0 0.0 1.0
-113.42233333333333 -29.066666666666666 1994.67 0.0 0.0 1.0
-113.42233333333333 -29.066666666666666 1994.67 0.0 0.0 1.0
-107.978 8.23315 1634.97 0.0 0.0 1.0
-107.24966666666666 14.936233333333334 1634.97 0.0 0.0 1.0
-107.24966666666667 14.936233333333334 1634.97 0.0 0.0 1.0
-106.66666666666667 16.247733333333333 1634.97 0.0 0.0 1.0
-113.42233333333333 27.8222 1994.67 0.0 0.0 1.0
-113.06700000000001 32.266666666666666 1994.67 0.0 0.0 1.0
-107.466 41.344233333333335 1630.5199999999998 1.4743201644593826e-26 4.16325535485509e-27 1.0
-106.88466666666666 42.79743333333334 1630.5199999999998 1.6997981997446437e-27 6.800557526043066e-27 1.0
-113.06700000000001 57.5111 1994.67 0.0 0.0 1.0
-112.88900000000001 65.51113333333332 1994.67 0.0 0.0 1.0
-112.71133333333331 73.15556666666667 1994.67 0.0 0.0 1.0
-107.17533333333334 63.72386666666667 1630.5199999999998 -2.809488928298828e-26 3.330120029327451e-26 1.0
-112.889 84.00003333333333 1994.67 0.0 0.0 1.0
-113.42233333333331 89.86666666666667 1994.67 0.0 0.0 1.0
-107.03000000000002 75.3497 1630.5199999999998 -1.0200895048805017e-25 1.275228873904372e-25 1.0
-106.158 81.59856666666667 1630.5199999999998 5.364632726555318e-44 2.549638814955631e-26 1.0
-107.466 97.43873333333335 1630.5199999999998 6.799296761772784e-26 3.966581359980733e-26 1.0
-106.88466666666666 98.74663333333332 1630.5199999999998 1.9831390522626168e-26 -1.88886683392649e-26 1.0
-107.61133333333332 104.12333333333333 1630.5199999999998 4.165680264639331e-40 2.549638814955381e-26 1.0
-114.48866666666667 -141.422 1994.67 0.0 0.0 1.0
-113.06666666666666 -134.84466666666665 1994.67 0.0 0.0 1.0
-113.95533333333333 -122.93333333333334 1994.67 0.0 0.0 1.0
-113.24466666666666 -108.35566666666666 1994.67 0.0 0.0 1.0
-114.31099999999999 -95.73333333333333 1994.67 0.0 0.0 1.0
-113.42200000000001 -92.71109999999999 1994.67 0.0 0.0 1.0
-113.59999999999998 -88.44443333333334 1994.67 0.0 0.0 1.0
-114.13333333333333 -86.66666666666667 1994.67 0.0 0.0 1.0
-113.95533333333333 -79.37776666666667 1994.67 0.0 0.0 1.0
-109.43733333333334 -62.001133333333335 1711.3433333333332 -0.9570106024426819 0.28701525483417023 -0.041868249363591376
-108.35266666666666 -56.16856666666666 1719.54 0.0 0.0 1.0
-112.88866666666667 -48.26666666666667 1994.67 0.0 0.0 1.0
-111.21966666666667 -36.1789 1824.39 0.0 0.0 1.0
-113.95566666666666 -4.355556666666667 1994.67 0.0 0.0 1.0
-113.59999999999998 -3.6444433333333337 1994.67 0.0 0.0 1.0
-113.59999999999998 -2.755556666666667 1994.67 0.0 0.0 1.0
-113.59999999999998 -2.755556666666667 1994.67 0.0 0.0 1.0
-107.61633333333333 5.917806666666666 1639.45 0.0 0.0 1.0
-107.24966666666666 14.936233333333334 1634.97 0.0 0.0 1.0
-106.73966666666666 19.360733333333332 1639.45 0.0 0.0 1.0
-108.04733333333333 30.299733333333336 1630.5199999999998 3.5695021440801345e-27 3.3988944189819386e-28 1.0
-107.466 41.344233333333335 1630.5199999999998 1.4743201644593826e-26 4.16325535485509e-27 1.0
-112.889 65.51113333333332 1994.67 0.0 0.0 1.0
-112.889 66.40003333333333 1994.67 0.0 0.0 1.0
-112.71133333333331 73.15556666666667 1994.67 0.0 0.0 1.0
-112.889 84.00003333333333 1994.67 0.0 0.0 1.0
-114.31099999999999 87.73333333333333 1994.67 0.0 0.0 1.0
-113.42233333333331 88.62223333333333 1994.67 0.0 0.0 1.0
-113.95566666666666 90.22223333333334 1994.67 0.0 0.0 1.0
-106.73933333333333 89.44596666666666 1630.5199999999998 -4.856534455293834e-27 1.2142529692974753e-27 1.0
-107.46600000000001 98.31066666666668 1630.5199999999998 -1.019881518171345e-25 5.666470530896909e-26 1.0
-107.61133333333332 104.12333333333333 1630.5199999999998 4.165680264639331e-40 2.549638814955381e-26 1.0
-114.48866666666667 -141.422 1994.67 0.0 0.0 1.0
-109.34100000000001 -114.99533333333333 1714.61 0.0 0.0 1.0
-109.64633333333332 -108.577 1714.61 0.0 0.0 1.0
-113.59966666666666 -124.889 1994.67 0.0 0.0 1.0
-114.66633333333334 -124.53333333333335 1994.67 0.0 0.0 1.0
-113.95533333333333 -122.93333333333334 1994.67 0.0 0.0 1.0
-113.77766666666666 -118.66666666666667 1994.67 0.0 0.0 1.0
-113.42233333333333 -116.35533333333335 1994.67 0.0 0.0 1.0
-114.13333333333333 -104.44466666666666 1994.67 0.0 0.0 1.0
-114.31099999999999 -95.73333333333333 1994.67 0.0 0.0 1.0
-114.31099999999999 -94.13333333333333 1994.67 0.0 0.0 1.0
-114.13333333333333 -87.91109999999999 1994.67 0.0 0.0 1.0
-113.95533333333333 -79.37776666666667 1994.67 0.0 0.0 1.0
-113.95533333333333 -79.37776666666667 1994.67 0.0 0.0 1.0
-110.17133333333334 -65.29523333333333 1709.71 0.0 0.0 1.0
-110.56366666666666 -60.89776666666666 1714.61 0.0 0.0 1.0
-110.03833333333334 -53.5632 1719.54 0.0 0.0 1.0
-111.545 -37.4797 1824.39 0.0 0.0 1.0
-111.21966666666667 -36.178900000000006 1824.39 0.0 0.0 1.0
-113.42233333333333 -29.066666666666666 1994.67 0.0 0.0 1.0
-114.31099999999999 -21.422233333333335 1994.67 0.0 0.0 1.0
-112.88866666666667 0.4444433333333333 1994.67 0.0 0.0 1.0
-107.978 8.23315 1634.97 0.0 0.0 1.0
-108.48333333333333 10.099886666666666 1630.5199999999998 -5.312478606194936e-28 -4.250567825482386e-27 1.0
-108.48333333333333 10.099886666666666 1630.5199999999998 -5.312478606194936e-28 -4.250567825482386e-27 1.0
-109.06466666666667 12.425066666666666 1630.5199999999998 6.092850953514555e-32 -2.1251864125903798e-27 1.0
-108.04733333333333 30.299733333333336 1630.5199999999998 3.569502144080134e-27 3.3988944189819395e-28 1.0
-107.75666666666666 36.11260000000001 1630.5199999999998 4.7058731464770265e-27 9.834322485913873e-27 1.0
-107.902 42.94276666666667 1630.5199999999998 -2.83271538191893e-27 1.133346094532363e-26 1.0
-107.902 75.05906666666668 1630.5199999999998 0.0 5.099277629910929e-26 1.0
-107.902 75.64033333333333 1630.5199999999998 -2.8327153819188363e-27 -1.1333460945323629e-26 1.0
-108.04733333333333 98.02 1630.5199999999998 -5.1012273422419307e-26 -1.5306802818851557e-25 1.0
-115.73366666666668 -137.689 1994.67 0.0 0.0 1.0
-109.64633333333332 -108.577 1714.61 0.0 0.0 1.0
-109.79933333333332 -107.96566666666666 1714.61 0.0 0.0 1.0
-114.84466666666667 -112.26666666666667 1994.67 0.0 0.0 1.0
-114.84466666666667 -112.26666666666667 1994.67 0.0 0.0 1.0
-113.60033333333332 -108.889 1994.67 0.0 0.0 1.0
-114.13333333333333 -87.91109999999999 1994.67 0.0 0.0 1.0
-110.17133333333334 -68.8 1709.71 0.0 0.0 1.0
-111.508 -58.174800000000005 1724.5 0.0 0.0 1.0
-110.03833333333334 -53.5632 1719.54 0.0 0.0 1.0
-109.81733333333334 -51.719500000000004 1724.5 0.0 0.0 1.0
-109.51 -46.95483333333333 1724.5 0.0 0.0 1.0
-115.2 -50.93333333333334 1994.67 0.0 0.0 1.0
-111.21966666666667 -36.178900000000006 1824.39 0.0 0.0 1.0
-115.378 -17.511100000000003 1994.67 0.0 0.0 1.0
-114.48899999999999 -4.711110000000001 1994.67 0.0 0.0 1.0
-114.48899999999999 32.26666666666667 1994.67 0.0 0.0 1.0
-115.2 57.86666666666667 1994.67 0.0 0.0 1.0
-115.2 58.93333333333334 1994.67 0.0 0.0 1.0
-110.90266666666666 55.8747 1569.24 -0.7232453780685458 -0.48231706734158913 0.49425334561689643
-108.48333333333333 63.433233333333334 1630.5199999999998 -1.0199491123525518e-27 -2.0403271649936395e-27 1.0
-109.581 80.51 1634.97 0.0 0.0 1.0
-108.33799999999998 103.83266666666667 1630.5199999999998 -4.12744313193869e-40 2.5496388149557546e-26 1.0
-108.774 104.85000000000001 1630.5199999999998 0.0 5.6658640332344895e-27 1.0
-115.73333333333333 -145.51133333333334 1994.67 0.0 0.0 1.0
-115.73333333333333 -144.44466666666668 1994.67 0.0 0.0 1.0
-110.41066666666666 -115.60666666666667 1714.61 0.0 0.0 1.0
-109.79933333333334 -107.96566666666668 1714.61 0.0 0.0 1.0
-114.13333333333333 -116.711 1994.67 0.0 0.0 1.0
-114.84466666666667 -112.26666666666667 1994.67 0.0 0.0 1.0
-113.95533333333333 -103.02233333333334 1994.67 0.0 0.0 1.0
-114.48866666666667 -95.0222 1994.67 0.0 0.0 1.0
-110.93333333333334 -70.62856666666667 1709.71 0.0 0.0 1.0
-110.17133333333334 -68.8 1709.71 0.0 0.0 1.0
-110.17133333333334 -65.29523333333333 1709.71 0.0 0.0 1.0
-110.27866666666667 -48.184400000000004 1724.5 0.0 0.0 1.0
-115.37766666666666 -52.355533333333334 1994.67 0.0 0.0 1.0
-115.37766666666668 -52.355533333333334 1994.67 0.0 0.0 1.0
-114.84433333333334 -48.80003333333334 1994.67 0.0 0.0 1.0
-111.70733333333332 -37.4797 1824.39 0.0 0.0 1.0
-115.378 -17.511100000000003 1994.67 0.0 0.0 1.0
-115.911 -12.1778 1994.67 0.0 0.0 1.0
-114.48899999999999 -4.711110000000001 1994.67 0.0 0.0 1.0
-109.51633333333332 3.4337933333333335 1639.45 0.0 0.0 1.0
-109.51633333333332 3.4337933333333335 1639.45 0.0 0.0 1.0
-109.07766666666667 6.063926666666667 1639.45 0.0 0.0 1.0
-107.978 8.23315 1634.97 0.0 0.0 1.0
-113.42233333333333 27.8222 1994.67 0.0 0.0 1.0
-111.706 23.373566666666665 1654.5666666666666 0.39433390817538083 -0.887251293394605 0.2393447539277408
-108.04733333333333 30.299733333333336 1630.5199999999998 3.569502144080134e-27 3.3988944189819395e-28 1.0
-109.06466666666665 36.257933333333334 1630.5199999999998 3.6425798888591896e-27 3.643176692629472e-27 1.0
-107.902 42.94276666666667 1630.5199999999998 -2.8327153819189285e-27 1.1333460945323628e-26 1.0
-115.55533333333334 58.4 1994.67 0.0 0.0 1.0
-115.02233333333334 90.57776666666666 1994.67 0.0 0.0 1.0
-108.91933333333333 75.64033333333333 1630.5199999999998 5.099667572377657e-26 1.7001491524367035e-26 1.0
-108.91933333333333 75.64033333333333 1630.5199999999998 5.099667572377654e-26 1.700149152436701e-26 1.0
-114.48866666666667 101.24466666666666 1994.67 0.0 0.0 1.0
-115.2 103.378 1994.67 0.0 0.0 1.0
-115.2 103.378 1994.67 0.0 0.0 1.0
-109.06466666666667 94.24159999999999 1630.5199999999998 -3.3990505462285008e-28 -1.3599321295302713e-27 1.0
-109.06466666666667 95.25886666666668 1630.5199999999998 -3.825189314239823e-26 2.550223695108475e-26 1.0
-108.91933333333333 95.9855 1630.5199999999998 7.649598788276027e-26 2.5501262094932552e-26 1.0
-108.48333333333333 98.45596666666667 1630.5199999999998 8.497821417277205e-27 8.49879604985183e-27 1.0
-109.06466666666667 99.03723333333333 1630.5199999999998 8.49782141727734e-27 8.498796049851827e-27 1.0
-109.06466666666665 102.81533333333334 1630.5199999999998 1.1218410785804304e-24 3.0595665779465784e-25 1.0
-109.21 114.58633333333334 1630.5199999999998 8.498796049851549e-27 5.099277629911248e-26 1.0
-109.06466666666665 116.621 1630.5199999999998 5.099277629911248e-26 -8.498796049851552e-27 1.0
-113.24433333333333 146.4 1994.67 0.0 0.0 1.0
-114.48866666666667 -141.422 1994.67 0.0 0.0 1.0
-110.71600000000001 -110.56333333333333 1714.61 0.0 0.0 1.0
-115.19966666666666 -124.71133333333334 1994.67 0.0 0.0 1.0
-115.19966666666666 -124.53333333333335 1994.67 0.0 0.0 1.0
-110.25766666666668 -106.59033333333333 1714.61 0.0 0.0 1.0
-115.02199999999999 -116.17766666666667 1994.67 0.0 0.0 1.0
-111.08600000000001 -97.29523333333333 1709.71 0.0 0.0 1.0
-111.20800000000001 -91.57096666666666 1708.0866666666668 -0.9527819186210421 0.15875066968419588 0.25885293203598314
-115.911 -97.6889 1994.67 0.0 0.0 1.0
-110.17133333333334 -68.8 1709.71 0.0 0.0 1.0
-111.508 -58.174800000000005 1724.5 0.0 0.0 1.0
-110.49833333333333 -53.71646666666667 1719.54 0.0 0.0 1.0
-110.49833333333333 -53.71646666666667 1719.54 0.0 0.0 1.0
-115.37766666666666 -52.355533333333334 1994.67 0.0 0.0 1.0
-115.55566666666668 -50.57776666666667 1994.67 0.0 0.0 1.0
-115.2 -27.111099999999997 1994.67 0.0 0.0 1.0
-116.44433333333335 -15.3778 1994.67 0.0 0.0 1.0
-116.08866666666665 -11.2889 1994.67 0.0 0.0 1.0
-109.43533333333335 14.3534 1634.97 0.0 0.0 1.0
-115.73333333333335 32.44443333333333 1994.67 0.0 0.0 1.0
-115.73333333333333 58.044466666666665 1994.67 0.0 0.0 1.0
-115.55533333333334 58.400000000000006 1994.67 0.0 0.0 1.0
-116.97766666666666 61.24446666666666 1994.67 0.0 0.0 1.0
-116.089 74.57776666666666 1994.67 0.0 0.0 1.0
-109.62866666666666 65.94720000000001 1546.28 -0.6450627619564666 -0.7528284619590029 0.1309325780756533
-115.37766666666668 86.84443333333333 1994.67 0.0 0.0 1.0
-108.91933333333333 75.64033333333333 1630.5199999999998 5.099667572377654e-26 1.700149152436701e-26 1.0
-116.44433333333332 101.067 1994.67 0.0 0.0 1.0
-108.91933333333333 95.9855 1630.5199999999998 7.649598788276027e-26 2.5501262094932552e-26 1.0
-109.35533333333332 103.39666666666666 1630.5199999999998 5.0992776299109307e-26 6.94620585601157e-42 1.0
-109.35533333333332 103.39666666666666 1630.5199999999998 5.0992776299109307e-26 6.94620585601157e-42 1.0
-116.622 132.0 1994.67 0.0 0.0 1.0
-109.21 114.73166666666667 1630.5199999999998 8.498796049851608e-26 1.5297832889733183e-25 1.0
-109.21 116.18499999999999 1630.5199999999998 -9.832328154607415e-11 9.832328154607415e-11 1.0
-109.06466666666665 116.621 1630.5199999999998 5.099277629911248e-26 -8.498796049851547e-27 1.0
-115.73366666666668 -137.689 1994.67 0.0 0.0 1.0
-116.267 -137.15566666666666 1994.67 0.0 0.0 1.0
-116.267 -137.15566666666666 1994.67 0.0 0.0 1.0
-114.84433333333332 -120.44466666666666 1994.67 0.0 0.0 1.0
-111.086 -99.42863333333334 1709.71 0.0 0.0 1.0
-111.086 -99.42863333333334 1709.71 0.0 0.0 1.0
-111.39066666666668 -98.3619 1709.71 0.0 0.0 1.0
-111.08600000000001 -97.29523333333333 1709.71 0.0 0.0 1.0
-110.93366666666667 -93.63810000000001 1709.71 0.0 0.0 1.0
-111.543 -74.74286666666667 1709.71 0.0 0.0 1.0
-111.23833333333334 -74.59046666666667 1709.71 0.0 0.0 1.0
-111.69533333333334 -73.37143333333333 1709.71 0.0 0.0 1.0
-111.69533333333334 -66.66666666666667 1709.71 0.0 0.0 1.0
-111.32766666666667 -62.12033333333333 1714.61 0.0 0.0 1.0
-110.56366666666666 -60.897766666666676 1714.61 0.0 0.0 1.0
-111.20066666666666 -50.79730000000001 1724.5 0.0 0.0 1.0
-115.73333333333333 -50.93333333333334 1994.67 0.0 0.0 1.0
-113.82100000000001 -35.5285 1824.39 0.0 0.0 1.0
-113.496 -28.0488 1824.39 0.0 0.0 1.0
-113.496 -28.0488 1824.39 0.0 0.0 1.0
-113.171 -26.9106 1824.39 0.0 0.0 1.0
-116.26666666666665 -17.333333333333332 1994.67 0.0 0.0 1.0
-109.06466666666667 9.809253333333332 1630.5199999999998 1.2185701906575303e-32 -2.1251864125903798e-27 1.0
-109.646 10.535866666666667 1630.5199999999998 1.0 0.0 0.0
-109.79133333333334 12.279733333333334 1630.5199999999998 -6.905283974809295e-26 1.8062134794713376e-26 1.0
-109.79133333333334 12.279733333333334 1630.5199999999998 -6.905283974809295e-26 1.8062134794713376e-26 1.0
-108.05466666666666 18.9224 1639.45 0.0 0.0 1.0
-109.35533333333335 31.4623 1630.5199999999998 -1.2534530282158687e-25 -5.311455141385086e-26 1.0
-109.35533333333335 31.4623 1630.5199999999998 -1.2534530282158687e-25 -5.311455141385086e-26 1.0
-115.911 58.22223333333333 1994.67 0.0 0.0 1.0
-116.089 74.57776666666666 1994.67 0.0 0.0 1.0
-116.089 74.57776666666666 1994.67 0.0 0.0 1.0
-116.44466666666666 90.57776666666666 1994.67 0.0 0.0 1.0
-109.581 80.50999999999999 1634.97 0.0 0.0 1.0
-109.06466666666667 94.2416 1630.5199999999998 6.798101092456999e-28 2.7198642590605427e-27 1.0
-109.79133333333334 99.76369999999999 1630.5199999999998 -1.2610492249845556e-24 -2.0800133547445666e-24 1.0
-109.35533333333332 103.39666666666666 1630.5199999999998 5.0992776299109307e-26 6.94620585601157e-42 1.0
-109.21 104.70466666666668 1630.5199999999998 -4.721553361028977e-28 4.9576310290802395e-27 1.0
-109.646 114.44099999999999 1630.5199999999998 1.0 0.0 0.0
-109.646 114.44099999999999 1630.5199999999998 1.0 0.0 0.0
-109.50066666666667 114.73166666666667 1630.5199999999998 -8.498796049851602e-26 6.799036839881573e-26 1.0
-109.50066666666667 115.60366666666665 1630.5199999999998 -8.498796049851573e-26 1.6997592099703376e-26 1.0
-115.73333333333333 -145.51133333333334 1994.67 0.0 0.0 1.0
-116.62233333333334 -143.73333333333332 1994.67 0.0 0.0 1.0
-110.41066666666666 -115.60666666666667 1714.61 0.0 0.0 1.0
-110.71600000000001 -110.56333333333333 1714.61 0.0 0.0 1.0
-112.762 -108.72366666666666 1709.71 0.0 0.0 1.0
-111.39066666666668 -98.3619 1709.71 0.0 0.0 1.0
-111.39066666666668 -98.3619 1709.71 0.0 0.0 1.0
-116.8 -91.11110000000001 1994.67 0.0 0.0 1.0
-116.8 -91.11110000000001 1994.67 0.0 0.0 1.0
-116.8 -91.11110000000001 1994.67 0.0 0.0 1.0
-111.69533333333334 -73.37143333333333 1709.71 0.0 0.0 1.0
-113.24466666666666 -73.15553333333332 1994.67 0.0 0.0 1.0
-116.97766666666666 -25.6889 1994.67 0.0 0.0 1.0
-117.68900000000001 -23.200033333333334 1994.67 0.0 0.0 1.0
-116.622 -16.0889 1994.67 0.0 0.0 1.0
-116.44433333333335 -14.311133333333336 1994.67 0.0 0.0 1.0
-117.33333333333333 -13.955566666666668 1994.67 0.0 0.0 1.0
-109.79133333333334 12.279733333333334 1630.5199999999998 -6.905283974809295e-26 1.8062134794713376e-26 1.0
-110.60133333333334 15.810566666666668 1634.97 0.0 0.0 1.0
-115.73333333333335 32.44443333333333 1994.67 0.0 0.0 1.0
-116.44433333333335 33.86666666666667 1994.67 0.0 0.0 1.0
-110.51799999999999 34.950066666666665 1630.5199999999998 6.799036839881253e-26 -1.0198555259821827e-25 1.0
-110.082 42.65213333333333 1630.5199999999998 8.28671324625602e-28 -6.939952587053972e-28 1.0
-109.50066666666665 62.99726666666667 1630.5199999999998 4.780572783281462e-27 -1.8276456636774144e-31 1.0
-109.50066666666665 62.99726666666667 1630.5199999999998 4.780572783281462e-27 -1.8276456636774144e-31 1.0
-115.37766666666668 86.84443333333333 1994.67 0.0 0.0 1.0
-110.37266666666666 81.74386666666668 1630.5199999999998 -5.101227521155465e-26 6.802156737438033e-26 1.0
-110.37266666666666 81.74386666666668 1630.5199999999998 -5.101227521155469e-26 6.802156737438037e-26 1.0
-109.79133333333333 87.99273333333333 1630.5199999999998 -8.632636829934174e-28 2.5235865056038158e-27 1.0
-116.622 132.0 1994.67 0.0 0.0 1.0
-112.762 -108.72366666666666 1709.71 0.0 0.0 1.0
-116.622 -112.089 1994.67 0.0 0.0 1.0
-116.622 -112.089 1994.67 0.0 0.0 1.0
-111.909 -89.57263333333333 1704.84 0.0 0.0 1.0
-111.909 -89.57263333333333 1704.84 0.0 0.0 1.0
-111.909 -89.57263333333333 1704.84 0.0 0.0 1.0
-113.27666666666669 -77.4169 1704.84 0.0 0.0 1.0
-111.543 -72.60953333333333 1709.71 0.0 0.0 1.0
-112.15233333333333 -67.12383333333334 1709.71 0.0 0.0 1.0
-111.69533333333334 -66.66666666666667 1709.71 0.0 0.0 1.0
-113.86966666666666 -60.919533333333334 1719.54 0.0 0.0 1.0
-111.20066666666666 -52.02689999999999 1724.5 0.0 0.0 1.0
-111.35433333333333 -49.2603 1724.5 0.0 0.0 1.0
-114.47133333333333 -36.6667 1824.39 0.0 0.0 1.0
-114.146 -36.01630000000001 1824.39 0.0 0.0 1.0
-113.82100000000001 -35.52850000000001 1824.39 0.0 0.0 1.0
-117.33333333333333 -35.288900000000005 1994.67 0.0 0.0 1.0
-114.14633333333335 -28.374 1824.39 0.0 0.0 1.0
-116.8 -16.9778 1994.67 0.0 0.0 1.0
-116.79966666666667 -10.222233333333334 1994.67 0.0 0.0 1.0
-116.79966666666667 -10.222233333333334 1994.67 0.0 0.0 1.0
-118.222 -2.22222 1994.67 0.0 0.0 1.0
-109.51633333333335 3.4337933333333335 1639.45 0.0 0.0 1.0
-111.26966666666668 6.7945199999999994 1639.45 0.0 0.0 1.0
-110.082 12.861033333333333 1630.5199999999998 1.0977990631641499e-26 2.4791945817896306e-27 1.0
-110.51799999999999 34.950066666666665 1630.5199999999998 6.799036839881253e-26 -1.0198555259821827e-25 1.0
-110.51799999999999 36.403299999999994 1630.5199999999998 0.9980525784828888 -4.9720249381362586e-18 0.06237828615518047
-109.93666666666667 36.984566666666666 1630.5199999999998 0.0 0.0 1.0
-116.97766666666666 61.24446666666666 1994.67 0.0 0.0 1.0
-109.581 80.50999999999999 1634.97 0.0 0.0 1.0
-111.09933333333333 91.04450000000001 1630.5199999999998 6.3744625455623626e-27 6.3748280746951e-27 1.0
-110.80866666666667 98.16533333333332 1630.5199999999998 -5.94944965820358e-26 -3.4002007745293903e-26 1.0
-116.622 132.0 1994.67 0.0 0.0 1.0
-117.15533333333333 132.88866666666667 1994.67 0.0 0.0 1.0
-118.57766666666667 135.37766666666667 1994.67 0.0 0.0 1.0
-118.04466666666667 -143.73333333333332 1994.67 0.0 0.0 1.0
-117.867 -138.578 1994.67 0.0 0.0 1.0
-116.80033333333334 -136.62233333333333 1994.67 0.0 0.0 1.0
-113.37166666666667 -104.91433333333333 1709.71 0.0 0.0 1.0
-111.84766666666667 -98.3619 1709.71 0.0 0.0 1.0
-112.97233333333332 -95.04273333333333 1704.84 0.0 0.0 1.0
-112.66866666666665 -83.19086666666668 1704.84 0.0 0.0 1.0
-112.82066666666667 -81.6714 1704.84 0.0 0.0 1.0
-112.60966666666667 -73.6762 1709.71 0.0 0.0 1.0
-112.457 -67.58096666666667 1709.71 0.0 0.0 1.0
-111.238 -64.83806666666668 1709.71 0.0 0.0 1.0
-113.10366666666668 -56.32183333333333 1719.54 0.0 0.0 1.0
-112.79700000000001 -55.7088 1719.54 0.0 0.0 1.0
-112.18400000000001 -54.3295 1719.54 0.0 0.0 1.0
-118.22233333333334 -55.02223333333333 1994.67 0.0 0.0 1.0
-118.57800000000002 -53.6 1994.67 0.0 0.0 1.0
-115.77233333333334 -31.626 1824.39 0.0 0.0 1.0
-117.68900000000001 -23.200033333333334 1994.67 0.0 0.0 1.0
-110.51799999999999 34.950066666666665 1630.5199999999998 6.799036839881246e-26 -1.0198555259821815e-25 1.0
-118.04433333333333 60.533366666666666 1994.67 0.0 0.0 1.0
-110.66333333333334 55.4004 1563.7633333333333 0.6341272327936867 0.6330645345342747 0.4439729133002638
-116.44466666666666 90.57776666666666 1994.67 0.0 0.0 1.0
-111.91266666666667 78.32423333333334 1634.97 0.0 0.0 1.0
-110.954 81.74386666666668 1630.5199999999998 5.6654307638379796e-27 2.266692189064775e-26 1.0
-110.80866666666667 98.16533333333332 1630.5199999999998 -5.94944965820358e-26 -3.4002007745293903e-26 1.0
-110.80866666666667 98.16533333333335 1630.5199999999998 -8.49587181678102e-27 1.7002466156875634e-26 1.0
-110.80866666666667 100.1995 1630.5199999999998 8.508547967292822e-27 2.3408272115393005e-26 1.0
-116.44433333333335 -97.33333333333333 1994.67 0.0 0.0 1.0
-112.66899999999998 -79.6961 1704.84 0.0 0.0 1.0
-112.51700000000001 -78.0247 1704.84 0.0 0.0 1.0
-112.457 -67.58096666666667 1709.71 0.0 0.0 1.0
-112.79700000000001 -54.94253333333334 1719.54 0.0 0.0 1.0
-119.28866666666666 -42.222233333333335 1994.67 0.0 0.0 1.0
-114.47133333333333 -36.6667 1824.39 0.0 0.0 1.0
-115.122 -35.04063333333334 1824.39 0.0 0.0 1.0
-114.95933333333333 -28.211399999999998 1824.39 0.0 0.0 1.0
-118.75566666666667 -23.555566666666664 1994.67 0.0 0.0 1.0
-118.40000000000002 -17.511133333333333 1994.67 0.0 0.0 1.0
-118.75566666666667 -15.200000000000001 1994.67 0.0 0.0 1.0
-118.75566666666667 -14.133333333333335 1994.67 0.0 0.0 1.0
-118.93333333333334 -3.11111 1994.67 0.0 0.0 1.0
-112.204 0.8014556666666667 1634.97 0.0 0.0 1.0
-111.26966666666665 6.794520000000001 1639.45 0.0 0.0 1.0
-111.26966666666665 6.794520000000001 1639.45 0.0 0.0 1.0
-110.89266666666667 14.2077 1634.97 0.0 0.0 1.0
-120.889 22.84443333333333 1994.67 0.0 0.0 1.0
-112.49533333333333 40.728566666666666 1634.97 0.0 0.0 1.0
-110.082 42.65213333333333 1630.5199999999998 8.28671324625602e-28 -6.939952587053973e-28 1.0
-120.178 66.22223333333334 1994.67 0.0 0.0 1.0
-110.66333333333334 55.4004 1563.7633333333333 0.6341272327936882 0.6330645345342727 0.4439729133002646
-116.978 74.22223333333334 1994.67 0.0 0.0 1.0
-109.42133333333334 64.152 1507.3266666666666 -3.999608336807476e-16 -0.9767556131770869 0.21435594726308213
-118.222 101.067 1994.67 0.0 0.0 1.0
-111.09933333333333 91.04450000000001 1630.5199999999998 6.374462545562368e-27 6.374828074695101e-27 1.0
-111.39 91.91643333333332 1630.5199999999998 1.0 0.0 0.0
-111.82600000000001 92.93369999999999 1630.5199999999998 -2.4554893504866792e-26 -2.8335168930437073e-26 1.0
-110.80866666666667 94.09626666666668 1630.5199999999998 -1.5935242541073815e-27 6.3748280746949956e-27 1.0
-110.954 97.58403333333335 1630.5199999999998 -4.249398024926095e-26 5.0992776299112487e-26 1.0
-110.95400000000001 115.60366666666668 1630.5199999999998 -2.9745786174481675e-26 1.9122291112167127e-25 1.0
-113.92533333333334 -117.44033333333334 1714.61 0.0 0.0 1.0
-114.231 -112.856 1714.61 0.0 0.0 1.0
-113.37133333333333 -98.3619 1709.71 0.0 0.0 1.0
-113.58033333333333 -95.80246666666666 1704.84 0.0 0.0 1.0
-113.73200000000001 -93.06739999999998 1704.84 0.0 0.0 1.0
-113.73200000000001 -93.06739999999998 1704.84 0.0 0.0 1.0
-112.66866666666665 -83.19086666666668 1704.84 0.0 0.0 1.0
-112.76166666666666 -69.7143 1709.71 0.0 0.0 1.0
-111.93666666666667 -63.803866666666664 1706.4733333333334 -0.370885162195478 -0.9273143178156624 -0.05032248441111071
-111.93900000000001 -61.50906666666666 1714.61 0.0 0.0 1.0
-114.582 -58.4822 1724.5 0.0 0.0 1.0
-118.75566666666667 -56.26666666666666 1994.67 0.0 0.0 1.0
-118.222 -49.86666666666667 1994.67 0.0 0.0 1.0
-116.09766666666667 -43.3333 1824.39 0.0 0.0 1.0
-116.09766666666667 -43.3333 1824.39 0.0 0.0 1.0
-119.64433333333334 -41.155566666666665 1994.67 0.0 0.0 1.0
-114.95933333333333 -28.211399999999998 1824.39 0.0 0.0 1.0
-119.46666666666665 -12.000033333333334 1994.67 0.0 0.0 1.0
-118.93333333333334 -3.11111 1994.67 0.0 0.0 1.0
-118.93333333333334 -2.22222 1994.67 0.0 0.0 1.0
-109.581 8.37887 1634.97 0.0 0.0 1.0
-111.91266666666665 14.936266666666668 1634.97 0.0 0.0 1.0
-111.09933333333333 34.5141 1630.5199999999998 -4.522901420828618e-18 4.5232719342188885e-18 1.0
-112.49566666666665 37.8142 1634.97 0.0 0.0 1.0
-118.04433333333334 58.044466666666665 1994.67 0.0 0.0 1.0
-118.93333333333334 60.1778 1994.67 0.0 0.0 1.0
-112.93266666666666 63.46083333333333 1634.97 0.0 0.0 1.0
-105.98396666666667 64.9874 1511.1333333333332 5.214756337698422e-17 -0.9767556131770868 0.2143559472630821
-105.17933333333333 65.95416666666667 1552.9566666666667 -0.2665635689393262 -0.9072313339047585 0.32538465006161815
-112.05833333333334 78.17853333333333 1634.97 0.0 0.0 1.0
-112.11633333333333 81.88916666666667 1630.5199999999998 0.0 0.0 1.0
-111.09933333333333 88.4287 1630.5199999999998 -1.3074032713658735e-27 6.5392080937712145e-28 1.0
-111.53533333333333 100.926 1630.5199999999998 2.8329320166172587e-27 3.777242688822991e-27 1.0
-111.97133333333333 101.798 1630.5199999999998 -8.498796049851484e-26 -1.3220349410880242e-26 1.0
-112.11666666666667 103.978 1630.5199999999998 -2.039711051964369e-25 5.0992776299110036e-26 1.0
-111.24466666666666 113.42399999999999 1630.5199999999998 1.4167368949042196e-27 -2.3041281234421354e-27 1.0
-111.82600000000001 115.02233333333334 1630.5199999999998 -2.7196147359526797e-25 1.2748194074778178e-25 1.0
-113.07866666666666 118.68900000000001 1634.97 0.0 0.0 1.0
-120.00033333333333 -146.04466666666667 1994.67 0.0 0.0 1.0
-118.93366666666667 -143.55566666666667 1994.67 0.0 0.0 1.0
-118.93366666666667 -143.55566666666667 1994.67 0.0 0.0 1.0
-118.40033333333334 -138.04466666666667 1994.67 0.0 0.0 1.0
-113.92533333333334 -117.44033333333334 1714.61 0.0 0.0 1.0
-113.82866666666666 -106.43799999999999 1709.71 0.0 0.0 1.0
