ply
format ascii 1.0
comment VCGLIB generated
element vertex 661
property float x
property float y
property float z
property float nx
property float ny
property float nz
element face 0
property list uchar int vertex_indices
end_header
-59.462700000000005 -56.597 1786.2699999999998 -2.360915780004829e-27 2.360915780004829e-27 1.0
-59.04760000000001 -44.84126666666666 1780.95 0.0 0.0 1.0
-60.317433333333334 -37.22220000000001 1780.95 0.0 0.0 1.0
-61.8538 -13.679866666666667 1542.2733333333333 -0.9311194948853226 -0.3494772529488497 0.10431747655991135
-59.26806666666667 -13.531166666666666 1775.67 0.0 0.0 1.0
-59.26806666666667 -6.884273333333334 1775.67 0.0 0.0 1.0
-59.26806666666667 -6.884273333333334 1775.67 0.0 0.0 1.0
-59.58456666666667 1.3452003333333336 1775.67 0.0 0.0 1.0
-60.078333333333326 8.549999999999999 1760.0100000000002 -0.9896450598791032 -0.1413858546540497 0.024752687947574695
-58.69823333333333 34.00393333333333 1770.41 0.0 0.0 1.0
-60.7037 30.581433333333337 1746.3100000000002 0.6271871467554115 0.19297986496667655 0.7545827023343759
-58.446433333333324 39.882 1765.1899999999998 1.9123587466434784e-27 -1.161566294915762e-27 1.0
-59.705033333333326 49.793499999999995 1765.1899999999998 3.877410919384987e-18 -1.9387054601457833e-18 1.0
-61.130566666666674 62.456133333333334 1749.71 0.0 0.0 1.0
-59.164233333333335 66.31683333333334 1744.61 0.0 0.0 1.0
-60.0 76.20153333333333 1739.53 0.0 0.0 1.0
-61.50286666666667 95.64546666666666 1729.4800000000002 5.396343862241988e-28 8.094349072305225e-28 1.0
-59.558099999999996 104.438 1724.5 0.0 0.0 1.0
-60.326600000000006 105.82099999999998 1724.5 0.0 0.0 1.0
-60.326600000000006 105.82099999999998 1724.5 0.0 0.0 1.0
-60.32659999999999 107.666 1724.5 0.0 0.0 1.0
-60.38313333333334 116.245 1719.54 0.0 0.0 1.0
-60.38313333333334 120.996 1719.54 0.0 0.0 1.0
-60.4016 -131.64633333333333 1802.41 0.0 0.0 1.0
-60.941300000000005 -103.211 1724.506666666667 -0.88828260685574 0.4436961484723358 0.11869177809935107
-60.1996 -100.03973333333333 1791.62 0.0 0.0 1.0
-59.401199999999996 -93.014 1791.62 0.0 0.0 1.0
-60.03990000000001 -91.0978 1791.62 0.0 0.0 1.0
-58.6667 -53.094533333333324 1786.2699999999998 1.4166384428938696e-28 5.665960601495757e-28 1.0
-60.63493333333333 -30.714299999999998 1780.95 0.0 0.0 1.0
-64.4273 -28.355166666666666 1602.86 -0.913403331514156 0.3653677207116281 0.17944576517942915
-60.15873333333334 -20.396833333333333 1780.95 0.0 0.0 1.0
-60.476200000000006 -18.6508 1780.95 0.0 0.0 1.0
-62.056466666666665 -13.3528 1537.0 0.7052340720852865 0.7049506577761594 -0.07542859982105744
-59.742799999999995 -4.03561 1775.67 0.0 0.0 1.0
-60.37586666666667 2.4530133333333333 1775.67 0.0 0.0 1.0
-61.40593333333334 10.390953333333334 1753.1299999999999 -0.8241642157070883 -0.549435003779095 0.1373845776285899
-58.71776666666667 10.4831 1768.67 1.027890383052106e-17 -0.9953821583577175 0.09599145182323207
-60.76246666666666 22.131 1754.84 0.0 0.0 1.0
-59.644933333333334 24.2209 1770.41 0.0 0.0 1.0
-60.5917 25.7988 1770.41 0.0 0.0 1.0
-59.56713333333334 39.21496666666667 1763.46 -0.9549866473063607 0.2728409396429793 0.11644022123515621
-59.86236666666667 52.46803333333333 1765.1899999999998 0.0 0.0 1.0
-66.36013333333334 54.494533333333344 1416.9033333333334 -0.9105579865952058 0.4127855914183164 -0.022185773935464913
-60.26976666666667 90.09633333333333 1729.4800000000002 0.0 0.0 1.0
-61.1946 99.80733333333335 1729.4800000000002 -1.8727743776762546e-28 -9.74166759390247e-27 1.0
-61.04046666666667 104.73966666666666 1729.4800000000002 0.0 0.0 1.0
-60.326600000000006 105.82100000000001 1724.5 0.0 0.0 1.0
-54.56406666666667 168.10233333333335 2301.54 0.0 0.0 1.0
-61.101099999999995 -129.00900000000001 1797.0 0.0 0.0 1.0
-60.3003 -124.84499999999998 1797.0 0.0 0.0 1.0
-60.558166666666665 -104.07266666666668 1731.17 -0.9092335181903585 0.4041154873278271 0.0999253836668939
-60.941300000000005 -103.211 1724.506666666667 -0.8882826068557398 0.4436961484723364 0.11869177809935107
-60.1996 -100.03973333333333 1791.62 0.0 0.0 1.0
-60.1996 -100.03973333333333 1791.62 0.0 0.0 1.0
-60.8383 -94.93013333333333 1791.62 0.0 0.0 1.0
-61.7964 -74.97006666666665 1791.62 0.0 0.0 1.0
-61.65436666666667 -61.4942 1789.8366666666668 -0.7305988813708876 -0.5844608035215264 0.35303093871016394
-64.15236666666667 -57.676199999999994 1709.71 0.0 0.0 1.0
-61.11113333333333 -31.34923333333333 1780.95 0.0 0.0 1.0
-61.428599999999996 -27.5397 1780.95 0.0 0.0 1.0
-60.15873333333334 -20.396833333333333 1780.95 0.0 0.0 1.0
-61.428599999999996 -15.952399999999999 1780.95 0.0 0.0 1.0
-60.85063333333333 -4.03561 1775.67 0.0 0.0 1.0
-61.008900000000004 17.012866666666667 1775.67 0.0 0.0 1.0
-61.008900000000004 17.012866666666667 1775.67 0.0 0.0 1.0
-61.329100000000004 42.35483333333333 1731.1500000000003 -0.9082817026036947 0.2838349630467107 0.30734681138350206
-61.12096666666667 48.5349 1765.1899999999998 -5.801939301778189e-28 6.52737379099093e-28 1.0
-59.86236666666667 52.46803333333333 1765.1899999999998 0.0 0.0 1.0
-60.76246666666666 60.13683333333333 1754.84 0.0 0.0 1.0
-56.20513333333334 82.15383333333334 2301.54 0.0 0.0 1.0
-59.94166666666666 67.56073333333335 1744.61 0.0 0.0 1.0
-60.77516666666667 76.20153333333333 1739.53 0.0 0.0 1.0
-65.87150000000001 57.3499 1428.1833333333334 0.9319494754603433 -0.3400578163820079 0.12582073241994535
-62.13583333333332 85.5816 1712.9966666666667 -0.6329499926245122 -0.6977516249757174 0.335435503011198
-60.52173333333334 87.11113333333333 1734.49 0.0 0.0 1.0
-60.26976666666667 90.09633333333333 1729.4800000000002 0.0 0.0 1.0
-60.88633333333333 93.48746666666666 1729.4800000000002 0.0 0.0 1.0
-61.1946 104.89366666666666 1729.4800000000002 -3.7757374573744356e-26 5.285314046685968e-26 1.0
-60.99616666666666 116.39833333333333 1719.54 0.0 0.0 1.0
-60.99616666666666 120.68966666666667 1719.54 0.0 0.0 1.0
-54.56406666666667 168.10233333333335 2301.54 0.0 0.0 1.0
-53.9487 169.12800000000001 2301.54 0.0 0.0 1.0
-60.4016 -131.64633333333333 1802.41 0.0 0.0 1.0
-60.4016 -131.64633333333333 1802.41 0.0 0.0 1.0
-61.101099999999995 -129.00900000000001 1797.0 0.0 0.0 1.0
-60.518966666666664 -124.471 1791.62 0.0 0.0 1.0
-61.19483333333333 -125.49766666666666 1788.0533333333333 -0.9262741665200703 0.37050966660803175 0.06883861843147485
-60.1996 -119.20166666666667 1791.62 0.0 0.0 1.0
-60.8383 -117.76466666666666 1791.62 0.0 0.0 1.0
-60.35926666666666 -116.80666666666667 1791.62 0.0 0.0 1.0
-60.51893333333334 -105.94833333333334 1791.62 0.0 0.0 1.0
-62.542533333333324 -104.985 1797.0 0.0 0.0 1.0
-60.99796666666666 -89.66066666666667 1791.62 0.0 0.0 1.0
-61.261266666666664 -83.2032 1797.0 0.0 0.0 1.0
-61.261266666666664 -83.2032 1797.0 0.0 0.0 1.0
-63.34193333333334 -67.31606666666666 1714.62 -0.9057693027108256 0.4140550142480357 0.09022425085753773
-61.05473333333333 -56.278600000000004 1786.2699999999998 -5.194212447650524e-27 -6.988745726702268e-27 1.0
-60.476166666666664 -40.39683333333334 1780.95 0.0 0.0 1.0
-60.37586666666667 -20.336299999999998 1775.67 0.0 0.0 1.0
-62.22223333333333 -14.047600000000001 1780.95 0.0 0.0 1.0
-60.2176 -10.524246666666665 1775.67 0.0 0.0 1.0
-61.32543333333333 -9.416423333333332 1775.67 0.0 0.0 1.0
-60.5341 -4.510386666666666 1775.67 0.0 0.0 1.0
-61.4837 8.941636666666668 1775.67 0.0 0.0 1.0
-60.0001 23.860166666666668 1766.93 -0.873769811641848 -0.4368756491964391 0.2136960069878698
-62.083733333333335 36.987766666666666 1732.82 -0.9348145557551386 -4.803584014853299e-16 0.3551362363211096
-62.083733333333335 36.987766666666666 1732.82 -0.9348145557551386 -4.803584014853299e-16 0.3551362363211096
-61.130566666666674 62.456133333333334 1749.71 0.0 0.0 1.0
-60.09716666666666 66.31683333333335 1744.61 0.0 0.0 1.0
-61.3953 72.48063333333333 1739.53 0.0 0.0 1.0
-61.3953 72.48063333333333 1739.53 0.0 0.0 1.0
-60.77516666666667 76.20153333333333 1739.53 0.0 0.0 1.0
-61.91303333333334 86.80196666666666 1734.49 0.0 0.0 1.0
-61.502900000000004 104.43133333333333 1729.4800000000002 7.55727509985577e-27 -1.226365668650798e-30 1.0
-62.119433333333326 106.89800000000001 1729.4800000000002 -1.889666320573036e-26 -2.0810219276068573e-26 1.0
-60.787699999999994 107.20466666666665 1724.5 0.0 0.0 1.0
-61.8636 109.20266666666667 1724.5 0.0 0.0 1.0
-60.84290000000001 116.85799999999999 1719.54 0.0 0.0 1.0
-60.99616666666666 120.68966666666667 1719.54 0.0 0.0 1.0
-62.06206666666666 -123.243 1797.0 0.0 0.0 1.0
-59.060833333333335 -81.8155 1766.9300000000003 0.16033312181283388 0.46095666362811655 0.8728185632229566
-62.8099 -45.61986666666667 1648.4800000000002 1.0 0.0 0.0
-62.8099 -45.61986666666667 1648.4800000000002 1.0 0.0 0.0
-62.8099 -44.1506 1648.4800000000002 1.0 0.0 0.0
-62.8099 -44.1506 1648.4800000000002 1.0 0.0 0.0
-60.38783333333333 -41.08146666666667 1666.86 -0.8577728679637642 0.3386871126255606 0.38667395403179117
-61.111133333333335 -31.34923333333333 1780.95 0.0 0.0 1.0
-61.111133333333335 -31.34923333333333 1780.95 0.0 0.0 1.0
-61.428599999999996 -27.5397 1780.95 0.0 0.0 1.0
-60.37586666666667 -20.336299999999998 1775.67 0.0 0.0 1.0
-61.428599999999996 -15.952399999999999 1780.95 0.0 0.0 1.0
-59.90110000000001 -0.712165 1775.67 0.0 0.0 1.0
-61.641933333333334 3.5608300000000006 1775.67 0.0 0.0 1.0
-61.4837 8.941636666666668 1775.67 0.0 0.0 1.0
-61.59606666666667 10.21222 1749.72 -0.6721638190418575 0.6721351687431586 0.31053198757884964
-61.065099999999994 22.169633333333334 1770.41 0.0 0.0 1.0
-61.0651 27.061133333333334 1770.41 0.0 0.0 1.0
-61.0651 27.061133333333334 1770.41 0.0 0.0 1.0
-62.22220000000001 85.41063333333334 1734.49 0.0 0.0 1.0
-60.88633333333333 93.48746666666666 1729.4800000000002 0.0 0.0 1.0
-61.502900000000004 104.43133333333333 1729.4800000000002 7.557275099855771e-27 -1.2263656686512798e-30 1.0
-62.6321 114.121 1724.5 0.0 0.0 1.0
-62.9395 122.728 1724.5 0.0 0.0 1.0
-62.91416666666667 -126.54700000000001 1791.62 0.0 0.0 1.0
-61.514199999999995 -126.29633333333334 1788.0533333333333 0.9262708533768914 -0.37050834135075944 -0.06889031262779118
-63.02303333333333 -100.3404 1797.0 0.0 0.0 1.0
-61.6367 -88.7026 1791.62 0.0 0.0 1.0
-62.69006666666667 -75.55556666666668 1749.71 0.0 0.0 1.0
-63.85016666666667 -66.98006666666667 1709.72 0.8656154105894472 -0.46171528996859496 -0.19372390652492819
-63.134433333333334 -45.8297 1645.4666666666665 -0.9942504197061738 3.755437982105127e-17 0.10707989033472778
-63.134433333333334 -45.8297 1645.4666666666665 -0.9942504197061738 5.1352376173564015e-17 0.10707989033472778
-62.749766666666666 -8.150350000000001 1775.67 0.0 0.0 1.0
-61.167166666666674 -4.510386666666666 1775.67 0.0 0.0 1.0
-61.4837 8.941636666666666 1775.67 0.0 0.0 1.0
-61.40593333333334 10.390953333333334 1753.1299999999999 -0.8241642157070881 -0.549435003779095 0.13738457762859016
-61.95846666666667 17.804166666666667 1775.67 0.0 0.0 1.0
-60.64896666666667 51.05213333333334 1765.1899999999998 1.9599374934069944e-32 7.7703838669144385e-28 1.0
-60.23526666666667 57.17646666666666 1760.0 0.0 0.0 1.0
-62.0137 58.1036 1754.84 0.0 0.0 1.0
-63.00193333333334 60.42883333333333 1749.71 0.0 0.0 1.0
-56.20513333333334 82.15383333333334 2301.54 0.0 0.0 1.0
-63.100766666666665 81.00776666666667 1739.53 0.0 0.0 1.0
-63.0443 97.34103333333333 1729.4800000000002 -3.462530800340964e-27 7.345076523523724e-27 1.0
-62.89013333333333 97.80346666666667 1729.4800000000002 -1.6989810646549497e-43 2.518319730357202e-27 1.0
-62.119433333333326 106.89799999999998 1729.4800000000002 3.791108301097897e-27 2.4604609922015954e-26 1.0
-62.119433333333326 106.89799999999998 1729.4800000000002 3.791108301097898e-27 2.4604609922015954e-26 1.0
-62.3247 110.58600000000001 1724.5 0.0 0.0 1.0
-62.6321 114.121 1724.5 0.0 0.0 1.0
-61.901900000000005 -128.84866666666667 1797.0 0.0 0.0 1.0
-58.36533333333333 -126.90866666666666 1772.1633333333332 0.6529273443931554 1.2644737397032224e-15 0.7574205456308285
-62.062066666666674 -123.243 1797.0 0.0 0.0 1.0
-62.86286666666667 -120.84066666666666 1797.0 0.0 0.0 1.0
-61.7964 -95.56883333333333 1791.62 0.0 0.0 1.0
-61.6367 -88.7026 1791.62 0.0 0.0 1.0
-61.261266666666664 -83.2032 1797.0 0.0 0.0 1.0
-62.69006666666667 -75.55556666666668 1749.71 0.0 0.0 1.0
-61.7964 -74.97006666666667 1791.62 0.0 0.0 1.0
-64.18103333333333 -66.84203333333333 1706.4633333333334 -0.9065881267644665 0.38171746009375246 0.1799715229397976
-62.806000000000004 -62.009966666666664 1786.2699999999998 -2.0461072370015315e-27 1.03873571825328e-27 1.0
-62.806000000000004 -62.009966666666664 1786.2699999999998 -2.0461072370015315e-27 1.03873571825328e-27 1.0
-63.233533333333334 -61.237500000000004 1791.62 0.0 0.0 1.0
-64.68956666666666 -60.11013333333333 1684.0533333333333 -0.9726624638803718 0.19454328335144455 0.12680947228422648
-62.698433333333334 -27.222266666666666 1780.95 0.0 0.0 1.0
-63.17463333333333 -25.793666666666667 1780.95 0.0 0.0 1.0
-63.333333333333336 -14.365066666666666 1780.95 0.0 0.0 1.0
-62.4852 -1.3412220000000001 1770.41 0.0 0.0 1.0
-62.4852 -1.3412220000000001 1770.41 0.0 0.0 1.0
-62.4852 -1.3412220000000001 1770.41 0.0 0.0 1.0
-61.01239999999999 12.5268 1746.3099999999997 -0.7072253142466816 0.636498234456754 0.30773747321721756
-63.22453333333333 21.285866666666667 1775.67 0.0 0.0 1.0
-62.918499999999995 27.660733333333337 1758.28 -0.9859796211887747 -0.12325072641417247 0.1124875328150588
-62.46053333333334 39.46893333333333 1726.1666666666667 -0.9500540306035798 0.29688867440105615 -0.09620007248581586
-56.20513333333334 82.15383333333334 2301.54 0.0 0.0 1.0
-67.92493333333334 52.507600000000004 1411.3400000000001 -0.7658261607096379 0.6045110451601479 0.21926396843102516
-62.9395 111.66199999999999 1724.5 0.0 0.0 1.0
-63.861700000000006 120.57600000000001 1724.5 0.0 0.0 1.0
-62.9395 122.728 1724.5 0.0 0.0 1.0
-55.3846 167.282 2301.54 0.0 0.0 1.0
-64.46446666666667 -132.53233333333336 1797.0 0.0 0.0 1.0
-63.02303333333333 -127.56766666666665 1797.0 0.0 0.0 1.0
-63.02303333333333 -127.56766666666665 1797.0 0.0 0.0 1.0
-62.54253333333333 -122.92266666666666 1797.0 0.0 0.0 1.0
-62.7027 -122.282 1797.0 0.0 0.0 1.0
-63.02303333333333 -121.48133333333334 1797.0 0.0 0.0 1.0
-62.54253333333333 -104.985 1797.0 0.0 0.0 1.0
-63.663666666666664 -97.77776666666666 1797.0 0.0 0.0 1.0
-61.7964 -95.56883333333333 1791.62 0.0 0.0 1.0
-62.69006666666667 -75.55556666666668 1749.71 0.0 0.0 1.0
-63.23663333333334 -74.41313333333333 1741.243333333333 -0.9543449621214897 0.273095715571037 0.12101414549578854
-61.7964 -74.97006666666667 1791.62 0.0 0.0 1.0
-63.5529 -71.13773333333334 1791.62 0.0 0.0 1.0
-62.64676666666666 -55.96019999999999 1786.2699999999998 1.5933296019977188e-27 2.166633141371319e-27 1.0
-62.06346666666667 -37.53966666666667 1780.95 0.0 0.0 1.0
-63.602 -38.12936666666667 1786.2699999999998 3.187050948998966e-26 -4.2489440859435516e-26 1.0
-60.99053333333334 -30.654466666666668 1777.43 -0.5468375845846148 0.820246778857044 0.1678209696680006
-62.749766666666666 -8.15035 1775.67 0.0 0.0 1.0
-63.33330000000001 -6.269839999999999 1780.95 0.0 0.0 1.0
-63.01583333333334 -5.63492 1780.95 0.0 0.0 1.0
-61.538466666666665 22.8008 1770.41 0.0 0.0 1.0
-63.09146666666667 27.94386666666667 1756.5600000000002 -0.9899201971674122 -0.08999274519703772 0.10935862586889401
-63.07489999999999 29.381133333333338 1758.28 -0.9891669028886559 -0.12364914720944568 0.07911843416070063
-62.083733333333335 36.987766666666666 1732.82 -0.9348145557551386 -4.803584014853299e-16 0.3551362363211096
-61.9076 48.84956666666667 1765.1899999999998 -5.318529725785188e-28 2.5786681463598734e-28 1.0
-63.26489999999999 56.070366666666665 1754.84 0.0 0.0 1.0
-63.100766666666665 81.00776666666667 1739.53 0.0 0.0 1.0
-62.685966666666666 86.64736666666666 1734.49 0.0 0.0 1.0
-62.685966666666666 86.64736666666666 1734.49 0.0 0.0 1.0
-63.660866666666664 99.19076666666666 1729.4800000000002 -2.0149099478199838e-26 5.8762609106064374e-27 1.0
-63.969166666666666 102.11933333333333 1729.4800000000002 6.035699710073062e-26 1.7331942013478728e-25 1.0
-62.73600000000001 106.74366666666667 1729.4800000000002 3.4043128605099896e-26 -2.270905134640952e-26 1.0
-62.7858 112.89166666666665 1724.5 0.0 0.0 1.0
-63.3932 -106.108 1791.62 0.0 0.0 1.0
-63.71256666666667 -85.50900000000001 1791.62 0.0 0.0 1.0
-64.0319 -85.18963333333333 1791.62 0.0 0.0 1.0
-64.13223333333333 -63.53209999999999 1695.216666666667 -0.9946620810088002 -0.00024511568320156624 0.10318567982789514
-65.32313333333333 -42.3605 1630.5266666666666 0.24163102686684082 0.9656494463432821 -0.09558029939369701
-65.3776 -21.159866666666662 1577.506666666667 -0.9939155290461116 4.1480929458490224e-16 0.11014500043573526
-65.3776 -21.159866666666662 1577.506666666667 -0.9939155290461116 4.703204458161601e-16 0.11014500043573526
-63.333333333333336 -14.365066666666666 1780.95 0.0 0.0 1.0
-63.3828 -8.15035 1775.67 0.0 0.0 1.0
-63.65076666666667 -5.158729999999999 1780.95 0.0 0.0 1.0
-63.69933333333333 4.826906666666667 1775.67 0.0 0.0 1.0
-63.541066666666666 11.632033333333334 1775.67 0.0 0.0 1.0
-62.67883333333333 14.885633333333333 1766.9300000000003 0.8565627957817675 0.49965784993975765 -0.12900468935701806
-63.541066666666666 17.32936666666667 1775.67 0.0 0.0 1.0
-63.22453333333333 21.285866666666667 1775.67 0.0 0.0 1.0
-64.17406666666666 23.0267 1775.67 0.0 0.0 1.0
-63.248333333333335 29.198766666666668 1756.5600000000002 -0.9922943142319085 -0.09020857402108287 0.0849376660622917
-65.0729 71.13703333333332 1744.61 0.0 0.0 1.0
-63.100766666666665 81.00776666666667 1739.53 0.0 0.0 1.0
-63.044333333333334 90.09636666666667 1729.4800000000002 -4.605013188855015e-28 -3.599672467290129e-27 1.0
-63.50673333333333 98.2659 1729.4800000000002 0.0 -1.0 0.0
-63.660866666666664 99.19076666666666 1729.4800000000002 -2.014909947819985e-26 5.876260910606441e-27 1.0
-63.969166666666666 102.11933333333333 1729.4800000000002 6.035699710073078e-26 1.733194201347877e-25 1.0
-64.73986666666666 112.90933333333334 1729.4800000000002 -2.728270491883885e-27 -6.297614950615502e-28 1.0
-63.861700000000006 120.57600000000001 1724.5 0.0 0.0 1.0
-57.59176666666667 85.69356666666665 1264.2366666666667 0.40282059240618806 0.858262258557379 0.3179960154931414
-65.4406 123.75466666666667 1719.54 0.0 0.0 1.0
-63.503499999999995 -129.80966666666666 1797.0 0.0 0.0 1.0
-63.663666666666664 -127.56766666666665 1797.0 0.0 0.0 1.0
-63.503499999999995 -121.32133333333333 1797.0 0.0 0.0 1.0
-64.14413333333333 -100.98100000000001 1797.0 0.0 0.0 1.0
-64.14413333333333 -99.69963333333334 1797.0 0.0 0.0 1.0
-65.7812 -73.59363333333334 1732.8400000000001 -0.7758231144336512 -0.5643598308016695 0.28212847514559863
-63.5529 -71.13773333333334 1791.62 0.0 0.0 1.0
-63.602 -62.9652 1786.2699999999998 1.2591550826692369e-26 -6.531866991346618e-26 1.0
-65.63833333333334 -42.139966666666666 1627.5666666666666 -0.7014730949215182 -0.7014730949215239 0.1259801341579118
-63.602 -38.12936666666667 1786.2699999999998 3.187050948998966e-26 -4.2489440859435516e-26 1.0
-62.06346666666667 -37.53966666666667 1780.95 0.0 0.0 1.0
-65.88156666666667 -31.016566666666666 1600.006666666667 -0.9941380068717305 -0.0002513264600524523 0.10811826916906402
-65.3776 -21.159866666666662 1577.506666666667 -0.9939155290461116 4.564426580083456e-16 0.11014500043573526
-63.382799999999996 -8.150350000000001 1775.67 0.0 0.0 1.0
-63.69933333333333 4.826906666666667 1775.67 0.0 0.0 1.0
-63.699333333333335 4.826906666666667 1775.67 0.0 0.0 1.0
-63.85756666666666 21.60236666666667 1775.67 0.0 0.0 1.0
-62.103100000000005 27.7826 1746.3099999999997 0.33846806498512216 -0.8800343836025716 0.33313488658870455
-63.78066666666666 26.900299999999998 1749.72 -0.9720986588157732 -0.21604817891028705 0.09136400778273779
-64.29543333333334 65.0729 1744.61 0.0 0.0 1.0
-63.044333333333334 90.09636666666667 1729.4800000000002 -4.605013188855015e-28 -3.59967246729013e-27 1.0
-65.46863333333333 93.29466666666667 1734.49 0.0 0.0 1.0
-64.43163333333334 95.95373333333333 1729.4800000000002 0.0 0.0 1.0
-64.58576666666667 97.64933333333333 1729.4800000000002 6.716608558850645e-27 4.1973810903682784e-27 1.0
-64.4316 98.11176666666667 1729.4800000000002 3.021112536716606e-26 -7.553108019185108e-26 1.0
-63.66363333333333 -122.122 1797.0 0.0 0.0 1.0
-63.98396666666667 -121.64166666666667 1797.0 0.0 0.0 1.0
-63.98396666666667 -105.46533333333333 1797.0 0.0 0.0 1.0
-64.14413333333333 -99.69963333333334 1797.0 0.0 0.0 1.0
-64.66383333333334 -86.87793333333333 1773.9166666666667 -0.9665882115720278 0.24165977718624598 0.08548556217445892
-64.35126666666666 -83.43316666666668 1791.62 0.0 0.0 1.0
-63.5529 -71.13773333333334 1791.62 0.0 0.0 1.0
-64.68956666666666 -60.11013333333333 1684.0533333333333 -0.9726624638803718 0.1945432833514448 0.12680947228422645
-62.64676666666666 -55.96019999999999 1786.2699999999998 1.5933296019977188e-27 2.1666331413713192e-27 1.0
-64.94726666666666 -42.5966 1639.46 -0.9283175966915286 -0.3373897185508568 0.15618776357012817
-64.39800000000001 -38.28856666666667 1786.2699999999998 -5.666197872011725e-26 -1.4162529326317841e-25 1.0
-65.88156666666667 -31.016566666666666 1600.006666666667 -0.9941380068717305 -0.0002513264600526258 0.10811826916906402
-66.20013333333333 -28.305566666666667 1760.0100000000002 0.8178068091246211 0.5622279989221318 -0.12284828113335947
-63.968266666666665 -27.063533333333336 1780.95 0.0 0.0 1.0
-64.44443333333334 -14.206333333333333 1780.95 0.0 0.0 1.0
-63.38276666666667 -10.682493333333333 1775.67 0.0 0.0 1.0
-63.96823333333333 -6.269839999999999 1780.95 0.0 0.0 1.0
-62.591499999999996 9.258153333333333 1775.67 0.0 0.0 1.0
-62.9586 20.9073 1770.41 0.0 0.0 1.0
-64.8071 22.393666666666665 1775.67 0.0 0.0 1.0
-64.53649999999999 39.368833333333335 1770.41 0.0 0.0 1.0
-64.53649999999999 39.368833333333335 1770.41 0.0 0.0 1.0
-65.56863333333334 48.70586666666666 1760.0 0.0 0.0 1.0
-64.2033 53.724333333333334 1754.84 0.0 0.0 1.0
-65.18520000000001 57.4659 1749.71 0.0 0.0 1.0
-68.6429 53.8534 1400.3166666666668 0.5144162162697129 -0.8573297813907489 0.019015845477978858
-65.46863333333333 93.29466666666667 1734.49 0.0 0.0 1.0
-64.43163333333334 95.95373333333333 1729.4800000000002 0.0 0.0 1.0
-63.969166666666666 102.11933333333333 1729.4800000000002 6.035699710073078e-26 1.733194201347877e-25 1.0
-65.24496666666668 118.271 1724.5 0.0 0.0 1.0
-63.861700000000006 120.57599999999998 1724.5 0.0 0.0 1.0
-60.71793333333333 169.12800000000001 2301.54 0.0 0.0 1.0
-64.3043 -129.32933333333332 1797.0 0.0 0.0 1.0
-63.663666666666664 -127.72766666666666 1797.0 0.0 0.0 1.0
-64.14413333333333 -100.981 1797.0 0.0 0.0 1.0
-64.14413333333333 -99.69963333333334 1797.0 0.0 0.0 1.0
-65.26523333333334 -95.85586666666667 1797.0 0.0 0.0 1.0
-65.26523333333334 -95.85586666666667 1797.0 0.0 0.0 1.0
-64.66383333333334 -86.87793333333333 1773.9166666666667 -0.9665882115720277 0.24165977718624576 0.08548556217445877
-64.66383333333333 -86.87793333333333 1773.9166666666667 -0.9665882115720277 0.24165977718624576 0.08548556217445877
-64.51096666666666 -85.98803333333335 1791.62 0.0 0.0 1.0
-64.68956666666666 -60.11013333333333 1684.0533333333333 -0.9726624638803718 0.19454328335144472 0.1268094722842262
-63.602 -62.9652 1786.2699999999998 1.2591550826692353e-26 -6.531866991346612e-26 1.0
-66.13793333333332 -55.8151 1654.5666666666666 -0.994528155439928 2.3228107627414268e-15 0.10446888549828647
-65.42873333333334 -41.747233333333334 1634.9800000000002 -0.0005681390583735879 -0.9858202267491248 0.16780392650446094
-66.34586666666667 -30.79086666666667 1595.74 -0.9941231443181507 -0.0017830694611192443 0.10824044805104112
-68.411 -31.85806666666667 1756.5600000000002 0.2121636829728673 -0.9759294292257754 0.050480895380734435
-64.7619 -26.26986666666667 1780.95 0.0 0.0 1.0
-64.01583333333333 -8.308606666666668 1775.67 0.0 0.0 1.0
-64.12696666666666 -5.47619 1780.95 0.0 0.0 1.0
-65.44016666666666 -1.9782386666666667 1775.67 0.0 0.0 1.0
-64.41863333333335 14.4079 1748.01 -0.8619852381562503 -0.5028196041884742 0.06445071639988566
-64.8071 22.393666666666665 1775.67 0.0 0.0 1.0
-64.8521 30.374733333333335 1770.41 0.0 0.0 1.0
-64.53649999999999 39.368833333333335 1770.41 0.0 0.0 1.0
-65.45453333333333 51.534699999999994 1754.84 0.0 0.0 1.0
-65.0729 71.13703333333332 1744.61 0.0 0.0 1.0
-65.62316666666668 88.50243333333333 1734.49 0.0 0.0 1.0
-65.77776666666666 89.58456666666666 1734.49 0.0 0.0 1.0
-65.20233333333334 98.11176666666667 1729.4800000000002 3.777615744231339e-27 4.084792111695413e-31 1.0
-64.73986666666666 112.90933333333334 1729.4800000000002 -2.728270491883885e-27 -6.297614950615503e-28 1.0
-64.73986666666666 112.90933333333334 1729.4800000000002 -2.7282704918838846e-27 -6.297614950615502e-28 1.0
-60.71793333333333 169.12800000000001 2301.54 0.0 0.0 1.0
-65.1051 -131.41133333333335 1797.0 0.0 0.0 1.0
-64.78476666666666 -106.106 1797.0 0.0 0.0 1.0
-64.78476666666666 -106.106 1797.0 0.0 0.0 1.0
-65.92716666666666 -73.6526 1716.253333333333 -0.9430298064078059 0.31432041246079906 0.10907549008337933
-65.92716666666666 -73.6526 1716.2533333333333 -0.9430298064078059 0.3143204124607991 0.10907549008337933
-66.13793333333332 -55.8151 1654.5666666666666 -0.9945281554399278 -1.3703476621743311e-15 0.10446888549828752
-66.13793333333332 -55.8151 1654.5666666666666 -0.9945281554399279 -9.46658417026712e-16 0.10446888549828742
-69.19773333333333 -51.482400000000005 1615.8466666666666 0.6968512028799698 -0.6271709170243873 0.34792965076797966
-64.398 -38.28856666666667 1786.2699999999998 2.833098936005855e-26 7.081264663158901e-26 1.0
-67.0801 -30.3111 1592.9033333333334 -0.7977407582717075 -0.5982821360648956 0.07528723834559817
-65.39683333333333 -26.746066666666668 1780.95 0.0 0.0 1.0
-65.55556666666668 -22.301599999999997 1780.95 0.0 0.0 1.0
-65.07936666666667 -14.5238 1780.95 0.0 0.0 1.0
-65.12366666666667 -5.45994 1775.67 0.0 0.0 1.0
-65.7567 -0.39564666666666676 1775.67 0.0 0.0 1.0
-66.2768 4.444443333333333 1749.71 0.0 0.0 1.0
-64.33233333333332 11.15726 1775.67 0.0 0.0 1.0
-64.9654 16.379833333333334 1775.67 0.0 0.0 1.0
-64.8071 22.393666666666665 1775.67 0.0 0.0 1.0
-66.07319999999999 25.08406666666667 1775.67 0.0 0.0 1.0
-65.8407 44.9164 1765.1899999999998 2.279121323746178e-26 6.216024874657324e-27 1.0
-65.56863333333334 48.70586666666666 1760.0 0.0 0.0 1.0
-65.18520000000001 57.4659 1749.71 0.0 0.0 1.0
-65.18520000000001 57.465900000000005 1749.71 0.0 0.0 1.0
-65.69486666666667 71.91446666666667 1744.61 0.0 0.0 1.0
-66.08696666666667 85.5652 1734.49 0.0 0.0 1.0
-66.12716666666667 99.19076666666666 1729.4800000000002 -2.7227040440798052e-31 2.5183197401701622e-27 1.0
-70.38693333333333 77.22953333333334 1348.79 0.9523459573102594 -0.29763818078570364 0.06669850772980153
-65.4406 123.75466666666667 1719.54 0.0 0.0 1.0
-65.1051 -131.41133333333335 1797.0 0.0 0.0 1.0
-65.90589999999999 -115.55566666666668 1797.0 0.0 0.0 1.0
-65.5856 -113.794 1797.0 0.0 0.0 1.0
-65.90589999999999 -112.51266666666668 1797.0 0.0 0.0 1.0
-63.99836666666666 -85.52 1795.2066666666667 -0.28481192344935874 0.9493994240248909 0.13237409838137584
-65.9481 -85.82836666666667 1791.62 0.0 0.0 1.0
-65.92716666666666 -73.6526 1716.2533333333333 -0.9430298064078059 0.3143204124607991 0.10907549008337933
-67.24596666666666 -63.246399999999994 1663.7733333333333 -0.9825693189314417 -0.16376767714286924 0.0879640916387579
-65.63833333333334 -42.139966666666666 1627.5666666666666 -0.7014730949215183 -0.701473094921524 0.12598013415791165
-65.23809999999999 -13.888866666666667 1780.95 0.0 0.0 1.0
-66.1905 -13.730133333333333 1780.95 0.0 0.0 1.0
-65.75669999999998 -0.3956466666666667 1775.67 0.0 0.0 1.0
-66.38973333333333 24.1345 1775.67 0.0 0.0 1.0
-64.85206666666666 38.4221 1770.41 0.0 0.0 1.0
-65.84070000000001 44.9164 1765.1899999999998 -3.226253443669252e-26 -7.103867163573635e-27 1.0
-67.26333333333334 60.8152 1742.9166666666667 0.9377268462804543 -0.1250257788902445 0.3240939931220579
-68.64290000000001 53.8534 1400.3166666666668 0.5144162162697131 -0.8573297813907489 0.019015845477978528
-67.8095 63.771433333333334 1709.71 0.0 0.0 1.0
-69.18353333333333 62.967533333333336 1394.8766666666668 -0.9925801163070296 -0.00017121600545432817 0.12159228345994343
-66.08696666666667 85.5652 1734.49 0.0 0.0 1.0
-64.53423333333333 91.63786666666665 1717.8966666666665 -0.6638868022441429 -0.4807396061280266 0.5728383235310955
-65.97303333333333 98.5742 1729.4800000000002 -1.0272958499569592e-26 -8.460421710657792e-27 1.0
-71.06723333333333 82.25413333333334 1302.8233333333335 0.6545094205063395 -0.7551387407273044 -0.037187373142462496
-71.2933 82.5304 1320.0166666666667 -0.8411548609357749 0.5407329435993864 0.008147615016675115
-66.32083333333334 117.50266666666668 1724.5 0.0 0.0 1.0
-62.91416666666667 -126.54700000000001 1791.62 0.0 0.0 1.0
-66.3864 -125.005 1797.0 0.0 0.0 1.0
-66.54656666666666 -124.52433333333333 1797.0 0.0 0.0 1.0
-65.1497 -106.90633333333334 1791.62 0.0 0.0 1.0
-66.1078 -105.78866666666666 1791.62 0.0 0.0 1.0
-66.26746666666666 -103.39333333333333 1791.62 0.0 0.0 1.0
-68.9191 -73.39353333333334 1703.2266666666667 -0.13072904791060133 -0.7190025939871993 0.6826017769329833
-66.9062 -73.37326666666667 1791.62 0.0 0.0 1.0
-67.24596666666666 -63.246399999999994 1663.7733333333333 -0.9825693189314417 -0.16376767714286924 0.0879640916387579
-67.84923333333333 -53.799033333333334 1642.4566666666667 -0.97607030504201 -0.1952318255057176 0.09576687279483771
-66.23146666666666 -2.9277933333333337 1775.67 0.0 0.0 1.0
-65.44016666666666 -1.3452019999999998 1775.67 0.0 0.0 1.0
-66.20463333333333 0.5548489999999999 1779.1899999999998 0.7058982493200053 -0.7059115907822474 0.058279392637780855
-66.2768 4.444443333333333 1749.71 0.0 0.0 1.0
-63.3235 11.406096666666665 1765.1899999999998 1.0282891914885202e-29 -4.0808655785400825e-29 1.0
-66.70623333333333 15.113733333333334 1775.67 0.0 0.0 1.0
-66.1594 16.558933333333332 1744.6166666666668 -0.9372723288489897 -0.3129787467936617 0.15350858487218325
-65.7567 23.184966666666668 1775.67 0.0 0.0 1.0
-65.84070000000001 44.9164 1765.1899999999998 -3.2262534436692585e-26 -7.103867163573646e-27 1.0
-70.38646666666666 47.74613333333334 1419.1433333333334 -0.5189600666130582 0.8492395867509664 0.09732714706605823
-66.31683333333334 71.448 1744.61 0.0 0.0 1.0
-69.18353333333333 62.967533333333336 1394.8766666666668 -0.9925801163070296 -0.00017121600545430042 0.12159228345994343
-66.08696666666667 85.5652 1734.49 0.0 0.0 1.0
-66.24153333333334 86.33816666666667 1734.49 0.0 0.0 1.0
-66.12716666666667 99.19076666666666 1729.4800000000002 -2.7227040440798052e-31 2.5183197401701622e-27 1.0
-66.97316666666667 123.60133333333333 1719.54 0.0 0.0 1.0
-60.71793333333333 169.12800000000001 2301.54 0.0 0.0 1.0
-66.38636666666666 -116.83666666666666 1797.0 0.0 0.0 1.0
-66.38636666666666 -111.872 1797.0 0.0 0.0 1.0
-66.26746666666666 -103.39333333333333 1791.62 0.0 0.0 1.0
-65.26523333333334 -100.66090000000001 1797.0 0.0 0.0 1.0
-67.027 -94.8949 1797.0 0.0 0.0 1.0
-66.86683333333332 -94.25426666666668 1797.0 0.0 0.0 1.0
-67.84923333333333 -53.799033333333334 1642.4566666666667 -0.9760703050420099 -0.19523182550571871 0.09576687279483671
-67.74130000000001 -52.93533333333334 1786.2699999999998 -1.5804249152376296e-27 -7.023504761859699e-28 1.0
-71.69959999999999 -49.4449 1605.7266666666667 0.649588362460402 -0.7361994710743579 0.1898559931786432
-67.67009999999999 -29.831999999999997 1590.0833333333333 -0.7987890590942957 -0.5990683308893086 0.05525553363010748
-67.67009999999999 -29.831999999999997 1590.0833333333333 -0.7987890590942954 -0.5990683308893087 0.05525553363010726
-67.14286666666668 -27.222233333333335 1780.95 0.0 0.0 1.0
-65.71430000000001 -19.127 1780.95 0.0 0.0 1.0
-66.20463333333333 0.5548489999999999 1779.1899999999998 0.7058982493200053 -0.7059115907822474 0.058279392637780855
-67.21246666666667 6.627680000000001 1749.71 0.0 0.0 1.0
-65.3965 15.144300000000001 1742.9166666666667 -0.8373278674483464 -0.5152850605603049 0.1826563679639103
-64.2975 20.956666666666667 1761.7300000000002 -0.5697063513777495 0.3944156711766343 0.72102077052616
-64.6943 21.065066666666667 1770.41 0.0 0.0 1.0
-67.57130000000001 35.16223333333333 1765.1899999999998 -1.7406186808101336e-25 -1.3054332777177998e-25 1.0
-67.72863333333333 38.623400000000004 1765.1899999999998 -2.2564645331984736e-27 9.67017201657342e-28 1.0
-66.82353333333333 46.9804 1760.0 0.0 0.0 1.0
-67.6442 49.34506666666667 1754.84 0.0 0.0 1.0
-69.69733333333333 47.504333333333335 1427.0266666666666 -0.945725072733855 4.428425367794524e-15 0.32496782425733284
-69.69733333333333 47.504333333333335 1427.0266666666666 -0.945725072733855 4.428425367794524e-15 0.32496782425733284
-68.6429 53.8534 1400.3166666666668 0.514416216269713 -0.857329781390749 0.019015845477978605
-69.712 63.143466666666676 1390.5633333333335 -0.9925776728658403 -0.00013290457790562612 0.12161227596178786
-67.47826666666667 82.31883333333333 1734.49 0.0 0.0 1.0
-67.94203333333333 91.13046666666668 1734.49 0.0 0.0 1.0
-65.36890000000001 94.93849999999999 1727.82 -1.4083074386067131e-15 -0.9487747065469136 0.3159534083006827
-68.0115 119.03933333333333 1724.5 0.0 0.0 1.0
-67.02703333333334 -125.64566666666667 1797.0 0.0 0.0 1.0
-66.38636666666666 -116.83666666666666 1797.0 0.0 0.0 1.0
-67.027 -111.55166666666666 1797.0 0.0 0.0 1.0
-67.02699999999999 -93.2933 1797.0 0.0 0.0 1.0
-67.38523333333333 -73.69263333333333 1791.62 0.0 0.0 1.0
-66.71623333333332 -57.78733333333333 1656.0933333333332 0.9485215448183413 -0.3161643367103034 -0.018627700018026785
-66.42713333333333 -59.6407 1791.62 0.0 0.0 1.0
-68.48806666666667 -53.98576666666667 1634.9799999999998 -0.9717524575576649 -0.21607830021061603 0.09490695131932798
-66.51336666666667 -24.509966666666667 1576.1233333333332 -0.9509418281349623 0.28942049361279115 0.10929509312070847
-67.14286666666668 -27.222233333333335 1780.95 0.0 0.0 1.0
-67.46033333333334 -14.5238 1780.95 0.0 0.0 1.0
-66.66669999999999 -14.047600000000001 1780.95 0.0 0.0 1.0
-66.86449999999999 1.661722 1775.67 0.0 0.0 1.0
-66.91286666666667 5.686323333333333 1748.01 -0.9414657922976607 -0.31386441437259155 0.12300931397210547
-67.9415 13.372523333333334 1734.5 -0.9709355328220503 0.2361671566829741 0.03884926264218327
-66.38973333333333 24.134500000000003 1775.67 0.0 0.0 1.0
-66.86216666666667 51.534699999999994 1754.84 0.0 0.0 1.0
-67.71623333333334 65.0729 1744.61 0.0 0.0 1.0
-67.56076666666667 71.91446666666667 1744.61 0.0 0.0 1.0
-72.10766666666666 61.121 1362.0766666666666 -0.8422744907739873 -0.538110629426702 0.031790449657387594
-68.06203333333333 75.89146666666666 1739.53 0.0 0.0 1.0
-67.47826666666667 82.31883333333333 1734.49 0.0 0.0 1.0
-67.63286666666666 91.90339999999999 1734.49 0.0 0.0 1.0
-70.291 75.3304 1344.7233333333334 -0.979686372435408 0.195942011598099 0.042677157300376634
-67.54856666666666 99.98123333333335 1724.506666666667 -0.981918000950844 -0.00043795254425339113 0.18930622706680048
-72.25966666666666 77.87686666666667 1295.25 -0.9355859008027232 0.3384053718775914 0.10080092511255138
-67.82783333333333 -124.044 1797.0 0.0 0.0 1.0
-67.82783333333333 -124.044 1797.0 0.0 0.0 1.0
-67.95179999999999 -120.40166666666666 1802.41 0.0 0.0 1.0
-67.02699999999999 -111.55166666666666 1797.0 0.0 0.0 1.0
-67.6558 -104.372 1775.67 0.0 0.0 1.0
-67.6558 -104.372 1775.67 0.0 0.0 1.0
-67.64353333333334 -101.93933333333332 1777.43 -0.9999757125469246 3.009996561547956e-15 0.0069695276935076095
-67.64353333333334 -101.93933333333332 1777.43 -0.9999757125469246 3.009996561547956e-15 0.0069695276935076095
-67.34733333333332 -96.01603333333334 1797.0 0.0 0.0 1.0
-67.34733333333332 -93.77376666666667 1797.0 0.0 0.0 1.0
-70.04853333333334 -94.92493333333334 1744.6166666666666 0.9467151208795226 -0.3156060329181621 0.06421301958116124
-67.70456666666666 -85.98803333333335 1791.62 0.0 0.0 1.0
-68.92686666666667 -73.4775 1701.6133333333335 -0.6433960664811782 -0.4679290912304325 0.6058744648991314
-68.1836 -72.0958 1791.62 0.0 0.0 1.0
-68.95383333333334 -53.70086666666666 1630.5266666666666 -0.9760603528208162 -0.19513314872044782 0.0960689435860928
-68.16390000000001 -53.5512 1639.46 -0.973991371267564 -0.2086305530857749 0.08839740389543994
-69.08743333333332 -43.295500000000004 1590.0833333333333 -0.9942702256382914 -7.805192314299974e-18 0.10689582970902546
-69.50356666666666 -42.48226666666667 1591.49 0.0 0.0 1.0
-68.09519999999999 -42.14286666666666 1780.95 0.0 0.0 1.0
-68.25393333333334 -41.34923333333333 1780.95 0.0 0.0 1.0
-67.14286666666668 -27.222233333333335 1780.95 0.0 0.0 1.0
-66.70626666666665 -2.6112733333333336 1775.67 0.0 0.0 1.0
-66.86449999999999 1.661722 1775.67 0.0 0.0 1.0
-67.66843333333334 7.883703333333334 1751.42 0.8542889266535745 0.512570434322412 -0.08638275091485169
-68.32350000000001 27.534499999999998 1770.41 0.0 0.0 1.0
-68.2006 35.6342 1765.1899999999998 9.669079370706498e-27 4.8345396853531765e-27 1.0
-68.1134 47.4682 1754.84 0.0 0.0 1.0
-68.616 53.2554 1749.71 0.0 0.0 1.0
-70.37473333333332 63.5936 1384.1500000000003 -0.7053222185210132 0.7068286389578002 0.053980026025003805
-67.94203333333333 82.31883333333333 1734.49 0.0 0.0 1.0
-68.5604 84.79223333333333 1734.49 0.0 0.0 1.0
-68.3189 118.271 1724.5 0.0 0.0 1.0
-68.14816666666667 -126.44666666666667 1797.0 0.0 0.0 1.0
-68.14816666666667 -126.44666666666667 1797.0 0.0 0.0 1.0
-67.9518 -120.40166666666666 1802.41 0.0 0.0 1.0
-67.5075 -94.8949 1797.0 0.0 0.0 1.0
-67.82783333333333 -94.25426666666668 1797.0 0.0 0.0 1.0
-68.50296666666667 -88.70256666666667 1791.62 0.0 0.0 1.0
-68.50296666666667 -71.61676666666666 1791.62 0.0 0.0 1.0
-64.3208 -57.31086666666667 1708.0866666666668 0.05627192398826155 -0.45016923726057373 0.89116840630427
-69.17410000000001 -51.184066666666666 1786.2699999999998 -1.661377042411188e-27 1.748480705159038e-28 1.0
-69.23866666666667 -41.982600000000005 1588.6766666666665 -0.9942702256382914 1.8570496872041856e-16 0.10689582970902572
-69.80603333333333 -41.2734 1588.6766666666665 0.9589199790078695 -2.3522716710669914e-16 0.28367670658611865
-68.25393333333334 -41.34923333333333 1780.95 0.0 0.0 1.0
-70.35533333333333 -27.634533333333334 1717.8966666666665 0.7617785913883958 0.6445867870079979 -0.06481706347111002
-67.33593333333333 -23.34006666666667 1775.6766666666665 -0.6458757669357811 -0.6477850512139318 0.40400373897883696
-67.46033333333334 -14.5238 1780.95 0.0 0.0 1.0
-69.8163 3.0131499999999996 1731.1500000000003 0.8983407763338692 -0.31441966024902573 0.3067965560835851
-68.37023333333333 6.897456666666667 1739.5433333333333 -0.9822587194265655 0.0021379287182239845 0.1875186320643355
-67.21246666666667 6.627680000000001 1749.71 0.0 0.0 1.0
-67.21896666666667 30.374733333333335 1770.41 0.0 0.0 1.0
-68.2006 35.6342 1765.1899999999998 9.669079370706498e-27 4.8345396853531765e-27 1.0
-67.72863333333333 37.364799999999995 1765.1899999999998 -3.044601790592811e-27 5.373987312046905e-28 1.0
-67.72863333333333 38.6234 1765.1899999999998 -2.546520521245917e-27 -7.735645888761145e-28 1.0
-67.92156666666666 45.2549 1760.0 0.0 0.0 1.0
-68.5826 46.68620000000001 1754.84 0.0 0.0 1.0
-68.1134 47.4682 1754.84 0.0 0.0 1.0
-67.95700000000001 49.9707 1754.84 0.0 0.0 1.0
-68.616 53.2554 1749.71 0.0 0.0 1.0
-69.42663333333333 56.05443333333333 1744.61 0.0 0.0 1.0
-69.69733333333335 47.504333333333335 1427.0266666666666 -0.945725072733855 4.428425367794524e-15 0.32496782425733284
-68.71289999999999 61.39076666666667 1711.3433333333332 3.877740006667249e-16 0.9473369360128658 0.3202385511860733
-69.02856666666666 61.9429 1709.71 0.0 0.0 1.0
-68.7238 62.40003333333334 1709.71 0.0 0.0 1.0
-68.06203333333333 75.89146666666666 1739.53 0.0 0.0 1.0
-68.06203333333333 75.89146666666666 1739.53 0.0 0.0 1.0
-67.9532 81.77666666666666 1732.82 -0.7068204309902791 0.7068204309902558 -0.028456223738665506
-67.94203333333333 82.31883333333333 1734.49 0.0 0.0 1.0
-67.94203333333333 91.13046666666668 1734.49 0.0 0.0 1.0
-68.09663333333333 91.90339999999999 1734.49 0.0 0.0 1.0
-68.19826666666667 100.45983333333334 1719.55 -0.9718295870776872 0.2159217627613608 0.09447246184173455
-68.85336666666666 100.83516666666667 1712.9966666666667 -0.9400735941321089 0.31352680632789764 0.13402454748801934
-68.6263 117.50266666666668 1724.5 0.0 0.0 1.0
-68.3189 118.271 1724.5 0.0 0.0 1.0
-68.3189 118.271 1724.5 0.0 0.0 1.0
-68.19923333333334 122.835 1719.54 0.0 0.0 1.0
-64.20513333333332 168.718 2301.54 0.0 0.0 1.0
-68.30833333333334 -126.92733333333335 1797.0 0.0 0.0 1.0
-68.14816666666667 -126.44666666666667 1797.0 0.0 0.0 1.0
-68.30833333333334 -124.044 1797.0 0.0 0.0 1.0
-67.9518 -120.40166666666666 1802.41 0.0 0.0 1.0
-68.50296666666667 -88.70256666666667 1791.62 0.0 0.0 1.0
-69.49286666666666 -73.3198 1684.0533333333333 -0.9812412529460413 -1.4777255380871885e-15 0.19278382586950374
-69.49286666666666 -73.3198 1684.0533333333333 -0.9812412529460413 -1.7552812942434776e-15 0.19278382586950385
-68.2189 -54.20896666666667 1786.2699999999998 0.0 0.0 1.0
-70.35533333333333 -27.634533333333334 1717.8966666666665 0.7617785913883958 0.6445867870079979 -0.06481706347111002
-70.69036666666666 -28.32343333333333 1770.41 0.0 0.0 1.0
-68.80756666666666 -25.776233333333334 1768.67 -0.9953456485346162 -3.618391664889864e-16 0.09636928941942234
-68.88889999999999 -12.3016 1780.95 0.0 0.0 1.0
-70.39469999999999 -5.03363 1737.8733333333332 -0.9278128218289213 -0.36094698079966214 0.09423717260965851
-68.92183333333334 14.4807 1775.67 0.0 0.0 1.0
-67.9723 22.551933333333334 1775.67 0.0 0.0 1.0
-68.32350000000001 27.534499999999998 1770.41 0.0 0.0 1.0
-68.32350000000001 27.534500000000005 1770.41 0.0 0.0 1.0
-68.2006 35.6342 1765.1899999999998 9.669079370706498e-27 4.8345396853531765e-27 1.0
-68.86276666666667 43.686266666666675 1760.0 0.0 0.0 1.0
-67.95700000000001 49.9707 1754.84 0.0 0.0 1.0
-69.42663333333333 56.05443333333333 1744.61 0.0 0.0 1.0
-69.02856666666666 61.9429 1709.71 0.0 0.0 1.0
-72.45193333333333 49.308400000000006 1388.4066666666668 -0.7053768915382826 0.6089619703754976 0.3627792159429495
-71.5229 66.39403333333333 1668.403333333333 -0.2239428221297566 -0.9704579784125696 0.08978265173154702
-71.35136666666666 71.66416666666667 1731.17 -0.610181962016984 -0.7881752675481007 0.08035994558599097
-68.80470000000001 72.22543333333333 1744.61 0.0 0.0 1.0
-71.2788 64.0348 1377.7666666666667 -0.8915458480745589 -0.44615158017458917 0.07806899697531919
-68.5604 84.79223333333334 1734.49 0.0 0.0 1.0
-68.5604 84.79223333333334 1734.49 0.0 0.0 1.0
-71.2933 82.5304 1320.0166666666667 -0.8411548609357747 0.5407329435993864 0.00814761501667511
-68.30833333333334 -123.884 1797.0 0.0 0.0 1.0
-69.1765 -103.60766666666666 1760.0 0.0 0.0 1.0
-69.1765 -103.60766666666666 1760.0 0.0 0.0 1.0
-69.4902 -101.25486666666667 1760.0 0.0 0.0 1.0
-68.50296666666667 -88.70256666666667 1791.62 0.0 0.0 1.0
-69.62073333333333 -72.73453333333333 1791.62 0.0 0.0 1.0
-68.45573333333334 -57.644499999999994 1639.46 -0.9302709122078937 0.3444939405948896 0.12617430322097353
-69.7171 -52.63673333333333 1624.6366666666665 -0.9752096082783154 -0.20319253731070186 0.08762997605211184
-68.25393333333334 -41.34923333333334 1780.95 0.0 0.0 1.0
-70.15873333333333 -34.84126666666666 1780.95 0.0 0.0 1.0
-70.15873333333333 -34.84126666666666 1780.95 0.0 0.0 1.0
-68.9867 -22.42503333333333 1765.2 -0.9226357448574785 0.3075223342353453 0.23275157627335333
-68.9867 -22.42503333333333 1765.2 -0.9226357448574832 0.30752233423533526 0.2327515762733475
-67.09226666666666 -1.9670433333333335 1765.2 -0.07631152590793663 0.9922019840744019 0.0985483323675378
-68.7149 6.726463333333334 1734.5 -0.8270905350533894 -0.5513408235232277 0.10929109360706023
-69.23836666666666 13.372900000000001 1775.67 0.0 0.0 1.0
-68.92183333333334 14.480699999999999 1775.67 0.0 0.0 1.0
-68.92183333333334 14.480699999999999 1775.67 0.0 0.0 1.0
-68.2888 23.184966666666668 1775.67 0.0 0.0 1.0
-69.2082 46.373400000000004 1754.84 0.0 0.0 1.0
-72.45193333333334 49.308400000000006 1388.4066666666668 -0.7053768915382826 0.6089619703754976 0.3627792159429495
-69.02856666666666 61.9429 1709.71 0.0 0.0 1.0
-69.92246666666666 72.63566666666667 1739.53 0.0 0.0 1.0
-72.79899999999999 68.47736666666667 1346.74 0.831225307877899 0.4155549860252625 0.3692946535394684
-69.35146666666667 101.36899999999999 1706.4833333333333 -0.9950355209440412 0.00013140082126609392 0.09952032351959465
-68.78 118.271 1724.5 0.0 0.0 1.0
-69.7318 120.383 1719.54 0.0 0.0 1.0
-69.7318 120.383 1719.54 0.0 0.0 1.0
-66.0513 168.718 2301.54 0.0 0.0 1.0
-69.55823333333332 -132.44966666666667 1802.41 0.0 0.0 1.0
-69.55823333333332 -131.325 1802.41 0.0 0.0 1.0
-68.62863333333333 -126.12633333333333 1797.0 0.0 0.0 1.0
-68.43373333333334 -121.205 1802.41 0.0 0.0 1.0
-69.51043333333334 -104.18866666666666 1756.5600000000002 -0.9953213939374611 -4.7494408623388395e-17 0.0966194740742766
-69.51043333333334 -102.777 1756.5600000000002 -0.9953213939374611 3.009124089459389e-17 0.09661947407427672
-70.77980000000001 -93.23056666666668 1724.506666666667 0.9561924552994574 -0.24931146834660092 -0.15342679094361902
-70.271 -74.6126 1679.33 -0.9949362929074643 -4.123107422616739e-16 0.10050757710517486
-70.271 -74.6126 1679.33 -0.9949362929074643 -4.1245128836677615e-16 0.10050757710517486
-70.28023333333333 -73.49616666666667 1677.7600000000002 -0.9395465340435616 0.31313559085527576 0.13855833466972806
-67.28313333333334 -73.48479999999999 1719.55 0.4472075973329379 0.8944052012729867 -0.006685867447756427
-71.79736666666666 -53.45203333333333 1614.3933333333334 -0.19015689015496495 -0.8556398718380257 0.48137383274083306
-69.19773333333335 -51.482400000000005 1615.8466666666666 0.6968512028799696 -0.6271709170243873 0.34792965076797994
-69.65173333333334 -55.3234 1786.2699999999998 -4.6044915152661625e-18 4.604694482038632e-18 1.0
-69.33333333333333 -50.069633333333336 1786.2699999999998 7.3671235850478185e-19 7.367082981640084e-19 1.0
-69.65480000000001 -41.16936666666667 1590.0833333333333 0.7751972702880698 0.6201651032888342 0.12026818698506665
-69.98926666666667 -2.1109899999999997 1754.8500000000001 -0.8274591589873708 -0.5516834953526545 0.10467407111310116
-69.48966666666666 -2.1172 1760.01 -0.946782816887029 -0.3157109973925772 0.06268064910996468
-68.89783333333332 3.5664819999999993 1779.1899999999998 -0.7710313979412013 -0.5996851303557361 0.21421561058676475
-69.23836666666666 15.588533333333332 1775.67 0.0 0.0 1.0
-69.7436 25.4832 1770.41 0.0 0.0 1.0
-69.4592 34.060966666666666 1765.1899999999998 8.122985463843758e-27 -3.1911157841735556e-27 1.0
-69.4902 42.43136666666667 1760.0 0.0 0.0 1.0
-68.616 53.25540000000001 1749.71 0.0 0.0 1.0
-72.3955 45.17583333333334 1398.1366666666665 -0.9026887217059668 0.31946704902878414 0.2882600844544526
-68.90696666666666 50.3655 1414.6633333333332 -0.6884148802514944 0.6586827808688528 0.3036806658896737
-70.92243333333333 66.3075 1669.9566666666667 -0.1405990941927646 -0.9842565812979754 0.10710217964073296
-68.86956666666667 90.97586666666666 1734.49 0.0 0.0 1.0
-73.49173333333333 69.70553333333334 1351.82 -0.911888606909614 0.40533926031919537 -0.0644922680042432
-70.30936666666666 100.1397 1698.4133333333332 0.0005002464582837504 -0.9462862796720698 0.32332959446650456
-70.0096 116.58033333333333 1724.5 0.0 0.0 1.0
-69.55823333333332 -132.44966666666667 1802.41 0.0 0.0 1.0
-70.04016666666666 -130.3613333333333 1802.41 0.0 0.0 1.0
-68.14813333333332 -111.55166666666666 1797.0 0.0 0.0 1.0
-69.65716666666667 -100.2142 1758.28 -0.9405894144669399 -0.31351870013275673 0.13037476005655893
-71.2608 -92.48123333333335 1719.55 -0.9636869990699458 0.22241420940344045 0.1477812142290245
-69.62076666666667 -87.42513333333333 1791.62 0.0 0.0 1.0
-70.28023333333333 -73.49616666666667 1677.7600000000002 -0.9395465340435613 0.3131355908552757 0.13855833466972808
-69.62073333333333 -72.73453333333333 1791.62 0.0 0.0 1.0
-69.9401 -72.2555 1791.62 0.0 0.0 1.0
-69.9401 -72.2555 1791.62 0.0 0.0 1.0
