ply
format ascii 1.0
comment VCGLIB generated
element vertex 827
property float x
property float y
property float z
property float nx
property float ny
property float nz
element face 0
property list uchar int vertex_indices
end_header
6.349206666666666 -18.333333333333332 1780.95 0.0 0.0 1.0
5.873016666666667 -13.730133333333335 1780.95 0.0 0.0 1.0
7.35905 -6.409496666666667 1775.67 0.0 0.0 1.0
6.884273333333333 -4.510386666666666 1775.67 0.0 0.0 1.0
6.6272166666666665 5.128206666666666 1770.41 0.0 0.0 1.0
6.1538466666666665 7.81065 1770.41 0.0 0.0 1.0
6.627220000000001 11.124266666666665 1770.41 0.0 0.0 1.0
25.498766666666665 23.64963333333333 2183.94 0.0 0.0 1.0
7.058823333333334 22.9804 1760.0 0.0 0.0 1.0
6.081873333333333 35.4776 1749.71 0.0 0.0 1.0
6.490713333333333 45.747800000000005 1754.84 0.0 0.0 1.0
7.3725499999999995 50.43136666666666 1760.0 0.0 0.0 1.0
25.49876666666667 102.09266666666667 2183.94 0.0 0.0 1.0
26.472033333333332 138.29666666666665 2183.94 0.0 0.0 1.0
27.055966666666666 144.72033333333334 2183.94 0.0 0.0 1.0
27.055966666666666 144.72033333333334 2183.94 0.0 0.0 1.0
0.648062 116.93533333333333 1618.76 4.3413513297386927e-16 -0.9654068919481975 0.2607480258389719
27.44526666666667 -161.46 2183.94 0.0 0.0 1.0
12.746333333333332 -129.05666666666667 1881.76 0.0 0.0 1.0
11.4046 -126.87633333333332 1881.76 0.0 0.0 1.0
11.166666666666666 -94.25 1870.0 0.0 0.0 1.0
11.166666666666666 -94.25 1870.0 0.0 0.0 1.0
27.6399 -78.34546666666667 2183.94 0.0 0.0 1.0
25.888099999999998 -67.05596666666666 2183.94 0.0 0.0 1.0
25.109499999999997 -61.216566666666665 2183.94 0.0 0.0 1.0
26.277366666666666 -54.598533333333336 2183.94 0.0 0.0 1.0
25.888066666666663 -52.4574 2183.94 0.0 0.0 1.0
28.418499999999998 -44.671533333333336 2183.94 0.0 0.0 1.0
6.606963333333333 -36.378099999999996 1786.2699999999998 -2.3239476895222337e-27 9.960090275704009e-28 1.0
26.861333333333334 -37.274966666666664 2183.94 0.0 0.0 1.0
27.44526666666667 -35.328466666666664 2183.94 0.0 0.0 1.0
5.810943333333334 -26.8259 1786.2699999999998 -5.7546766015440774e-27 -2.8331369368955455e-26 1.0
7.200793333333333 -11.157266666666667 1775.67 0.0 0.0 1.0
7.042533333333334 0.07912966666666667 1775.67 0.0 0.0 1.0
6.311640000000001 9.230773333333333 1770.41 0.0 0.0 1.0
6.62722 11.124266666666665 1770.41 0.0 0.0 1.0
6.05703 13.9233 1765.1899999999998 2.1756696187600717e-28 -1.3415893721428703e-27 1.0
4.926686666666666 29.951099999999997 1754.84 0.0 0.0 1.0
6.081873333333333 35.4776 1749.71 0.0 0.0 1.0
4.2105266666666665 38.44056666666667 1749.71 0.0 0.0 1.0
26.666666666666668 67.44526666666667 2183.94 0.0 0.0 1.0
26.2774 74.45256666666667 2183.94 0.0 0.0 1.0
25.69343333333333 86.52069999999999 2183.94 0.0 0.0 1.0
25.69343333333333 86.52069999999999 2183.94 0.0 0.0 1.0
25.49876666666667 96.64233333333334 2183.94 0.0 0.0 1.0
27.250633333333337 107.93166666666666 2183.94 0.0 0.0 1.0
3.086603333333333 82.85533333333333 1688.8100000000002 -0.24798690018042732 0.49595185461747526 0.832186430579344
25.888066666666663 126.61766666666666 2183.94 0.0 0.0 1.0
-2.2265599999999997 110.56533333333333 1569.2966666666664 -0.6304273918049281 -0.7563840979983796 0.17448323689458936
10.733753333333333 -120.83866666666667 1881.76 0.0 0.0 1.0
10.783686666666666 -118.788 1875.86 0.0 0.0 1.0
10.114933333333333 -113.93966666666665 1875.86 0.0 0.0 1.0
11.166666666666666 -99.08333333333333 1870.0 0.0 0.0 1.0
11.166666666666666 -98.75 1870.0 0.0 0.0 1.0
11.048833333333334 -91.7965 1864.17 0.0 0.0 1.0
11.048833333333334 -88.6397 1864.17 0.0 0.0 1.0
5.748503333333333 -55.01 1791.62 0.0 0.0 1.0
26.277366666666666 -54.598533333333336 2183.94 0.0 0.0 1.0
6.2885566666666675 -36.85569999999999 1786.2699999999998 -2.276565581323795e-27 5.691501342634427e-27 1.0
6.2885566666666675 -36.2189 1786.2699999999998 1.487314657892633e-27 -1.168628842324284e-27 1.0
5.810946666666666 -33.034800000000004 1786.2699999999998 6.639945872397744e-27 -2.3904290809501873e-26 1.0
6.092976666666666 -3.87735 1775.67 0.0 0.0 1.0
6.311636666666668 6.548323333333333 1770.41 0.0 0.0 1.0
4.326453333333333 16.125866666666667 1765.1899999999998 -4.705452763369562e-29 4.23483437680553e-29 1.0
25.498766666666665 23.64963333333333 2183.94 0.0 0.0 1.0
5.803920000000001 20.15686666666667 1760.0 0.0 0.0 1.0
5.803920000000001 20.15686666666667 1760.0 0.0 0.0 1.0
4.926686666666666 29.951099999999997 1754.84 0.0 0.0 1.0
26.666666666666668 67.44526666666667 2183.94 0.0 0.0 1.0
24.330900000000003 78.92943333333334 2183.94 0.0 0.0 1.0
25.498766666666665 96.64233333333333 2183.94 0.0 0.0 1.0
24.72016666666667 118.05333333333334 2183.94 0.0 0.0 1.0
-19.088433333333334 69.25443333333332 1506.1766666666665 -0.21554020320060366 0.646620609601967 0.7317268671042653
25.109466666666666 124.08766666666666 2183.94 0.0 0.0 1.0
25.888066666666663 126.61766666666666 2183.94 0.0 0.0 1.0
25.888066666666663 126.61766666666666 2183.94 0.0 0.0 1.0
3.59379 110.06033333333335 1690.4333333333334 0.00032259565725918795 -0.9937194189428531 0.1119000104911532
10.515233333333333 -130.30466666666666 1887.7 0.0 0.0 1.0
11.4046 -126.87633333333333 1881.76 0.0 0.0 1.0
10.114933333333333 -113.93966666666665 1875.86 0.0 0.0 1.0
10.950866666666665 -112.43466666666667 1875.86 0.0 0.0 1.0
10.666666666666666 -94.41666666666667 1870.0 0.0 0.0 1.0
11.474566666666666 -81.41513333333333 1866.1133333333335 0.695407286366443 0.5563090870832108 0.4548943896082962
9.613363333333334 -78.49533333333333 1875.86 0.0 0.0 1.0
5.748503333333333 -55.01 1791.62 0.0 0.0 1.0
25.109499999999997 -61.216566666666665 2183.94 0.0 0.0 1.0
5.810946666666666 -33.034800000000004 1786.2699999999998 6.639945872397738e-27 -2.3904290809501858e-26 1.0
5.810943333333334 -26.8259 1786.2699999999998 -5.7546766015440774e-27 -2.8331369368955455e-26 1.0
5.873016666666667 -13.730133333333335 1780.95 0.0 0.0 1.0
4.826906666666667 -5.9347199999999996 1775.67 0.0 0.0 1.0
5.618199999999999 -3.244313333333333 1775.67 0.0 0.0 1.0
5.618199999999999 -3.244313333333333 1775.67 0.0 0.0 1.0
3.87735 6.726013333333333 1775.67 0.0 0.0 1.0
23.94163333333334 33.576633333333334 2183.94 0.0 0.0 1.0
4.144673333333333 31.82796666666667 1754.84 0.0 0.0 1.0
3.7426933333333334 42.1832 1749.71 0.0 0.0 1.0
3.7426933333333334 42.1832 1749.71 0.0 0.0 1.0
24.52553333333334 75.0365 2183.94 0.0 0.0 1.0
25.49876666666667 102.09266666666667 2183.94 0.0 0.0 1.0
24.52553333333334 113.38233333333334 2183.94 0.0 0.0 1.0
24.914833333333334 136.934 2183.94 0.0 0.0 1.0
24.720200000000002 137.71266666666668 2183.94 0.0 0.0 1.0
9.789023333333333 -135.10533333333333 1893.67 0.0 0.0 1.0
10.851723333333334 -132.82866666666666 1887.7 0.0 0.0 1.0
10.515233333333333 -130.30466666666666 1887.7 0.0 0.0 1.0
10.515233333333333 -130.3046666666667 1887.7 0.0 0.0 1.0
10.783686666666666 -118.788 1875.86 0.0 0.0 1.0
20.048633333333335 -121.36266666666667 2183.94 0.0 0.0 1.0
9.613363333333334 -78.49533333333333 1875.86 0.0 0.0 1.0
9.111806666666666 -76.65623333333333 1875.86 0.0 0.0 1.0
23.552300000000002 -74.06330000000001 2183.94 0.0 0.0 1.0
24.525533333333332 -52.8467 2183.94 0.0 0.0 1.0
6.129353333333333 -36.69649999999999 1786.2699999999998 -5.256691783053172e-28 1.7153540299693328e-27 1.0
4.696516666666667 -31.124399999999998 1786.2699999999998 -3.541243913276066e-27 6.197366849091658e-27 1.0
23.552300000000002 -14.501233333333332 2183.94 0.0 0.0 1.0
5.270403333333333 14.709933333333334 1765.1899999999998 -2.130447703369299e-28 1.3144742148076802e-28 1.0
4.144673333333333 31.82796666666667 1754.84 0.0 0.0 1.0
3.675463333333333 32.2972 1754.84 0.0 0.0 1.0
4.2105266666666665 38.440566666666676 1749.71 0.0 0.0 1.0
4.2105266666666665 38.440566666666676 1749.71 0.0 0.0 1.0
23.163 64.72019999999999 2183.94 0.0 0.0 1.0
25.109466666666666 73.8686 2183.94 0.0 0.0 1.0
24.525533333333332 75.0365 2183.94 0.0 0.0 1.0
24.914833333333334 86.1314 2183.94 0.0 0.0 1.0
24.914833333333334 97.61559999999999 2183.94 0.0 0.0 1.0
24.136233333333337 102.09266666666667 2183.94 0.0 0.0 1.0
23.941600000000005 114.93933333333332 2183.94 0.0 0.0 1.0
24.720166666666668 118.05333333333334 2183.94 0.0 0.0 1.0
24.136233333333337 121.168 2183.94 0.0 0.0 1.0
23.941600000000005 136.15533333333335 2183.94 0.0 0.0 1.0
23.163 155.81466666666668 2183.94 0.0 0.0 1.0
25.49876666666667 160.48666666666668 2183.94 0.0 0.0 1.0
23.35766666666667 -160.09733333333335 2183.94 0.0 0.0 1.0
10.34699 -130.8096666666667 1887.7 0.0 0.0 1.0
8.55346 -121.34166666666665 1881.76 0.0 0.0 1.0
9.895183333333334 -118.15499999999999 1881.76 0.0 0.0 1.0
10.114933333333333 -113.93966666666667 1875.86 0.0 0.0 1.0
8.443053333333333 -93.04073333333334 1875.86 0.0 0.0 1.0
25.1095 -61.216566666666665 2183.94 0.0 0.0 1.0
4.855723333333333 -33.3532 1786.2699999999998 -1.7705385455884592e-27 -8.85306344371826e-28 1.0
4.855723333333333 -33.3532 1786.2699999999998 -1.7705385455884592e-27 -8.853063443718258e-28 1.0
6.349206666666666 -19.603166666666667 1780.95 0.0 0.0 1.0
4.6031699999999995 -15.952399999999999 1780.95 0.0 0.0 1.0
4.6031699999999995 -15.4762 1780.95 0.0 0.0 1.0
4.7619 -15.0 1780.95 0.0 0.0 1.0
4.44444 -14.682533333333334 1780.95 0.0 0.0 1.0
23.552300000000002 -14.501233333333332 2183.94 0.0 0.0 1.0
3.7190933333333334 -8.308606666666666 1775.67 0.0 0.0 1.0
4.826906666666667 -5.934720000000001 1775.67 0.0 0.0 1.0
4.826906666666667 -5.934720000000001 1775.67 0.0 0.0 1.0
24.3309 25.012166666666662 2183.94 0.0 0.0 1.0
2.509803333333333 24.54903333333333 1760.0 0.0 0.0 1.0
3.206253333333334 34.330400000000004 1754.84 0.0 0.0 1.0
23.941600000000005 75.0365 2183.94 0.0 0.0 1.0
24.3309 78.92943333333334 2183.94 0.0 0.0 1.0
24.136233333333337 86.71533333333333 2183.94 0.0 0.0 1.0
24.136233333333337 86.71533333333333 2183.94 0.0 0.0 1.0
23.5523 93.13866666666667 2183.94 0.0 0.0 1.0
24.914833333333334 97.61559999999999 2183.94 0.0 0.0 1.0
24.52553333333334 113.38233333333334 2183.94 0.0 0.0 1.0
23.552300000000002 118.248 2183.94 0.0 0.0 1.0
24.136233333333337 121.168 2183.94 0.0 0.0 1.0
23.74696666666667 121.94666666666667 2183.94 0.0 0.0 1.0
24.3309 129.343 2183.94 0.0 0.0 1.0
24.330900000000003 138.49133333333336 2183.94 0.0 0.0 1.0
24.3309 138.49133333333336 2183.94 0.0 0.0 1.0
22.968366666666668 148.22366666666667 2183.94 0.0 0.0 1.0
23.941600000000005 153.47933333333333 2183.94 0.0 0.0 1.0
22.7737 160.68133333333333 2183.94 0.0 0.0 1.0
24.525566666666666 -161.26533333333336 2183.94 0.0 0.0 1.0
9.789023333333333 -135.10533333333333 1893.67 0.0 0.0 1.0
8.664563333333334 -127.94933333333334 1887.7 0.0 0.0 1.0
9.056603333333333 -118.32266666666665 1881.76 0.0 0.0 1.0
7.941483333333334 -106.416 1875.86 0.0 0.0 1.0
8.61024 -105.24566666666668 1875.86 0.0 0.0 1.0
8.443053333333333 -93.04073333333334 1875.86 0.0 0.0 1.0
22.968400000000003 -100.14606666666667 2183.94 0.0 0.0 1.0
22.968400000000003 -100.14606666666667 2183.94 0.0 0.0 1.0
9.111806666666666 -76.65623333333333 1875.86 0.0 0.0 1.0
9.111806666666666 -76.65623333333333 1875.86 0.0 0.0 1.0
23.552300000000002 -74.06330000000001 2183.94 0.0 0.0 1.0
22.579066666666666 -69.3917 2183.94 0.0 0.0 1.0
5.174126666666666 -39.56216666666666 1786.2699999999998 -5.717875730457669e-27 3.4675969828046165e-27 1.0
4.85572 -39.402966666666664 1786.2699999999998 -5.902268853613184e-27 1.5739438533365667e-27 1.0
4.855723333333333 -33.3532 1786.2699999999998 -1.7705385455884592e-27 -8.85306344371826e-28 1.0
4.537313333333333 -30.806 1786.2699999999998 0.0 -1.0 0.0
4.5373133333333335 -26.507500000000004 1786.2699999999998 -4.301412546240759e-16 -1.2904552859544102e-15 1.0
25.4988 -32.214133333333336 2183.94 0.0 0.0 1.0
4.378106666666667 -25.393033333333335 1786.2699999999998 -4.426624390615839e-28 -4.426253690363291e-28 1.0
4.6031699999999995 -15.952399999999999 1780.95 0.0 0.0 1.0
3.7190933333333334 -7.359053333333333 1775.67 0.0 0.0 1.0
22.968366666666668 26.3747 2183.94 0.0 0.0 1.0
23.941633333333332 33.576633333333334 2183.94 0.0 0.0 1.0
23.941633333333332 33.576633333333334 2183.94 0.0 0.0 1.0
3.675463333333333 32.2972 1754.84 0.0 0.0 1.0
2.5806433333333336 35.5816 1754.84 0.0 0.0 1.0
1.9550333333333336 37.614866666666664 1754.84 0.0 0.0 1.0
3.274856666666667 41.559433333333324 1749.71 0.0 0.0 1.0
3.274856666666667 41.559433333333324 1749.71 0.0 0.0 1.0
3.8318666666666665 46.217000000000006 1754.84 0.0 0.0 1.0
23.941600000000005 75.0365 2183.94 0.0 0.0 1.0
24.3309 78.92943333333334 2183.94 0.0 0.0 1.0
22.773733333333336 106.95833333333333 2183.94 0.0 0.0 1.0
22.773733333333336 106.95833333333333 2183.94 0.0 0.0 1.0
22.968366666666668 122.336 2183.94 0.0 0.0 1.0
22.384433333333334 130.70566666666664 2183.94 0.0 0.0 1.0
23.35766666666667 151.33833333333334 2183.94 0.0 0.0 1.0
22.968366666666668 -158.7346666666667 2183.94 0.0 0.0 1.0
9.789023333333333 -135.10533333333333 1893.67 0.0 0.0 1.0
8.664563333333334 -127.94933333333334 1887.7 0.0 0.0 1.0
7.547169999999999 -120.83833333333332 1881.76 0.0 0.0 1.0
8.27586 -104.24266666666666 1875.86 0.0 0.0 1.0
9.666666666666666 -98.75 1870.0 0.0 0.0 1.0
6.373166666666667 -74.71696666666668 1881.76 0.0 0.0 1.0
22.384433333333334 -74.84186666666666 2183.94 0.0 0.0 1.0
22.579066666666666 -69.3917 2183.94 0.0 0.0 1.0
4.950103333333334 -54.37126666666666 1791.62 0.0 0.0 1.0
1.5968073333333335 -44.63073333333333 1791.62 0.0 0.0 1.0
22.189766666666667 -54.20926666666667 2183.94 0.0 0.0 1.0
22.968333333333334 -49.927 2183.94 0.0 0.0 1.0
4.0597 -31.442800000000002 1786.2699999999998 1.2394511254551897e-26 -1.1952108330844878e-26 1.0
3.900496666666667 -25.233833333333333 1786.2699999999998 -7.068345897051856e-19 7.067965364144895e-19 1.0
3.96825 -14.5238 1780.95 0.0 0.0 1.0
3.87735 6.726013333333333 1775.67 0.0 0.0 1.0
3.471402 11.282033333333333 1770.41 0.0 0.0 1.0
2.123896666666667 17.85643333333333 1765.1899999999998 1.047532532034699e-28 -2.7803255655460453e-28 1.0
2.26784 46.68620000000001 1754.84 0.0 0.0 1.0
22.189766666666667 65.49876666666667 2183.94 0.0 0.0 1.0
1.9809510000000001 65.29523333333333 1709.71 0.0 0.0 1.0
23.163 101.50866666666666 2183.94 0.0 0.0 1.0
22.968366666666668 148.22366666666667 2183.94 0.0 0.0 1.0
22.189766666666667 155.62 2183.94 0.0 0.0 1.0
21.99513333333333 -157.5666666666667 2183.94 0.0 0.0 1.0
8.27586 -104.24266666666666 1875.86 0.0 0.0 1.0
7.379453333333333 -90.6499 1881.76 0.0 0.0 1.0
21.216566666666665 -98.78343333333333 2183.94 0.0 0.0 1.0
22.189766666666667 -70.36493333333334 2183.94 0.0 0.0 1.0
4.950103333333334 -54.37126666666666 1791.62 0.0 0.0 1.0
22.189766666666667 -54.20926666666667 2183.94 0.0 0.0 1.0
2.3952113333333336 -37.12576666666667 1791.62 0.0 0.0 1.0
3.5820900000000004 -31.602 1786.2699999999998 -8.853285878617045e-27 -1.8592267378397526e-26 1.0
3.422886666666667 -31.283600000000003 1786.2699999999998 6.639797579877863e-28 -5.31206050501092e-27 1.0
3.33333 -16.26986666666667 1780.95 0.0 0.0 1.0
3.33333 -14.682533333333334 1780.95 0.0 0.0 1.0
23.552300000000002 -14.501233333333332 2183.94 0.0 0.0 1.0
1.88235 25.803933333333333 1760.0 0.0 0.0 1.0
22.189766666666667 65.49876666666667 2183.94 0.0 0.0 1.0
21.99513333333333 71.92213333333332 2183.94 0.0 0.0 1.0
1.9809510000000001 65.29523333333333 1709.71 0.0 0.0 1.0
21.99513333333333 101.70333333333333 2183.94 0.0 0.0 1.0
21.8005 117.46933333333334 2183.94 0.0 0.0 1.0
22.384433333333334 118.05333333333334 2183.94 0.0 0.0 1.0
22.579066666666666 134.98766666666666 2183.94 0.0 0.0 1.0
22.968366666666668 148.22366666666667 2183.94 0.0 0.0 1.0
22.189766666666667 155.62 2183.94 0.0 0.0 1.0
8.664563333333334 -127.94933333333334 1887.7 0.0 0.0 1.0
7.547169999999999 -120.83833333333332 1881.76 0.0 0.0 1.0
7.774296666666667 -93.70949999999999 1875.86 0.0 0.0 1.0
7.774296666666667 -93.70949999999999 1875.86 0.0 0.0 1.0
7.379453333333333 -90.6499 1881.76 0.0 0.0 1.0
5.870019999999999 -71.02723333333334 1881.76 0.0 0.0 1.0
20.2433 -78.3455 2183.94 0.0 0.0 1.0
22.189766666666667 -70.36493333333334 2183.94 0.0 0.0 1.0
2.64264 -51.97196666666667 1797.0 0.0 0.0 1.0
22.189766666666667 -54.20926666666667 2183.94 0.0 0.0 1.0
23.552300000000002 -47.59123333333333 2183.94 0.0 0.0 1.0
3.10448 -31.124399999999998 1786.2699999999998 -2.036249078918523e-26 4.1168496719264227e-26 1.0
2.945273333333333 -25.711466666666666 1786.2699999999998 -1.5737447700923603e-27 4.0815680607795604e-27 1.0
2.85714 -14.682533333333334 1780.95 0.0 0.0 1.0
2.7695366666666668 -8.150346666666666 1775.67 0.0 0.0 1.0
3.0860563333333335 0.8704259999999998 1775.67 0.0 0.0 1.0
2.2947586666666666 6.726013333333333 1775.67 0.0 0.0 1.0
20.827266666666663 27.347933333333334 2183.94 0.0 0.0 1.0
1.88235 25.803933333333333 1760.0 0.0 0.0 1.0
2.73705 29.95113333333333 1754.84 0.0 0.0 1.0
2.89345 32.1408 1754.84 0.0 0.0 1.0
1.9550333333333336 37.614866666666664 1754.84 0.0 0.0 1.0
1.4858253333333333 43.71456666666668 1754.84 0.0 0.0 1.0
0.4705873333333333 49.80393333333333 1760.0 0.0 0.0 1.0
22.189766666666667 65.49876666666667 2183.94 0.0 0.0 1.0
0.6311623333333333 56.25246666666667 1770.41 0.0 0.0 1.0
22.968366666666668 78.3455 2183.94 0.0 0.0 1.0
20.827266666666663 85.7421 2183.94 0.0 0.0 1.0
21.411166666666663 105.20666666666666 2183.94 0.0 0.0 1.0
22.189766666666667 106.17966666666666 2183.94 0.0 0.0 1.0
21.99513333333333 122.72533333333332 2183.94 0.0 0.0 1.0
21.800466666666665 139.46466666666666 2183.94 0.0 0.0 1.0
21.21653333333333 143.35766666666666 2183.94 0.0 0.0 1.0
22.189766666666667 155.62 2183.94 0.0 0.0 1.0
21.99513333333333 -157.5666666666667 2183.94 0.0 0.0 1.0
9.111806666666666 -118.788 1875.86 0.0 0.0 1.0
7.272726666666666 -107.41899999999998 1875.86 0.0 0.0 1.0
8.467343333333334 -104.81700000000001 1862.2433333333336 -0.2199274205287429 0.6283847699939762 0.7461665434332948
6.87631 -92.83016666666667 1881.76 0.0 0.0 1.0
21.800466666666665 -76.00973333333333 2183.94 0.0 0.0 1.0
2.8028 -57.41743333333333 1797.0 0.0 0.0 1.0
3.10448 -31.442800000000002 1786.2699999999998 -2.0362490789185255e-26 -4.1168496719264273e-26 1.0
2.85714 -15.952400000000003 1780.95 0.0 0.0 1.0
2.85714 -14.682533333333334 1780.95 0.0 0.0 1.0
2.051282 12.544366666666667 1770.41 0.0 0.0 1.0
2.123896666666667 17.85643333333333 1765.1899999999998 1.047532532034699e-28 -2.7803255655460453e-28 1.0
1.6519193333333335 18.9577 1765.1899999999998 -1.622270920850497e-26 -1.9497346856220644e-26 1.0
1.7254866666666666 24.86276666666667 1760.0 0.0 0.0 1.0
1.7254866666666666 24.86276666666667 1760.0 0.0 0.0 1.0
2.42424 36.52003333333333 1754.84 0.0 0.0 1.0
1.1730219999999998 47.15540000000001 1754.84 0.0 0.0 1.0
21.21653333333333 92.55473333333333 2183.94 0.0 0.0 1.0
19.854033333333334 96.83696666666667 2183.94 0.0 0.0 1.0
19.854033333333334 98.39416666666666 2183.94 0.0 0.0 1.0
20.6326 102.67666666666666 2183.94 0.0 0.0 1.0
21.21653333333333 103.84433333333334 2183.94 0.0 0.0 1.0
19.854033333333334 108.90500000000002 2183.94 0.0 0.0 1.0
21.8005 117.46933333333334 2183.94 0.0 0.0 1.0
21.0219 123.50366666666667 2183.94 0.0 0.0 1.0
20.82726666666667 133.82000000000002 2183.94 0.0 0.0 1.0
-5.454546666666666 109.62133333333334 1700.0 0.0 0.0 1.0
-3.7372593333333337 115.325 1614.3933333333334 -0.5997729529216147 0.3997852898635838 0.693140769939539
6.477393333333333 -134.343 1887.7 0.0 0.0 1.0
7.547169999999999 -120.83833333333332 1881.76 0.0 0.0 1.0
7.272726666666666 -107.41899999999998 1875.86 0.0 0.0 1.0
6.708596666666668 -90.6499 1881.76 0.0 0.0 1.0
8.27586 -78.66250000000001 1875.86 0.0 0.0 1.0
2.8028 -57.41743333333333 1797.0 0.0 0.0 1.0
2.8028 -57.41743333333333 1797.0 0.0 0.0 1.0
2.16216 -52.61260000000001 1797.0 0.0 0.0 1.0
20.6326 -57.12893333333333 2183.94 0.0 0.0 1.0
1.756488 -39.520966666666666 1791.62 0.0 0.0 1.0
1.661722 -8.308606666666666 1775.67 0.0 0.0 1.0
22.968366666666668 -10.997583333333333 2183.94 0.0 0.0 1.0
20.243333333333336 25.790766666666666 2183.94 0.0 0.0 1.0
20.243333333333336 26.18003333333333 2183.94 0.0 0.0 1.0
20.827266666666663 27.347933333333334 2183.94 0.0 0.0 1.0
20.827266666666663 85.7421 2183.94 0.0 0.0 1.0
20.827266666666663 85.7421 2183.94 0.0 0.0 1.0
19.659366666666667 111.241 2183.94 0.0 0.0 1.0
19.854033333333334 125.64433333333334 2183.94 0.0 0.0 1.0
19.6594 127.20166666666667 2183.94 0.0 0.0 1.0
20.6326 139.07533333333333 2183.94 0.0 0.0 1.0
21.411199999999997 145.69333333333333 2183.94 0.0 0.0 1.0
21.411199999999997 154.64700000000002 2183.94 0.0 0.0 1.0
21.99513333333333 -160.09733333333335 2183.94 0.0 0.0 1.0
6.477393333333333 -134.343 1887.7 0.0 0.0 1.0
6.477393333333333 -134.343 1887.7 0.0 0.0 1.0
5.299683333333333 -130.8096666666667 1887.7 0.0 0.0 1.0
17.3236 -138.49133333333333 2183.94 0.0 0.0 1.0
5.534589999999999 -94.00416666666666 1881.76 0.0 0.0 1.0
5.870023333333333 -90.6499 1881.76 0.0 0.0 1.0
19.46473333333333 -78.73479999999999 2183.94 0.0 0.0 1.0
2.16216 -52.61260000000001 1797.0 0.0 0.0 1.0
20.6326 -57.12893333333333 2183.94 0.0 0.0 1.0
21.216533333333334 -54.20926666666667 2183.94 0.0 0.0 1.0
1.756488 -39.520966666666666 1791.62 0.0 0.0 1.0
1.1940286666666666 -26.8259 1786.2699999999998 -1.9980760786998012e-29 -4.611054213612543e-30 1.0
2.1492533333333337 -25.552266666666668 1786.2699999999998 1.9673199703596156e-28 9.836187962628487e-29 1.0
1.3532326666666668 -24.75623333333333 1786.2699999999998 4.3646638932310524e-27 2.4466498946318936e-27 1.0
1.1111106666666666 -11.349233333333332 1780.95 0.0 0.0 1.0
-0.315582 11.439833333333333 1770.41 0.0 0.0 1.0
21.216566666666665 17.0316 2183.94 0.0 0.0 1.0
20.048666666666666 25.790766666666666 2183.94 0.0 0.0 1.0
20.048666666666666 26.18003333333333 2183.94 0.0 0.0 1.0
19.46473333333333 41.55716666666667 2183.94 0.0 0.0 1.0
0.4705873333333333 49.80393333333333 1760.0 0.0 0.0 1.0
18.491466666666664 79.70803333333333 2183.94 0.0 0.0 1.0
19.854 101.89799999999998 2183.94 0.0 0.0 1.0
3.749823333333333 90.08030000000001 1674.68 -0.5470069440733073 0.8314175451674677 0.09761285121992612
19.854033333333334 125.64433333333334 2183.94 0.0 0.0 1.0
20.048666666666666 132.263 2183.94 0.0 0.0 1.0
20.6326 139.07533333333333 2183.94 0.0 0.0 1.0
-6.764286666666667 113.16266666666667 1614.3933333333334 0.8308915611657586 -0.553839952281527 -0.05367048388382905
-4.7317366666666665 119.11200000000001 1659.1599999999999 -1.0033985049747221e-16 0.9973550881150935 0.07268306687897658
19.270066666666665 159.90266666666665 2183.94 0.0 0.0 1.0
4.833333333333333 -110.08333333333333 1870.0 0.0 0.0 1.0
4.833333333333333 -110.08333333333333 1870.0 0.0 0.0 1.0
4.745066666666666 -109.137 1868.0566666666666 0.7011806436436445 0.7011806436436443 0.12919523969159719
4.863733333333333 -88.13416666666666 1881.76 0.0 0.0 1.0
5.87002 -72.20126666666667 1881.76 0.0 0.0 1.0
19.46473333333333 -78.73479999999999 2183.94 0.0 0.0 1.0
19.2701 -78.15086666666666 2183.94 0.0 0.0 1.0
19.2701 -78.15086666666666 2183.94 0.0 0.0 1.0
2.16216 -52.61259999999999 1797.0 0.0 0.0 1.0
2.30846 -30.9652 1786.2699999999998 1.3279595159755708e-27 2.3239917138640908e-27 1.0
2.063490333333333 -19.285733333333337 1780.95 0.0 0.0 1.0
1.1111106666666666 -11.349233333333332 1780.95 0.0 0.0 1.0
1.1111106666666666 -11.349233333333332 1780.95 0.0 0.0 1.0
1.1111106666666666 -10.873033333333334 1780.95 0.0 0.0 1.0
1.661722 -8.308606666666666 1775.67 0.0 0.0 1.0
-0.0791283333333334 4.826903333333333 1775.67 0.0 0.0 1.0
-0.550639 20.058999999999997 1765.1899999999998 4.3512940626496585e-28 -1.0152527807928925e-27 1.0
-0.7843119999999999 28.627466666666667 1760.0 0.0 0.0 1.0
19.46473333333333 40.194633333333336 2183.94 0.0 0.0 1.0
19.46473333333333 40.194633333333336 2183.94 0.0 0.0 1.0
19.075433333333333 42.5304 2183.94 0.0 0.0 1.0
-0.7038126666666668 44.653 1754.84 0.0 0.0 1.0
0.23460399999999995 46.0606 1754.84 0.0 0.0 1.0
18.68613333333333 72.8954 2183.94 0.0 0.0 1.0
19.075433333333333 97.22626666666667 2183.94 0.0 0.0 1.0
19.075433333333333 97.81023333333333 2183.94 0.0 0.0 1.0
18.880799999999997 98.39416666666666 2183.94 0.0 0.0 1.0
19.270066666666665 104.623 2183.94 0.0 0.0 1.0
19.854033333333334 108.90500000000002 2183.94 0.0 0.0 1.0
19.854033333333334 108.90500000000002 2183.94 0.0 0.0 1.0
19.854033333333334 126.22833333333334 2183.94 0.0 0.0 1.0
19.6594 127.20166666666667 2183.94 0.0 0.0 1.0
20.048666666666666 132.263 2183.94 0.0 0.0 1.0
19.075433333333333 148.41833333333332 2183.94 0.0 0.0 1.0
19.075433333333333 148.41833333333332 2183.94 0.0 0.0 1.0
-4.7317366666666665 119.11200000000001 1659.16 -1.0033985049747221e-16 0.9973550881150935 0.07268306687897658
18.68613333333333 159.51333333333332 2183.94 0.0 0.0 1.0
19.270066666666665 -156.00933333333333 2183.94 0.0 0.0 1.0
17.907500000000002 -146.47166666666666 2183.94 0.0 0.0 1.0
7.31861 -126.94 1887.7 0.0 0.0 1.0
17.3236 -138.49133333333333 2183.94 0.0 0.0 1.0
4.833333333333333 -110.08333333333333 1870.0 0.0 0.0 1.0
17.323566666666668 -124.866 2183.94 0.0 0.0 1.0
3.8333333333333335 -98.75 1870.0 0.0 0.0 1.0
5.03145 -90.48216666666667 1881.76 0.0 0.0 1.0
4.863733333333333 -88.13416666666666 1881.76 0.0 0.0 1.0
4.528303333333333 -75.55556666666666 1881.76 0.0 0.0 1.0
18.491466666666668 -80.09733333333334 2183.94 0.0 0.0 1.0
1.04104 -53.73376666666667 1797.0 0.0 0.0 1.0
1.0410403333333333 -48.28829999999999 1797.0 0.0 0.0 1.0
1.0410403333333333 -48.28829999999999 1797.0 0.0 0.0 1.0
1.5968073333333332 -44.63073333333333 1791.62 0.0 0.0 1.0
1.277446 -39.2016 1791.62 0.0 0.0 1.0
0.7984033333333334 -38.4032 1791.62 0.0 0.0 1.0
0.479042 -36.806400000000004 1791.62 0.0 0.0 1.0
17.51823333333333 -38.83213333333333 2183.94 0.0 0.0 1.0
0.5572133333333333 -24.2786 1786.2699999999998 0.0 0.0 1.0
1.11111 -16.4286 1780.95 0.0 0.0 1.0
1.11111 -16.4286 1780.95 0.0 0.0 1.0
0.31746 -14.206333333333333 1780.95 0.0 0.0 1.0
0.07912966666666667 3.0860533333333335 1775.67 0.0 0.0 1.0
0.23738866666666666 4.035606666666666 1775.67 0.0 0.0 1.0
19.659366666666667 27.931866666666668 2183.94 0.0 0.0 1.0
-0.9467443333333333 57.357 1770.41 0.0 0.0 1.0
18.68613333333333 72.8954 2183.94 0.0 0.0 1.0
18.296833333333336 75.0365 2183.94 0.0 0.0 1.0
18.491466666666664 79.70803333333333 2183.94 0.0 0.0 1.0
18.88076666666667 92.36009999999999 2183.94 0.0 0.0 1.0
19.075433333333333 97.22626666666667 2183.94 0.0 0.0 1.0
18.491466666666664 101.89799999999998 2183.94 0.0 0.0 1.0
17.907500000000002 122.14133333333332 2183.94 0.0 0.0 1.0
19.075433333333333 148.41833333333332 2183.94 0.0 0.0 1.0
-5.273598666666667 113.38966666666666 1621.6899999999998 -0.6837048201477223 0.7292043517207213 -0.02843821967587468
18.686133333333334 159.51333333333332 2183.94 0.0 0.0 1.0
19.270066666666665 -156.00933333333333 2183.94 0.0 0.0 1.0
4.626706666666666 -130.47299999999998 1887.7 0.0 0.0 1.0
4.626706666666666 -130.47299999999998 1887.7 0.0 0.0 1.0
3.280756666666667 -121.55633333333333 1887.7 0.0 0.0 1.0
3.85744 -110.77566666666667 1881.76 0.0 0.0 1.0
17.518233333333335 -121.168 2183.94 0.0 0.0 1.0
4.553629999999999 -102.8471 1856.49 -0.8737593293367751 0.3838133677954205 0.29871714563862284
17.712866666666667 -98.58883333333334 2183.94 0.0 0.0 1.0
2.348008333333333 -80.92243333333333 1881.76 0.0 0.0 1.0
5.031446666666667 -74.04613333333333 1881.76 0.0 0.0 1.0
5.870019999999999 -71.02723333333334 1881.76 0.0 0.0 1.0
1.0410403333333333 -48.2883 1797.0 0.0 0.0 1.0
0.479042 -37.4451 1791.62 0.0 0.0 1.0
17.51823333333333 -38.83213333333333 2183.94 0.0 0.0 1.0
1.1940286666666668 -26.8259 1786.2699999999998 9.990380393499006e-29 2.3055271068062734e-29 1.0
0.0 -12.142866666666665 1780.95 0.0 0.0 1.0
0.07912966666666667 3.0860533333333335 1775.67 0.0 0.0 1.0
-0.07866166666666663 17.6991 1765.1899999999998 7.834668262116065e-28 1.2455724952091393e-27 1.0
-0.550639 20.058999999999997 1765.1899999999998 4.3512940626496585e-28 -1.0152527807928925e-27 1.0
-0.7843119999999999 28.627466666666667 1760.0 0.0 0.0 1.0
18.296833333333336 42.9197 2183.94 0.0 0.0 1.0
-0.8602166666666665 36.83283333333333 1754.84 0.0 0.0 1.0
-0.9411759999999999 50.11763333333334 1760.0 0.0 0.0 1.0
-1.9665683333333337 55.142566666666674 1765.1899999999998 7.162432103899824e-27 1.1876911457929288e-26 1.0
-0.9467443333333333 57.357 1770.41 0.0 0.0 1.0
18.296833333333336 75.0365 2183.94 0.0 0.0 1.0
18.296833333333336 75.0365 2183.94 0.0 0.0 1.0
17.518266666666666 88.46716666666667 2183.94 0.0 0.0 1.0
18.1022 89.63503333333334 2183.94 0.0 0.0 1.0
17.7129 90.60826666666667 2183.94 0.0 0.0 1.0
18.1022 98.58883333333334 2183.94 0.0 0.0 1.0
16.73966666666667 115.71766666666667 2183.94 0.0 0.0 1.0
18.296833333333336 139.46466666666666 2183.94 0.0 0.0 1.0
-4.7317366666666665 119.11200000000001 1659.1599999999999 -1.2263759505246603e-16 0.9973550881150937 0.07268306687897659
18.686133333333334 159.51333333333332 2183.94 0.0 0.0 1.0
4.626706666666666 -130.473 1887.7 0.0 0.0 1.0
17.9075 -146.47166666666666 2183.94 0.0 0.0 1.0
17.9075 -146.47166666666666 2183.94 0.0 0.0 1.0
17.518233333333335 -121.168 2183.94 0.0 0.0 1.0
3.8333333333333335 -98.75 1870.0 0.0 0.0 1.0
3.8333333333333335 -98.75 1870.0 0.0 0.0 1.0
4.528303333333334 -95.17816666666668 1881.76 0.0 0.0 1.0
5.0314499999999995 -90.48216666666667 1881.76 0.0 0.0 1.0
17.51823333333333 -101.11936666666666 2183.94 0.0 0.0 1.0
3.6172466666666665 -85.55203333333334 1887.7 0.0 0.0 1.0
17.128933333333332 -94.5012 2183.94 0.0 0.0 1.0
3.6897299999999995 -77.90356666666666 1881.76 0.0 0.0 1.0
17.323566666666668 -89.0511 2183.94 0.0 0.0 1.0
17.9075 -85.15816666666667 2183.94 0.0 0.0 1.0
18.491466666666668 -80.09733333333334 2183.94 0.0 0.0 1.0
0.15968066666666667 -36.6467 1791.62 0.0 0.0 1.0
-0.798404 -32.6547 1791.62 0.0 0.0 1.0
-1.503462 -2.7695366666666668 1775.67 0.0 0.0 1.0
-1.1869420000000002 6.567756666666667 1775.67 0.0 0.0 1.0
-1.2623286666666667 10.8087 1770.41 0.0 0.0 1.0
-1.2623286666666667 11.913233333333332 1770.41 0.0 0.0 1.0
-1.022614 19.587 1765.1899999999998 0.0 0.0 1.0
-1.7254886666666664 28.4706 1760.0 0.0 0.0 1.0
18.296833333333336 42.9197 2183.94 0.0 0.0 1.0
17.712866666666667 44.28223333333333 2183.94 0.0 0.0 1.0
-1.7986313333333335 43.871 1754.84 0.0 0.0 1.0
-0.2346046666666667 47.4682 1754.84 0.0 0.0 1.0
17.712866666666667 77.37226666666668 2183.94 0.0 0.0 1.0
17.128933333333332 103.06599999999999 2183.94 0.0 0.0 1.0
18.102166666666665 104.62299999999999 2183.94 0.0 0.0 1.0
17.128933333333332 111.63033333333334 2183.94 0.0 0.0 1.0
16.9343 120.584 2183.94 0.0 0.0 1.0
17.907500000000002 122.14133333333332 2183.94 0.0 0.0 1.0
-4.157006666666667 104.16643333333333 1578.9433333333334 -0.8788109583972368 0.426616695782825 0.2137510100099538
16.934299999999997 143.55233333333334 2183.94 0.0 0.0 1.0
-6.5549333333333335 116.57333333333334 1671.51 0.0 0.0 1.0
2.10305 -136.36166666666665 1887.7 0.0 0.0 1.0
3.85744 -110.77566666666667 1881.76 0.0 0.0 1.0
3.85744 -110.77566666666667 1881.76 0.0 0.0 1.0
3.3542966666666665 -105.74433333333333 1881.76 0.0 0.0 1.0
3.3542966666666665 -104.235 1881.76 0.0 0.0 1.0
17.518233333333335 -121.168 2183.94 0.0 0.0 1.0
4.528303333333334 -95.17816666666666 1881.76 0.0 0.0 1.0
16.544999999999998 -103.06599999999999 2183.94 0.0 0.0 1.0
3.6172466666666665 -85.55203333333334 1887.7 0.0 0.0 1.0
3.2807600000000003 -83.8696 1887.7 0.0 0.0 1.0
17.128933333333332 -94.5012 2183.94 0.0 0.0 1.0
17.128933333333332 -94.5012 2183.94 0.0 0.0 1.0
0.0800796666666667 -54.3744 1797.0 0.0 0.0 1.0
0.2402396666666667 -51.811800000000005 1797.0 0.0 0.0 1.0
0.0800796666666667 -49.889900000000004 1797.0 0.0 0.0 1.0
0.5605603333333333 -47.327333333333335 1797.0 0.0 0.0 1.0
-0.7984026666666666 -43.03393333333333 1791.62 0.0 0.0 1.0
0.798404 -39.840333333333334 1791.62 0.0 0.0 1.0
0.0 -37.125733333333336 1791.62 0.0 0.0 1.0
-0.798404 -32.6547 1791.62 0.0 0.0 1.0
-1.3532326666666668 -23.9602 1786.2699999999998 -1.9365995179124666e-28 -1.1066537836201158e-28 1.0
-0.9523803333333333 -12.301599999999999 1780.95 0.0 0.0 1.0
-1.9047603333333332 -9.285713333333332 1780.95 0.0 0.0 1.0
-0.39564666666666676 5.618200000000001 1775.67 0.0 0.0 1.0
-1.2623286666666667 10.8087 1770.41 0.0 0.0 1.0
-1.2623286666666667 10.8087 1770.41 0.0 0.0 1.0
-1.2623286666666667 12.702166666666665 1770.41 0.0 0.0 1.0
-1.2623286666666667 12.702166666666665 1770.41 0.0 0.0 1.0
-2.7531950000000003 23.20553333333333 1765.1899999999998 -9.43352861519306e-29 -1.986084521659718e-28 1.0
-2.5098033333333336 31.2941 1760.0 0.0 0.0 1.0
-2.73705 41.6813 1754.84 0.0 0.0 1.0
-1.9550366666666665 41.99413333333334 1754.84 0.0 0.0 1.0
-1.9665683333333337 55.142566666666674 1765.1899999999998 7.162432103899824e-27 1.1876911457929288e-26 1.0
17.712866666666667 78.73479999999999 2183.94 0.0 0.0 1.0
16.155733333333334 86.13136666666666 2183.94 0.0 0.0 1.0
16.934299999999997 91.19223333333332 2183.94 0.0 0.0 1.0
16.934300000000004 98.78346666666665 2183.94 0.0 0.0 1.0
17.128933333333332 103.06599999999999 2183.94 0.0 0.0 1.0
17.128933333333332 103.06599999999999 2183.94 0.0 0.0 1.0
17.128933333333332 111.63033333333334 2183.94 0.0 0.0 1.0
17.128933333333332 111.63033333333334 2183.94 0.0 0.0 1.0
16.9343 120.584 2183.94 0.0 0.0 1.0
15.766399999999999 138.88066666666668 2183.94 0.0 0.0 1.0
3.3542966666666665 -105.74433333333333 1881.76 0.0 0.0 1.0
2.0125783333333334 -103.06099999999999 1881.76 0.0 0.0 1.0
17.128966666666667 -119.80533333333334 2183.94 0.0 0.0 1.0
2.7760266666666666 -96.99266666666665 1887.7 0.0 0.0 1.0
3.2807600000000003 -83.8696 1887.7 0.0 0.0 1.0
-2.4096393333333332 -58.232933333333335 1802.41 0.0 0.0 1.0
14.987866666666667 -69.78103333333333 2183.94 0.0 0.0 1.0
0.0800796666666667 -54.3744 1797.0 0.0 0.0 1.0
-0.4004003333333333 -51.011 1797.0 0.0 0.0 1.0
16.155733333333334 -53.43066666666667 2183.94 0.0 0.0 1.0
16.155733333333334 -53.43066666666667 2183.94 0.0 0.0 1.0
-1.99005 -21.0945 1786.2699999999998 -1.4524405152600709e-28 2.075045355658281e-29 1.0
-2.3084566666666664 -17.751233333333335 1786.2699999999998 4.9479485055028695e-30 -7.843125467551913e-29 1.0
-0.15872999999999995 -14.841266666666664 1780.95 0.0 0.0 1.0
-1.5873003333333333 -11.031766666666664 1780.95 0.0 0.0 1.0
-1.5034619999999999 -2.7695366666666668 1775.67 0.0 0.0 1.0
-1.661722 7.517313333333334 1775.67 0.0 0.0 1.0
15.571766666666667 18.588766666666668 2183.94 0.0 0.0 1.0
-2.682446666666667 17.4359 1770.41 0.0 0.0 1.0
-1.3372649999999997 19.901666666666667 1765.1899999999998 -2.7418403339831795e-28 5.343684197066575e-28 1.0
-2.5098033333333336 31.2941 1760.0 0.0 0.0 1.0
-1.9550366666666665 38.39686666666667 1754.84 0.0 0.0 1.0
-2.0392153333333334 49.96076666666667 1760.0 0.0 0.0 1.0
16.350366666666666 86.71533333333333 2183.94 0.0 0.0 1.0
16.93433333333333 117.27466666666665 2183.94 0.0 0.0 1.0
16.3504 118.63733333333333 2183.94 0.0 0.0 1.0
16.545033333333333 119.80533333333334 2183.94 0.0 0.0 1.0
15.9611 129.927 2183.94 0.0 0.0 1.0
15.9611 129.927 2183.94 0.0 0.0 1.0
-6.764286666666667 113.16266666666667 1614.3933333333334 0.8308915611657594 -0.5538399522815263 -0.05367048388382793
-6.5549333333333335 116.57333333333334 1671.51 0.0 0.0 1.0
16.934266666666666 -146.47166666666666 2183.94 0.0 0.0 1.0
2.4395366666666667 -121.05166666666666 1887.7 0.0 0.0 1.0
2.271293333333333 -119.20099999999998 1887.7 0.0 0.0 1.0
17.323566666666668 -124.866 2183.94 0.0 0.0 1.0
2.7760266666666666 -99.01156666666668 1887.7 0.0 0.0 1.0
2.7760266666666666 -96.99266666666665 1887.7 0.0 0.0 1.0
15.961066666666667 -104.623 2183.94 0.0 0.0 1.0
3.449003333333333 -84.7108 1887.7 0.0 0.0 1.0
2.4395366666666667 -75.12093333333334 1887.7 0.0 0.0 1.0
15.571766666666667 -77.9562 2183.94 0.0 0.0 1.0
15.377099999999999 -56.544999999999995 2183.94 0.0 0.0 1.0
16.155733333333334 -53.43066666666667 2183.94 0.0 0.0 1.0
17.51823333333333 -38.83213333333333 2183.94 0.0 0.0 1.0
-1.3532326666666668 -23.9602 1786.2699999999998 -1.9365995179124675e-28 -1.106653783620116e-28 1.0
-1.3532326666666668 -23.9602 1786.2699999999998 -1.9365995179124666e-28 -1.1066537836201158e-28 1.0
-1.4285703333333333 -11.666699999999999 1780.95 0.0 0.0 1.0
-1.9782399999999998 -2.2947599999999997 1775.67 0.0 0.0 1.0
-1.9782399999999998 -2.2947599999999997 1775.67 0.0 0.0 1.0
-1.7254886666666664 28.4706 1760.0 0.0 0.0 1.0
-2.0392153333333334 49.96076666666667 1760.0 0.0 0.0 1.0
-1.4201166666666667 54.35896666666667 1770.41 0.0 0.0 1.0
-2.366861 57.357 1770.41 0.0 0.0 1.0
15.766433333333332 86.71533333333333 2183.94 0.0 0.0 1.0
15.961066666666666 91.77616666666665 2183.94 0.0 0.0 1.0
15.571766666666667 98.58883333333334 2183.94 0.0 0.0 1.0
16.934299999999997 113.96600000000001 2183.94 0.0 0.0 1.0
15.571766666666667 138.29666666666665 2183.94 0.0 0.0 1.0
17.51823333333333 159.708 2183.94 0.0 0.0 1.0
2.4395366666666667 -121.05166666666666 1887.7 0.0 0.0 1.0
1.76656 -119.53733333333332 1887.7 0.0 0.0 1.0
2.4395366666666667 -99.01156666666668 1887.7 0.0 0.0 1.0
2.7760266666666666 -96.99266666666665 1887.7 0.0 0.0 1.0
15.961066666666667 -104.623 2183.94 0.0 0.0 1.0
2.348008333333333 -80.92243333333333 1881.76 0.0 0.0 1.0
2.4395366666666667 -75.12093333333334 1887.7 0.0 0.0 1.0
1.7665593333333334 -74.2797 1887.7 0.0 0.0 1.0
14.987866666666667 -69.78103333333333 2183.94 0.0 0.0 1.0
14.209266666666666 -65.8881 2183.94 0.0 0.0 1.0
-1.5968073333333332 -32.8144 1791.62 0.0 0.0 1.0
-2.39521 -30.099800000000002 1791.62 0.0 0.0 1.0
-2.1492533333333332 -20.6169 1786.2699999999998 -2.5452673249005905e-27 -5.146009376120765e-27 1.0
-2.06349 -10.079369999999999 1780.95 0.0 0.0 1.0
-2.85714 -9.761903333333333 1780.95 0.0 0.0 1.0
-2.6112766666666665 8.625126666666667 1775.67 0.0 0.0 1.0
-2.682446666666667 17.4359 1770.41 0.0 0.0 1.0
-2.509803333333333 31.2941 1760.0 0.0 0.0 1.0
-4.705883333333333 35.5294 1760.0 0.0 0.0 1.0
-3.8318666666666665 43.24536666666666 1754.84 0.0 0.0 1.0
15.961066666666667 86.13136666666666 2183.94 0.0 0.0 1.0
15.961066666666667 91.77616666666665 2183.94 0.0 0.0 1.0
15.571766666666667 101.89799999999998 2183.94 0.0 0.0 1.0
14.0146 107.34766666666667 2183.94 0.0 0.0 1.0
14.598533333333334 124.67166666666667 2183.94 0.0 0.0 1.0
14.598566666666665 126.03366666666666 2183.94 0.0 0.0 1.0
15.9611 129.927 2183.94 0.0 0.0 1.0
15.571800000000001 131.48433333333332 2183.94 0.0 0.0 1.0
15.571800000000001 131.48433333333332 2183.94 0.0 0.0 1.0
14.793166666666666 141.02200000000002 2183.94 0.0 0.0 1.0
15.182466666666665 144.13633333333334 2183.94 0.0 0.0 1.0
14.209233333333332 -143.358 2183.94 0.0 0.0 1.0
1.7665600000000001 -119.53733333333332 1887.7 0.0 0.0 1.0
0.7570973333333334 -108.93833333333333 1887.7 0.0 0.0 1.0
1.2618293333333332 -93.29126666666666 1887.7 0.0 0.0 1.0
1.4300746666666668 -86.72976666666666 1887.7 0.0 0.0 1.0
14.0146 -62.579100000000004 2183.94 0.0 0.0 1.0
14.793166666666666 -58.68613333333334 2183.94 0.0 0.0 1.0
-2.395210666666667 -37.44506666666666 1791.62 0.0 0.0 1.0
-2.7145733333333335 -33.6128 1791.62 0.0 0.0 1.0
-3.0339333333333336 -30.578833333333336 1791.62 0.0 0.0 1.0
-2.6268666666666665 -20.7761 1786.2699999999998 2.2131577329884807e-28 5.902281726820684e-28 1.0
-1.6617186666666666 5.459943333333334 1775.67 0.0 0.0 1.0
-3.5608300000000006 10.049459999999998 1775.67 0.0 0.0 1.0
-3.1558200000000003 16.646933333333333 1770.41 0.0 0.0 1.0
-3.1558200000000003 17.751466666666666 1770.41 0.0 0.0 1.0
-3.31361 18.38263333333333 1770.41 0.0 0.0 1.0
-3.4714000000000005 19.32936666666667 1770.41 0.0 0.0 1.0
-4.4574766666666665 42.77613333333333 1754.84 0.0 0.0 1.0
-3.8318666666666665 43.24536666666666 1754.84 0.0 0.0 1.0
-4.169123333333333 55.771899999999995 1765.1899999999998 9.826492584563728e-27 -1.2383422082630676e-26 1.0
14.0146 76.20436666666667 2183.94 0.0 0.0 1.0
15.182466666666665 78.54013333333333 2183.94 0.0 0.0 1.0
14.4039 100.92466666666667 2183.94 0.0 0.0 1.0
14.598533333333334 124.67166666666667 2183.94 0.0 0.0 1.0
14.403866666666666 139.854 2183.94 0.0 0.0 1.0
14.793166666666666 141.02200000000002 2183.94 0.0 0.0 1.0
1.093586 -136.52999999999997 1887.7 0.0 0.0 1.0
1.093586 -136.53 1887.7 0.0 0.0 1.0
13.625300000000001 -143.74733333333333 2183.94 0.0 0.0 1.0
14.209233333333332 -143.358 2183.94 0.0 0.0 1.0
1.7665600000000001 -119.53733333333332 1887.7 0.0 0.0 1.0
0.925342 -118.35966666666667 1887.7 0.0 0.0 1.0
1.5094333333333332 -112.62066666666668 1881.76 0.0 0.0 1.0
1.2618293333333332 -93.29126666666667 1887.7 0.0 0.0 1.0
14.209266666666666 -65.8881 2183.94 0.0 0.0 1.0
-3.534136666666667 -53.413666666666664 1802.41 0.0 0.0 1.0
14.403866666666666 -60.437966666666675 2183.94 0.0 0.0 1.0
-1.2774446666666668 -41.43713333333333 1791.62 0.0 0.0 1.0
-2.39521 -30.099800000000002 1791.62 0.0 0.0 1.0
-3.9920166666666668 -24.191599999999998 1791.62 0.0 0.0 1.0
-2.6268666666666665 -20.7761 1786.2699999999998 2.2131577329884807e-28 5.902281726820684e-28 1.0
-3.96825 -1.031747 1780.95 0.0 0.0 1.0
-4.444443333333333 4.68254 1780.95 0.0 0.0 1.0
-3.5608300000000006 10.049459999999998 1775.67 0.0 0.0 1.0
-3.78698 19.960533333333334 1770.41 0.0 0.0 1.0
-4.705883333333333 35.5294 1760.0 0.0 0.0 1.0
-4.169123333333333 55.771899999999995 1765.1899999999998 9.826492584563718e-27 -1.2383422082630668e-26 1.0
14.0146 77.37223333333333 2183.94 0.0 0.0 1.0
13.625333333333332 98.9781 2183.94 0.0 0.0 1.0
14.0146 107.34766666666667 2183.94 0.0 0.0 1.0
14.598533333333334 124.67166666666667 2183.94 0.0 0.0 1.0
14.793199999999999 128.56433333333334 2183.94 0.0 0.0 1.0
14.793166666666666 138.686 2183.94 0.0 0.0 1.0
-6.5549333333333335 116.57333333333332 1671.51 0.0 0.0 1.0
12.068133333333334 -160.876 2183.94 0.0 0.0 1.0
1.093586 -136.52999999999997 1887.7 0.0 0.0 1.0
13.041366666666667 -150.94899999999998 2183.94 0.0 0.0 1.0
14.0146 -142.38466666666667 2183.94 0.0 0.0 1.0
-0.08412199999999999 -110.789 1887.7 0.0 0.0 1.0
1.2618293333333332 -93.29126666666667 1887.7 0.0 0.0 1.0
2.348008333333333 -80.92243333333333 1881.76 0.0 0.0 1.0
0.7570966666666666 -74.11146666666667 1887.7 0.0 0.0 1.0
12.2628 -80.29196666666667 2183.94 0.0 0.0 1.0
12.457433333333334 -78.15083333333332 2183.94 0.0 0.0 1.0
-2.4096393333333332 -58.232933333333335 1802.41 0.0 0.0 1.0
14.209266666666666 -66.86133333333333 2183.94 0.0 0.0 1.0
14.209266666666666 -65.8881 2183.94 0.0 0.0 1.0
-3.4434400000000003 -41.241233333333334 1797.0 0.0 0.0 1.0
-2.945273333333333 -15.203966666666668 1786.2699999999998 -3.373621873776427e-29 -5.751532863728965e-29 1.0
-2.85714 -9.761903333333333 1780.95 0.0 0.0 1.0
-3.5608300000000006 10.049459999999998 1775.67 0.0 0.0 1.0
-4.5759333333333325 20.118333333333336 1770.41 0.0 0.0 1.0
-5.42773 29.026533333333333 1765.1899999999998 -1.1332032746274097e-28 -1.1332232831604027e-28 1.0
-4.144673333333333 44.0274 1754.84 0.0 0.0 1.0
12.2628 56.739666666666665 2183.94 0.0 0.0 1.0
-3.629186666666667 57.672566666666675 1770.41 0.0 0.0 1.0
-3.629186666666667 57.672566666666675 1770.41 0.0 0.0 1.0
14.0146 76.20436666666667 2183.94 0.0 0.0 1.0
13.819966666666666 83.7956 2183.94 0.0 0.0 1.0
13.625333333333332 86.32600000000001 2183.94 0.0 0.0 1.0
12.652099999999999 96.05836666666669 2183.94 0.0 0.0 1.0
13.625333333333332 98.9781 2183.94 0.0 0.0 1.0
13.625333333333332 98.9781 2183.94 0.0 0.0 1.0
12.846733333333333 117.46933333333334 2183.94 0.0 0.0 1.0
14.0146 124.86633333333333 2183.94 0.0 0.0 1.0
-7.727273333333334 108.86399999999999 1700.0 0.0 0.0 1.0
14.014600000000002 160.292 2183.94 0.0 0.0 1.0
13.041366666666667 -150.94899999999998 2183.94 0.0 0.0 1.0
-0.33542999999999995 -130.39833333333334 1881.76 0.0 0.0 1.0
14.014600000000002 -149.197 2183.94 0.0 0.0 1.0
13.625300000000001 -143.74733333333333 2183.94 0.0 0.0 1.0
0.925342 -118.35966666666667 1887.7 0.0 0.0 1.0
-0.33542999999999995 -113.79466666666667 1881.76 0.0 0.0 1.0
-0.25236600000000003 -106.41433333333333 1887.7 0.0 0.0 1.0
13.04137 -113.966 2183.94 0.0 0.0 1.0
-4.337346666666666 -49.558233333333334 1802.41 0.0 0.0 1.0
-3.85542 -45.54216666666667 1802.41 0.0 0.0 1.0
-3.9239200000000003 -42.042033333333336 1797.0 0.0 0.0 1.0
-3.9239200000000003 -40.44043333333334 1797.0 0.0 0.0 1.0
-3.8323366666666665 -34.4112 1791.62 0.0 0.0 1.0
-3.0339333333333336 -30.578833333333336 1791.62 0.0 0.0 1.0
-4.31138 -26.267433333333333 1791.62 0.0 0.0 1.0
-4.5373133333333335 -11.2239 1786.2699999999998 0.0 0.0 1.0
-4.5373133333333335 -11.2239 1786.2699999999998 0.0 0.0 1.0
-4.761903333333333 -3.0952400000000004 1780.95 0.0 0.0 1.0
-3.96825 -1.031747 1780.95 0.0 0.0 1.0
-4.761903333333333 5.952379999999999 1780.95 0.0 0.0 1.0
-3.6291933333333333 17.2781 1770.41 0.0 0.0 1.0
-5.42773 29.026533333333333 1765.1899999999998 -1.1332032746274097e-28 -1.1332232831604027e-28 1.0
-5.960786666666667 31.921566666666667 1760.0 0.0 0.0 1.0
-4.4574766666666665 42.77613333333333 1754.84 0.0 0.0 1.0
-4.169123333333334 55.771899999999995 1765.1899999999998 8.303572023251919e-27 -1.1186838021254216e-26 1.0
13.819966666666666 83.7956 2183.94 0.0 0.0 1.0
14.0146 107.34766666666667 2183.94 0.0 0.0 1.0
12.652066666666668 118.832 2183.94 0.0 0.0 1.0
12.4574 121.36266666666667 2183.94 0.0 0.0 1.0
13.235999999999999 122.72533333333332 2183.94 0.0 0.0 1.0
13.235999999999999 130.70566666666664 2183.94 0.0 0.0 1.0
13.625300000000001 132.45766666666668 2183.94 0.0 0.0 1.0
-7.727273333333334 108.86399999999999 1700.0 0.0 0.0 1.0
14.209233333333332 141.99533333333332 2183.94 0.0 0.0 1.0
12.068100000000001 149.97566666666668 2183.94 0.0 0.0 1.0
14.014600000000002 160.292 2183.94 0.0 0.0 1.0
-1.3417183333333333 -135.42966666666666 1881.76 0.0 0.0 1.0
-0.33542999999999995 -130.39833333333334 1881.76 0.0 0.0 1.0
-0.503145 -129.22433333333333 1881.76 0.0 0.0 1.0
-0.6708599999999999 -128.38566666666668 1881.76 0.0 0.0 1.0
-0.08412199999999996 -110.789 1887.7 0.0 0.0 1.0
-0.588854 -107.42399999999999 1887.7 0.0 0.0 1.0
2.0125783333333334 -103.06099999999999 1881.76 0.0 0.0 1.0
0.9253413333333332 -94.1325 1887.7 0.0 0.0 1.0
-0.2523653333333334 -87.23449999999998 1887.7 0.0 0.0 1.0
-0.42061 -81.5142 1887.7 0.0 0.0 1.0
-0.42061 -81.5142 1887.7 0.0 0.0 1.0
12.457433333333334 -78.15083333333332 2183.94 0.0 0.0 1.0
-3.855423333333333 -57.10843333333333 1802.41 0.0 0.0 1.0
-3.85542 -45.54216666666667 1802.41 0.0 0.0 1.0
-4.31138 -36.6467 1791.62 0.0 0.0 1.0
-4.31138 -36.6467 1791.62 0.0 0.0 1.0
-4.31138 -36.6467 1791.62 0.0 0.0 1.0
-4.311380000000001 -26.267433333333333 1791.62 0.0 0.0 1.0
-5.748503333333335 -20.678633333333334 1791.62 0.0 0.0 1.0
-5.238096666666666 -4.20635 1780.95 0.0 0.0 1.0
-4.761903333333333 -3.0952400000000004 1780.95 0.0 0.0 1.0
-5.079366666666666 5.31746 1780.95 0.0 0.0 1.0
-5.049306666666666 21.538433333333334 1770.41 0.0 0.0 1.0
12.2628 55.182500000000005 2183.94 0.0 0.0 1.0
12.2628 87.4939 2183.94 0.0 0.0 1.0
11.8735 95.66906666666667 2183.94 0.0 0.0 1.0
12.068133333333334 96.44766666666668 2183.94 0.0 0.0 1.0
12.457433333333334 98.78346666666665 2183.94 0.0 0.0 1.0
12.457433333333334 105.207 2183.94 0.0 0.0 1.0
12.846733333333333 117.46933333333334 2183.94 0.0 0.0 1.0
-7.727273333333333 108.86399999999999 1700.0 0.0 0.0 1.0
11.289533333333333 -160.09733333333335 2183.94 0.0 0.0 1.0
-0.6708599999999999 -128.38566666666668 1881.76 0.0 0.0 1.0
-1.8448633333333333 -119.832 1881.76 0.0 0.0 1.0
12.068133333333334 -138.4913333333333 2183.94 0.0 0.0 1.0
-0.757098 -110.62066666666668 1887.7 0.0 0.0 1.0
-0.757098 -108.77 1887.7 0.0 0.0 1.0
-0.25236600000000003 -106.41433333333333 1887.7 0.0 0.0 1.0
-0.7570973333333334 -104.22699999999999 1887.7 0.0 0.0 1.0
-0.9253413333333333 -96.99263333333333 1887.7 0.0 0.0 1.0
-1.1814363333333333 -98.64980000000001 1893.67 0.0 0.0 1.0
-0.42060999999999993 -81.5142 1887.7 0.0 0.0 1.0
-0.5888533333333333 -75.28916666666666 1887.7 0.0 0.0 1.0
11.678833333333335 -77.95616666666666 2183.94 0.0 0.0 1.0
-4.819276666666666 -50.36143333333334 1802.41 0.0 0.0 1.0
-3.85542 -45.54216666666667 1802.41 0.0 0.0 1.0
-4.311380000000001 -26.267433333333333 1791.62 0.0 0.0 1.0
-5.238096666666667 -4.2063500000000005 1780.95 0.0 0.0 1.0
-5.3968300000000005 5.158729999999999 1780.95 0.0 0.0 1.0
-5.079366666666666 5.31746 1780.95 0.0 0.0 1.0
-5.52268 19.644966666666665 1770.41 0.0 0.0 1.0
-5.838263333333334 22.485200000000003 1770.41 0.0 0.0 1.0
-6.05703 26.352033333333335 1765.1899999999998 -8.207647867915688e-29 2.429544182859681e-28 1.0
-5.9607866666666665 31.921566666666667 1760.0 0.0 0.0 1.0
-7.058823333333334 38.980399999999996 1760.0 0.0 0.0 1.0
