ply
format ascii 1.0
comment VCGLIB generated
element vertex 480
property float x
property float y
property float z
property float nx
property float ny
property float nz
element face 0
property list uchar int vertex_indices
end_header
-26.219800000000003 82.14743333333332 1504.78 0.9975090829070652 1.8514047702563348e-16 0.07053814229128538
-32.670033333333336 79.28836666666666 1330.7699999999998 -0.6779121239740296 0.234660763388787 0.6966846333132456
-17.6459 116.39966666666668 1775.67 0.0 0.0 1.0
-16.158366666666666 124.42199999999998 1786.28 -0.9308628760053325 -0.309862277210707 0.19359668188498352
-16.926166666666663 127.02633333333334 1791.62 0.0 0.0 1.0
-18.4146 -111.91366666666666 1673.07 0.10443732618091912 0.7309444629910838 0.6743982776689577
-32.51333333333333 -88.67200000000001 1373.5600000000002 0.6321151328516891 -0.5226473120375356 0.5720753849273978
-18.978456666666663 -88.96883333333334 1548.9233333333334 0.11134573178035075 -0.5288873572461011 0.8413562214422219
-12.077953333333333 -99.93856666666666 1895.6733333333334 -0.7063008747245165 -0.7063008747245106 0.047729956282967737
-11.340433333333332 -101.10889999999999 1974.9333333333334 -0.4973663148768261 -0.37270401931057806 0.7834018527011448
-9.075783333333332 -91.56426666666668 1922.0633333333333 -0.48391705593214884 -0.8603056977578242 0.16030717196490227
-12.059433333333333 -83.31213333333334 1905.7300000000002 -9.32991271773976e-27 4.665261497298607e-27 1.0
-12.059433333333333 -83.31213333333334 1905.7300000000002 -9.329912717739748e-27 4.6652614972985984e-27 1.0
-4.476886666666666 -95.27979999999998 2183.94 0.0 0.0 1.0
-13.790033333333334 -75.04336666666667 1852.6433333333334 0.9637337134442566 0.21430518328051512 0.15903024237561975
-27.679766666666666 -41.99866666666667 1387.3566666666666 -0.5112322615041734 0.5666488140829764 0.6461816279465743
-27.38033333333333 -43.60713333333334 1526.5900000000001 0.16328498460971566 0.9793321981382714 0.11935853338017482
-28.83053333333333 -39.77726666666666 1428.16 0.0 0.0 1.0
-30.115 -30.112166666666663 1381.993333333333 -0.9823795781397517 0.1842064017004365 -0.0315969306506326
-31.38246666666667 -29.302533333333333 1333.73 0.17844571070855544 0.8029931791965865 0.568646711494472
-27.297933333333333 -27.423033333333333 1615.86 0.33805206355064343 -0.726728114191885 0.5979858279025166
-25.058733333333333 -2.4843499999999996 1592.9033333333334 0.4983406592617564 -0.830541741066359 0.24871068266767152
-11.1581 14.523526666666667 1839.3700000000001 0.3084129260449343 -0.7705562832731114 0.557785336269008
-18.8764 13.8577 1680.9000000000003 0.0 0.0 1.0
-31.25316666666667 16.577066666666667 1482.4166666666667 0.8241492768133644 -0.24723959351389885 0.5095591750985261
-37.47133333333334 23.648733333333336 1303.7066666666667 0.3407512750880963 -0.802458800764251 0.4898453241604298
-32.65956666666667 49.795500000000004 1344.7233333333334 0.5467745606847945 0.7303654063027025 0.4093946177763435
-24.7503 61.66773333333333 1657.6266666666668 0.04297936128725719 0.542316514963926 0.8390742351548648
-20.406366666666667 76.65373333333334 1831.8400000000001 -0.4979293765675617 0.8630893455619271 0.084516965921191
-32.06326666666667 62.260799999999996 1344.7233333333334 0.8121239165475033 -0.05760510309142958 0.5806344773343809
-24.428133333333335 84.49753333333332 1506.04 0.3312141259798467 -0.9274028400655475 0.1738423854811096
-37.60503333333333 76.25529999999999 1303.7333333333333 0.6491357178913544 0.34651212116110386 0.6771648024270817
-25.796833333333336 80.99863333333333 1401.41 0.518023827315493 0.6716690339725555 0.5296338576184327
-21.508266666666668 103.60003333333333 1736.18 0.871135628330186 -0.48784164561078697 0.05597540407653708
-35.21556666666667 87.04700000000001 1256.2866666666666 0.9958248443311547 -0.000123273468656397 0.09128452342255713
-17.2381 124.32933333333334 1782.7233333333334 -0.8250149777338903 -0.5155585723061994 0.23140796234430197
-16.064433333333334 -113.02233333333334 1820.6899999999998 -0.9016495234962679 0.4207594777741156 0.09994797968046251
-15.6244 -104.76893333333332 1915.9066666666668 -0.5193890163652868 0.37510678749891174 0.767808535802609
-12.239413333333333 -100.0134 1959.8466666666666 0.8624262683609177 -0.4311938921842887 0.26512781631512455
-13.158133333333334 -92.21516666666666 1917.9633333333331 -0.8931832077757504 0.4466098270174908 0.05256823906911297
-37.4188 -54.344166666666666 1194.4133333333332 0.4451376152972934 0.890449450236173 -0.09461648916302066
-15.602366666666668 -77.09833333333333 1862.2433333333336 0.9088358214304382 -0.3976149596309694 -0.1261736642985522
-36.9439 -44.10576666666666 1235.5199999999998 -0.8975714611866378 -0.4115732670978965 -0.15802821859923435
-27.9023 -45.55523333333333 1483.6366666666665 0.725511129813293 0.18926135490644985 0.6616749504522698
-12.5601 -37.30136666666666 1784.4966666666667 -0.6120321069748071 -7.825499573699687e-16 0.7908329153695983
2.378566666666667 -44.6456 2144.8199999999997 0.5428841508239826 0.5590083332476645 0.6267268002437677
-11.771813333333332 -32.6154 2097.2033333333334 -0.5525836100816975 -0.637601016074454 0.5367646580857411
-17.40856666666667 -3.021832 1833.71 -0.3692245742189229 -0.9230664508499469 0.10780325184398418
-17.21336666666667 -2.6633633333333333 1615.8466666666666 -0.17297687808674866 -0.9801934200871929 0.09643577585695988
-22.64273333333333 6.307903333333333 1629.05 -0.8535505793589399 -0.480118366568178 0.20233082454219092
-0.9732366666666666 21.119200000000003 2183.94 0.0 0.0 1.0
-14.216299999999999 36.645100000000006 1753.1499999999999 -0.6456578251523087 0.7595993542832119 -0.07832492446289485
-23.987333333333336 51.584633333333336 1529.13 0.2746862395640819 0.9614354022865456 -0.01376361232569904
-29.685933333333335 52.06603333333334 1447.75 0.3618752391812708 0.9047349184007357 0.22472436159418124
-33.002966666666666 50.999500000000005 1341.7066666666667 -0.7058519469852274 0.531540483606064 0.4682283024604506
-33.95883333333333 50.6829 1320.9866666666667 -0.7177457101204099 0.5979050710544818 0.3568621885421369
-21.064833333333333 75.95066666666666 1624.6266666666668 -0.5880727817029818 0.7840367688413026 -0.198637228446751
-14.97528 113.00066666666665 1815.1666666666667 0.37090134172782574 -0.6888044442989799 0.622880913352201
-14.6768 130.40200000000002 1809.6766666666665 0.5051640860198984 0.842056273041434 0.18907797129028714
-3.647746666666667 -145.6783333333333 1996.9066666666665 0.15902323105430904 0.9539024483963437 0.2545225548522344
-3.5963733333333328 -138.71566666666666 2181.2933333333335 0.40513032220974765 0.810178940054666 0.4236502178898579
-25.426333333333332 -94.25823333333334 1538.323333333333 -0.44145267002266253 -0.8827977473887454 0.1605854206807674
-12.077953333333333 -99.93856666666666 1895.6733333333334 -0.7063008747245162 -0.7063008747245109 0.04772995628296742
-13.516133333333334 -90.40679999999999 1883.74 0.766237623343956 0.6129718237388027 -0.19273154353797953
-3.892946666666667 -97.03163333333333 2183.94 0.0 0.0 1.0
-14.410000000000002 -74.12106666666666 1858.3966666666668 0.3145734829448365 -0.9461823636623533 -0.07604247840698712
-37.79773333333333 -45.6285 1220.3933333333334 0.9082230925834741 0.3892441446798661 0.15368737726485332
-11.679629999999998 -69.78916666666667 1940.7633333333333 -0.4930913522656043 -0.7396251632616753 0.45805625876197553
-36.943900000000006 -44.10576666666666 1235.52 -0.8975714611866377 -0.4115732670978969 -0.15802821859923483
-22.505800000000004 -54.20466666666667 1724.533333333333 0.26168936588811703 0.8312387459832692 0.49047000209721003
-36.64116666666666 -36.233866666666664 1300.8866666666665 0.8010514448705389 -0.5902712808070116 0.09948063995206238
-0.5839399999999998 -47.7859 2183.94 0.0 0.0 1.0
-24.120900000000002 -29.256699999999995 1475.11 0.2640129549842752 0.8910447672617526 0.3692375689659977
-20.0375 -24.973133333333333 1756.5600000000002 -0.07123454480021973 0.783595174930464 0.6171744011645338
-21.524133333333335 -14.732 1731.1499999999999 -0.8810830911719145 -0.4146233813086107 0.22755227558334343
-18.822999999999997 -17.876833333333334 1782.7233333333334 0.0 0.8769040786567979 0.48066541048329303
-15.169666666666666 -15.089833333333331 1791.62 0.0 0.0 1.0
-18.13406666666667 -2.7444016666666666 1761.7300000000002 -0.9468318289277496 0.3156184341539838 0.06240586311814066
-13.9613 0.6956533333333333 1731.1499999999999 0.34082080661747094 -0.9250910630529576 0.167474484134644
-35.82236666666666 4.048655666666666 1440.7733333333333 -0.15455051788276017 -0.2936453025075237 0.9433379954912425
-23.722966666666668 8.050386666666666 1598.5766666666666 0.9141919856028181 -0.22854398966876863 0.33469487334863435
-20.193866666666665 11.70131 1716.2533333333333 0.6799887526639441 0.3777779382636644 0.6284099980202323
-16.37944333333333 60.92529999999999 1732.83 -0.08654916161388654 0.9952704417064392 0.04411338220317101
-0.9732166666666663 85.15813333333334 2183.94 0.0 0.0 1.0
-15.733143333333336 70.51563333333333 1688.8133333333335 -0.14074593965870252 0.9852270425630947 0.09756154504704907
-23.99393333333333 68.07506666666667 1602.86 -2.5947645782046486e-16 -0.5704456466178995 0.8213353543192249
-23.048833333333334 79.23856666666667 1717.9066666666665 0.4422582628596379 -0.7739640185239134 0.4531967861345564
-25.850933333333334 71.23966666666666 1457.1566666666668 -0.08252903005022738 -0.9265004925373269 0.3671318516923575
-28.453566666666664 71.82926666666667 1513.6733333333334 -0.7494116284668185 0.10636550737036862 0.6535048507551839
-26.0183 82.50793333333333 1556.9966666666667 -0.9584633394895943 -0.21899379263862714 0.18272861199112905
-17.645899999999997 116.39966666666668 1775.67 0.0 0.0 1.0
-19.18916666666667 120.27466666666668 1772.1633333333332 -0.6529440788452974 -0.7463428711679001 -0.12898196989394023
-34.471700000000006 87.05423333333333 1264.26 -0.14157956383437317 -0.9280965481426098 0.3443719274712169
-17.405199999999997 127.665 1791.62 0.0 0.0 1.0
-17.405199999999997 128.62300000000002 1791.62 0.0 0.0 1.0
-9.467216666666667 -117.02866666666667 1879.7933333333333 -0.04769524503338089 0.8570580022257209 0.5130075481141207
-31.122 -86.02786666666667 1470.2699999999998 0.0 0.0 1.0
-11.219 -99.9495 1938.6666666666667 -0.545212040189028 0.48464332423746953 0.684006344637952
-14.454166666666666 -88.82196666666665 1885.72 6.960656895357926e-16 -0.9357426331752187 0.35268360389775405
-37.79773333333333 -45.628499999999995 1220.3933333333334 0.9082230925834742 0.3892441446798661 0.15368737726485324
1.7218066666666667 -58.46126666666667 2147.3733333333334 -0.4115841860631779 -0.5945153642893104 0.6907604066582419
-18.6503 -48.50716666666667 1835.58 0.0 0.0 1.0
-11.575576666666668 -37.299033333333334 1924.12 0.0 0.0 1.0
-28.9225 -25.3417 1432.7333333333333 -0.9232568100486013 -0.35180026334532566 0.15438081943376547
-29.7026 7.1168233333333335 1550.2666666666667 -0.36660790497583223 -0.8664637925312095 0.3388792413849868
-23.722966666666668 8.050386666666666 1598.5766666666666 0.9141919856028182 -0.228543989668769 0.33469487334863435
-19.465033333333334 28.993133333333333 1782.7233333333334 0.8606751866606376 0.15188760891187247 0.48597158077989566
-13.7278 29.7436 1770.41 0.0 0.0 1.0
-30.556233333333335 30.327333333333332 1397.0566666666666 -0.7435473127445644 0.5752415147605026 0.3409319483509569
-0.1946466666666664 49.5377 2183.94 0.0 0.0 1.0
-20.344733333333334 44.51499999999999 1668.42 -0.6167034718121934 -0.03800858562829551 0.7862774162299994
-19.466466666666665 53.98779999999999 1768.67 -0.9359547011049326 -0.11700051637260933 0.33211395130003
-28.2346 44.78606666666667 1552.9466666666667 -0.46743978492446064 -0.1558146502524739 0.8701849471442685
-33.3092 48.671600000000005 1346.74 -0.2362629539603767 0.9449207043243294 0.22650536224365705
-18.352266666666665 76.03166666666668 1782.7466666666667 0.9118696755765998 0.4087480042855577 -0.03766648054173108
-16.9513 73.5353 1668.403333333333 -0.2611205516387624 -0.5744675571751177 0.775759681386653
-22.213333333333335 67.97806666666666 1577.5166666666667 -0.6459171980556254 -0.7633554208042735 0.008914863134131217
-36.19606666666667 55.6816 1324.8766666666668 0.43389036528786323 -0.43389036528786284 0.7896064220994721
-27.44713333333333 80.0666 1547.5866666666668 -0.9386674775631414 -0.31286393229428106 0.14498112440800373
-26.0951 77.33263333333333 1497.2633333333333 0.2346331949530151 0.9720665280808948 0.005824844280795935
-20.30453333333333 90.07493333333333 1988.0566666666666 0.845774721197172 -0.31519578280270816 0.4304843080615528
-19.861500000000003 112.28500000000001 1775.67 0.0 0.0 1.0
-19.544999999999998 121.622 1775.67 0.0 0.0 1.0
-16.926166666666667 127.02633333333334 1791.62 0.0 0.0 1.0
-17.4052 128.623 1791.62 0.0 0.0 1.0
-30.758766666666663 -81.1869 1264.2333333333333 -0.7315680716111218 0.3919111904976556 0.5578653738689064
-12.6138 -125.01133333333333 1938.6666666666667 0.6700433954716937 0.7296028084025108 0.13682686196771568
-27.480900000000002 -93.50816666666667 1530.4566666666667 -0.44496434921746875 -0.8898202498974805 -0.10112690442142423
-25.218700000000002 -100.0596 1630.55 0.7679975078636962 -0.6400451016293964 0.022849415646079337
-21.0833 -89.09203333333333 1592.9033333333334 -0.6352389693054409 0.3705560654281738 0.6776132040110731
-14.454166666666666 -88.82196666666665 1885.72 6.960656895357926e-16 -0.9357426331752187 0.35268360389775405
-5.060826666666666 -90.21896666666667 2183.94 0.0 0.0 1.0
-22.3162 -64.69283333333334 1807.8499999999997 7.906400774242853e-29 -1.2206858388165048e-28 1.0
-19.093666666666667 -49.38570000000001 1807.8499999999997 9.902158117130556e-28 -1.459700317052986e-27 1.0
-3.6982933333333334 -55.57176666666666 2183.94 0.0 0.0 1.0
-19.093666666666667 -49.38570000000001 1807.8499999999997 9.902158117130552e-28 -1.4597003170529854e-27 1.0
-32.20216666666666 -31.488133333333334 1340.71 -0.04697236053477275 0.9813545594925789 0.1863781798090045
-32.5752 -19.968533333333337 1353.8533333333332 -0.7350038162519168 0.4501098994100116 0.5071197773191535
-18.161566666666666 -17.455233333333332 1756.5600000000002 0.9185450882717593 0.31948802269657295 0.23281392605525136
-19.783666666666665 -13.845866666666666 1754.8500000000001 -0.9547157328201629 0.21216124875547202 0.20857965872102208
-19.0397 -7.125056666666666 1758.28 0.8900795186396347 -0.29670052839658895 0.34601625243248557
-26.0646 13.900039999999999 1567.86 0.7781637557555406 -0.38907671716155084 0.49303192329830126
-35.601000000000006 24.294033333333335 1307.51 0.12436027589859033 0.9437498136887387 0.3063834377718507
-18.522466666666663 49.586166666666664 1815.1666666666667 -0.9477533988796052 0.03948565258815732 0.31655075130513183
-19.466466666666665 53.98779999999999 1768.67 -0.9359547011049327 -0.11700051637260928 0.3321139513000301
-33.7886 46.39443333333333 1346.74 0.1158485314602285 -0.4633298369777317 0.8785810036215768
-31.1583 46.893499999999996 1404.7133333333334 -0.7503298173042199 0.5608959614091026 0.34985837954688803
-20.433366666666668 58.701600000000006 1763.46 0.9498354018842241 8.965306265941207e-17 0.3127502347360182
-19.047299999999996 72.83019999999999 1766.9533333333336 -0.7621567490476981 0.5452524017413247 0.3490227904827433
-26.800700000000003 80.06700000000001 1503.5199999999998 -1.639229514189961e-27 6.113835457335591e-28 1.0
-23.893466666666665 78.5697 1531.74 0.07616046425854965 -0.5330674205141164 0.8426379464932423
-29.923699999999997 90.48383333333334 1633.4866666666667 0.4880293335680924 0.48791770746249497 0.7237151928221673
-17.6459 116.39966666666668 1775.67 0.0 0.0 1.0
-19.882 121.25366666666666 1756.5600000000002 -0.9660000534494174 -0.1380126129342071 0.21862391316321042
-17.156000000000002 124.34733333333334 1758.28 -0.23868601422480473 0.8115121605603192 0.5333638531773589
-24.244266666666665 -120.07633333333332 1700.006666666667 0.8927007635976536 0.3992727102556289 0.20896566588148102
-26.895166666666665 -99.44396666666667 1535.6733333333332 0.12155981521129075 0.24309000336550074 0.9623567226291703
-25.413866666666667 -96.53263333333332 1620.22 -0.8884808346752385 -0.04935941394703131 0.456251525662761
-26.25786666666667 -88.15066666666667 1511.1266666666668 -0.5388485629798454 0.8082561318414282 0.23741156567296262
-12.243200000000002 -100.54540000000001 1881.76 0.0 0.0 1.0
-5.864863333333333 -104.70423333333333 2023.9333333333332 0.49683093607514034 -0.8368174212122493 0.2299904878780438
-12.4109 -75.05239999999999 1881.76 0.0 0.0 1.0
-36.9439 -44.10576666666666 1235.5199999999998 -0.8975714611866376 -0.41157326709789693 -0.15802821859923485
-19.958233333333336 -57.33936666666667 1835.5933333333335 -0.6951232129929058 -0.6952498700463546 0.1828423828299837
-21.534233333333333 -54.967666666666666 1744.6166666666666 -0.8087272779418866 -0.5881809942717111 0.0018187606351476706
-34.837799999999994 -37.096 1447.7433333333336 -0.1753286569415354 -0.8766659135999004 0.4480142162779316
-4.476883333333333 -49.927 2183.94 0.0 0.0 1.0
-20.488566666666667 -27.878800000000002 1507.323333333333 0.3483184122066482 0.9205667998379369 0.17672309060781916
-25.559433333333335 -25.24823333333333 1701.6133333333335 0.428844131709533 -0.194926811627251 0.8820976413113976
-25.058733333333333 -2.4843499999999996 1592.9033333333334 0.4983406592617564 -0.830541741066359 0.24871068266767152
-20.5836 0.3917466666666667 1797.01 0.2240885066547419 0.7290978205065236 0.646684396995849
-21.6524 1.1396 1704.84 0.0 0.0 1.0
-37.085033333333335 3.7008566666666667 1319.0366666666666 -0.4269415778444544 -0.9040693023028229 0.01948296028263382
-15.6213 7.810646666666667 1770.41 0.0 0.0 1.0
-3.87599 47.81776666666667 2028.4866666666667 -0.7245903989030956 0.4124077664994125 0.5521671739142221
-18.850533333333335 40.42263333333333 1741.2233333333334 -0.6359251973135546 -0.15898343562824968 0.7551975970681811
-17.16946666666667 46.94146666666666 1850.75 0.8322489043647135 0.519929273223656 0.192445607974967
-34.0816 51.83846666666667 1341.7066666666667 0.24205466625426986 0.9677553265746759 0.06970772145807348
-26.0183 82.50793333333333 1556.9966666666667 -0.9584633394895943 -0.21899379263862714 0.18272861199112905
-33.3419 91.28206666666667 1305.6033333333335 -0.5245367909799185 0.7666298041175528 0.37032404505672073
-17.997733333333333 124.40066666666667 1779.1899999999998 -0.8434078275375998 -0.527052413801646 0.10430239476715888
-16.5028 -136.45899999999997 1879.7933333333333 0.3227918020121799 -0.8607389346600355 0.3936164870963063
-15.060133333333333 -133.30633333333333 1877.8266666666666 -0.8457487013660081 -1.221699850745285e-17 0.5335814222194312
-33.56203333333334 -89.41556666666668 1415.7966666666669 -0.8079505807409106 -0.5314682816707592 -0.2544746051344921
-25.413866666666667 -96.53263333333332 1620.22 -0.8884808346752386 -0.04935941394703134 0.456251525662761
-19.259933333333333 -97.70060000000001 1846.9233333333334 -0.7108985656856125 0.6564353256465267 0.25242007160580104
-17.13083333333333 -84.2391 1866.1133333333335 -0.9763117739782352 -0.1775128504037834 0.12371138966560662
-13.985626666666667 -102.49733333333334 2139.733333333333 -0.2902091515675467 0.9536624260839093 0.07941426460149847
-5.06083 -99.36743333333334 2183.94 0.0 0.0 1.0
-5.06083 -99.36743333333334 2183.94 0.0 0.0 1.0
-23.686233333333334 -70.74990000000001 1789.8466666666666 -0.30991590689384896 0.9297384509209247 0.19884301228185705
-37.79773333333333 -45.628499999999995 1220.3933333333334 0.9082230925834742 0.3892441446798661 0.1536873772648532
-21.39453333333333 -56.81796666666667 1739.5433333333333 -0.9108913065851519 -0.3562380488856194 0.208258205393598
-24.6998 -30.3656 1611.5 -0.6103989305668386 -0.40694838807086703 0.6795632089874957
-19.428066666666666 -37.29586666666667 1846.9233333333334 -0.16578830825194005 0.7205658424257476 0.6732749093618685
-32.075466666666664 -26.2264 1411.32 0.0 0.0 1.0
-21.42 -15.966466666666667 1748.01 -0.8975308661259218 -9.842430231506476e-17 0.4409516349343231
-20.2139 -13.969233333333333 1751.42 -0.9772758060111681 -4.3331314253986066e-17 0.2119716938301467
-15.903633333333334 -13.734966666666665 1802.41 0.0 0.0 1.0
-20.877233333333333 9.509133333333333 1679.33 -0.6739044980429898 -0.14976210865307943 0.723480503074692
-21.613633333333336 13.957033333333333 1789.8366666666668 -0.7788058388254712 0.41936083811055025 0.4664739573337092
-5.255476666666667 28.32116666666667 2183.94 0.0 0.0 1.0
-20.8516 35.12363333333334 1779.1899999999998 1.8357101464055102e-16 0.9975418285507023 0.07007353488815449
-20.978233333333332 57.720366666666656 1953.4633333333331 -0.4039514935642577 -0.8997537680490889 0.1651252486104767
-11.162476666666665 56.1396 2139.7333333333336 0.9046291019082506 -0.41748013807858353 -0.08577017133338802
-32.236399999999996 46.385533333333335 1385.2066666666667 -0.7131465149550015 -0.6125383806620914 0.34090875674203325
-18.566999999999997 64.4558 1736.18 -0.9022958352891208 0.4164453795652609 -0.1115144450672366
-13.81583 71.03923333333334 1903.74 -0.2599583831944727 -0.6058453641290997 0.7519129163474946
-32.06326666666667 62.260799999999996 1344.7233333333334 0.8121239165475034 -0.05760510309142972 0.5806344773343808
-31.307433333333336 92.03406666666667 1645.47 -0.13264260140461395 -0.7693138473589247 0.6249497136205647
-23.700766666666667 -113.08933333333334 1607.18 0.03270332794564555 0.9989620531930883 0.03170660217571643
-12.187073333333332 -95.3263 1911.8333333333333 0.2287795499259963 -0.7628072806702527 0.6048015956428296
-13.086126666666667 -101.396 2152.5933333333332 0.03433088439190766 0.9958656650292403 0.08410093693139258
-17.13083333333333 -84.2391 1866.1133333333335 -0.9763117739782352 -0.17751285040378298 0.12371138966560637
-30.68143333333333 -43.30543333333333 1483.6366666666665 0.2811655221576074 -0.7029197070253975 0.6533374584586202
-9.113960333333333 -58.17823333333333 1999.1733333333334 0.4805196327224635 0.8376105095095472 0.2598259358251702
-12.762533333333332 -46.6584 2089.8799999999997 0.8514022732580792 0.05675947515805621 0.5214331511044891
-16.316683333333334 -37.5217 1899.6933333333334 -0.5429834434668305 -0.06404286943440213 0.8372977313927892
-22.350800000000003 -11.7924 1729.49 0.5141018140152056 -0.856848301314373 -0.03886275030087764
-28.8603 -5.278490000000001 1538.3 0.0 0.0 1.0
-26.003966666666667 -1.4904966666666668 1594.3166666666666 0.9863398003499894 2.9594053853920605e-16 0.16472339920467535
-25.294766666666664 -1.0649633333333333 1594.3166666666666 0.8312320329878784 1.9895160961459948e-16 0.5559256311188021
-37.44266666666667 0.5240666666666668 1322.9266666666665 0.7472210136670793 -0.6560197518224322 0.1062960109937206
-31.022033333333336 18.0936 1497.256666666667 -0.5392691731782465 -0.35951278211883064 0.7615374700911496
-38.344500000000004 22.999333333333336 1280.4566666666667 -0.3460204103008139 -0.25951846380947197 0.9016207864713569
-18.522466666666663 49.586166666666664 1815.1666666666667 -0.9477533988796053 0.039485652588157207 0.31655075130513194
-33.3092 48.671600000000005 1346.74 -0.23626295396037625 0.9449207043243294 0.2265053622436574
-22.884 70.43333333333334 1651.5199999999998 -0.4300630856884794 0.7741116082084221 0.46453951432044394
-27.447133333333337 80.0666 1547.5866666666668 -0.9386674775631405 -0.31286393229428566 0.14498112440799843
-3.7850846666666667 117.91266666666667 2075.4 -0.7588082315515496 0.5253449111410229 0.3849971325449587
-20.5128 103.27433333333333 1770.41 0.0 0.0 1.0
-20.5128 103.27433333333333 1770.41 0.0 0.0 1.0
-24.299433333333337 99.90166666666666 1731.17 -0.660473445043543 0.7430192497460036 0.10815370034908463
-20.828400000000002 107.06133333333332 1770.41 0.0 0.0 1.0
-38.63396666666667 88.11396666666667 1299.9333333333334 -0.30245092970456133 -0.6323916369269291 0.7131649547374895
-35.97316666666667 86.93306666666666 1310.39 0.9961747839246115 -0.0013105228431410456 0.08737323619181954
-17.535966666666667 125.16366666666666 1756.5600000000002 -0.18438194424035062 0.8296499865024818 0.5269574921514828
-25.177899999999998 117.425 1666.86 -0.741388095911686 0.2473715580461441 0.6238196882996461
-27.29583333333333 116.69433333333332 1633.5033333333333 0.4522527924218314 -0.8515231325170315 0.2652843126440722
-14.692766666666666 -126.17 1883.74 0.8700361980060936 0.11226741374027475 0.48003441748605014
-26.8506 -91.69916666666667 1525.2633333333333 -0.3204953655877135 0.916515093477976 0.23933826284957987
-14.676533333333333 -111.76199999999999 2008.0966666666666 -0.12330476058041362 -0.9859347999062437 0.11282068228849698
-20.1227 -95.1329 1835.58 0.0 0.0 1.0
-17.13083333333333 -84.2391 1866.1133333333335 -0.9763117739782352 -0.1775128504037834 0.12371138966560662
-1.1085233333333335 -83.78026666666666 2077.7966666666666 -0.3548814820137807 -0.6463972474241425 0.6754478012742321
-14.570033333333335 -60.807700000000004 1695.1933333333334 -0.11713047139326656 -0.8387800147180315 0.5317222391256641
-11.679629999999998 -69.78916666666667 1940.7633333333333 -0.4930913522656045 -0.7396251632616754 0.45805625876197514
-21.534233333333333 -54.967666666666666 1744.6166666666666 -0.8087272779418868 -0.5881809942717108 0.0018187606351478163
-18.650299999999998 -48.50716666666667 1835.58 0.0 0.0 1.0
-22.05406666666667 -62.24073333333333 1964.1200000000001 -0.22521387164636886 0.4030156047908941 0.8870496797322475
-12.266786666666667 -40.0425 1822.54 0.18508754855968715 0.814394320061079 0.5500040825488647
-24.6998 -30.3656 1611.5 -0.610398930566838 -0.4069483880708676 0.6795632089874959
-19.236966666666667 -39.0508 1852.6433333333334 0.7922774260853205 -0.6094442035891721 0.029567597588904967
-19.44073333333333 -28.982933333333335 1841.24 -0.9383164499829747 -0.3312461321483779 -0.0991879006133671
-22.350800000000003 -11.7924 1729.49 0.5141018140152057 -0.8568483013143728 -0.0388627503008774
-26.01346666666667 -0.06849333333333323 1581.6833333333334 0.8012109406671852 0.5341441416800955 0.269724052438855
-20.918200000000002 7.90419 1791.62 0.0 0.0 1.0
-20.9182 7.90419 1791.62 0.0 0.0 1.0
-21.731333333333335 8.676616666666668 1786.2699999999998 -1.7965566917291622e-28 1.0242767027893401e-28 1.0
-25.620900000000002 18.898233333333334 1676.1899999999998 -2.136532980825365e-27 1.633773152552459e-27 1.0
-5.255476666666667 28.32116666666667 2183.94 0.0 0.0 1.0
-19.76963333333333 45.94153333333333 1811.5266666666666 -0.9552176381097687 0.0636699057527183 0.2889730211376751
-15.618833333333335 52.01696666666666 2094.79 0.6706644867040955 -0.3199319195321131 0.6692179862633921
-20.313633333333332 56.7696 1766.93 -0.9296938136624923 -2.6890074287807875e-16 0.36833329042823587
-20.433366666666668 58.70159999999999 1763.46 0.9498354018842242 1.2471867290728018e-16 0.312750234736018
-39.621500000000005 44.478566666666666 1298.0633333333333 -0.5002147745604014 0.812350078914764 0.2997874723844598
-15.97903 68.89756666666666 1930.3366666666664 -0.5257072098978921 0.059008138875154624 0.8486165029080357
-35.29006666666667 52.72723333333334 1313.24 0.8658947716728236 -0.4584165869445601 0.2002010919145288
-20.406366666666667 76.65373333333334 1831.8400000000001 -0.49792937656756164 0.8630893455619271 0.08451696592119094
-29.021600000000003 64.78516666666667 1440.7733333333333 -0.8317929323116203 -0.5253423069826095 0.1792651060597839
-27.447133333333337 80.0666 1547.5866666666668 -0.9386674775631405 -0.31286393229428755 0.1449811244079961
-25.633100000000002 102.1631 1905.743333333333 -0.6135394287030175 0.2726571553592354 0.7410988092408357
-20.5128 103.27433333333333 1770.41 0.0 0.0 1.0
-21.416766666666664 105.27533333333334 1766.93 -0.5547120211319939 -0.832009269831344 -0.007426205381773938
-19.996166666666664 106.78933333333333 1674.6299999999999 -0.6537069527362908 -0.21783751391554043 0.7247165221487155
-20.087 109.824 1597.17 0.7436569688947259 -0.03764942492204854 0.6675004370165969
-33.78983333333334 -94.27253333333333 1356.95 -0.9358801063313691 0.042271627430009444 0.3497735497255389
-24.265933333333333 -116.89733333333334 1717.8966666666665 -0.7849545495159832 -0.1570592262260445 0.599315238127178
-16.617100000000004 -120.51133333333333 1818.8533333333332 -0.0313846366463467 -0.5866056945710194 0.8092643348618723
-31.828 -88.40083333333332 1472.6899999999998 -0.8806703806724626 0.44027918942177685 0.17485398470816463
-21.401766666666663 -97.902 1826.25 -0.6741427575140481 0.7354821469872307 -0.06780526494608817
-19.163233333333334 -96.3105 1829.9800000000002 -0.9682614022832388 -0.24218178871368223 0.061788656434150525
-6.618003333333333 -95.27980000000001 2183.94 0.0 0.0 1.0
-21.358633333333334 -60.34743333333333 1822.54 -0.5883316831928879 -0.7844422442571827 -0.1962554355328225
-44.3614 -20.4615 1285.9666666666665 0.4024361714866755 0.5121861633135357 0.7587558645501906
-19.753433333333334 -31.501833333333334 1926.1866666666665 0.37653277841893856 0.10269045531781092 0.9206941604912758
-30.147633333333335 -7.485223333333334 1540.9466666666667 0.5814449723102137 0.6395921485498154 0.50283558713421
-20.372566666666668 -8.322273333333333 1779.1899999999998 0.15439499036782114 -0.849174068172037 0.5050401854243611
-28.8603 -5.278490000000001 1538.3 0.0 0.0 1.0
-21.5904 -8.9298 1742.9366666666665 -0.9896774651432544 -0.11176023345286402 0.08971156673575727
-20.193866666666665 11.70131 1716.253333333333 0.679988752663944 0.3777779382636645 0.6284099980202323
-17.8777 9.502213333333334 1651.5266666666666 -0.47375220014440184 -0.5598917174944372 0.6797647516159306
-21.528533333333332 24.70743333333333 1782.7233333333334 -0.5298349790121963 0.847742642346926 0.024643606915328752
-27.067666666666668 25.062633333333334 1499.75 0.0 0.0 1.0
-32.906533333333336 26.4389 1409.1066666666666 0.3042080194742091 -0.3380019274900552 0.8906245998739237
-21.177433333333337 30.5017 1650.0133333333333 0.3188662100880425 0.602301950617043 0.7318173954935708
-15.113666666666667 39.75836666666667 2080.21 -0.5955743496959501 0.7657329990555833 0.24278420076600515
-11.86818 42.98716666666667 1887.71 0.6552877247124598 0.6839816740778066 0.3205730296935294
-23.5659 44.26356666666666 1739.53 0.0 0.0 1.0
-20.453466666666667 43.63313333333334 1645.4666666666665 -0.3677334225356634 -0.2128985289994178 0.9052327580794297
-20.027066666666666 53.8145 1895.6733333333334 0.5802514149903306 3.50615044416166e-17 0.8144374103647986
-26.666433333333334 51.038900000000005 1466.6733333333334 -0.035715243896366974 0.6502304074084722 0.7588971199278828
-33.41373333333333 50.95770000000001 1343.7133333333334 0.562189109771792 0.7227890421989523 0.4018947689770557
-21.2287 73.73186666666666 1758.3 -0.12396277535928009 0.9921057204522535 0.018959688054912875
-23.048833333333334 79.23856666666667 1717.9066666666665 0.4422582628596379 -0.7739640185239134 0.4531967861345564
-26.560699999999997 84.11896666666668 1779.1899999999998 0.057919500102199165 0.6661320307879138 0.7435815012937594
-27.493799999999997 74.3842 1465.4733333333334 0.3614325136311041 -0.9035928049407451 0.22997082630111604
-20.828400000000002 107.06133333333332 1770.41 0.0 0.0 1.0
-24.691333333333333 -118.74666666666667 1704.84 0.0 0.0 1.0
-18.853066666666667 -121.56733333333334 1800.6066666666666 -0.3413898503032948 0.5690276893837873 0.7481045774652378
-26.058866666666663 -116.01166666666666 1704.84 0.0 0.0 1.0
-24.265933333333333 -116.89733333333334 1717.8966666666665 -0.7849545495159833 -0.15705922622604457 0.5993152381271779
-25.413866666666667 -96.53263333333332 1620.22 -0.8884808346752386 -0.04935941394703134 0.456251525662761
-13.05692 -110.37923333333333 1992.46 0.9392525465505198 -0.25614523171652104 0.22846066196886727
-7.2019433333333325 -90.21896666666667 2183.94 0.0 0.0 1.0
-21.39453333333333 -56.81796666666667 1739.5433333333333 -0.9108913065851516 -0.3562380488856194 0.20825820539359804
-37.55713333333333 -38.08089999999999 1304.6566666666665 -0.981217508563635 0.0817583730686952 0.17472197721332278
-25.559433333333335 -25.24823333333333 1701.6133333333335 0.428844131709533 -0.1949268116272512 0.8820976413113976
-18.253566666666668 -16.32636666666667 1804.2233333333334 0.4182685612444732 0.41826856124447315 0.8062895394019178
-22.350800000000003 -11.7924 1729.49 0.5141018140152056 -0.856848301314373 -0.03886275030087761
-13.789653333333334 -2.511105333333333 1944.97 0.3451848649498892 -0.39449725973086125 0.8515980983271206
-29.401133333333334 -4.58157 1534.3633333333335 -0.7023229228441034 0.7049934903570068 0.09862398593628623
-29.538233333333334 -4.30736 1534.3633333333335 -0.9994602952596843 0.0003824505830289361 0.03284770815410135
-28.8603 -5.278490000000001 1538.3 0.0 0.0 1.0
-23.52886666666667 -0.68268 1703.2266666666667 -0.3931953990097736 0.917461681511266 -0.06050984346422759
-19.585800000000003 1.74327 1862.2433333333336 0.8001516912772931 0.5958538272147316 0.06866940759642615
-25.193600000000004 6.633883333333333 1601.43 0.8995270603323965 -0.2248778226247768 0.3745410960379336
-42.89183333333333 6.439363333333333 1235.51 0.09892976408246669 0.38158959195820025 0.9190224616883755
-22.64273333333333 6.307903333333333 1629.05 -0.8535505793589399 -0.480118366568178 0.20233082454219092
-9.732366666666666 13.722633333333333 2183.94 0.0 0.0 1.0
-20.8516 35.12363333333334 1779.1899999999998 1.8357101464055102e-16 0.9975418285507023 0.07007353488815449
-20.8516 35.12363333333334 1779.1899999999998 1.8357101464055102e-16 0.9975418285507023 0.07007353488815449
-27.725233333333335 29.3128 1547.5866666666668 -0.10136314412994998 -0.7095501813795463 0.6973263605488781
-20.99293333333333 35.815599999999996 1591.49 0.0 0.0 1.0
-37.888666666666666 27.55773333333333 1280.4566666666667 0.4855763211047211 0.36418666981464914 0.7947224080845592
-35.42173333333333 50.96856666666667 1316.1366666666665 0.07644647469792677 -0.9955765696685591 0.05461895672057187
-28.661266666666666 69.10379999999999 1640.9666666666665 -0.4342925021742556 -0.8974911506486403 0.07680922511394186
-22.676733333333335 98.18856666666666 1766.93 -5.808867754539741e-17 0.9922051851788031 0.12461488877456454
-36.941399999999994 83.82463333333334 1320.0 0.9862487707028191 0.1643747951171372 0.0171548540471037
-23.037466666666663 123.47133333333333 1770.41 0.0 0.0 1.0
-16.73966 156.78833333333333 2183.94 0.0 0.0 1.0
-33.8736 -115.65566666666666 1597.1533333333334 9.68306917058729e-16 -0.6969968056025401 0.7170742311503426
-33.78983333333334 -94.27253333333333 1356.95 -0.9358801063313691 0.042271627430009444 0.3497735497255389
-19.834633333333333 -119.79166666666667 1786.3133333333335 0.8355419708746314 0.5277020091997382 0.15297125348736548
-23.5656 -112.153 1739.5433333333333 -0.8476885371737232 -0.2437860858192576 0.471160788165992
-8.657213333333333 -136.57433333333333 2181.2933333333335 0.22856265384769414 0.9141684267652446 0.33474647238119914
-31.122 -86.02786666666667 1470.2699999999998 0.0 0.0 1.0
-28.84476666666667 -103.68566666666668 1777.4366666666667 0.7218909994184115 0.06562896027549579 0.6888876719261599
-20.3727 -102.94 1858.39 0.0 0.0 1.0
-19.7341 -96.04933333333334 1837.4633333333331 0.7051090671863675 0.7051090671863661 0.07511595531671982
-8.17518 -92.55473333333333 2183.94 0.0 0.0 1.0
-22.025499999999997 -79.83890000000001 1837.4633333333331 -0.35714488497918884 0.71428976995838 0.6018618243966023
-39.435633333333335 -55.4986 1264.243333333333 -0.9887899717515722 0.11161476732402306 0.09917930973105807
-37.55713333333333 -38.08089999999999 1304.6566666666665 -0.9812175085636349 0.08175837306869525 0.17472197721332283
-9.270473333333333 -54.489466666666665 2014.8266666666666 0.39662064625741317 -0.358458172032529 0.8451034267268414
-18.139 -56.2515 1870.0500000000002 -0.8481290125170438 -0.2353848780400073 0.4746273668015313
-31.441266666666664 -30.9562 1561.05 -0.49104466108936934 -0.8593318397781831 0.14291231563119167
-32.42093333333333 -36.876599999999996 1588.676666666667 -0.17913219112247392 -0.20472853390269727 0.9622878392194893
-31.40046666666667 -19.1588 1458.3400000000001 0.7637245930534594 -0.00045107972062536907 0.6455420532331054
-21.42 -15.966466666666667 1748.01 -0.8975308661259217 -4.656320902974292e-16 0.4409516349343234
-29.869433333333333 0.9051333333333332 1562.4000000000003 1.4799668878961778e-26 -3.26723425929191e-27 1.0
-9.927013333333333 10.802936666666668 2183.94 0.0 0.0 1.0
-21.731333333333335 8.676616666666668 1786.2699999999998 -1.7965566917291622e-28 1.0242767027893401e-28 1.0
-9.927013333333333 10.802936666666668 2183.94 0.0 0.0 1.0
-29.7026 7.1168233333333335 1550.2666666666667 -0.36660790497583223 -0.8664637925312096 0.3388792413849867
-25.620900000000002 18.898233333333334 1676.1899999999998 -2.136532980825365e-27 1.633773152552459e-27 1.0
-25.644666666666666 17.819533333333332 1567.86 0.4800786202800779 -0.2400361262992294 0.8437459193508654
-32.03863333333333 31.776866666666667 1458.3266666666668 0.2618423441214341 0.6646703673412891 0.6997513055388951
-24.264233333333333 76.24356666666667 1751.4399999999998 -0.8505878812672958 -0.5155077423903474 0.10369196582580473
-23.308399999999995 92.36566666666666 1766.93 0.9647869382161907 0.13783504898542318 0.2240260322342332
-27.58063333333334 94.48856666666667 1719.55 -0.45864185426265175 -0.6116440525194744 0.6446233028180652
-23.353066666666667 98.06716666666667 1770.41 0.0 0.0 1.0
-37.13686666666667 81.2956 1324.8766666666668 0.8107442808041303 0.48645570980935293 0.3256601810741868
-21.416766666666664 105.27533333333334 1766.93 -0.554712021131994 -0.8320092698313439 -0.007426205381773894
-23.023466666666668 118.99966666666667 1852.676666666667 -0.7309965707759666 -0.47964040673370517 0.48537520923724903
-19.183266666666665 110.73433333333332 1786.28 0.7208048993621466 -0.5734122403154186 0.389408140274415
-36.9414 83.82463333333334 1320.0 0.9862487707028194 0.1643747951171361 0.017154854047104852
-22.090733333333333 111.32166666666667 1770.41 0.0 0.0 1.0
-27.295833333333334 116.69433333333332 1633.5033333333333 0.4522527924218314 -0.8515231325170315 0.2652843126440722
-39.1992 -100.221 1395.97 0.3348599590693116 -0.9418077005692583 -0.02944593283536657
-23.668533333333333 -124.38133333333333 1837.4633333333331 0.6508243037987839 0.13016486075975678 0.7479871887995284
-26.410966666666667 -118.72033333333333 1737.8500000000001 0.5070521415336285 -0.5070636171959921 0.6969825061522544
-33.56203333333334 -89.41556666666668 1415.7966666666669 -0.8079505807409111 -0.5314682816707588 -0.2544746051344918
-31.828 -88.40083333333332 1472.6899999999998 -0.8806703806724625 0.4402791894217769 0.1748539847081646
-21.253066666666665 -106.68490000000001 1673.07 -0.05971154215438724 -0.41791400364654313 0.9065221548807629
-20.2826 -108.13966666666666 1744.6166666666668 -0.6132131367223046 -0.3484490970623488 0.7089096386053908
-20.1227 -95.1329 1835.58 0.0 0.0 1.0
-20.280266666666666 -42.897633333333324 1806.0366666666669 -0.8612964185774432 -0.4053202774908218 0.30640488246833286
-21.99506666666667 -39.22806666666667 1807.8633333333335 0.48706486810583904 -0.727080943881053 0.4838606362394844
-32.976333333333336 -24.179600000000004 1352.83 0.13199267807541548 0.3134843196474644 0.9403751986678754
-12.457423333333333 -25.206799999999998 2183.94 0.0 0.0 1.0
-25.7577 -21.342166666666667 1704.8500000000001 0.12100814528120525 -0.7992335298735959 0.588712827702433
-23.52886666666667 -0.68268 1703.2266666666667 -0.3931953990097736 0.917461681511266 -0.06050984346422759
-25.86113333333334 -1.3484566666666666 1590.0833333333333 -0.32236696761729794 0.5372614446988583 0.7793777506635172
-29.869433333333333 0.9051333333333332 1562.4000000000003 1.4799668878961778e-26 -3.26723425929191e-27 1.0
-22.4255 7.714996666666667 1784.4966666666667 -0.8843947876192709 -0.442215910771494 0.1493015334563022
-31.25316666666667 16.577066666666667 1482.4166666666667 0.8241492768133645 -0.2472395935138989 0.509559175098526
-37.76753333333334 25.688333333333333 1369.3500000000001 -0.7498444861703675 0.5623833646277785 0.34850853325253994
-24.0416 38.5443 1719.55 -0.4322709336697695 -0.06153181637732172 0.8996419707181148
-19.81743333333333 51.91363333333334 1800.6066666666666 -0.6824178336807684 0.3899501579921201 0.6182594718695118
-25.281366666666667 56.72729999999999 1554.29 0.0 0.0 1.0
-40.541 46.4909 1283.2033333333331 -0.5315002206337193 0.3986735434899814 0.7473733479242148
-23.048199999999998 93.21536666666667 1765.1899999999998 4.4963763932219075e-24 6.766238253369282e-25 1.0
-23.128 100.2008 1777.43 -0.9820010116567206 0.1785524759064873 0.06158755111903849
-19.8615 112.28500000000001 1775.67 0.0 0.0 1.0
-22.090733333333333 111.32166666666667 1770.41 0.0 0.0 1.0
-36.9414 83.82463333333334 1320.0 0.9862487707028191 0.16437479511713723 0.01715485404710382
-20.86863333333333 123.08300000000001 1773.9166666666667 -0.40576672367676225 0.9130285467460791 0.04162017279360314
-18.853066666666667 -121.56733333333334 1800.6066666666666 -0.3413898503032948 0.5690276893837872 0.7481045774652378
-28.439099999999996 -105.16253333333333 1639.4833333333336 0.9153592084379009 -0.33717235077632024 0.2200734545553131
-18.195333333333334 -120.12466666666667 1992.46 -0.7357176968532418 0.20063888102355212 0.6468875558847752
-33.56203333333334 -89.41556666666668 1415.7966666666669 -0.8079505807409111 -0.5314682816707589 -0.254474605134492
-20.2686 -102.00699999999999 1856.4700000000003 -0.6955836701513155 0.695443713678447 0.18033690394358004
-20.1227 -95.1329 1835.58 0.0 0.0 1.0
-39.8015 -60.06973333333334 1270.4933333333336 -0.8112190748289442 0.5794684755448386 -0.07835750432098068
-42.898500000000006 -60.738 1401.4533333333331 -0.38234672089402877 -0.776670326910518 0.500593835677481
-22.025499999999997 -79.8389 1837.4633333333331 -0.3571448849791888 0.7142897699583799 0.6018618243966022
-18.940233333333335 -68.01093333333334 1793.4233333333334 -0.749819925325635 0.6616106763882563 -0.006433698293613258
-24.99976666666667 -71.95006666666666 1753.1299999999999 0.9038674251611502 -0.34765043627892767 0.24932479196346174
-21.358633333333334 -60.34743333333333 1822.54 -0.5883316831928874 -0.7844422442571828 -0.19625543553282285
-12.457406666666666 -68.0292 2183.94 0.0 0.0 1.0
-12.457406666666666 -68.0292 2183.94 0.0 0.0 1.0
-20.2259 -51.34446666666667 1837.4633333333331 0.3818483503508079 0.6364571430828523 0.6701597886722094
-37.55713333333333 -38.08089999999999 1304.6566666666668 -0.981217508563635 0.08175837306869528 0.17472197721332275
-19.093666666666667 -49.38569999999999 1807.8499999999997 -1.4067850342604846e-27 1.8592004580485787e-27 1.0
-18.650299999999998 -48.50716666666667 1835.58 0.0 0.0 1.0
-30.485266666666664 -34.813066666666664 1428.16 0.0 0.0 1.0
-35.867133333333335 -33.134800000000006 1460.7 0.2070368823575107 0.6211106470725333 0.7558817985881267
-27.4485 -16.168666666666667 1671.5333333333335 0.08167267907989113 0.9528054037266824 0.29238918605370284
-31.108766666666668 -3.3643389999999997 1540.9466666666667 0.7215013944849383 -0.42087616580782344 0.5498172340070792
-21.933000000000003 9.491226666666668 1789.8366666666668 -0.6177854864780628 -0.7722278280174799 0.14834174844752493
-35.460100000000004 28.587233333333334 1391.6500000000003 -0.8444259289913875 -0.08443258935368152 0.528976358925486
-37.888666666666666 27.557733333333335 1280.4566666666667 0.48557632110472126 0.36418666981464926 0.7947224080845591
-15.113666666666665 39.75836666666667 2080.2100000000005 -0.5955743496959502 0.7657329990555833 0.24278420076600513
-21.484333333333336 54.97173333333333 1936.5833333333333 0.04740957771456245 0.9956702500538748 0.07995677018602992
-33.99126666666667 66.00066666666667 1531.75 0.25273017527397895 0.8213961711189764 0.5113079195329067
-21.932933333333335 100.1185 1770.41 0.0 0.0 1.0
-23.399433333333334 99.36646666666667 1773.9166666666667 0.983855163711831 -0.17888960737195092 -0.005246447548154829
-23.984233333333332 123.47133333333333 1770.41 0.0 0.0 1.0
-26.915666666666667 -125.68400000000001 1746.3266666666666 -0.7549536932740571 -0.6036935209737371 0.25612312224044287
-27.3356 -125.33633333333334 1748.0199999999998 -0.6585375230529131 -0.6951665158191963 0.2882218694255048
-37.319766666666666 -108.122 1506.04 0.26495833964146676 0.5057453557860975 0.8209864270225367
-38.06033333333333 -84.10776666666668 1380.956666666667 -0.029464107197508405 -0.9070053842529573 0.4200870139901961
-19.658133333333335 -113.248 1917.95 0.0 0.0 1.0
-20.3727 -102.94 1858.39 0.0 0.0 1.0
-20.3727 -102.94 1858.39 0.0 0.0 1.0
-39.516333333333336 -62.262499999999996 1275.91 -0.9963669716944168 -0.06629188101759344 0.05346254976754051
-39.516333333333336 -62.262499999999996 1275.91 -0.9963669716944167 -0.06629188101759373 0.05346254976754037
-28.463066666666666 -74.23566666666666 1726.1599999999999 -0.10315743105804265 0.567354684804153 0.8169866620993792
-24.523633333333333 -70.44100000000002 1758.29 -0.9287660384632876 0.3572270772068656 0.09890632491125693
-20.138333333333332 -59.285833333333336 1829.9800000000002 -0.7695576359647189 -0.5498944599546809 0.32464923816257885
-7.168126666666667 -56.168866666666666 2089.8799999999997 0.10977226788843994 0.493982400248303 0.862514601295279
-36.29566666666667 -30.4534 1409.1066666666666 0.9374793960066348 0.34090365653588045 -0.07012188690773691
-31.873033333333336 -29.7602 1487.3266666666666 -0.1743192573957268 0.5883254407059136 0.7896112792502364
-31.441266666666667 -30.9562 1561.05 -0.49104466108936934 -0.8593318397781832 0.1429123156311918
-31.329833333333337 3.1787733333333326 1525.2466666666667 -0.9833822436787741 -0.13297477972398514 0.1236004481167355
-21.731333333333335 8.676616666666668 1786.2699999999998 -1.7965566917291622e-28 1.0242767027893401e-28 1.0
-26.38423333333333 11.829673333333332 1570.61 -0.5465489838403103 0.8358334179726752 0.05164015553074537
-24.278633333333335 13.293550000000002 1786.2699999999998 -9.854804018827242e-29 1.2542582430466104e-29 1.0
-38.344500000000004 22.99933333333333 1280.4566666666667 -0.346020410300814 -0.25951846380947197 0.9016207864713569
-35.601000000000006 24.294033333333335 1307.51 0.12436027589859026 0.9437498136887386 0.30638343777185073
-21.302133333333334 47.181466666666665 1804.2466666666667 -0.9279654229859489 0.23196448400527842 0.29167216511466076
-42.053266666666666 46.108666666666664 1263.34 -0.6203256673059042 0.1908813975122292 0.7607630107761962
-30.47526666666667 67.11040000000001 1522.6533333333334 0.5070811870085672 -0.3105849858577584 0.8039935549130469
-10.12165 94.5011 2183.94 0.0 0.0 1.0
-22.676733333333335 98.18856666666666 1766.93 -3.4853206527238445e-17 0.9922051851788031 0.12461488877456456
-25.84936666666667 96.93336666666666 1736.18 0.7892164731094639 -0.6138318923925407 -0.018648497377839936
-37.13686666666667 81.2956 1324.8766666666668 0.8107442808041307 0.4864557098093522 0.3256601810741866
-16.276546666666665 117.736 1690.4333333333334 0.17705206355364414 0.9737028668600406 0.14337117513619885
-16.5028 -136.45899999999997 1879.7933333333333 0.3227918020121799 -0.8607389346600354 0.3936164870963064
-29.476566666666667 -117.51966666666668 1687.22 0.6733362958320561 0.1870286383159791 0.7152891171860762
-27.4264 -115.10000000000001 1704.84 0.0 0.0 1.0
-21.804066666666667 -114.78633333333333 1903.7133333333331 0.8906683634327408 -0.4453429214706969 -0.09153987478682868
-22.9067 -106.64133333333332 1862.2433333333336 -0.1564572398105394 0.8604206621436371 0.484971562328321
-12.88136 -103.13933333333334 1966.3 -0.44091048447645226 0.8815203005751561 0.16887837147671228
-39.4895 -60.99623333333333 1273.1966666666667 0.9340721188668777 0.25531008967581914 0.24965182728205013
-42.040866666666666 -60.962633333333336 1256.2700000000002 -0.5527218398391782 -0.5527218398391899 0.6236963488185374
-31.715999999999998 -69.73093333333333 1588.6833333333334 -0.8632196777109737 0.493278737172502 -0.1073679443133038
-39.15606666666667 -44.915033333333334 1218.74 -0.5109472876112436 -0.7886623675048281 0.3419715475948146
-36.306999999999995 -41.626933333333334 1324.8766666666668 -0.7002636318734087 0.4001516538584621 0.5911932846284712
