ply
format ascii 1.0
comment VCGLIB generated
element vertex 842
property float x
property float y
property float z
property float nx
property float ny
property float nz
element face 0
property list uchar int vertex_indices
end_header
-115.69233333333334 168.51266666666666 2301.54 0.0 0.0 1.0
-108.73 -114.206 1780.95 0.0 0.0 1.0
-108.73 -114.206 1780.95 0.0 0.0 1.0
-115.28233333333333 -134.05133333333333 2301.54 0.0 0.0 1.0
-116.51266666666668 -129.74366666666666 2301.54 0.0 0.0 1.0
-116.30766666666666 -123.79466666666667 2301.54 0.0 0.0 1.0
-108.012 -86.33036666666668 1775.67 0.0 0.0 1.0
-108.012 -86.33036666666665 1775.67 0.0 0.0 1.0
-107.85366666666668 -85.53906666666666 1775.67 0.0 0.0 1.0
-108.48666666666668 -83.00693333333334 1775.67 0.0 0.0 1.0
-108.32833333333333 -76.99309999999998 1775.67 0.0 0.0 1.0
-107.77133333333335 -63.51083333333333 1770.41 0.0 0.0 1.0
-115.28233333333333 -69.84616666666666 2301.54 0.0 0.0 1.0
-116.30799999999999 -58.76919999999999 2301.54 0.0 0.0 1.0
-117.33366666666667 -56.102533333333334 2301.54 0.0 0.0 1.0
-107.80666666666667 -33.63143333333333 1742.9166666666667 0.8638389264375866 0.43178057740047365 0.25951462800942793
-105.68799999999999 -31.800233333333335 1736.17 -0.09261245954145866 0.92612459541458 0.3656722112847273
-115.69233333333334 -37.02563333333333 2301.54 0.0 0.0 1.0
-116.30766666666666 -32.71793333333333 2301.54 0.0 0.0 1.0
-116.10266666666666 -22.051266666666667 2301.54 0.0 0.0 1.0
-108.36233333333332 -12.2543 1729.4800000000002 0.0 -1.0 0.0
-107.205 -0.6916436666666668 1724.5 0.0 0.0 1.0
-107.20166666666667 21.318066666666667 1714.61 0.0 0.0 1.0
-107.88566666666667 23.238066666666665 1709.71 0.0 0.0 1.0
-116.10266666666666 48.307700000000004 2301.54 0.0 0.0 1.0
-116.30766666666666 50.359 2301.54 0.0 0.0 1.0
-117.74366666666667 56.9231 2301.54 0.0 0.0 1.0
-117.33333333333333 146.769 2301.54 0.0 0.0 1.0
-116.718 158.05133333333333 2301.54 0.0 0.0 1.0
-107.61899999999999 -121.19066666666667 1780.95 0.0 0.0 1.0
-116.30766666666666 -123.79466666666667 2301.54 0.0 0.0 1.0
-118.154 -117.641 2301.54 0.0 0.0 1.0
-108.08666666666666 -66.82443333333335 1770.41 0.0 0.0 1.0
-108.08666666666666 -66.82443333333335 1770.41 0.0 0.0 1.0
-109.16333333333334 -56.985800000000005 1768.67 -0.19478421153379347 0.973921057668974 0.11634811715754222
-109.73433333333332 -55.61456666666667 1765.1899999999998 8.294307385397925e-27 1.2436314354829226e-26 1.0
-116.30766666666666 -61.435900000000004 2301.54 0.0 0.0 1.0
-108.36233333333332 -12.2543 1729.4800000000002 0.0 -1.0 0.0
-115.48733333333332 -16.102533333333334 2301.54 0.0 0.0 1.0
-107.81966666666666 -5.609990000000001 1724.5 0.0 0.0 1.0
-107.205 -0.9990410000000001 1724.5 0.0 0.0 1.0
-107.51233333333333 -0.6916436666666668 1724.5 0.0 0.0 1.0
-106.13166666666666 12.760233333333332 1714.61 0.0 0.0 1.0
-107.66000000000001 16.122233333333334 1714.61 0.0 0.0 1.0
-116.51266666666668 93.23079999999999 2301.54 0.0 0.0 1.0
-116.51266666666668 93.23079999999999 2301.54 0.0 0.0 1.0
-117.74333333333334 101.02566666666667 2301.54 0.0 0.0 1.0
-116.30766666666666 104.718 2301.54 0.0 0.0 1.0
-117.128 106.359 2301.54 0.0 0.0 1.0
-117.74366666666667 115.795 2301.54 0.0 0.0 1.0
-117.128 117.641 2301.54 0.0 0.0 1.0
-117.53833333333334 125.23066666666666 2301.54 0.0 0.0 1.0
-116.718 134.25666666666666 2301.54 0.0 0.0 1.0
-116.923 155.17966666666666 2301.54 0.0 0.0 1.0
-117.12833333333333 159.48733333333334 2301.54 0.0 0.0 1.0
-115.69233333333334 168.51266666666666 2301.54 0.0 0.0 1.0
-117.94866666666667 -168.923 2301.54 0.0 0.0 1.0
-109.29333333333334 -124.57733333333333 1786.2699999999998 -1.1693027939354198e-26 2.007846846062421e-26 1.0
-117.74333333333334 -128.30766666666668 2301.54 0.0 0.0 1.0
-117.74333333333334 -128.30766666666668 2301.54 0.0 0.0 1.0
-108.64466666666665 -78.25916666666666 1775.67 0.0 0.0 1.0
-117.128 -96.10256666666668 2301.54 0.0 0.0 1.0
-109.03366666666666 -63.66863333333333 1770.41 0.0 0.0 1.0
-117.53833333333334 -63.28206666666667 2301.54 0.0 0.0 1.0
-118.15366666666667 -30.461533333333332 2301.54 0.0 0.0 1.0
-118.15366666666667 -30.461533333333332 2301.54 0.0 0.0 1.0
-116.923 -19.58973333333333 2301.54 0.0 0.0 1.0
-107.89266666666667 8.96552 1719.54 0.0 0.0 1.0
-108.19033333333334 22.933333333333334 1709.71 0.0 0.0 1.0
-108.64766666666667 29.485733333333332 1709.71 0.0 0.0 1.0
-116.30733333333335 43.3846 2301.54 0.0 0.0 1.0
-117.128 44.8205 2301.54 0.0 0.0 1.0
-116.30766666666666 48.9231 2301.54 0.0 0.0 1.0
-117.33300000000001 64.71796666666667 2301.54 0.0 0.0 1.0
-117.128 72.51283333333333 2301.54 0.0 0.0 1.0
-117.128 74.76923333333333 2301.54 0.0 0.0 1.0
-117.74333333333334 91.79486666666666 2301.54 0.0 0.0 1.0
-117.74333333333334 101.02566666666667 2301.54 0.0 0.0 1.0
-117.33300000000001 108.41033333333333 2301.54 0.0 0.0 1.0
-116.71766666666667 109.84633333333333 2301.54 0.0 0.0 1.0
-118.15366666666667 119.077 2301.54 0.0 0.0 1.0
-117.74333333333334 125.641 2301.54 0.0 0.0 1.0
-118.15366666666667 145.74333333333334 2301.54 0.0 0.0 1.0
-117.128 162.359 2301.54 0.0 0.0 1.0
-109.04766666666667 -119.60333333333334 1780.95 0.0 0.0 1.0
-118.359 -128.923 2301.54 0.0 0.0 1.0
-118.154 -117.641 2301.54 0.0 0.0 1.0
-109.27766666666666 -77.94266666666665 1775.67 0.0 0.0 1.0
-109.278 -76.6766 1775.67 0.0 0.0 1.0
-118.15366666666667 -95.07693333333333 2301.54 0.0 0.0 1.0
-117.94866666666667 -79.07693333333333 2301.54 0.0 0.0 1.0
-110.04899999999999 -54.670633333333335 1765.1899999999998 5.801447622424142e-26 -7.245663926735184e-26 1.0
-117.33333333333333 -65.53846666666666 2301.54 0.0 0.0 1.0
-117.949 -58.35893333333333 2301.54 0.0 0.0 1.0
-107.80666666666667 -33.63143333333333 1742.9166666666667 0.8638389264375866 0.43178057740047365 0.25951462800942793
-117.33333333333333 -21.02563333333333 2301.54 0.0 0.0 1.0
-108.58800000000001 -1.3064366666666667 1724.5 0.0 0.0 1.0
-108.81233333333334 5.134103333333333 1719.54 0.0 0.0 1.0
-108.81233333333334 5.134103333333333 1719.54 0.0 0.0 1.0
-108.64766666666667 29.638133333333332 1709.71 0.0 0.0 1.0
-109.32566666666666 32.5926 1704.84 0.0 0.0 1.0
-117.74366666666667 56.9231 2301.54 0.0 0.0 1.0
-118.56400000000001 71.89743333333332 2301.54 0.0 0.0 1.0
-118.769 75.79486666666666 2301.54 0.0 0.0 1.0
-118.97433333333333 97.94869999999999 2301.54 0.0 0.0 1.0
-118.97433333333333 97.94869999999999 2301.54 0.0 0.0 1.0
-118.56433333333332 124.41000000000001 2301.54 0.0 0.0 1.0
-118.56433333333332 124.41000000000001 2301.54 0.0 0.0 1.0
-118.56400000000001 128.51266666666666 2301.54 0.0 0.0 1.0
-118.97433333333333 140.0 2301.54 0.0 0.0 1.0
-118.15366666666667 145.74333333333334 2301.54 0.0 0.0 1.0
-118.56433333333332 153.74366666666666 2301.54 0.0 0.0 1.0
-118.56433333333332 153.74366666666666 2301.54 0.0 0.0 1.0
-118.359 160.30766666666668 2301.54 0.0 0.0 1.0
-109.68233333333335 -113.41233333333332 1780.95 0.0 0.0 1.0
-119.38466666666666 -135.48733333333334 2301.54 0.0 0.0 1.0
-109.11966666666667 -80.94956666666667 1775.67 0.0 0.0 1.0
-118.15366666666667 -95.07693333333333 2301.54 0.0 0.0 1.0
-110.20633333333335 -51.52406666666667 1765.1899999999998 -4.357231318112975e-26 4.3510726964763613e-26 1.0
-110.04899999999999 -48.22026666666667 1765.1899999999998 5.826108370923706e-26 2.9068824604926685e-26 1.0
-119.58966666666667 -50.358966666666674 2301.54 0.0 0.0 1.0
-120.0 -46.051300000000005 2301.54 0.0 0.0 1.0
-119.38466666666666 -40.923066666666664 2301.54 0.0 0.0 1.0
-118.56400000000001 -27.384600000000002 2301.54 0.0 0.0 1.0
-108.58800000000001 -8.530256666666666 1724.5 0.0 0.0 1.0
-108.74166666666667 -5.917386666666668 1724.5 0.0 0.0 1.0
-109.20266666666669 -4.6878 1724.5 0.0 0.0 1.0
-108.577 20.553966666666668 1714.61 0.0 0.0 1.0
-109.10466666666666 24.457133333333335 1709.71 0.0 0.0 1.0
-109.10466666666666 24.457133333333335 1709.71 0.0 0.0 1.0
-118.97433333333333 57.743599999999994 2301.54 0.0 0.0 1.0
-119.17933333333333 58.76923333333334 2301.54 0.0 0.0 1.0
-118.35866666666668 64.10256666666668 2301.54 0.0 0.0 1.0
-118.35866666666668 64.10256666666668 2301.54 0.0 0.0 1.0
-120.61533333333334 83.38459999999999 2301.54 0.0 0.0 1.0
-119.38466666666666 88.10256666666668 2301.54 0.0 0.0 1.0
-117.74333333333334 91.79486666666666 2301.54 0.0 0.0 1.0
-118.769 101.43599999999999 2301.54 0.0 0.0 1.0
-118.769 125.846 2301.54 0.0 0.0 1.0
-118.56400000000001 128.51266666666666 2301.54 0.0 0.0 1.0
-118.56400000000001 128.51266666666666 2301.54 0.0 0.0 1.0
-118.56400000000001 134.25666666666666 2301.54 0.0 0.0 1.0
-118.97433333333333 140.0 2301.54 0.0 0.0 1.0
-118.56400000000001 145.12800000000001 2301.54 0.0 0.0 1.0
-118.56400000000001 145.12800000000001 2301.54 0.0 0.0 1.0
-110.72633333333333 -126.48766666666667 1786.2699999999998 0.0 0.0 1.0
-110.72633333333333 -126.48766666666667 1786.2699999999998 0.0 0.0 1.0
-110.24866666666667 -124.418 1786.2699999999998 -1.1783292582721574e-28 -1.0200686431268764e-27 1.0
-119.58999999999999 -134.25666666666666 2301.54 0.0 0.0 1.0
-119.58999999999999 -133.231 2301.54 0.0 0.0 1.0
-119.17966666666666 -129.333 2301.54 0.0 0.0 1.0
-120.0 -126.051 2301.54 0.0 0.0 1.0
-119.58999999999999 -117.846 2301.54 0.0 0.0 1.0
-109.75266666666668 -77.30963333333334 1775.67 0.0 0.0 1.0
-119.795 -92.20513333333334 2301.54 0.0 0.0 1.0
-110.927 -67.29783333333334 1770.41 0.0 0.0 1.0
-109.82266666666668 -64.142 1770.41 0.0 0.0 1.0
-110.61166666666668 -63.98423333333333 1770.41 0.0 0.0 1.0
-110.52066666666667 -55.142599999999995 1765.1899999999998 -5.076727687391474e-26 5.803599234073717e-26 1.0
-110.20633333333335 -51.52406666666667 1765.1899999999998 -4.357231318112982e-26 4.3510726964763745e-26 1.0
-110.04899999999999 -48.22026666666667 1765.1899999999998 5.826108370923705e-26 2.9068824604926685e-26 1.0
-110.206 -47.90559999999999 1765.1899999999998 1.0 0.0 0.0
-110.206 -47.9056 1765.1899999999998 1.0 0.0 0.0
-119.17966666666666 -58.76919999999999 2301.54 0.0 0.0 1.0
-120.41033333333333 -55.07693333333333 2301.54 0.0 0.0 1.0
-119.795 -46.87180000000001 2301.54 0.0 0.0 1.0
-119.38466666666666 -40.923066666666664 2301.54 0.0 0.0 1.0
-119.17933333333333 -30.871766666666662 2301.54 0.0 0.0 1.0
-120.0 -26.974333333333334 2301.54 0.0 0.0 1.0
-109.50999999999999 -6.53218 1724.5 0.0 0.0 1.0
-109.20266666666669 -4.6878 1724.5 0.0 0.0 1.0
-109.81733333333334 -1.76753 1724.5 0.0 0.0 1.0
-109.81733333333334 -1.76753 1724.5 0.0 0.0 1.0
-110.34500000000001 2.3754833333333334 1719.54 0.0 0.0 1.0
-109.11866666666667 5.593873333333334 1719.54 0.0 0.0 1.0
-109.57833333333333 6.513413333333333 1719.54 0.0 0.0 1.0
-109.57833333333333 6.513413333333333 1719.54 0.0 0.0 1.0
-109.18799999999999 15.969433333333333 1714.61 0.0 0.0 1.0
-109.79933333333334 19.0258 1714.61 0.0 0.0 1.0
-119.795 68.41026666666666 2301.54 0.0 0.0 1.0
-119.58999999999999 68.82053333333333 2301.54 0.0 0.0 1.0
-119.38466666666666 88.10256666666668 2301.54 0.0 0.0 1.0
-118.76933333333334 115.58966666666667 2301.54 0.0 0.0 1.0
-119.38466666666666 124.41000000000001 2301.54 0.0 0.0 1.0
-119.795 154.359 2301.54 0.0 0.0 1.0
-119.795 158.46166666666667 2301.54 0.0 0.0 1.0
-110.24866666666667 -125.69166666666666 1786.2699999999998 -1.0881800981609823e-27 2.178815905975563e-27 1.0
-110.63499999999999 -120.07933333333334 1780.95 0.0 0.0 1.0
-111.26966666666665 -112.93633333333332 1780.95 0.0 0.0 1.0
-121.43599999999999 -138.97433333333333 2301.54 0.0 0.0 1.0
-119.58999999999999 -134.25666666666666 2301.54 0.0 0.0 1.0
-120.20533333333333 -132.61533333333333 2301.54 0.0 0.0 1.0
-120.20533333333333 -129.12800000000001 2301.54 0.0 0.0 1.0
-120.41033333333333 -128.51266666666666 2301.54 0.0 0.0 1.0
-110.927 -67.29783333333334 1770.41 0.0 0.0 1.0
-117.94866666666667 -79.07693333333333 2301.54 0.0 0.0 1.0
-111.08466666666668 -57.5148 1770.41 0.0 0.0 1.0
-110.52066666666667 -55.142599999999995 1765.1899999999998 -5.0767276873914754e-26 5.803599234073718e-26 1.0
-110.52066666666667 -55.142599999999995 1765.1899999999998 -5.0767276873914754e-26 5.803599234073718e-26 1.0
-110.678 -51.6814 1765.1899999999998 0.0 1.0 0.0
-110.678 -49.00686666666667 1765.1899999999998 2.9007238112118907e-26 -2.1757733428732023e-26 1.0
-119.17966666666666 -58.76919999999999 2301.54 0.0 0.0 1.0
-119.38466666666666 -40.923066666666664 2301.54 0.0 0.0 1.0
-108.36233333333332 -12.2543 1729.4800000000002 0.0 -1.0 0.0
-109.50999999999999 -6.53218 1724.5 0.0 0.0 1.0
-109.57833333333333 6.513413333333333 1719.54 0.0 0.0 1.0
-109.73166666666667 9.42529 1719.54 0.0 0.0 1.0
-110.25766666666665 19.484233333333336 1714.61 0.0 0.0 1.0
-109.86666666666667 24.152366666666666 1709.71 0.0 0.0 1.0
-110.019 29.485733333333332 1709.71 0.0 0.0 1.0
-110.019 29.485733333333332 1709.71 0.0 0.0 1.0
-110.23733333333332 33.20036666666666 1704.84 0.0 0.0 1.0
-119.17933333333333 58.76923333333334 2301.54 0.0 0.0 1.0
-120.0 68.82053333333333 2301.54 0.0 0.0 1.0
-119.795 69.84616666666666 2301.54 0.0 0.0 1.0
-119.38466666666666 85.23076666666667 2301.54 0.0 0.0 1.0
-119.38466666666666 88.10256666666668 2301.54 0.0 0.0 1.0
-119.79466666666667 102.05166666666666 2301.54 0.0 0.0 1.0
-120.61566666666666 115.79466666666667 2301.54 0.0 0.0 1.0
-119.17933333333333 120.718 2301.54 0.0 0.0 1.0
-120.0 121.949 2301.54 0.0 0.0 1.0
-120.205 123.17966666666666 2301.54 0.0 0.0 1.0
-119.38466666666666 125.43566666666668 2301.54 0.0 0.0 1.0
-120.61533333333334 135.077 2301.54 0.0 0.0 1.0
-119.58966666666667 139.38466666666667 2301.54 0.0 0.0 1.0
-119.58966666666667 140.82066666666665 2301.54 0.0 0.0 1.0
-120.61533333333334 141.84633333333332 2301.54 0.0 0.0 1.0
-119.17933333333333 144.923 2301.54 0.0 0.0 1.0
-120.0 145.94833333333335 2301.54 0.0 0.0 1.0
-119.795 158.46166666666667 2301.54 0.0 0.0 1.0
-119.795 158.46166666666667 2301.54 0.0 0.0 1.0
-119.38466666666666 160.10266666666666 2301.54 0.0 0.0 1.0
-119.17933333333333 167.487 2301.54 0.0 0.0 1.0
-120.41000000000001 169.74366666666666 2301.54 0.0 0.0 1.0
-111.746 -120.87266666666666 1780.95 0.0 0.0 1.0
-120.0 -126.051 2301.54 0.0 0.0 1.0
-120.41033333333333 -118.66666666666667 2301.54 0.0 0.0 1.0
-111.085 -63.510866666666665 1770.41 0.0 0.0 1.0
-111.30733333333335 -51.6814 1765.1899999999998 0.0 -1.0 0.0
-110.99266666666666 -49.63616666666667 1765.1899999999998 2.90072381121189e-26 -7.25180952802984e-27 1.0
-110.99266666666666 -49.63616666666667 1765.1899999999998 2.90072381121189e-26 -7.25180952802984e-27 1.0
-119.58966666666667 -52.8205 2301.54 0.0 0.0 1.0
-122.25633333333333 -35.58973333333333 2301.54 0.0 0.0 1.0
-120.82066666666667 -30.871766666666662 2301.54 0.0 0.0 1.0
-110.27833333333332 -1.4601333333333333 1724.5 0.0 0.0 1.0
-109.95233333333333 11.2321 1714.61 0.0 0.0 1.0
-110.71633333333334 19.331400000000002 1714.61 0.0 0.0 1.0
-110.693 33.960100000000004 1704.84 0.0 0.0 1.0
-110.389 35.02373333333333 1704.84 0.0 0.0 1.0
-110.997 40.9497 1704.84 0.0 0.0 1.0
-120.0 68.41026666666666 2301.54 0.0 0.0 1.0
-120.205 75.38459999999999 2301.54 0.0 0.0 1.0
-120.205 91.58973333333334 2301.54 0.0 0.0 1.0
-121.43599999999999 94.05130000000001 2301.54 0.0 0.0 1.0
-121.23066666666666 98.56406666666668 2301.54 0.0 0.0 1.0
-119.79466666666667 102.05166666666666 2301.54 0.0 0.0 1.0
-120.82033333333334 109.23066666666666 2301.54 0.0 0.0 1.0
-120.82033333333334 109.23066666666666 2301.54 0.0 0.0 1.0
-120.0 124.0 2301.54 0.0 0.0 1.0
-121.23066666666666 135.487 2301.54 0.0 0.0 1.0
-121.641 150.46133333333333 2301.54 0.0 0.0 1.0
-120.41000000000001 169.74366666666666 2301.54 0.0 0.0 1.0
-120.41000000000001 169.74366666666666 2301.54 0.0 0.0 1.0
-121.641 -169.12833333333333 2301.54 0.0 0.0 1.0
-121.43599999999999 -133.436 2301.54 0.0 0.0 1.0
-120.82066666666667 -132.61533333333333 2301.54 0.0 0.0 1.0
-120.41033333333333 -128.51266666666666 2301.54 0.0 0.0 1.0
-120.61566666666666 -117.641 2301.54 0.0 0.0 1.0
-120.61566666666666 -117.641 2301.54 0.0 0.0 1.0
-111.96833333333332 -84.90603333333333 1775.67 0.0 0.0 1.0
-111.96833333333332 -84.90603333333333 1775.67 0.0 0.0 1.0
-120.82066666666667 -94.46153333333332 2301.54 0.0 0.0 1.0
-121.43599999999999 -91.17946666666667 2301.54 0.0 0.0 1.0
-111.55833333333334 -66.50886666666666 1770.41 0.0 0.0 1.0
-112.03166666666668 -63.35306666666667 1770.41 0.0 0.0 1.0
-114.66666666666667 -46.3529 1760.0 0.0 0.0 1.0
-121.84633333333333 -57.333333333333336 2301.54 0.0 0.0 1.0
-121.026 -47.69230000000001 2301.54 0.0 0.0 1.0
-110.432 -3.45821 1724.5 0.0 0.0 1.0
-110.73933333333333 -2.53602 1724.5 0.0 0.0 1.0
-110.73933333333333 -1.1527376666666667 1724.5 0.0 0.0 1.0
-110.73933333333333 -1.1527376666666667 1724.5 0.0 0.0 1.0
-110.34500000000001 2.3754833333333334 1719.54 0.0 0.0 1.0
-110.805 3.2950233333333334 1719.54 0.0 0.0 1.0
-110.95800000000001 4.521076666666667 1719.54 0.0 0.0 1.0
-110.41066666666666 16.580699999999997 1714.61 0.0 0.0 1.0
-110.71633333333334 19.331400000000002 1714.61 0.0 0.0 1.0
-110.78133333333334 28.57143333333333 1709.71 0.0 0.0 1.0
-110.47633333333333 29.180966666666666 1709.71 0.0 0.0 1.0
-121.02566666666667 92.20513333333334 2301.54 0.0 0.0 1.0
-121.43599999999999 94.05130000000001 2301.54 0.0 0.0 1.0
-121.23066666666666 98.56406666666668 2301.54 0.0 0.0 1.0
-120.82033333333334 109.23066666666666 2301.54 0.0 0.0 1.0
-121.23066666666666 135.487 2301.54 0.0 0.0 1.0
-120.41033333333333 145.74333333333334 2301.54 0.0 0.0 1.0
-121.641 151.282 2301.54 0.0 0.0 1.0
-122.25633333333333 -169.94866666666667 2301.54 0.0 0.0 1.0
-121.641 -169.12833333333333 2301.54 0.0 0.0 1.0
-113.016 -117.22233333333334 1780.95 0.0 0.0 1.0
-122.05133333333333 -138.35866666666666 2301.54 0.0 0.0 1.0
-122.05133333333333 -138.35866666666666 2301.54 0.0 0.0 1.0
-121.02566666666667 -134.25666666666666 2301.54 0.0 0.0 1.0
-121.02566666666667 -129.33333333333334 2301.54 0.0 0.0 1.0
-112.60133333333333 -86.48863333333334 1775.67 0.0 0.0 1.0
-112.60133333333333 -86.48863333333334 1775.67 0.0 0.0 1.0
-112.75966666666666 -79.05046666666668 1775.67 0.0 0.0 1.0
-112.918 -77.94263333333333 1775.67 0.0 0.0 1.0
-112.094 -52.62536666666667 1765.1899999999998 1.0 0.0 0.0
-112.094 -52.62536666666667 1765.1899999999998 1.0 0.0 0.0
-112.094 -52.1534 1765.1899999999998 1.0 0.0 0.0
-111.77933333333333 -51.83873333333333 1765.1899999999998 7.25180952803016e-27 -7.25180952803005e-27 1.0
-121.84633333333333 -57.333333333333336 2301.54 0.0 0.0 1.0
-122.05133333333333 -45.64106666666667 2301.54 0.0 0.0 1.0
-122.05133333333333 -45.64106666666667 2301.54 0.0 0.0 1.0
-121.846 -44.82053333333334 2301.54 0.0 0.0 1.0
-122.25666666666666 -38.8718 2301.54 0.0 0.0 1.0
-122.25666666666666 -27.38463333333333 2301.54 0.0 0.0 1.0
-110.65133333333334 5.593873333333334 1719.54 0.0 0.0 1.0
-111.87733333333331 7.8927233333333335 1719.54 0.0 0.0 1.0
-111.57066666666667 8.352493333333333 1719.54 0.0 0.0 1.0
-111.32766666666667 17.650433333333336 1714.61 0.0 0.0 1.0
-111.32766666666667 19.331400000000002 1714.61 0.0 0.0 1.0
-111.238 23.847633333333334 1709.71 0.0 0.0 1.0
-110.78133333333334 28.571433333333335 1709.71 0.0 0.0 1.0
-110.62866666666667 29.942866666666664 1709.71 0.0 0.0 1.0
-110.997 33.6562 1704.84 0.0 0.0 1.0
-110.997 34.263999999999996 1704.84 0.0 0.0 1.0
-110.997 40.9497 1704.84 0.0 0.0 1.0
-122.05133333333333 70.05129999999998 2301.54 0.0 0.0 1.0
-122.05133333333333 71.07693333333333 2301.54 0.0 0.0 1.0
-121.846 73.12819999999999 2301.54 0.0 0.0 1.0
-121.43566666666668 74.5641 2301.54 0.0 0.0 1.0
-122.25666666666666 99.17946666666667 2301.54 0.0 0.0 1.0
-122.05133333333333 99.79473333333333 2301.54 0.0 0.0 1.0
-121.23066666666666 109.84633333333333 2301.54 0.0 0.0 1.0
-121.846 124.82033333333334 2301.54 0.0 0.0 1.0
-122.25633333333333 125.641 2301.54 0.0 0.0 1.0
-121.23066666666666 135.487 2301.54 0.0 0.0 1.0
-120.61533333333334 141.84633333333332 2301.54 0.0 0.0 1.0
-122.66666666666667 153.94899999999998 2301.54 0.0 0.0 1.0
-112.69866666666667 -121.349 1780.95 0.0 0.0 1.0
-113.016 -117.22233333333334 1780.95 0.0 0.0 1.0
-113.65066666666667 -111.66666666666667 1780.95 0.0 0.0 1.0
-113.33333333333333 -109.60333333333334 1780.95 0.0 0.0 1.0
-122.05133333333333 -138.35866666666666 2301.54 0.0 0.0 1.0
-122.872 -94.87176666666666 2301.54 0.0 0.0 1.0
-112.97833333333334 -65.71993333333334 1770.41 0.0 0.0 1.0
-122.66699999999999 -56.9231 2301.54 0.0 0.0 1.0
-122.05166666666666 -47.076933333333336 2301.54 0.0 0.0 1.0
-122.05133333333333 -45.64106666666667 2301.54 0.0 0.0 1.0
-122.46166666666666 -40.10256666666666 2301.54 0.0 0.0 1.0
-122.872 -37.84616666666667 2301.54 0.0 0.0 1.0
-122.25633333333333 -30.871766666666662 2301.54 0.0 0.0 1.0
-122.25666666666666 -29.230766666666668 2301.54 0.0 0.0 1.0
-122.872 -26.5641 2301.54 0.0 0.0 1.0
-112.12333333333333 -8.22286 1724.5 0.0 0.0 1.0
-112.277 -7.45437 1724.5 0.0 0.0 1.0
-111.633 21.318066666666667 1714.61 0.0 0.0 1.0
-111.633 21.318066666666667 1714.61 0.0 0.0 1.0
-111.633 21.318066666666667 1714.61 0.0 0.0 1.0
-111.45299999999999 37.91073333333333 1704.84 0.0 0.0 1.0
-122.66699999999999 64.71796666666667 2301.54 0.0 0.0 1.0
-122.66699999999999 64.71796666666667 2301.54 0.0 0.0 1.0
-122.46166666666666 68.61540000000001 2301.54 0.0 0.0 1.0
-122.05133333333333 71.07693333333333 2301.54 0.0 0.0 1.0
-122.872 78.05126666666666 2301.54 0.0 0.0 1.0
-122.05166666666666 94.25643333333333 2301.54 0.0 0.0 1.0
-122.05166666666666 94.25643333333333 2301.54 0.0 0.0 1.0
-122.25666666666666 99.17946666666667 2301.54 0.0 0.0 1.0
-122.25666666666666 99.17946666666667 2301.54 0.0 0.0 1.0
-123.282 117.641 2301.54 0.0 0.0 1.0
-122.25633333333333 -169.94866666666667 2301.54 0.0 0.0 1.0
-113.01566666666668 -110.55566666666668 1780.95 0.0 0.0 1.0
-122.66666666666667 -128.513 2301.54 0.0 0.0 1.0
-112.91766666666666 -87.27993333333335 1775.67 0.0 0.0 1.0
-112.60133333333333 -86.48863333333334 1775.67 0.0 0.0 1.0
-113.13600000000001 -63.35306666666667 1770.41 0.0 0.0 1.0
-123.077 -40.9231 2301.54 0.0 0.0 1.0
-111.87733333333334 7.8927233333333335 1719.54 0.0 0.0 1.0
-111.87733333333334 8.352493333333333 1719.54 0.0 0.0 1.0
-111.93900000000001 11.2321 1714.61 0.0 0.0 1.0
-111.78633333333333 19.484233333333332 1714.61 0.0 0.0 1.0
-111.78633333333333 19.484233333333332 1714.61 0.0 0.0 1.0
-111.301 33.960100000000004 1704.84 0.0 0.0 1.0
-110.997 40.9497 1704.84 0.0 0.0 1.0
-122.66699999999999 64.71796666666667 2301.54 0.0 0.0 1.0
-123.28233333333333 67.38459999999999 2301.54 0.0 0.0 1.0
-123.282 77.4359 2301.54 0.0 0.0 1.0
-122.872 78.05126666666666 2301.54 0.0 0.0 1.0
-122.872 79.69226666666667 2301.54 0.0 0.0 1.0
-124.10266666666666 89.53846666666668 2301.54 0.0 0.0 1.0
-123.69233333333334 118.872 2301.54 0.0 0.0 1.0
-123.282 120.30766666666666 2301.54 0.0 0.0 1.0
-123.077 126.05133333333333 2301.54 0.0 0.0 1.0
-122.872 133.641 2301.54 0.0 0.0 1.0
-122.46166666666666 147.58966666666666 2301.54 0.0 0.0 1.0
-123.89733333333334 149.02566666666667 2301.54 0.0 0.0 1.0
-123.077 151.89733333333334 2301.54 0.0 0.0 1.0
-122.66666666666667 153.94899999999998 2301.54 0.0 0.0 1.0
-124.10233333333333 162.97433333333333 2301.54 0.0 0.0 1.0
-124.51266666666668 167.69233333333332 2301.54 0.0 0.0 1.0
-114.22866666666665 -126.32833333333333 1786.2699999999998 1.060635137056955e-26 7.411834985700762e-30 1.0
-114.22866666666665 -126.32833333333333 1786.2699999999998 1.060635137056955e-26 7.411834985700762e-30 1.0
-113.651 -121.03166666666668 1780.95 0.0 0.0 1.0
-113.49233333333332 -118.492 1780.95 0.0 0.0 1.0
-113.96833333333332 -108.96866666666666 1780.95 0.0 0.0 1.0
-124.30766666666666 -133.84633333333332 2301.54 0.0 0.0 1.0
-122.87166666666667 -129.12833333333333 2301.54 0.0 0.0 1.0
-124.718 -120.30766666666666 2301.54 0.0 0.0 1.0
-113.70933333333333 -80.4748 1775.67 0.0 0.0 1.0
-123.282 -91.17946666666667 2301.54 0.0 0.0 1.0
-123.07666666666667 -53.230799999999995 2301.54 0.0 0.0 1.0
-123.077 -40.9231 2301.54 0.0 0.0 1.0
-123.89733333333334 -33.9487 2301.54 0.0 0.0 1.0
-123.692 -32.71793333333333 2301.54 0.0 0.0 1.0
-123.69233333333334 -31.0769 2301.54 0.0 0.0 1.0
-124.92266666666666 -15.0769 2301.54 0.0 0.0 1.0
-112.12333333333333 -8.22286 1724.5 0.0 0.0 1.0
-112.43033333333334 -3.919306666666666 1724.5 0.0 0.0 1.0
-112.79699999999998 9.272033333333333 1719.54 0.0 0.0 1.0
-123.89733333333334 76.41026666666666 2301.54 0.0 0.0 1.0
-123.89733333333334 76.41026666666666 2301.54 0.0 0.0 1.0
-124.10266666666666 100.205 2301.54 0.0 0.0 1.0
-123.28166666666665 104.30766666666666 2301.54 0.0 0.0 1.0
-123.48700000000001 118.46166666666666 2301.54 0.0 0.0 1.0
-123.48700000000001 118.46166666666666 2301.54 0.0 0.0 1.0
-123.282 120.30766666666666 2301.54 0.0 0.0 1.0
-124.10233333333333 162.97433333333333 2301.54 0.0 0.0 1.0
-113.651 -121.03166666666668 1780.95 0.0 0.0 1.0
-124.923 -134.46166666666667 2301.54 0.0 0.0 1.0
-124.923 -126.46166666666666 2301.54 0.0 0.0 1.0
-124.718 -120.30766666666666 2301.54 0.0 0.0 1.0
-112.918 -77.94263333333333 1775.67 0.0 0.0 1.0
-114.08266666666667 -57.672599999999996 1770.41 0.0 0.0 1.0
-122.872 -57.12819999999999 2301.54 0.0 0.0 1.0
-124.30799999999999 -48.92306666666667 2301.54 0.0 0.0 1.0
-124.10266666666666 -37.84616666666667 2301.54 0.0 0.0 1.0
-124.51266666666668 -34.15383333333333 2301.54 0.0 0.0 1.0
-124.30799999999999 -26.358966666666664 2301.54 0.0 0.0 1.0
-112.37 -10.7129 1729.4800000000002 -5.676608121727538e-27 -8.627874829580229e-27 1.0
-113.04533333333332 -6.53218 1724.5 0.0 0.0 1.0
-113.06666666666666 23.847633333333334 1709.71 0.0 0.0 1.0
-113.58033333333333 31.832900000000006 1704.84 0.0 0.0 1.0
-112.66866666666665 38.82243333333333 1704.84 0.0 0.0 1.0
-123.48733333333332 66.15383333333334 2301.54 0.0 0.0 1.0
-123.89733333333334 76.41026666666666 2301.54 0.0 0.0 1.0
-123.89766666666667 77.64103333333333 2301.54 0.0 0.0 1.0
-124.10266666666666 89.53846666666668 2301.54 0.0 0.0 1.0
-123.69266666666668 98.97433333333333 2301.54 0.0 0.0 1.0
-124.10266666666666 100.205 2301.54 0.0 0.0 1.0
-124.10266666666666 100.205 2301.54 0.0 0.0 1.0
-125.53866666666666 110.46166666666666 2301.54 0.0 0.0 1.0
-125.94866666666667 113.74366666666667 2301.54 0.0 0.0 1.0
-124.718 118.872 2301.54 0.0 0.0 1.0
-124.30766666666666 125.641 2301.54 0.0 0.0 1.0
-123.077 133.846 2301.54 0.0 0.0 1.0
-124.923 161.12833333333333 2301.54 0.0 0.0 1.0
-126.154 -168.30766666666668 2301.54 0.0 0.0 1.0
-114.22866666666668 -126.32833333333333 1786.2699999999998 -2.12127027411391e-26 -1.4823669971402816e-29 1.0
-114.28566666666666 -111.66666666666667 1780.95 0.0 0.0 1.0
-124.923 -135.48733333333334 2301.54 0.0 0.0 1.0
-124.923 -134.46166666666667 2301.54 0.0 0.0 1.0
-125.33333333333333 -125.43599999999999 2301.54 0.0 0.0 1.0
-114.81733333333334 -84.90603333333333 1775.67 0.0 0.0 1.0
-114.81733333333334 -84.27300000000001 1775.67 0.0 0.0 1.0
-124.718 -95.48716666666667 2301.54 0.0 0.0 1.0
-125.128 -91.58973333333331 2301.54 0.0 0.0 1.0
-115.18733333333334 -67.14 1770.41 0.0 0.0 1.0
-115.02933333333333 -65.08876666666667 1770.41 0.0 0.0 1.0
-114.556 -64.14203333333334 1770.41 0.0 0.0 1.0
-114.08266666666667 -63.66863333333333 1770.41 0.0 0.0 1.0
-125.33333333333333 -53.230799999999995 2301.54 0.0 0.0 1.0
-124.30766666666666 -44.82053333333334 2301.54 0.0 0.0 1.0
-124.10233333333333 -31.6923 2301.54 0.0 0.0 1.0
-112.37 -10.7129 1729.4800000000002 -5.676608121727538e-27 -8.627874829580229e-27 1.0
-113.50633333333333 -4.6878 1724.5 0.0 0.0 1.0
-111.72433333333333 2.0689683333333337 1719.54 0.0 0.0 1.0
-113.10333333333334 8.812263333333334 1719.54 0.0 0.0 1.0
-113.25666666666666 9.272033333333335 1719.54 0.0 0.0 1.0
-114.07833333333333 12.760266666666666 1714.61 0.0 0.0 1.0
-114.07833333333333 12.760266666666666 1714.61 0.0 0.0 1.0
-116.51533333333333 43.40906666666667 1700.0 0.0 0.0 1.0
-124.10266666666666 89.53846666666668 2301.54 0.0 0.0 1.0
-124.718 118.872 2301.54 0.0 0.0 1.0
-124.718 118.872 2301.54 0.0 0.0 1.0
-125.53833333333334 151.07666666666668 2301.54 0.0 0.0 1.0
-124.923 161.12833333333333 2301.54 0.0 0.0 1.0
-124.51266666666668 167.69233333333332 2301.54 0.0 0.0 1.0
-114.603 -110.07933333333334 1780.95 0.0 0.0 1.0
-114.762 -109.44466666666666 1780.95 0.0 0.0 1.0
-124.923 -134.46166666666667 2301.54 0.0 0.0 1.0
-126.359 -130.56433333333334 2301.54 0.0 0.0 1.0
-125.33333333333333 -127.077 2301.54 0.0 0.0 1.0
-114.81733333333334 -84.90603333333333 1775.67 0.0 0.0 1.0
-114.81733333333334 -84.27299999999998 1775.67 0.0 0.0 1.0
-114.97566666666667 -83.4817 1775.67 0.0 0.0 1.0
-115.18733333333334 -67.14 1770.41 0.0 0.0 1.0
-115.24066666666666 -56.086533333333335 1765.1899999999998 2.175542858408983e-26 -1.0877714292044914e-26 1.0
-115.08333333333333 -55.771866666666675 1765.1899999999998 1.8129523820075574e-26 -3.625904764014861e-27 1.0
-115.08333333333333 -53.097366666666666 1765.1899999999998 6.090966912449222e-25 -1.3052642590324813e-25 1.0
-115.08333333333333 -53.097366666666666 1765.1899999999998 6.090966912449222e-25 -1.3052642590324813e-25 1.0
-124.71766666666667 -43.38463333333333 2301.54 0.0 0.0 1.0
-125.53833333333334 -38.2564 2301.54 0.0 0.0 1.0
-124.51266666666668 -34.15383333333333 2301.54 0.0 0.0 1.0
-126.15366666666667 -14.871766666666666 2301.54 0.0 0.0 1.0
-126.15366666666667 -14.666633333333332 2301.54 0.0 0.0 1.0
-113.66000000000001 -5.76369 1724.5 0.0 0.0 1.0
-115.043 -0.07684866666666663 1724.5 0.0 0.0 1.0
-114.13366666666667 27.0476 1709.71 0.0 0.0 1.0
-114.286 30.24763333333333 1709.71 0.0 0.0 1.0
-113.58033333333333 31.832900000000006 1704.84 0.0 0.0 1.0
-113.73233333333333 38.97436666666667 1704.84 0.0 0.0 1.0
-126.35866666666668 61.43593333333334 2301.54 0.0 0.0 1.0
-125.33333333333333 76.82053333333333 2301.54 0.0 0.0 1.0
-124.30766666666666 92.20513333333334 2301.54 0.0 0.0 1.0
-124.718 100.205 2301.54 0.0 0.0 1.0
-125.74333333333334 106.15366666666667 2301.54 0.0 0.0 1.0
-124.923 119.48733333333332 2301.54 0.0 0.0 1.0
-125.74366666666667 125.43599999999999 2301.54 0.0 0.0 1.0
-126.97433333333333 142.05133333333333 2301.54 0.0 0.0 1.0
-125.53833333333334 151.07666666666668 2301.54 0.0 0.0 1.0
-125.74333333333334 161.74366666666666 2301.54 0.0 0.0 1.0
-124.51266666666668 167.69233333333332 2301.54 0.0 0.0 1.0
-126.154 -168.30766666666668 2301.54 0.0 0.0 1.0
-126.359 -130.56433333333334 2301.54 0.0 0.0 1.0
-125.33333333333333 -127.077 2301.54 0.0 0.0 1.0
-126.154 -120.718 2301.54 0.0 0.0 1.0
-116.24133333333333 -88.22946666666667 1775.67 0.0 0.0 1.0
-127.795 -78.46153333333332 2301.54 0.0 0.0 1.0
-115.24066666666666 -55.142566666666674 1765.1899999999998 4.713560950987476e-26 3.6251363603759704e-27 1.0
-115.24066666666666 -55.142566666666674 1765.1899999999998 4.713560950987476e-26 3.6251363603759704e-27 1.0
-126.76933333333334 -49.74356666666666 2301.54 0.0 0.0 1.0
-125.74366666666667 -26.564066666666665 2301.54 0.0 0.0 1.0
-114.78933333333333 6.973183333333334 1719.54 0.0 0.0 1.0
-114.13366666666667 27.0476 1709.71 0.0 0.0 1.0
-114.13366666666667 27.0476 1709.71 0.0 0.0 1.0
-114.286 30.24763333333333 1709.71 0.0 0.0 1.0
-114.33999999999999 31.98483333333333 1704.84 0.0 0.0 1.0
-126.56400000000001 62.051300000000005 2301.54 0.0 0.0 1.0
-126.56433333333332 69.2308 2301.54 0.0 0.0 1.0
-126.56433333333332 69.2308 2301.54 0.0 0.0 1.0
-125.33333333333333 77.2308 2301.54 0.0 0.0 1.0
-125.74366666666667 87.07693333333334 2301.54 0.0 0.0 1.0
-127.17966666666666 102.05133333333333 2301.54 0.0 0.0 1.0
-126.76933333333334 110.25633333333333 2301.54 0.0 0.0 1.0
-126.359 111.077 2301.54 0.0 0.0 1.0
-126.359 123.795 2301.54 0.0 0.0 1.0
-127.38466666666666 136.513 2301.54 0.0 0.0 1.0
-126.154 152.10233333333335 2301.54 0.0 0.0 1.0
-116.984 -115.95233333333333 1780.95 0.0 0.0 1.0
-126.56400000000001 -124.41033333333333 2301.54 0.0 0.0 1.0
-126.769 -96.3077 2301.54 0.0 0.0 1.0
-126.769 -91.58973333333334 2301.54 0.0 0.0 1.0
-126.769 -90.56410000000001 2301.54 0.0 0.0 1.0
-115.66066666666666 -66.82443333333333 1770.41 0.0 0.0 1.0
-115.66066666666666 -66.82443333333333 1770.41 0.0 0.0 1.0
-115.81833333333333 -64.29979999999999 1770.41 0.0 0.0 1.0
-127.795 -78.46153333333332 2301.54 0.0 0.0 1.0
-115.39799999999998 -56.086533333333335 1765.1899999999998 2.900723811211978e-26 -2.181874491474028e-40 1.0
-114.66666666666667 -46.3529 1760.0 0.0 0.0 1.0
-126.76933333333334 -49.74356666666666 2301.54 0.0 0.0 1.0
-126.974 -38.461533333333335 2301.54 0.0 0.0 1.0
-127.17933333333333 -26.974333333333334 2301.54 0.0 0.0 1.0
-115.043 -0.07684866666666663 1724.5 0.0 0.0 1.0
-115.75933333333334 15.969433333333333 1714.61 0.0 0.0 1.0
-114.286 30.24763333333333 1709.71 0.0 0.0 1.0
-114.644 32.896499999999996 1704.84 0.0 0.0 1.0
-114.33999999999999 39.27826666666667 1704.84 0.0 0.0 1.0
-114.33999999999999 39.278266666666674 1704.84 0.0 0.0 1.0
-127.17933333333333 61.43593333333333 2301.54 0.0 0.0 1.0
-126.56400000000001 62.0513 2301.54 0.0 0.0 1.0
-127.38466666666666 71.89743333333332 2301.54 0.0 0.0 1.0
-127.38466666666666 85.02563333333335 2301.54 0.0 0.0 1.0
-126.97433333333333 112.10266666666666 2301.54 0.0 0.0 1.0
-127.58966666666667 113.94866666666667 2301.54 0.0 0.0 1.0
-125.53833333333334 118.46166666666666 2301.54 0.0 0.0 1.0
-127.58966666666667 126.05133333333333 2301.54 0.0 0.0 1.0
-127.38466666666666 136.513 2301.54 0.0 0.0 1.0
-126.35866666666668 161.94866666666667 2301.54 0.0 0.0 1.0
-126.35866666666668 161.94866666666667 2301.54 0.0 0.0 1.0
-127.38466666666666 -168.923 2301.54 0.0 0.0 1.0
-117.57233333333333 -124.57733333333334 1786.2699999999998 2.1816244502218918e-27 -4.361844911127394e-27 1.0
-117.30166666666666 -118.33366666666666 1780.95 0.0 0.0 1.0
-127.385 -134.66666666666666 2301.54 0.0 0.0 1.0
-127.385 -134.66666666666666 2301.54 0.0 0.0 1.0
-127.385 -134.66666666666666 2301.54 0.0 0.0 1.0
-127.795 -129.74366666666666 2301.54 0.0 0.0 1.0
-128.0 -118.25633333333333 2301.54 0.0 0.0 1.0
-116.24133333333334 -88.22946666666667 1775.67 0.0 0.0 1.0
-116.558 -87.91296666666669 1775.67 0.0 0.0 1.0
-116.24133333333334 -87.7547 1775.67 0.0 0.0 1.0
-128.0 -52.6154 2301.54 0.0 0.0 1.0
-127.38466666666666 -50.1538 2301.54 0.0 0.0 1.0
-116.911 -32.14076666666667 1754.84 0.0 0.0 1.0
-128.20533333333333 -20.0 2301.54 0.0 0.0 1.0
-128.20533333333333 -20.0 2301.54 0.0 0.0 1.0
-126.76933333333334 -14.871766666666666 2301.54 0.0 0.0 1.0
-126.76933333333334 -14.666633333333332 2301.54 0.0 0.0 1.0
-115.301 12.3018 1714.61 0.0 0.0 1.0
-115.75933333333334 15.969433333333333 1714.61 0.0 0.0 1.0
-115.91233333333334 20.401133333333334 1714.61 0.0 0.0 1.0
-115.80966666666666 24.0 1709.71 0.0 0.0 1.0
-115.80966666666666 24.0 1709.71 0.0 0.0 1.0
-114.644 32.896499999999996 1704.84 0.0 0.0 1.0
-127.38466666666666 68.82053333333333 2301.54 0.0 0.0 1.0
-127.38466666666666 71.89743333333332 2301.54 0.0 0.0 1.0
-126.359 77.64103333333334 2301.54 0.0 0.0 1.0
-127.17966666666666 102.05133333333333 2301.54 0.0 0.0 1.0
-127.38466666666666 122.56400000000001 2301.54 0.0 0.0 1.0
-128.205 125.23066666666666 2301.54 0.0 0.0 1.0
-128.61566666666667 129.74366666666666 2301.54 0.0 0.0 1.0
-127.795 143.077 2301.54 0.0 0.0 1.0
-127.17966666666666 152.923 2301.54 0.0 0.0 1.0
-117.73166666666667 -127.12433333333335 1786.2699999999998 -1.0492958409122338e-26 -1.2588036333421733e-26 1.0
-117.254 -126.806 1786.2699999999998 1.0 0.0 0.0
-117.73166666666667 -125.69166666666666 1786.2699999999998 2.621043503827498e-27 3.1470090833554964e-27 1.0
-116.984 -115.95233333333333 1780.95 0.0 0.0 1.0
-127.795 -129.74366666666666 2301.54 0.0 0.0 1.0
-127.795 -129.74366666666666 2301.54 0.0 0.0 1.0
-127.58966666666667 -122.97433333333333 2301.54 0.0 0.0 1.0
-127.38466666666666 -120.51266666666668 2301.54 0.0 0.0 1.0
-128.205 -119.69233333333334 2301.54 0.0 0.0 1.0
-117.50766666666668 -77.94263333333333 1775.67 0.0 0.0 1.0
-117.34933333333333 -77.46786666666667 1775.67 0.0 0.0 1.0
-116.923 -64.29979999999999 1770.41 0.0 0.0 1.0
-117.80400000000002 -46.50976666666667 1760.0 0.0 0.0 1.0
-128.0 -58.76923333333334 2301.54 0.0 0.0 1.0
-128.61566666666667 -53.43593333333334 2301.54 0.0 0.0 1.0
-129.02566666666667 -30.871766666666662 2301.54 0.0 0.0 1.0
-128.205 -25.333333333333332 2301.54 0.0 0.0 1.0
-117.25600000000001 -9.198066666666668 1734.49 0.0 0.0 1.0
-115.81166666666667 0.6916423333333334 1724.5 0.0 0.0 1.0
-127.79466666666667 61.43593333333333 2301.54 0.0 0.0 1.0
-127.38466666666666 71.89743333333332 2301.54 0.0 0.0 1.0
-125.94866666666667 95.6923 2301.54 0.0 0.0 1.0
-127.17966666666666 102.05133333333333 2301.54 0.0 0.0 1.0
-128.41033333333334 109.02566666666667 2301.54 0.0 0.0 1.0
-128.41033333333334 109.02566666666667 2301.54 0.0 0.0 1.0
-128.41033333333334 113.33333333333333 2301.54 0.0 0.0 1.0
-127.58966666666667 113.94866666666667 2301.54 0.0 0.0 1.0
-127.795 143.077 2301.54 0.0 0.0 1.0
-127.795 144.513 2301.54 0.0 0.0 1.0
-128.61533333333333 146.154 2301.54 0.0 0.0 1.0
-128.61566666666667 153.94866666666667 2301.54 0.0 0.0 1.0
-128.41033333333334 -168.923 2301.54 0.0 0.0 1.0
-117.61899999999999 -115.47633333333333 1780.95 0.0 0.0 1.0
-118.254 -108.651 1780.95 0.0 0.0 1.0
-129.02566666666667 -118.872 2301.54 0.0 0.0 1.0
-117.349 -85.22253333333335 1775.67 0.0 0.0 1.0
-129.43566666666666 -96.92309999999999 2301.54 0.0 0.0 1.0
-128.205 -90.35896666666667 2301.54 0.0 0.0 1.0
-117.39633333333335 -63.826433333333334 1770.41 0.0 0.0 1.0
-117.39633333333332 -57.8304 1770.41 0.0 0.0 1.0
-128.205 -51.3846 2301.54 0.0 0.0 1.0
-128.205 -49.948699999999995 2301.54 0.0 0.0 1.0
-128.205 -49.948699999999995 2301.54 0.0 0.0 1.0
-116.911 -32.14076666666667 1754.84 0.0 0.0 1.0
-128.61533333333333 -38.461533333333335 2301.54 0.0 0.0 1.0
-129.23066666666668 -33.948699999999995 2301.54 0.0 0.0 1.0
-128.61533333333333 -30.051266666666663 2301.54 0.0 0.0 1.0
-129.436 -27.58973333333333 2301.54 0.0 0.0 1.0
-115.81166666666667 0.6916423333333334 1724.5 0.0 0.0 1.0
-116.47533333333332 5.134103333333333 1719.54 0.0 0.0 1.0
-116.62866666666666 5.900386666666667 1719.54 0.0 0.0 1.0
-116.52366666666667 20.401133333333334 1714.61 0.0 0.0 1.0
-116.52366666666667 20.706766666666667 1714.61 0.0 0.0 1.0
-115.50466666666667 27.9619 1709.71 0.0 0.0 1.0
-115.657 28.8762 1709.71 0.0 0.0 1.0
-127.79466666666667 61.64106666666667 2301.54 0.0 0.0 1.0
-129.23066666666668 64.51283333333333 2301.54 0.0 0.0 1.0
-128.82033333333334 65.1282 2301.54 0.0 0.0 1.0
-128.82066666666665 68.41026666666666 2301.54 0.0 0.0 1.0
-100.32636666666667 44.2665 1301.8166666666666 -2.49433943246979e-14 -0.9068810569605574 0.42138669713945903
-115.85666666666667 66.21466666666667 1690.4000000000003 4.745531283810328e-26 -1.5819020909932226e-26 1.0
-115.85666666666667 66.21466666666667 1690.4000000000003 4.745531283810321e-26 -1.5819020909932195e-26 1.0
-128.205 122.974 2301.54 0.0 0.0 1.0
-128.205 125.23066666666666 2301.54 0.0 0.0 1.0
-128.205 125.23066666666666 2301.54 0.0 0.0 1.0
-129.23066666666668 149.436 2301.54 0.0 0.0 1.0
-129.23066666666668 166.46166666666667 2301.54 0.0 0.0 1.0
-129.43566666666666 168.51266666666666 2301.54 0.0 0.0 1.0
-128.41033333333334 -168.923 2301.54 0.0 0.0 1.0
-118.88900000000001 -121.34933333333333 1780.95 0.0 0.0 1.0
-117.93666666666667 -119.60333333333334 1780.95 0.0 0.0 1.0
-118.254 -115.31733333333334 1780.95 0.0 0.0 1.0
-118.254 -108.651 1780.95 0.0 0.0 1.0
-118.29866666666668 -83.95643333333334 1775.67 0.0 0.0 1.0
-117.824 -77.3096 1775.67 0.0 0.0 1.0
-129.641 -96.3077 2301.54 0.0 0.0 1.0
-129.436 -90.35896666666667 2301.54 0.0 0.0 1.0
-117.87 -64.61540000000001 1770.41 0.0 0.0 1.0
-118.54466666666667 -52.94 1765.1899999999998 -3.5557177755136585e-27 1.6875351742225102e-27 1.0
-118.38733333333334 -49.793499999999995 1765.1899999999998 -1.036813204172747e-26 3.22967705603704e-27 1.0
-116.911 -32.14076666666667 1754.84 0.0 0.0 1.0
-129.23066666666668 -33.948699999999995 2301.54 0.0 0.0 1.0
-128.82033333333334 -28.8205 2301.54 0.0 0.0 1.0
-117.71966666666667 -11.053139999999999 1734.49 0.0 0.0 1.0
-117.41066666666666 -9.661833333333334 1734.49 0.0 0.0 1.0
-116.62866666666666 5.900386666666667 1719.54 0.0 0.0 1.0
-116.62866666666666 5.900386666666667 1719.54 0.0 0.0 1.0
-129.23066666666668 64.51283333333333 2301.54 0.0 0.0 1.0
-130.87199999999999 81.94869999999999 2301.54 0.0 0.0 1.0
-116.30866666666667 65.7627 1690.4000000000003 0.0 0.0 1.0
-128.41033333333334 109.02566666666667 2301.54 0.0 0.0 1.0
-129.231 112.923 2301.54 0.0 0.0 1.0
-129.231 115.795 2301.54 0.0 0.0 1.0
-129.84633333333332 129.33333333333334 2301.54 0.0 0.0 1.0
-129.436 129.94866666666667 2301.54 0.0 0.0 1.0
-128.41033333333334 136.10266666666666 2301.54 0.0 0.0 1.0
-128.41033333333334 136.10266666666666 2301.54 0.0 0.0 1.0
-129.436 150.87199999999999 2301.54 0.0 0.0 1.0
-129.23066666666668 166.46166666666667 2301.54 0.0 0.0 1.0
-118.20933333333333 -126.00999999999999 1786.2699999999998 5.251610081262445e-27 6.302811764195203e-27 1.0
-118.846 -125.21400000000001 1786.2699999999998 -5.682444824336232e-26 -1.4191236550829366e-26 1.0
-129.846 -130.359 2301.54 0.0 0.0 1.0
-118.457 -78.25916666666666 1775.67 0.0 0.0 1.0
-129.641 -96.3077 2301.54 0.0 0.0 1.0
-129.641 -96.3077 2301.54 0.0 0.0 1.0
-118.38733333333333 -51.52406666666667 1765.1899999999998 1.7322301918594148e-26 7.65446019465983e-27 1.0
-129.23066666666668 -33.948699999999995 2301.54 0.0 0.0 1.0
-130.66666666666666 -25.7436 2301.54 0.0 0.0 1.0
-130.46166666666667 -20.0 2301.54 0.0 0.0 1.0
-118.029 -2.086953333333333 1734.49 0.0 0.0 1.0
-116.67633333333333 12.607433333333333 1714.61 0.0 0.0 1.0
-116.82933333333334 16.275066666666667 1714.61 0.0 0.0 1.0
-116.82933333333334 20.401133333333334 1714.61 0.0 0.0 1.0
-116.82933333333334 20.553966666666668 1714.61 0.0 0.0 1.0
-117.33366666666666 24.152366666666666 1709.71 0.0 0.0 1.0
-116.31533333333334 32.8965 1704.84 0.0 0.0 1.0
-117.379 33.5043 1704.84 0.0 0.0 1.0
-116.46733333333333 40.64576666666667 1704.84 0.0 0.0 1.0
-129.23066666666668 64.51283333333333 2301.54 0.0 0.0 1.0
-128.82033333333334 70.2564 2301.54 0.0 0.0 1.0
-130.87199999999999 77.64103333333333 2301.54 0.0 0.0 1.0
-100.32636666666667 44.2665 1301.8166666666666 -5.533889669851009e-15 -0.9068810569605277 0.4213866971395231
-116.61 68.17326666666666 1690.4000000000003 0.0 0.0 1.0
-129.436 129.94866666666667 2301.54 0.0 0.0 1.0
-129.641 148.20533333333333 2301.54 0.0 0.0 1.0
-130.87199999999999 159.07666666666668 2301.54 0.0 0.0 1.0
-129.02533333333335 167.48733333333334 2301.54 0.0 0.0 1.0
-129.43566666666666 168.51266666666666 2301.54 0.0 0.0 1.0
-119.48266666666666 -124.73666666666668 1786.2699999999998 5.31428568479802e-27 -4.7739675661146565e-26 1.0
-119.04766666666667 -119.60333333333334 1780.95 0.0 0.0 1.0
-118.254 -115.31733333333334 1780.95 0.0 0.0 1.0
-118.254 -108.651 1780.95 0.0 0.0 1.0
-130.87199999999999 -120.51266666666668 2301.54 0.0 0.0 1.0
-130.462 -119.48733333333332 2301.54 0.0 0.0 1.0
-129.84633333333332 -118.66699999999999 2301.54 0.0 0.0 1.0
-131.077 -90.35896666666667 2301.54 0.0 0.0 1.0
-118.81666666666666 -64.61540000000001 1770.41 0.0 0.0 1.0
-132.30766666666668 -79.07693333333333 2301.54 0.0 0.0 1.0
-129.64133333333334 -53.025666666666666 2301.54 0.0 0.0 1.0
-129.23066666666668 -50.974333333333334 2301.54 0.0 0.0 1.0
-119.25699999999999 -34.799600000000005 1754.84 0.0 0.0 1.0
-130.66666666666666 -38.8718 2301.54 0.0 0.0 1.0
-130.25633333333334 -30.2564 2301.54 0.0 0.0 1.0
-129.641 -26.564099999999996 2301.54 0.0 0.0 1.0
-130.46166666666667 -20.0 2301.54 0.0 0.0 1.0
-130.667 -19.384600000000002 2301.54 0.0 0.0 1.0
-118.33800000000001 -2.3961333333333332 1734.49 0.0 0.0 1.0
-119.111 1.62319 1734.49 0.0 0.0 1.0
-117.08833333333332 5.900386666666667 1719.54 0.0 0.0 1.0
-118.05166666666668 13.829999999999998 1714.61 0.0 0.0 1.0
-117.33366666666666 24.152366666666666 1709.71 0.0 0.0 1.0
-117.33366666666666 24.152366666666666 1709.71 0.0 0.0 1.0
-130.46166666666667 63.282033333333324 2301.54 0.0 0.0 1.0
-129.641 69.02563333333333 2301.54 0.0 0.0 1.0
-131.69266666666667 78.2564 2301.54 0.0 0.0 1.0
-116.30866666666667 65.7627 1690.4000000000003 0.0 0.0 1.0
-130.25666666666666 113.128 2301.54 0.0 0.0 1.0
-130.46166666666667 117.02566666666667 2301.54 0.0 0.0 1.0
-131.0773333333333 146.154 2301.54 0.0 0.0 1.0
-130.87199999999999 147.17966666666666 2301.54 0.0 0.0 1.0
-130.667 152.10266666666666 2301.54 0.0 0.0 1.0
-130.462 154.564 2301.54 0.0 0.0 1.0
-130.25666666666666 157.02533333333335 2301.54 0.0 0.0 1.0
-118.88900000000001 -121.34933333333333 1780.95 0.0 0.0 1.0
-119.524 -110.07933333333334 1780.95 0.0 0.0 1.0
-132.71766666666667 -127.077 2301.54 0.0 0.0 1.0
-118.61533333333334 -86.96340000000002 1775.67 0.0 0.0 1.0
-118.29866666666668 -83.95643333333334 1775.67 0.0 0.0 1.0
-120.51466666666666 -80.15826666666668 1775.67 0.0 0.0 1.0
-131.487 -95.89743333333332 2301.54 0.0 0.0 1.0
-131.077 -90.35896666666667 2301.54 0.0 0.0 1.0
-119.17399999999999 -51.052099999999996 1765.1899999999998 3.190722435741982e-27 1.740729313092216e-27 1.0
-131.282 -21.435933333333335 2301.54 0.0 0.0 1.0
-131.282 -21.435933333333335 2301.54 0.0 0.0 1.0
-130.87199999999999 -20.41026666666667 2301.54 0.0 0.0 1.0
-119.266 -8.888886666666666 1734.49 0.0 0.0 1.0
-118.95666666666666 -1.3140106666666667 1734.49 0.0 0.0 1.0
-117.548 6.360156666666668 1719.54 0.0 0.0 1.0
-118.35733333333333 16.733533333333334 1714.61 0.0 0.0 1.0
-118.29066666666665 40.64576666666667 1704.84 0.0 0.0 1.0
-130.46166666666667 63.282033333333324 2301.54 0.0 0.0 1.0
-131.28233333333333 79.07690000000001 2301.54 0.0 0.0 1.0
-117.81533333333334 68.92656666666666 1690.4000000000003 5.930273744625111e-27 1.977049515098483e-26 1.0
-130.87199999999999 112.51266666666668 2301.54 0.0 0.0 1.0
-130.25666666666666 113.128 2301.54 0.0 0.0 1.0
-131.69233333333332 124.61533333333334 2301.54 0.0 0.0 1.0
-131.48733333333334 128.923 2301.54 0.0 0.0 1.0
-131.48733333333334 128.923 2301.54 0.0 0.0 1.0
-132.923 -169.333 2301.54 0.0 0.0 1.0
-119.04766666666667 -119.60333333333334 1780.95 0.0 0.0 1.0
-119.524 -110.07933333333334 1780.95 0.0 0.0 1.0
-132.10233333333335 -131.17933333333335 2301.54 0.0 0.0 1.0
-132.10233333333335 -131.17933333333335 2301.54 0.0 0.0 1.0
-131.48733333333334 -121.53833333333334 2301.54 0.0 0.0 1.0
-118.93166666666667 -86.33033333333333 1775.67 0.0 0.0 1.0
-120.03933333333333 -78.1009 1775.67 0.0 0.0 1.0
-131.487 -95.89743333333332 2301.54 0.0 0.0 1.0
-131.487 -95.89743333333332 2301.54 0.0 0.0 1.0
-131.077 -90.35896666666667 2301.54 0.0 0.0 1.0
-119.92099999999999 -64.931 1770.41 0.0 0.0 1.0
-120.43266666666666 -54.513266666666674 1765.1899999999998 2.175404569032887e-27 -2.1757887049227405e-27 1.0
-132.71766666666667 -58.974333333333334 2301.54 0.0 0.0 1.0
-119.25699999999999 -34.799600000000005 1754.84 0.0 0.0 1.0
-130.46166666666667 -29.641033333333336 2301.54 0.0 0.0 1.0
-131.282 -24.9231 2301.54 0.0 0.0 1.0
-131.69233333333332 -21.2308 2301.54 0.0 0.0 1.0
-119.72966666666667 -9.971020000000001 1734.49 0.0 0.0 1.0
-118.95666666666666 -1.3140106666666667 1734.49 0.0 0.0 1.0
-119.53733333333334 2.856106666666667 1732.82 0.979126499699748 4.1242814601959355e-15 0.20325180832090872
-119.16166666666668 29.638133333333332 1709.71 0.0 0.0 1.0
-119.05033333333334 34.26403333333333 1704.84 0.0 0.0 1.0
-119.394 43.5606 1700.0 0.0 0.0 1.0
-119.394 43.5606 1700.0 0.0 0.0 1.0
-132.10233333333335 105.33300000000001 2301.54 0.0 0.0 1.0
-132.10233333333335 105.33300000000001 2301.54 0.0 0.0 1.0
-131.89733333333334 117.84633333333333 2301.54 0.0 0.0 1.0
-131.69233333333332 124.61533333333334 2301.54 0.0 0.0 1.0
-119.48266666666666 -124.73666666666668 1786.2699999999998 5.31428568479802e-27 -4.7739675661146565e-26 1.0
-133.12833333333333 -138.76933333333332 2301.54 0.0 0.0 1.0
-132.718 -137.53833333333333 2301.54 0.0 0.0 1.0
-132.30766666666668 -122.359 2301.54 0.0 0.0 1.0
-120.07900000000001 -66.03553333333333 1770.41 0.0 0.0 1.0
-120.58999999999999 -51.83873333333333 1765.1899999999998 1.7222903582003636e-26 2.7195726162633362e-27 1.0
-133.33333333333334 -48.9231 2301.54 0.0 0.0 1.0
-120.03899999999999 -34.6432 1754.84 0.0 0.0 1.0
-132.718 -24.71796666666667 2301.54 0.0 0.0 1.0
-131.69233333333332 -21.2308 2301.54 0.0 0.0 1.0
-119.42033333333332 -1.62319 1734.49 0.0 0.0 1.0
-119.72933333333333 2.0869566666666666 1734.49 0.0 0.0 1.0
