ply
format ascii 1.0
comment VCGLIB generated
element vertex 564
property float x
property float y
property float z
property float nx
property float ny
property float nz
element face 0
property list uchar int vertex_indices
end_header
-144.9656666666667 -142.39499999999998 1748.0199999999998 -0.9953147812367771 -0.09039498890203584 0.034310818016879976
-189.6 -173.33333333333334 2992.0 0.0 0.0 1.0
-151.688 -65.10823333333333 1942.86 0.0 0.0 1.0
-187.46666666666667 -78.93333333333334 2992.0 0.0 0.0 1.0
-190.4 -67.2 2992.0 0.0 0.0 1.0
-189.60000000000002 -4.266666666666667 2992.0 0.0 0.0 1.0
-139.30666666666667 10.24001 1595.7300000000002 2.292694685955596e-26 -1.0335426669251233e-26 1.0
-192.0 41.06666666666667 2992.0 0.0 0.0 1.0
-128.905 59.26146666666667 1467.88 -0.44389176524470697 0.3290605853373646 0.8334741939168656
-136.59866666666667 175.42166666666665 1504.7833333333335 -5.986163187326991e-16 0.9801034835483622 0.19848718229741058
-135.62766666666667 187.279 1514.9433333333334 -0.9612097196193605 0.27462492520372006 -0.025632506044506415
-189.0666666666667 -366.1333333333334 2992.0 0.0 0.0 1.0
-147.77733333333333 -196.19066666666666 1780.95 0.0 0.0 1.0
-145.681 -176.504 1746.3166666666666 0.9596845391730406 -0.26183386960725635 -0.1022184425567051
-147.821 -163.50266666666667 1786.2699999999998 8.847875591463262e-28 1.9935521730392615e-27 1.0
-145.179 -143.0823333333333 1741.2366666666667 -0.9948166317091833 -0.09034974671145732 0.04665610939598975
-189.86666666666667 -185.86666666666665 2992.0 0.0 0.0 1.0
-139.30666666666667 10.24001 1595.7300000000002 2.292694685955596e-26 -1.0335426669251233e-26 1.0
-192.0 41.06666666666667 2992.0 0.0 0.0 1.0
-156.27266666666665 83.01993333333333 1985.8766666666668 -0.9095941279309161 -0.21668415864355994 0.3545229157988645
-139.317 155.71566666666666 1502.2633333333333 0.44720124726765587 -0.5962683296902005 0.6666896755243111
-133.994 162.12 1484.8700000000001 0.6411434461685219 -0.7395723481299493 0.20486049720896626
-134.13933333333333 167.79166666666666 1507.3 0.0 0.0 1.0
-137.42100000000002 185.07266666666666 1512.3866666666665 0.27544976682476924 -0.9174089513372388 0.287207663481475
-137.4526666666667 197.21633333333332 1523.9433333333334 -2.7031194322954017e-17 -0.9136755482519088 0.4064443289388768
-192.0 -406.93333333333334 2992.0 0.0 0.0 1.0
-145.89133333333334 -174.57366666666667 1739.53 0.0 0.0 1.0
-144.9656666666667 -142.39499999999998 1748.0199999999998 -0.9953147812367771 -0.0903949889020359 0.034310818016879976
-149.92466666666667 -119.88433333333334 1779.1899999999998 -0.5762938059162515 -0.1919635070791627 0.7943774047720832
-189.6 -173.33333333333334 2992.0 0.0 0.0 1.0
-139.30666666666664 10.24001 1595.7300000000002 -4.8068873336656417e-26 2.5104247211460533e-26 1.0
-157.18533333333332 27.28643 2510.7833333333333 -0.6948032735233033 -0.6658588609547442 0.2718094707499211
-153.7926666666667 96.13583333333334 1990.25 -7.475653756370365e-17 0.6285628323040827 0.7777588095585093
-154.06433333333334 99.40193333333333 1988.04 0.0 0.0 1.0
-155.12733333333335 131.11833333333334 1988.04 0.0 0.0 1.0
-136.95533333333333 126.151 1525.2366666666667 -9.535554645055204e-17 0.9997487064559777 0.02241704573754556
-135.22833333333332 131.84433333333334 1518.78 0.0 0.0 1.0
-132.61633333333336 204.22799999999998 1425.8933333333334 0.3495172449480757 -0.18722616833536168 0.918032710405444
-178.89466666666667 393.6566666666667 2827.48 -0.46479288399848967 -0.823337883533615 0.3257027855618584
-145.89133333333334 -174.57366666666667 1739.53 0.0 0.0 1.0
-145.179 -143.08233333333334 1741.2366666666667 -0.9948166317091832 -0.09034974671145746 0.04665610939598983
-148.73033333333333 -118.254 1780.95 0.0 0.0 1.0
-194.4 -65.60000000000001 2992.0 0.0 0.0 1.0
-192.53333333333333 101.06666666666666 2992.0 0.0 0.0 1.0
-128.905 59.26146666666667 1467.88 -0.443891765244707 0.3290605853373647 0.8334741939168655
-155.57366666666667 125.31166666666667 1985.8466666666666 -0.9618707028443099 1.8260936850116486e-16 0.27350457219175245
-155.12733333333335 131.11833333333334 1988.04 0.0 0.0 1.0
-137.90066666666667 147.23733333333334 1507.3 0.0 0.0 1.0
-137.09466666666665 174.50900000000001 1507.3 0.0 0.0 1.0
-137.09466666666665 174.50900000000001 1507.3 0.0 0.0 1.0
-137.30533333333332 206.905 1556.993333333333 -0.6216845139879454 -0.6224326301299213 0.4754850008329605
-195.20000000000002 -377.59999999999997 2992.0 0.0 0.0 1.0
-146.14633333333333 -178.67466666666667 1746.3166666666666 -0.9626003001103812 0.26262938619412485 0.06653170473316514
-152.057 -96.65186666666666 1915.9333333333334 -0.7071397780848894 -0.707066554779784 -0.003197086470512404
-154.751 -78.03009999999999 1932.4199999999998 0.8582996593922834 0.34345247088853337 0.38126381276965077
-138.48566666666667 -26.040000000000003 1562.4000000000003 1.7714528551602841e-28 5.49108687677936e-28 1.0
-191.73333333333332 -22.666666666666668 2992.0 0.0 0.0 1.0
-154.24166666666667 99.93346666666666 1988.04 0.0 0.0 1.0
-187.20000000000002 169.06666666666666 2992.0 0.0 0.0 1.0
-138.67100000000002 141.6966666666667 1509.84 -0.11537896313902138 0.6922737788341363 0.7123515354118847
-147.68666666666667 -198.453 1782.7233333333334 -0.4725703279688773 0.7879481448836828 0.3947340954335596
-148.77633333333333 -167.00466666666668 1786.2699999999998 1.417354806032318e-26 -8.694988442226599e-28 1.0
-147.821 -163.50266666666667 1786.2699999999998 8.847875591463262e-28 1.9935521730392615e-27 1.0
-147.89866666666668 -125.108 1763.46 0.9715268832545834 -0.16192114720909667 0.17296547979329674
-147.89866666666668 -125.108 1763.46 0.9715268832545834 -0.16192114720909667 0.17296547979329674
-140.01766666666666 10.24001 1595.7300000000002 -4.484461397022214e-27 3.348055217196128e-27 1.0
-192.0 41.06666666666666 2992.0 0.0 0.0 1.0
-189.6 117.60000000000001 2992.0 0.0 0.0 1.0
-155.12733333333333 131.11833333333334 1988.04 0.0 0.0 1.0
-155.30433333333335 139.269 1988.04 0.0 0.0 1.0
-136.37599999999998 158.01766666666666 1484.8700000000001 -0.9810564995773617 0.16340546814909068 0.10405189866595677
-137.09466666666665 174.50900000000001 1507.3 0.0 0.0 1.0
-137.30533333333332 206.905 1556.993333333333 -0.6216845139879447 -0.6224326301299222 0.4754850008329603
-147.77733333333333 -196.19066666666666 1780.95 0.0 0.0 1.0
-147.77733333333333 -196.19066666666666 1780.95 0.0 0.0 1.0
-145.89133333333334 -174.57366666666667 1739.53 0.0 0.0 1.0
-145.76233333333334 -172.53133333333335 1736.18 -0.9856073018260632 0.14080104311800098 0.09355914088976017
-147.82100000000003 -163.50266666666667 1786.2699999999998 -9.732663150609746e-27 9.956640205356357e-27 1.0
-144.98466666666667 -158.88866666666667 1782.7233333333334 0.06817720072325006 0.954767268952071 0.2894327753371155
-164.08966666666666 -114.39933333333335 2028.5166666666664 0.443549402339384 -0.5543858170718637 0.7042160843902512
-151.26066666666665 -94.3892 1922.0633333333333 -0.846654213251866 -4.363200671570701e-19 0.5321434422999725
-155.15166666666667 -63.8961 1942.86 0.0 0.0 1.0
-196.53333333333333 -82.13333333333334 2992.0 0.0 0.0 1.0
-196.5333333333333 -18.933333333333334 2992.0 0.0 0.0 1.0
-140.47833333333332 121.50066666666667 1531.74 -0.15002432604603166 0.9005127639193571 0.40812922415915553
-137.90066666666667 147.23733333333334 1507.3 0.0 0.0 1.0
-139.42766666666665 155.36433333333332 1484.8700000000001 0.4388929066859327 0.46502200826301726 0.768848195869512
-140.29133333333334 206.559 1540.9466666666667 0.2936563561853435 -0.8802580362165748 0.372708645121207
-148.77633333333333 -167.00466666666668 1786.2699999999998 1.417354806032318e-26 -8.694988442226599e-28 1.0
-156.63466666666667 -81.29449999999999 1936.57 0.0 0.0 1.0
-155.15166666666667 -63.8961 1942.86 0.0 0.0 1.0
-155.15166666666667 -63.8961 1942.86 0.0 0.0 1.0
-197.86666666666667 -54.93333333333334 2992.0 0.0 0.0 1.0
-158.58833333333334 91.62939999999999 1977.1000000000001 -0.8908370439558261 -0.31812165837617545 0.32435778330115284
-159.11633333333336 105.19966666666666 1977.1000000000001 -0.6115331778432245 -0.6109546223296605 0.5027540371304731
-156.19733333333332 124.28633333333335 1983.6533333333334 -0.9618707028443098 -1.1225759224758136e-17 0.27350457219175256
-156.19733333333332 124.28633333333335 1983.6533333333334 -0.9618707028443098 2.3857442131590207e-16 0.27350457219175267
-155.30433333333335 139.269 1988.04 0.0 0.0 1.0
-197.86666666666667 421.06666666666666 2992.0 0.0 0.0 1.0
-136.69166666666666 215.75133333333335 1507.3 0.0 0.0 1.0
-149.42933333333332 -192.19366666666667 1770.4233333333334 0.8245115565277745 -0.5513130538355734 -0.12741510829819527
-149.42933333333332 -192.19366666666667 1770.4233333333334 0.8245115565277765 -0.5513130538355707 -0.12741510829819375
-150.52733333333333 -170.985 1786.2699999999998 7.9513090294363665e-28 -1.2668749025843964e-27 1.0
-147.89866666666666 -125.10799999999999 1763.46 0.9715268832545835 -0.16192114720909687 0.1729654797932965
-196.26666666666665 -84.00000000000001 2992.0 0.0 0.0 1.0
-196.5333333333333 -82.13333333333333 2992.0 0.0 0.0 1.0
-143.35933333333332 -17.5457 1562.4000000000003 0.0 0.0 1.0
-143.808 25.749799999999997 1432.8 -0.23430641383494308 0.9357321164931554 0.26363973638100907
-140.58733333333336 143.073 1507.3 0.0 0.0 1.0
-136.69166666666666 215.75133333333335 1507.3 0.0 0.0 1.0
-145.58133333333333 -256.47333333333336 1777.43 -0.635509610179376 0.7625312235029352 0.12113491880037774
-152.55266666666665 -120.921 1797.0 0.0 0.0 1.0
-151.83899999999997 -108.80133333333333 1795.2066666666667 -0.8930581119854363 -0.4463741725185631 0.05654473207449344
-156.63466666666667 -81.29449999999999 1936.57 0.0 0.0 1.0
-156.13333333333335 -70.86386666666667 1848.83 0.7947563756583551 -0.6040299911737367 -0.05924587000838965
-196.5333333333333 -82.13333333333333 2992.0 0.0 0.0 1.0
-162.08333333333334 40.838 2054.0433333333335 0.5000990749787652 0.2671756464834781 0.8237220945995797
-196.80000000000004 97.06666666666666 2992.0 0.0 0.0 1.0
-139.59233333333333 132.56566666666666 1516.22 0.2420062562577731 0.8473206700580721 0.4727374049347446
-140.67166666666668 137.585 1506.04 -0.5366778018634344 -0.8052386539125485 0.25212625256434357
-138.76166666666668 197.04833333333332 1522.6500000000003 2.599010626624641e-27 1.2553998508116401e-26 1.0
-140.29133333333334 206.559 1540.9466666666667 0.2936563561853435 -0.8802580362165748 0.372708645121207
-145.10066666666668 -303.108 2129.54 0.0 0.0 1.0
-149.31666666666663 -193.39499999999998 1775.6766666666665 -0.7896127873460873 0.5928322487802624 0.15830846744782762
-151.21733333333333 -142.91433333333333 1791.62 0.0 0.0 1.0
-146.60433333333333 10.532126666666667 1911.8733333333332 0.46407500553465664 0.8209650211113673 0.3326421851624064
-203.4666666666667 73.86666666666666 2992.0 0.0 0.0 1.0
-158.41233333333332 87.05293333333334 1977.1000000000001 -0.9474666285371628 0.3157923049380601 0.050815430238550605
-158.23166666666668 145.86433333333332 1981.4733333333334 -0.9895202672341266 -0.09020022673710876 0.11275442266038557
-137.585 120.103 1548.9800000000002 0.6916403979192101 -0.6916403979192118 0.20800749970208043
-140.202 140.06733333333332 1511.11 0.0 0.0 1.0
-140.789 205.55866666666665 1539.6233333333332 -0.9979435031230064 -1.564378424572126e-15 0.06409964566659038
-140.789 205.55866666666665 1539.6233333333332 -0.9979435031230064 -1.564378424572126e-15 0.06409964566659038
-178.89466666666667 393.6566666666667 2827.48 -0.4647928839984898 -0.8233378835336149 0.32570278556185844
-148.03866666666667 -256.5466666666667 1766.9533333333336 0.7154028459149776 -0.6905992678614892 -0.1061669406450338
-149.52700000000002 -153.58366666666666 1753.13 -0.9206159120410654 0.3894507149216329 -0.0281865773698401
-151.21733333333333 -142.91433333333333 1791.62 0.0 0.0 1.0
-151.21733333333336 -142.91433333333333 1791.62 0.0 0.0 1.0
-153.005 -129.10866666666666 1724.533333333333 -0.7605293470385647 0.6453297644532583 0.07172591863334092
-150.71566666666664 -117.96233333333333 1748.0466666666664 0.284061706683375 0.854708389467558 0.4344910997591338
-201.33333333333334 -164.53333333333333 2992.0 0.0 0.0 1.0
-153.33900000000003 -72.83460000000001 1845.03 -0.9985029089737005 0.0262599587985191 0.047982865014065575
-155.8443333333333 -64.93506666666666 1942.86 0.0 0.0 1.0
-143.00433333333334 13.084433333333335 1595.7300000000002 -3.6949840063473204e-28 -3.0029484477425774e-28 1.0
-145.56433333333334 23.040000000000003 1595.7300000000002 -5.95303092272898e-26 -6.724761294618031e-26 1.0
-160.34366666666668 34.56483333333333 2094.7900000000004 -0.07659366613914874 -0.8892041035921796 0.4510537356703667
-161.49599999999998 124.79666666666667 1974.92 0.0 0.0 1.0
-140.47833333333332 121.50066666666667 1531.74 -0.15002432604603166 0.9005127639193571 0.40812922415915553
-140.71033333333332 125.637 1523.9433333333334 -0.3786236323696324 0.8516126390437834 0.3624914592540191
-140.67166666666668 137.585 1506.04 -0.5366778018634344 -0.8052386539125485 0.2521262525643438
-139.394 185.05066666666667 1511.11 0.0 0.0 1.0
-138.76166666666668 197.04833333333332 1522.6500000000003 2.599010626624641e-27 1.2553998508116401e-26 1.0
-132.6163333333333 204.22799999999998 1425.8933333333334 0.3495172449480757 -0.1872261683353617 0.918032710405444
-200.0 -404.0 2992.0 0.0 0.0 1.0
-153.96833333333333 -207.30166666666665 1780.95 0.0 0.0 1.0
-152.438 -178.3083333333333 1786.2699999999998 8.570030543014959e-27 4.371090300603571e-27 1.0
-151.83899999999997 -108.80133333333333 1795.2066666666667 -0.8930581119854363 -0.44637417251856276 0.056544732074493655
-196.53333333333333 -168.0 2992.0 0.0 0.0 1.0
-150.58666666666667 -87.61263333333333 1837.4633333333331 0.5537374727481347 0.8305538260456509 -0.05962510641868697
-194.4 -65.60000000000001 2992.0 0.0 0.0 1.0
-141.8276666666667 -23.5335 1562.4000000000003 8.826271654268862e-27 4.775474406539003e-27 1.0
-204.0 -0.7999999999999999 2992.0 0.0 0.0 1.0
-204.26666666666665 68.8 2992.0 0.0 0.0 1.0
-200.53333333333333 96.8 2992.0 0.0 0.0 1.0
-159.912 99.62583333333333 1974.92 0.0 0.0 1.0
-160.35033333333334 145.72933333333333 1977.1000000000001 -0.8588041689427901 0.4906788596800132 0.14727408485407634
-140.47833333333332 121.50066666666667 1531.74 -0.1500243260460317 0.9005127639193571 0.40812922415915553
-141.642 155.846 1503.5199999999998 -2.8563421943103402e-27 1.1425368777241071e-26 1.0
-143.28366666666668 167.96 1488.5600000000002 2.8551488288885762e-27 -5.915408085743563e-27 1.0
-139.647 178.136 1507.3 0.0 0.0 1.0
-139.492 187.38733333333334 1513.6633333333332 -0.41821220423076155 -0.6271247493247467 0.6571248747512313
-138.83200000000002 208.28733333333335 1464.3 -0.02449550668677843 0.999454475974864 0.022152214470958935
-150.99433333333334 -182.14200000000002 1712.9766666666665 0.9377274842720583 -0.3410256208913249 0.06609607504597549
-149.97833333333335 -166.04433333333336 1784.4966666666667 -0.860050886185745 0.12297467053448108 0.49516633930231024
-152.55266666666668 -120.92099999999999 1797.0 0.0 0.0 1.0
-150.58666666666667 -87.61263333333333 1837.4633333333331 0.5537374727481347 0.8305538260456509 -0.05962510641868697
-157.14166666666668 -65.17816666666666 1944.97 0.6667181515512548 -0.6667502377032147 0.33306309749773355
-200.26666666666665 -84.26666666666667 2992.0 0.0 0.0 1.0
-202.66666666666666 -12.266666666666666 2992.0 0.0 0.0 1.0
-202.66666666666666 -12.266666666666666 2992.0 0.0 0.0 1.0
-170.91366666666667 2.1404599999999996 1996.9066666666665 -0.5365878988050219 0.2270072473385618 0.8127368187253365
-143.00433333333334 13.084433333333335 1595.7300000000002 -3.694984006347317e-28 -3.002948447742576e-28 1.0
-168.85933333333332 59.70643333333334 1970.5866666666668 -0.681603836468408 -0.6812153106259385 0.2671365019617384
-160.792 104.90666666666665 1974.92 0.0 0.0 1.0
-161.49266666666668 136.64466666666667 1970.5866666666668 0.6752232937680978 -0.6002301661240926 0.42871581639543604
-141.528 181.09133333333332 1507.3 0.0 0.0 1.0
-144.0256666666667 203.90533333333335 1525.2366666666667 -0.4639652392273744 0.3607916952837795 0.8090522908953053
-200.26666666666665 -373.8666666666666 2992.0 0.0 0.0 1.0
-151.35333333333332 -192.871 1748.01 -0.9927024479401462 0.1103526711724485 -0.048622400380348416
-152.43800000000002 -178.3083333333333 1786.2699999999998 -1.0840551906927466e-26 2.271253907569419e-27 1.0
-151.801 -173.85066666666668 1786.2699999999998 2.0332288727673235e-27 -1.6655377963665275e-27 1.0
-154.09166666666667 -150.09966666666668 1791.62 0.0 0.0 1.0
-151.82933333333335 -116.23366666666668 1779.1899999999998 -0.6069921722167425 -0.33386800357779034 0.7211744997256774
-151.83899999999997 -108.80133333333333 1795.2066666666667 -0.8930581119854363 -0.44637417251856276 0.056544732074493655
-156.63466666666667 -81.29449999999999 1936.57 0.0 0.0 1.0
-142.38466666666667 -20.191466666666667 1562.4000000000003 2.7986812191780134e-27 -5.7112699845226485e-28 1.0
-160.616 82.90429999999999 1974.92 0.0 0.0 1.0
-161.32 110.891 1974.92 0.0 0.0 1.0
-141.931 142.67 1507.3 0.0 0.0 1.0
-205.33333333333334 -397.06666666666666 2992.0 0.0 0.0 1.0
-151.35333333333332 -192.871 1748.01 -0.9927024479401463 0.11035267117244861 -0.04862240038034863
-151.35333333333332 -192.871 1748.01 -0.9927024479401462 0.1103526711724485 -0.048622400380348416
-152.438 -178.3083333333333 1786.2699999999998 8.570030543014959e-27 4.371090300603571e-27 1.0
-145.78233333333333 -13.796833333333334 1563.7633333333335 -0.6449266977486297 -0.46070918565020236 0.6097676613174685
-159.384 94.34543333333333 1974.92 0.0 0.0 1.0
-160.792 104.90666666666668 1974.92 0.0 0.0 1.0
-141.931 142.26700000000002 1507.3 0.0 0.0 1.0
-141.765 184.62633333333335 1509.84 -0.688157985255329 -0.45858280584437755 0.562263637018458
-153.182 -162.66466666666668 1758.29 -0.9165095051439521 0.3927897879188357 0.07567370406861317
-155.28 -107.39500000000002 1766.93 0.5372269282756194 -0.05970593598919055 0.8413218342246903
-191.80033333333336 -120.5098 2770.41 -0.640280498110389 -0.2705354634502331 0.7189238115094533
-200.53333333333333 -82.39999999999999 2992.0 0.0 0.0 1.0
-145.56433333333334 23.040000000000003 1595.7300000000002 -5.95303092272898e-26 -6.724761294618031e-26 1.0
-203.3373333333333 62.053066666666666 2962.9500000000003 0.41876048555417583 -0.9073143853673842 0.037686361509662626
-206.13333333333333 142.13333333333333 2992.0 0.0 0.0 1.0
-161.32000000000002 106.13900000000001 1974.92 0.0 0.0 1.0
-162.37599999999998 137.99766666666665 1974.92 0.0 0.0 1.0
-137.977 114.09633333333333 1488.5600000000002 0.0 0.0 1.0
-142.24466666666666 132.72566666666668 1514.9399999999998 -1.021719153177715e-27 3.371622924568333e-27 1.0
-141.64200000000002 155.84599999999998 1503.5199999999998 -2.856342194310298e-27 -1.428171097155112e-26 1.0
-209.33333333333334 432.0 2992.0 0.0 0.0 1.0
-151.73933333333335 -184.78066666666666 1716.253333333333 -0.9235069341499499 0.33585399905433444 0.18530254692305562
-151.73933333333335 -184.78066666666666 1716.2533333333333 -0.9235069341499499 0.3358539990543345 0.18530254692305564
-150.698 -174.72266666666667 1684.0733333333335 0.7642452795420008 -0.5953431891447336 -0.24798314425933732
-152.55266666666668 -120.92099999999999 1797.0 0.0 0.0 1.0
-151.11100000000002 -114.06099999999999 1765.1899999999998 -2.992549811964468e-27 -1.292782452597993e-27 1.0
-166.54166666666666 -107.08566666666667 2040.0199999999998 -0.621888726855125 0.777289492775742 -0.09526518687821778
-161.42499999999998 -74.35903333333333 1883.7533333333333 -0.8188635895171372 -0.3602966048516151 0.44682074514900094
-151.22333333333333 -44.53436666666667 1654.5666666666666 -0.7083503593240573 -0.35417517966202383 0.6105732638732653
-205.33333333333334 99.46666666666665 2992.0 0.0 0.0 1.0
-161.32 106.13900000000001 1974.92 0.0 0.0 1.0
-137.977 114.09633333333333 1488.5600000000002 0.0 0.0 1.0
-205.86666666666667 -406.93333333333334 2992.0 0.0 0.0 1.0
-150.69799999999998 -174.72266666666667 1684.0733333333335 0.7642452795419974 -0.5953431891447368 -0.24798314425934012
-202.9333333333333 -159.73333333333332 2992.0 0.0 0.0 1.0
-202.9333333333333 -159.73333333333332 2992.0 0.0 0.0 1.0
-207.20000000000002 -44.26666666666667 2992.0 0.0 0.0 1.0
-207.73333333333335 -40.53333333333333 2992.0 0.0 0.0 1.0
-206.66666666666666 70.93333333333334 2992.0 0.0 0.0 1.0
-161.32 110.891 1974.92 0.0 0.0 1.0
-163.08 126.38100000000001 1974.92 0.0 0.0 1.0
-162.552 130.605 1974.92 0.0 0.0 1.0
-144.24233333333333 137.64333333333335 1511.11 0.0 0.0 1.0
-142.46866666666668 141.19233333333332 1507.3 0.0 0.0 1.0
-142.46866666666668 142.40133333333333 1507.3 0.0 0.0 1.0
-142.46866666666668 142.40133333333333 1507.3 0.0 0.0 1.0
-141.64200000000002 155.84599999999998 1503.5199999999998 -2.8563421943102957e-27 -1.4281710971551122e-26 1.0
-206.13333333333333 -395.4666666666667 2992.0 0.0 0.0 1.0
-199.46666666666667 -370.6666666666667 2992.0 0.0 0.0 1.0
-153.96833333333333 -207.30166666666665 1780.95 0.0 0.0 1.0
-146.56199999999998 -14.899933333333335 1562.4000000000003 -1.71721117420196e-26 -9.670774697682346e-27 1.0
-207.20000000000002 -3.466666666666667 2992.0 0.0 0.0 1.0
-205.33333333333334 136.0 2992.0 0.0 0.0 1.0
-162.904 130.605 1974.92 0.0 0.0 1.0
-142.08733333333333 138.99 1511.11 0.0 0.0 1.0
-141.33133333333333 150.77633333333333 1479.9799999999998 -0.24367985407811424 -0.765263605480721 0.5958118350982265
-144.99200000000002 148.34199999999998 1503.5199999999998 6.528782158423339e-27 -1.2060111487087624e-26 1.0
-143.006 182.97199999999998 1507.3 0.0 0.0 1.0
-156.49933333333334 -218.84733333333335 1784.4966666666667 -0.8010378684651513 0.4000995426784143 0.4452624947526243
-155.0956666666667 -166.55133333333336 1748.0266666666666 0.9002380432361035 -0.4346496247093935 -0.025518018152176792
-155.54166666666666 -164.314 1726.1599999999999 0.9186034705764748 -0.3534033371954178 0.17684384383969312
-155.19233333333332 -139.3516666666667 1768.67 0.9145445396159839 -0.3660497375386032 -0.17209263408556288
-166.54166666666666 -107.08566666666667 2040.0199999999998 -0.621888726855125 0.777289492775742 -0.09526518687821778
-205.33333333333334 -12.266666666666667 2992.0 0.0 0.0 1.0
-206.9333333333333 -6.666666666666667 2992.0 0.0 0.0 1.0
-209.0666666666667 1.5999999999999999 2992.0 0.0 0.0 1.0
-209.33333333333334 7.733333333333334 2992.0 0.0 0.0 1.0
-147.129 24.46223333333333 1595.7300000000002 -1.2822642457407178e-20 -1.2821890363056083e-20 1.0
-164.39000000000001 80.17603333333334 1972.7533333333333 -0.5519372754718368 0.5518850136334207 0.625130526907433
-163.08 126.38100000000001 1974.92 0.0 0.0 1.0
-163.08 126.38100000000001 1974.92 0.0 0.0 1.0
-163.16299999999998 141.88699999999997 1972.7533333333333 0.4114635149185126 0.8229270298370139 0.3917765682816335
-143.59166666666667 125.83 1521.36 -0.339972567023016 0.7646774005968832 0.5474368700482044
-144.32366666666667 135.78 1509.84 0.2717478305205003 -0.7248850957696257 0.6330045138373518
-144.39733333333334 166.239 1489.7966666666664 -0.9156183491328601 -0.2289045872832111 0.33052341619304165
-142.26166666666668 200.78433333333336 1525.2366666666667 0.5099977704645825 -0.3965878144304053 0.7632957353257448
-156.49933333333334 -218.84733333333335 1784.4966666666667 -0.8010378684651513 0.4000995426784141 0.4452624947526243
-155.79666666666665 -209.63166666666666 1779.1899999999998 -0.8322183131300426 0.5544239566828544 0.005172576448423299
-151.73933333333335 -184.78066666666666 1716.2533333333333 -0.9235069341499499 0.3358539990543344 0.1853025469230557
-155.19233333333332 -139.35166666666666 1768.67 0.914544539615984 -0.36604973753860287 -0.1720926340855628
-167.90533333333335 -104.51986666666666 2008.1566666666665 0.8459770213477393 0.47106351983320127 0.24984403061502564
-207.73333333333335 -40.53333333333333 2992.0 0.0 0.0 1.0
-146.56199999999998 -14.899933333333335 1562.4000000000003 -1.71721117420196e-26 -9.670774697682346e-27 1.0
-206.66666666666666 70.93333333333334 2992.0 0.0 0.0 1.0
-210.39999999999998 127.2 2992.0 0.0 0.0 1.0
-163.3033333333333 107.30966666666666 1951.3266666666666 -0.9992289879630876 1.6350818736165648e-16 0.039261044487683125
-163.3033333333333 107.30966666666666 1951.3266666666666 -0.9992289879630876 2.1897653882713212e-16 0.039261044487683125
-165.00366666666665 126.98 1970.5866666666668 -0.6584905898894395 -0.7524840906443543 0.01256329392307416
-163.68433333333334 133.158 1968.42 0.0 0.0 1.0
-145.04666666666665 176.558 1498.506666666667 0.8661088783640392 -7.723755969372226e-16 0.4998553899069068
-145.18066666666667 177.09400000000002 1498.506666666667 0.8458682343010591 -9.27624370817542e-16 0.533391910512719
-154.66366666666667 -248.206 1685.75 -0.7530847581578084 0.647096022449583 0.11887003306268525
-210.66666666666666 -399.4666666666667 2992.0 0.0 0.0 1.0
-191.25433333333334 -225.84900000000002 2019.3499999999997 0.09900335198089036 -0.09900335198088998 0.9901498233060974
-153.96366666666665 -184.30633333333336 1693.5866666666668 -0.7948116939713101 0.49681210821455735 0.348499785161861
-151.71566666666666 -179.14133333333334 1690.4033333333334 -0.3672723144834678 0.7444743193189589 0.5575563064736417
-151.15099999999998 -166.365 1742.9233333333332 0.5135110695808861 0.8558211179346092 -0.06226231215631147
-155.19233333333332 -139.3516666666667 1768.67 0.914544539615984 -0.36604973753860276 -0.17209263408556272
-151.82933333333335 -116.23366666666668 1779.1899999999998 -0.6069921722167424 -0.3338680035777904 0.7211744997256774
-159.787 -81.82376666666667 1786.3633333333335 0.5525402294494858 0.8288951110226135 0.0873624047443687
-148.26666666666668 26.168899999999997 1595.7300000000002 6.748219893054494e-26 3.15328421138868e-26 1.0
-206.66666666666666 70.93333333333334 2992.0 0.0 0.0 1.0
-146.02533333333335 131.37566666666666 1514.9399999999998 -8.740841055080342e-27 -1.9648031126278603e-26 1.0
-208.80000000000004 -416.8 2992.0 0.0 0.0 1.0
-154.43133333333336 -190.50200000000004 1711.3433333333332 -0.83169157222023 0.5292131698359019 -0.16799568318882113
-154.18933333333334 -179.10433333333333 1786.2699999999998 -1.2442180420709348e-27 1.4654149167070886e-27 1.0
-153.1336666666667 -144.83066666666667 1791.62 0.0 0.0 1.0
-153.446 -131.73933333333332 1734.5333333333335 -0.3088052582559372 0.8192845855590264 0.483127395558209
-207.20000000000002 -9.600000000000001 2992.0 0.0 0.0 1.0
-210.13333333333333 115.2 2992.0 0.0 0.0 1.0
-163.30333333333334 107.30966666666666 1951.3266666666666 -0.9992289879630876 1.0799703613039865e-16 0.039261044487683125
-164.81933333333333 145.80466666666666 1966.2700000000002 -0.9992675682856142 7.139755788329502e-17 0.038266525483187486
-164.81933333333333 145.80466666666666 1966.2700000000002 -0.9992675682856141 -2.755471373120664e-16 0.038266525483187375
-143.32666666666668 184.875 1508.57 -0.35701644833972823 -0.7140328966794456 0.6022427069499858
-145.22033333333334 198.10299999999998 1521.36 -0.18986987927079885 -0.8356140730954668 0.515459552041182
-155.79666666666665 -209.63166666666666 1779.1899999999998 -0.8322183131300424 0.554423956682855 0.00517257644842284
-159.20166666666668 -157.28566666666666 1791.62 0.0 0.0 1.0
-156.87666666666667 -127.80766666666666 1797.0 0.0 0.0 1.0
-156.88333333333333 -110.24666666666667 1739.5433333333333 -0.7328920689838954 -0.611203360446066 0.2988304994473309
-159.83933333333334 -105.38166666666666 1802.41 0.0 0.0 1.0
-206.01566666666668 -56.7982 2197.4333333333334 -0.12781734246747464 0.9809266342257176 0.14644338575421356
-147.81533333333334 -14.064400000000001 1562.4000000000003 3.4561984716540745e-27 2.451513131605616e-27 1.0
-170.91366666666667 2.1404599999999996 1996.9066666666665 -0.536587898805022 0.22700724733856165 0.8127368187253367
-209.0666666666667 1.5999999999999999 2992.0 0.0 0.0 1.0
-211.46666666666667 14.133333333333333 2992.0 0.0 0.0 1.0
-211.20000000000002 18.933333333333334 2992.0 0.0 0.0 1.0
-148.26666666666668 26.168900000000004 1595.7300000000002 4.756767202647765e-26 2.1572562963623703e-26 1.0
-211.19999999999996 93.86666666666666 2992.0 0.0 0.0 1.0
-210.13333333333333 115.2 2992.0 0.0 0.0 1.0
-206.13333333333333 142.13333333333333 2992.0 0.0 0.0 1.0
-164.778 133.60500000000002 1949.2033333333331 0.6052159625362856 -0.6063630308477499 0.5157882448373635
-164.81933333333333 145.80466666666666 1966.2700000000002 -0.9992675682856142 1.1301059224290646e-16 0.038266525483187486
-146.112 126.39999999999999 1520.07 0.4257674089792084 0.8515348179584167 0.3059584404059773
-142.2 153.38400000000001 1484.87 -0.025798066729469906 -0.9872753036678598 0.15691378053108498
-145.59933333333333 206.58533333333332 1523.9433333333334 0.3297246448036623 0.8788160131960072 0.3449116895081615
-211.46666666666667 -397.8666666666666 2992.0 0.0 0.0 1.0
-155.54166666666666 -164.314 1726.1599999999999 0.9186034705764746 -0.35340333719541944 0.17684384383968962
-155.23533333333333 -156.374 1698.4133333333332 0.9478033021224546 -0.3159812896349474 0.042716800985169126
-159.59966666666665 -131.65166666666667 1797.0 0.0 0.0 1.0
-159.59733333333332 -96.32293333333332 1804.2233333333334 -0.9124078117026053 -0.40558002927227116 0.054925631535436795
-166.54166666666666 -107.08566666666667 2040.0199999999998 -0.6218887268551244 0.7772894927757422 -0.09526518687821786
-159.03933333333333 -80.17516666666667 1773.956666666667 -0.7315604770557186 -0.6792578729589066 -0.058549213772273484
-152.78066666666666 -43.6096 1653.04 0.0 0.0 1.0
-210.4 11.466666666666669 2992.0 0.0 0.0 1.0
-206.13333333333333 64.53333333333335 2992.0 0.0 0.0 1.0
-212.0 120.26666666666667 2992.0 0.0 0.0 1.0
-164.59333333333333 128.976 1944.97 -0.9992518181933637 -5.665288006662841e-16 0.03867562329500431
-164.59333333333333 128.976 1944.97 -0.9992518181933637 6.007378683420866e-16 0.03867562329500273
-165.04366666666667 139.12966666666668 1951.3133333333335 0.9939351024549311 0.09462589097834989 0.05602635865785676
-146.02533333333335 131.37566666666666 1514.9399999999998 -8.740841055080346e-27 -1.9648031126278615e-26 1.0
-144.39733333333334 166.239 1489.7966666666664 -0.9156183491328599 -0.22890458728321073 0.3305234161930421
-156.4993333333333 -218.84733333333335 1784.4966666666667 -0.8010378684651519 0.40009954267841297 0.4452624947526244
-156.72266666666667 -169.66566666666668 1749.72 -0.8876245408668073 0.4565083916088749 0.0610144478108895
-159.68066666666664 -154.73033333333333 1791.62 0.0 0.0 1.0
-157.86766666666668 -145.76533333333336 1775.6766666666665 0.9282541518834888 -0.003832429100159913 0.37192679655848565
-160.70633333333333 -107.87933333333332 1724.5233333333333 0.7527171134800611 -0.32265152118255075 0.57385794666697
-159.35733333333334 -98.15276666666666 1802.41 0.0 0.0 1.0
-164.52366666666668 -84.69073333333334 1877.8266666666666 0.655353317218017 -1.3315558590626154e-15 0.7553224673021062
-164.52366666666668 -84.69073333333334 1877.8266666666666 0.655353317218017 -1.3315558590626154e-15 0.7553224673021062
-165.81966666666665 -63.235600000000005 1949.1899999999998 3.8488450792120123e-29 -8.186049020596126e-28 1.0
-210.13333333333333 -42.4 2992.0 0.0 0.0 1.0
-209.06666666666663 1.6000000000000003 2992.0 0.0 0.0 1.0
-211.19999999999996 93.86666666666666 2992.0 0.0 0.0 1.0
-164.208 102.09236666666668 1928.3099999999997 -0.9992290021476958 0.00011199790838014776 0.039260523727894354
-165.04366666666667 139.12966666666668 1951.3133333333335 0.9939351024549311 0.0946258909783498 0.05602635865785646
-145.85866666666666 136.29666666666665 1511.11 0.0 0.0 1.0
-144.992 148.342 1503.5199999999998 4.0804888490147065e-27 -2.538970839386884e-27 1.0
-144.992 148.342 1503.5199999999998 4.0804888490147065e-27 -2.538970839386884e-27 1.0
-142.2 153.38400000000001 1484.87 -0.025798066729469896 -0.9872753036678596 0.15691378053108498
-144.89133333333334 160.27633333333333 1467.9033333333334 0.8774964860833863 0.4610240963311742 -0.13212380373473082
-144.39733333333334 166.239 1489.7966666666664 -0.9156183491328601 -0.2289045872832111 0.33052341619304165
-212.26666666666665 -400.0 2992.0 0.0 0.0 1.0
-211.46666666666667 -397.8666666666666 2992.0 0.0 0.0 1.0
-159.29133333333334 -215.53400000000002 1765.2 -0.9546504027964577 0.29630334540596226 0.02910216386793754
-152.31366666666668 -137.04166666666666 1741.2366666666667 0.06559726049375313 0.8199306022273632 0.5686921899822329
-155.08933333333334 -124.13099999999999 1719.55 -0.540738808317567 -0.4565751460321039 0.706498886909994
-160.08666666666667 -78.70549999999999 1936.57 0.0 0.0 1.0
-162.03133333333332 -69.53026666666666 1893.71 0.9110627476279829 0.4008638544677616 0.09629558694872609
-152.78066666666666 -43.6096 1653.04 0.0 0.0 1.0
-212.79999999999998 -44.53333333333333 2992.0 0.0 0.0 1.0
-179.187 41.4091 2112.023333333333 -0.06171280528862216 0.9873610700597082 0.145978241508646
-213.0666666666667 100.8 2992.0 0.0 0.0 1.0
-210.13333333333335 115.2 2992.0 0.0 0.0 1.0
-164.95566666666664 107.83836666666666 1917.9633333333331 -0.9979206101586817 -0.06445377546121711 -0.0004082270437925932
-164.83700000000002 126.30733333333335 1938.68 -0.9992498319470127 -8.988072056861455e-18 0.03872690736253922
-209.33333333333334 432.0 2992.0 0.0 0.0 1.0
-153.74666666666667 -214.06733333333332 1555.6599999999999 -0.1478084510027478 -0.9593112647258728 0.2405713182867288
-214.13333333333335 -403.73333333333335 2992.0 0.0 0.0 1.0
-212.53333333333333 -401.8666666666666 2992.0 0.0 0.0 1.0
-209.60000000000002 -391.73333333333335 2992.0 0.0 0.0 1.0
-155.97333333333333 -159.54666666666665 1704.8500000000001 -0.9907128115844792 0.11006256491050319 0.07983956893481733
-155.97333333333333 -159.54666666666665 1704.8500000000001 -0.990712811584479 0.11006256491050327 0.07983956893481754
-159.68066666666664 -154.73033333333333 1791.62 0.0 0.0 1.0
-161.92766666666665 -110.361 1802.41 0.0 0.0 1.0
-160.482 -107.791 1802.41 0.0 0.0 1.0
-162.41833333333335 -82.75183333333334 1871.9633333333331 -0.999143999945092 -5.08103975224729e-15 0.041367467576855804
-165.44266666666667 -78.03393333333334 1854.57 0.4933446542695892 0.8152555535001323 0.3032646279914832
-166.98166666666668 -69.48473333333334 1887.7 0.0 0.0 1.0
-152.78066666666666 -43.6096 1653.04 0.0 0.0 1.0
-147.81533333333334 -14.064400000000001 1562.4000000000003 3.456198471654076e-27 2.4515131316056167e-27 1.0
-174.5233333333333 24.621613333333332 1835.6266666666668 -0.9055834131660034 -0.42326572739747953 -0.027655122659177016
-213.0666666666667 100.8 2992.0 0.0 0.0 1.0
-146.9706666666667 131.78099999999998 1514.9399999999998 -3.934457590965739e-26 -1.5750785086987295e-25 1.0
-143.65533333333335 154.23 1466.6900000000003 -0.986166417408649 -0.1410127112865865 0.08712756412867458
-142.36333333333334 163.17533333333333 1482.426666666667 -0.5702940274597899 -0.8007529919311537 0.1831921618328638
-145.05066666666667 165.774 1471.49 0.9946022220066078 0.03863687053112256 0.09629959613144899
-147.20533333333333 188.55233333333334 1511.11 0.0 0.0 1.0
-214.13333333333335 418.9333333333334 2992.0 0.0 0.0 1.0
-214.13333333333335 418.9333333333334 2992.0 0.0 0.0 1.0
-154.66366666666667 -248.206 1685.75 -0.7530847581578084 0.647096022449583 0.11887003306268525
-213.86666666666667 123.46666666666665 2992.0 0.0 0.0 1.0
-216.0 130.93333333333334 2992.0 0.0 0.0 1.0
-165.08766666666668 129.29833333333332 1968.42 0.0 0.0 1.0
-146.9706666666667 131.78099999999998 1514.9399999999998 -3.934457590965741e-26 -1.5750785086987302e-25 1.0
-149.58866666666668 140.11766666666668 1507.3 0.0 0.0 1.0
-158.10566666666668 -213.01800000000003 1770.4233333333334 -0.932048143276343 0.34947864288137104 0.09566052887642268
-156.038 -193.67600000000002 1709.71 0.0 0.0 1.0
-155.97333333333333 -159.54666666666665 1704.8500000000001 -0.9907128115844792 0.11006256491050337 0.07983956893481753
-159.20166666666668 -157.28566666666666 1791.62 0.0 0.0 1.0
-159.607 -150.00300000000001 1782.7466666666667 0.891729125801054 -0.4458535067396691 -0.07767764624412801
-159.59733333333335 -96.32293333333332 1804.2233333333334 -0.9124078117026053 -0.405580029272271 0.05492563153543696
-151.48333333333335 -1.8150066666666669 1566.49 0.0 0.0 1.0
-211.46666666666667 14.133333333333333 2992.0 0.0 0.0 1.0
-213.6 73.86666666666667 2992.0 0.0 0.0 1.0
-213.0666666666667 100.8 2992.0 0.0 0.0 1.0
-165.874 120.50866666666667 1911.9366666666665 -0.9992454675069145 -0.00027944298952045025 0.038838351902514286
-147.08366666666666 128.7553333333333 1517.5 0.3190111623943009 0.638022324788602 0.7008276473849935
-178.54433333333336 211.8603333333333 1651.57 -0.014583586147266197 -0.7306610677172366 0.6825845904628913
-159.68066666666667 -154.73033333333333 1791.62 0.0 0.0 1.0
-161.28533333333334 -107.791 1802.41 0.0 0.0 1.0
-162.68166666666667 -103.62766666666666 1766.9399999999998 0.7467730213643305 -0.6637787658506571 -0.04156686863557908
-214.66666666666666 -45.599999999999994 2992.0 0.0 0.0 1.0
-147.39733333333334 134.52233333333334 1512.3866666666665 -0.2812365153525367 0.7030912883813412 0.6531222417240345
-145.76166666666666 145.78666666666666 1452.466666666667 0.9781765428454952 -0.15971970188407036 0.13289194052649944
-148.61 174.338 1503.5199999999998 -1.5551196391244543e-26 4.4431989689269726e-27 1.0
-154.66366666666667 -248.20600000000002 1685.75 -0.7530847581578082 0.6470960224495833 0.1188700330626852
-150.787 -207.64199999999997 1484.9433333333334 -0.7199676661937684 -0.6793010351137437 0.14211496518275255
-156.038 -193.67600000000002 1709.71 0.0 0.0 1.0
-156.07299999999998 -189.278 1693.5866666666668 -0.8373889516661527 0.5234258298266266 -0.1574964897950728
-158.82733333333334 -172.8996666666667 1744.6466666666665 -0.9155730906977665 0.3925257069265839 0.08746133426792223
-158.00133333333335 -169.56633333333332 1729.49 0.8674344482810712 -0.4956143140978216 -0.0438626218625781
-164.39 80.17603333333334 1972.7533333333333 -0.5519372754718367 0.5518850136334208 0.6251305269074329
-166.12766666666667 99.05116666666667 1883.74 -0.9983577251742926 -0.033269551398404186 0.046636783064021727
-147.59966666666668 119.69133333333333 1538.3099999999997 0.1983230342806934 -0.9594813477987478 0.20015873026175338
-148.322 123.59866666666666 1523.9433333333334 0.24246809570511874 -0.9700709643894405 0.013097580451148722
-147.88666666666668 136.57566666666665 1493.5133333333333 0.9989630107924554 -2.044945792524915e-14 0.045529145264027404
-147.88666666666668 136.57566666666665 1493.5133333333333 0.9989630107924552 -2.069173207074848e-14 0.04552914526402768
-147.88666666666668 136.57566666666668 1493.5133333333333 0.9989630107924529 -5.719880072312636e-14 0.04552914526408366
-148.61 167.102 1503.5199999999998 -6.120733273522487e-26 2.4482933094088035e-27 1.0
-148.476 176.75 1503.5199999999998 0.0 0.0 1.0
-148.261 205.19066666666666 1522.6500000000003 -1.2438908822216065e-27 4.065856677710063e-28 1.0
-214.13333333333335 -403.7333333333333 2992.0 0.0 0.0 1.0
-163.7413333333333 -226.22866666666667 1786.2699999999998 3.432150415768679e-28 -4.951171747664402e-28 1.0
-159.2913333333333 -215.53400000000002 1765.2 -0.9546504027964577 0.29630334540596237 0.029102163867937555
-159.44899999999998 -213.44100000000003 1758.3 -0.963983631866746 0.22685907055256058 0.13881829706860177
-162.78600000000003 -196.93533333333335 1786.2699999999998 -1.04869165781149e-26 -1.1618969514219458e-26 1.0
-161.92766666666668 -110.361 1802.41 0.0 0.0 1.0
-157.71833333333333 -103.363 1765.2 -0.7176877539366812 -0.6959403966379947 0.02431567759023446
-220.80000000000004 -81.60000000000001 2992.0 0.0 0.0 1.0
-217.33333333333334 -44.26666666666666 2992.0 0.0 0.0 1.0
-216.53333333333333 117.33333333333333 2992.0 0.0 0.0 1.0
-216.0 135.73333333333335 2992.0 0.0 0.0 1.0
-166.12766666666667 99.05116666666667 1883.74 -0.9983577251742924 -0.03326955139840439 0.04663678306402162
-166.64566666666664 113.23333333333335 1887.71 0.9991895073477782 0.038464775114824365 -0.011865474346590556
-149.28 165.896 1503.5199999999998 6.1711096790652756e-27 -7.652176002041002e-27 1.0
-148.61 167.102 1503.5199999999998 -6.120733273522487e-26 2.4482933094087985e-27 1.0
-148.52666666666667 199.899 1522.6533333333334 0.0005125574566559337 -0.9915588581574568 0.12965634613983973
-216.26666666666665 418.6666666666667 2992.0 0.0 0.0 1.0
-162.94533333333334 -197.413 1786.2699999999998 -1.1329726925842451e-27 -6.231423539472521e-27 1.0
-161.12433333333334 -149.12366666666665 1795.2066666666667 0.7189193950355136 -0.11981989917258748 0.6846883197514342
-162.89066666666668 -133.54666666666668 1798.8033333333333 0.11030541341926248 0.9938977354964983 8.453010347129129e-05
-220.53333333333333 -37.333333333333336 2992.0 0.0 0.0 1.0
-151.48333333333335 -4.188479999999999 1566.49 0.0 0.0 1.0
-151.48333333333335 -1.8150066666666669 1566.49 0.0 0.0 1.0
-151.48333333333335 -1.8150066666666669 1566.49 0.0 0.0 1.0
-218.13333333333333 128.0 2992.0 0.0 0.0 1.0
-219.73333333333335 138.4 2992.0 0.0 0.0 1.0
-166.64566666666667 113.23333333333333 1887.71 0.9991895073477782 0.038464775114824365 -0.011865474346590502
-166.64566666666664 113.23333333333335 1887.71 0.9991895073477783 0.03846477511482405 -0.011865474346590502
-149.27999999999997 152.764 1503.5199999999998 1.7275157591187384e-25 -8.797533958475324e-27 1.0
-150.218 156.516 1503.5199999999998 -6.99803837605969e-26 -7.997758144068257e-26 1.0
-148.476 176.75 1503.5199999999998 0.0 0.0 1.0
-149.17533333333333 208.05300000000003 1457.18 -0.06835305361223767 0.9961188654042751 0.055453278059840926
-165.11266666666666 -191.9376666666667 1765.2 -0.8645274918662041 0.5004960885587595 0.04578079449849045
-159.3816666666667 -172.84766666666667 1736.1933333333334 0.8384334731179724 -0.5388714245786802 -0.08152851604118717
-157.33333333333334 -124.86266666666666 1760.0 0.0 0.0 1.0
-163.534 -111.00366666666667 1802.41 0.0 0.0 1.0
-157.49533333333332 -37.27440000000001 1653.04 0.0 0.0 1.0
-156.61133333333333 -32.117866666666664 1653.04 0.0 0.0 1.0
-157.348 -30.497266666666665 1653.04 0.0 0.0 1.0
-179.187 41.4091 2112.023333333333 -0.06171280528862202 0.9873610700597083 0.14597824150864586
-145.76166666666666 145.78666666666666 1452.466666666667 0.9781765428454952 -0.15971970188407036 0.13289194052649944
-149.27999999999997 152.764 1503.5199999999998 1.7275157591187384e-25 -8.797533958475324e-27 1.0
-148.744 171.65800000000002 1503.5199999999998 -1.666199613347691e-27 8.330998066738461e-28 1.0
-219.73333333333335 412.8 2992.0 0.0 0.0 1.0
-162.92600000000002 -224.60833333333332 1772.1633333333332 0.9078240531680886 -0.3404040547923664 0.2449093056018479
-156.07299999999998 -189.278 1693.5866666666668 -0.8373889516661525 0.5234258298266266 -0.15749648979507255
-225.0666666666667 -286.40000000000003 2992.0 0.0 0.0 1.0
-158.80966666666666 -166.69466666666668 1789.8366666666668 0.4231169581667434 -0.11036831891189126 0.8993280124027525
-162.40166666666667 -151.99766666666665 1795.2066666666667 0.8821457172493034 -0.1470242862082194 0.44744026730243636
-164.27700000000002 -92.65010000000001 1807.8633333333335 0.8509750411245935 -0.04217725121083111 0.5235098460041556
-157.0533333333333 -34.62246666666667 1653.04 0.0 0.0 1.0
-172.47133333333332 37.16986666666667 1782.7233333333334 0.023608989866214576 0.33840929401512765 0.9407028039299553
-218.66666666666666 78.93333333333334 2992.0 0.0 0.0 1.0
-215.4666666666667 99.19999999999999 2992.0 0.0 0.0 1.0
-151.23033333333333 119.04333333333334 1537.0 -0.5542391743089466 0.83172570769357 -0.032423522679803515
-150.7976666666667 140.92366666666666 1507.3 0.0 0.0 1.0
-216.26666666666665 419.73333333333335 2992.0 0.0 0.0 1.0
-220.26666666666665 -41.06666666666667 2992.0 0.0 0.0 1.0
-163.0583333333333 42.544666666666664 1761.8533333333332 -0.22858765829197297 0.9717216712734875 0.059200304509796374
-221.33333333333334 109.33333333333333 2992.0 0.0 0.0 1.0
-153.19733333333332 122.17666666666668 1526.53 0.0 0.0 1.0
-150.62 158.52599999999998 1503.5199999999998 -6.398206515255561e-26 1.5995516288140219e-27 1.0
-154.44333333333333 -211.50933333333333 1540.95 1.0156178663427696e-14 0.776227478149576 0.6304529341398527
-182.46133333333333 -194.6 2144.8 0.0 0.0 1.0
-155.00833333333333 -115.21466666666667 1721.1933333333334 -0.30878661830315846 0.13236110928274902 0.9418765105396459
-163.534 -111.00366666666667 1802.41 0.0 0.0 1.0
-170.16266666666664 -65.49403333333333 1949.1899999999998 6.887186896432447e-28 -2.3348588669351716e-28 1.0
-220.80000000000004 -81.60000000000001 2992.0 0.0 0.0 1.0
-158.37933333333334 -36.390433333333334 1653.04 0.0 0.0 1.0
-213.0666666666667 -6.133333333333334 2992.0 0.0 0.0 1.0
-222.13333333333333 24.0 2992.0 0.0 0.0 1.0
-221.6 118.93333333333332 2992.0 0.0 0.0 1.0
-167.55566666666667 99.04186666666665 1843.1466666666668 -0.9992294913897908 -3.5666673182535466e-05 0.039248213523522
-152.306 120.78066666666666 1527.83 -0.481981310972885 0.6021077001743319 0.6365220603118448
-151.20066666666665 142.26700000000002 1507.3 0.0 0.0 1.0
-150.218 156.516 1503.5199999999998 -6.99803837605969e-26 -7.997758144068257e-26 1.0
-150.754 157.722 1503.5199999999998 1.0 0.0 0.0
-150.62 158.52599999999998 1503.5199999999998 -6.398206515255561e-26 1.5995516288140219e-27 1.0
-149.28 165.896 1503.5199999999998 6.171109679065283e-27 -7.652176002041009e-27 1.0
-152.343 199.42466666666667 1520.07 0.09017418940769663 -0.9921381873995114 0.08677806559423154
-151.745 206.59666666666666 1542.2733333333333 -0.03656309893055287 0.9855307865129969 0.16550591721043834
-165.811 -211.582 1786.2699999999998 -2.171889065533023e-27 -2.7772380253873054e-28 1.0
-164.69633333333334 -195.66166666666666 1786.2699999999998 -1.3079311954293956e-25 1.7684645062938126e-26 1.0
-164.69633333333334 -195.66166666666666 1786.2699999999998 -1.3079311954293956e-25 1.7684645062938126e-26 1.0
-153.745 -178.16866666666667 1712.9766666666667 0.3953625272559924 0.5798497091615427 0.712364223432809
-161.76466666666667 -177.727 1791.6299999999999 0.7698261126567713 0.15086449178317501 0.6201674462520331
-159.91666666666666 -128.91899999999998 1761.7300000000002 -0.3066791266299838 0.20438035280369432 0.92961098566944
-168.44333333333333 -121.407 1804.2233333333334 0.5018728091734934 -0.8362811436400681 0.22081107808342879
-164.52366666666666 -84.69073333333334 1877.8266666666666 0.6553533172180154 1.3631977391808377e-15 0.7553224673021075
-165.85166666666666 -78.90106666666667 1770.4233333333334 0.2397762590989574 0.6934141689581808 0.6794734254262967
-221.6 -88.26666666666667 2992.0 0.0 0.0 1.0
-158.37933333333334 -36.390433333333334 1653.04 0.0 0.0 1.0
-222.13333333333333 24.0 2992.0 0.0 0.0 1.0
-153.81333333333336 31.573333333333334 1595.7300000000002 1.751148602758779e-27 1.7327657466681236e-27 1.0
-162.88133333333334 41.13823333333334 1748.0466666666664 -0.9427363867045707 -0.32197536272832866 0.08706302877324604
-172.10533333333333 68.94736666666667 1968.42 0.0 0.0 1.0
-221.6 107.46666666666665 2992.0 0.0 0.0 1.0
-168.35566666666668 125.92233333333333 1856.47 -0.9210264042424272 -0.20471830183742598 0.331362006846086
-150.7976666666667 140.92366666666666 1507.3 0.0 0.0 1.0
-151.20066666666665 142.267 1507.3 0.0 0.0 1.0
-153.74666666666667 -214.06733333333332 1555.6599999999999 -0.14780845100274775 -0.9593112647258728 0.24057131828672879
-154.44333333333333 -211.50933333333333 1540.95 -3.598645983104302e-15 0.7762274781495803 0.6304529341398476
-163.90033333333335 -197.09466666666665 1786.2699999999998 -2.9732716326473916e-27 -4.233343380738911e-28 1.0
-182.46133333333333 -194.6 2144.8 0.0 0.0 1.0
-168.21166666666667 -82.73966666666666 1806.0366666666669 0.463334058844988 0.4853754156453584 0.7414393136335062
-223.73333333333335 -88.8 2992.0 0.0 0.0 1.0
-225.0666666666667 -70.93333333333334 2992.0 0.0 0.0 1.0
-226.66666666666666 -21.86666666666667 2992.0 0.0 0.0 1.0
-186.71333333333334 29.676400000000005 2137.1966666666667 0.6856975479146571 -0.7227410566675284 0.0863958204482787
-220.26666666666665 86.13333333333333 2992.0 0.0 0.0 1.0
-172.10533333333333 68.94736666666667 1968.42 0.0 0.0 1.0
-221.33333333333334 109.33333333333333 2992.0 0.0 0.0 1.0
-167.85233333333335 101.26766666666667 1835.5933333333332 -0.9992305837052142 -0.00010938158208745793 0.039220257824319184
