ply
format ascii 1.0
comment VCGLIB generated
element vertex 761
property float x
property float y
property float z
property float nx
property float ny
property float nz
element face 0
property list uchar int vertex_indices
end_header
199.20000000000002 -9.866666666666667 2992.0 0.0 0.0 1.0
65.15463333333334 2.3367733333333334 1542.2699999999998 9.501599979587448e-27 8.89539897500439e-28 1.0
66.39176666666667 10.30929 1542.2699999999998 2.9442489389093065e-27 3.4884699022663105e-27 1.0
64.3299 24.879733333333334 1542.2699999999998 -3.3251118454926727e-26 5.701673036297402e-26 1.0
200.0 186.66666666666666 2992.0 0.0 0.0 1.0
199.4666666666667 217.0666666666667 2992.0 0.0 0.0 1.0
65.55556666666666 210.69433333333333 1558.33 0.0 0.0 1.0
202.4 -343.2 2992.0 0.0 0.0 1.0
198.9333333333333 -332.53333333333336 2992.0 0.0 0.0 1.0
198.66666666666666 -329.3333333333333 2992.0 0.0 0.0 1.0
85.8556 -184.68833333333336 1775.67 0.0 0.0 1.0
83.7427 -82.02730000000001 1749.71 0.0 0.0 1.0
86.45030000000001 -45.7817 1765.1899999999998 5.439433341921751e-27 3.626096824228128e-27 1.0
198.4 -15.199999999999998 2992.0 0.0 0.0 1.0
199.20000000000002 -9.866666666666667 2992.0 0.0 0.0 1.0
64.3299 24.879733333333334 1542.2699999999998 -3.3251118454926727e-26 5.701673036297402e-26 1.0
65.97936666666666 31.615133333333333 1542.2699999999998 0.0 0.0 1.0
64.15156666666667 45.478033333333336 1546.25 0.0 0.0 1.0
197.86666666666667 164.53333333333333 2992.0 0.0 0.0 1.0
201.86666666666667 230.4 2992.0 0.0 0.0 1.0
70.9434 157.98733333333334 1612.9399999999998 -3.1887819792896e-27 4.254175494411844e-27 1.0
68.6433 181.9946666666667 1612.9399999999998 2.5057664028851548e-26 4.1460304969302705e-26 1.0
123.01066666666667 -294.0026666666667 2144.8 0.0 0.0 1.0
118.85733333333333 -269.52399999999994 2137.14 0.0 0.0 1.0
200.79999999999998 -326.93333333333334 2992.0 0.0 0.0 1.0
82.48783333333334 -133.72233333333335 1744.61 0.0 0.0 1.0
85.2867 -126.41399999999999 1744.61 0.0 0.0 1.0
83.44086666666666 -73.0401 1754.84 0.0 0.0 1.0
83.44086666666666 -73.0401 1754.84 0.0 0.0 1.0
82.50246666666665 -69.13003333333334 1754.84 0.0 0.0 1.0
84.2478 -43.4218 1765.1899999999998 -1.0361400372914105e-27 1.7269871780000444e-28 1.0
64.3299 24.879733333333334 1542.2699999999998 -3.3251118454926727e-26 5.701673036297402e-26 1.0
64.15156666666667 45.478033333333336 1546.25 0.0 0.0 1.0
197.86666666666667 129.86666666666667 2992.0 0.0 0.0 1.0
70.34233333333333 142.847 1617.3 0.0 0.0 1.0
66.18803333333334 210.05133333333333 1534.36 0.0 0.0 1.0
118.28566666666666 -270.0953333333334 2137.14 0.0 0.0 1.0
85.0049 -164.37933333333334 1754.84 0.0 0.0 1.0
82.96296666666666 -157.03666666666666 1749.71 0.0 0.0 1.0
82.96296666666667 -155.47733333333332 1749.71 0.0 0.0 1.0
82.96296666666666 -87.32943333333333 1749.71 0.0 0.0 1.0
64.46736666666668 1.9243999999999997 1542.2699999999998 1.517758138218039e-26 -1.7536234649109295e-26 1.0
62.95533333333333 18.2818 1542.2699999999998 -3.9580230608324814e-27 7.919309976897426e-28 1.0
64.05499999999999 25.704466666666665 1542.2699999999998 -1.0989764633560213e-26 -3.597558447723178e-27 1.0
197.6 142.66666666666666 2992.0 0.0 0.0 1.0
72.31053333333334 131.131 1627.5666666666666 -0.09759159207848202 0.7803513441990402 0.6176792539517076
70.34233333333333 142.847 1617.3 0.0 0.0 1.0
70.9434 157.98733333333334 1612.9399999999998 -3.1887819792896012e-27 4.254175494411845e-27 1.0
73.70803333333333 210.69833333333335 1643.9633333333334 0.16108371265890176 -0.9813425073513681 0.10497104734808796
66.18803333333334 210.05133333333333 1534.36 0.0 0.0 1.0
61.8914 208.91833333333338 1516.22 -0.3028679658684747 0.9087534620330119 0.28712042855517533
200.79999999999998 414.9333333333334 2992.0 0.0 0.0 1.0
200.26666666666665 421.06666666666666 2992.0 0.0 0.0 1.0
59.53796666666667 208.44899999999998 1481.1899999999998 -5.113365911628107e-26 -8.052386195638236e-26 1.0
121.29033333333332 -299.3546666666667 2144.8 0.0 0.0 1.0
118.85733333333333 -269.52399999999994 2137.14 0.0 0.0 1.0
118.66666666666667 -255.8096666666667 2137.14 0.0 0.0 1.0
80.32020000000001 -173.98633333333336 1763.46 -2.562180150815396e-15 -0.9133319595408758 0.40721582935984213
192.26666666666665 -200.26666666666665 2992.0 0.0 0.0 1.0
82.64333333333333 -109.621 1744.61 0.0 0.0 1.0
82.64333333333333 -109.621 1744.61 0.0 0.0 1.0
82.97163333333333 -73.6657 1754.84 0.0 0.0 1.0
81.72546666666666 -64.9412 1760.0 0.0 0.0 1.0
83.62456666666668 -37.19813333333334 1768.67 -0.6162857203183284 -0.6162857203183278 0.49028952860879976
63.230266666666665 17.869433333333333 1542.2699999999998 0.0 0.0 1.0
63.230266666666665 17.869433333333333 1542.2699999999998 0.0 0.0 1.0
64.15156666666667 45.478033333333336 1546.25 0.0 0.0 1.0
64.82673333333334 53.38046666666667 1547.5866666666668 0.9149867022931787 -0.10167247514283757 0.3904638810760644
197.6 142.66666666666666 2992.0 0.0 0.0 1.0
196.26666666666665 197.6 2992.0 0.0 0.0 1.0
73.02453333333334 128.90066666666667 1630.5199999999998 1.246955989637898e-26 -4.852132781859232e-26 1.0
70.86956666666667 197.826 1626.09 0.0 0.0 1.0
72.88753333333334 198.04 1629.043333333333 -0.3652981455031324 -0.8766485220248538 0.3131207973348496
64.26456666666667 209.43466666666666 1562.4000000000003 2.9623546727801472e-27 3.702252041802729e-27 1.0
64.26456666666667 209.43466666666666 1562.4000000000003 2.9623546727801465e-27 3.702252041802729e-27 1.0
119.37866666666667 -311.78000000000003 2144.8 0.0 0.0 1.0
118.09499999999998 -271.23800000000006 2137.14 0.0 0.0 1.0
118.09499999999998 -271.238 2137.14 0.0 0.0 1.0
198.9333333333333 -332.53333333333336 2992.0 0.0 0.0 1.0
85.8556 -184.68833333333336 1775.67 0.0 0.0 1.0
82.50240000000001 -74.9169 1754.84 0.0 0.0 1.0
82.03320000000001 -73.9785 1754.84 0.0 0.0 1.0
83.13723333333333 -54.588233333333335 1760.0 0.0 0.0 1.0
80.94116666666667 -50.35293333333334 1760.0 0.0 0.0 1.0
197.86666666666667 -51.73333333333333 2992.0 0.0 0.0 1.0
199.20000000000002 -9.866666666666665 2992.0 0.0 0.0 1.0
193.6 91.46666666666665 2992.0 0.0 0.0 1.0
196.26666666666665 125.06666666666666 2992.0 0.0 0.0 1.0
197.6 142.66666666666666 2992.0 0.0 0.0 1.0
196.26666666666665 165.06666666666666 2992.0 0.0 0.0 1.0
196.26666666666665 165.06666666666666 2992.0 0.0 0.0 1.0
69.6055 125.30566666666665 1642.4566666666667 -4.092945518768538e-17 0.9543217077156472 0.2987809869832598
71.14323333333334 129.65266666666665 1629.0433333333333 0.5949704787870556 0.5949704787870305 0.5403889883628588
70.34233333333334 142.847 1617.3 0.0 0.0 1.0
90.4348 -242.9813333333333 1858.39 0.0 0.0 1.0
80.32020000000001 -173.98633333333336 1763.46 -2.562180150815396e-15 -0.9133319595408758 0.40721582935984213
80.93293333333332 -132.47833333333332 1744.61 0.0 0.0 1.0
80.15503333333334 -115.194 1739.53 0.0 0.0 1.0
83.26526666666666 -104.02300000000001 1744.61 0.0 0.0 1.0
81.71446666666667 -87.39853333333333 1748.01 -0.4874536071201007 -0.73123251132222 0.47716663262533554
81.87133333333333 -85.4581 1749.71 0.0 0.0 1.0
82.18323333333332 -84.05460000000001 1749.71 0.0 0.0 1.0
81.72546666666666 -64.9412 1760.0 0.0 0.0 1.0
84.2478 -43.4218 1765.1899999999998 -1.0361400372914105e-27 1.726987178000044e-28 1.0
190.4 0.5333333333333335 2992.0 0.0 0.0 1.0
62.95533333333333 18.2818 1542.2699999999998 -3.9580230608324814e-27 7.919309976897426e-28 1.0
70.22463333333333 159.425 1612.9399999999998 9.72201164008031e-28 1.5300758088729149e-27 1.0
58.6509 208.51333333333335 1516.22 0.08217664231818188 0.9862617415209517 0.14329960456808336
82.18323333333335 -156.41299999999998 1749.71 0.0 0.0 1.0
80.15503333333334 -115.194 1739.53 0.0 0.0 1.0
80.15503333333334 -115.194 1739.53 0.0 0.0 1.0
197.33333333333334 -14.666666666666666 2992.0 0.0 0.0 1.0
63.36769999999999 24.879733333333334 1542.2699999999998 1.4257062153484282e-26 8.555390011287589e-26 1.0
62.95533333333333 37.525800000000004 1542.2699999999998 -2.9444330172593507e-28 6.673955351920761e-28 1.0
196.26666666666665 165.0666666666667 2992.0 0.0 0.0 1.0
196.0 220.0 2992.0 0.0 0.0 1.0
69.61833333333334 125.484 1640.9533333333331 -0.16840014322243219 0.925893558271665 0.33817526596973263
68.3048 138.62733333333333 1620.22 -0.8628944072333007 1.5417345630678772e-15 0.5053842517980657
68.3048 138.62733333333333 1620.22 -0.8628944072333007 1.5316622199074245e-15 0.5053842517980657
72.68816666666667 210.60966666666664 1608.5999999999997 -6.639214634806345e-26 -5.871896267743486e-25 1.0
114.47633333333333 -257.71433333333334 2137.14 0.0 0.0 1.0
189.86666666666667 -212.0 2992.0 0.0 0.0 1.0
192.53333333333333 -148.53333333333333 2992.0 0.0 0.0 1.0
82.03320000000001 -73.9785 1754.84 0.0 0.0 1.0
191.73333333333335 16.8 2992.0 0.0 0.0 1.0
196.53333333333333 178.9333333333333 2992.0 0.0 0.0 1.0
68.49953333333333 154.106 1612.9399999999998 4.951948519906393e-27 -3.798085507765609e-27 1.0
68.6433 181.9946666666667 1612.9399999999998 2.505766402885159e-26 4.146030496930277e-26 1.0
64.01293333333332 210.46033333333332 1559.6866666666665 -0.12355209249188912 0.9899908411135022 0.0682130116052368
115.938 -310.05966666666666 2144.8 0.0 0.0 1.0
90.4348 -242.98133333333337 1858.39 0.0 0.0 1.0
90.4348 -242.98133333333337 1858.39 0.0 0.0 1.0
190.66666666666666 -297.3333333333333 2992.0 0.0 0.0 1.0
78.6006 -144.76200000000003 1744.61 0.0 0.0 1.0
79.22753333333334 -123.53233333333333 1741.2233333333334 -0.7118624492308411 -0.5536745729110801 0.4320836963908743
80.94116666666667 -50.35293333333334 1760.0 0.0 0.0 1.0
81.26466666666668 -33.737 1768.67 -0.702475315602556 -0.7024753156025583 0.11426662652837495
195.73333333333335 -38.93333333333333 2992.0 0.0 0.0 1.0
60.06873333333334 34.501733333333334 1542.2699999999998 1.3866787983122854e-27 -9.365287889288717e-29 1.0
193.6 91.46666666666665 2992.0 0.0 0.0 1.0
191.46666666666667 105.59999999999998 2992.0 0.0 0.0 1.0
195.4666666666667 187.46666666666667 2992.0 0.0 0.0 1.0
173.6 316.00000000000006 2992.0 0.0 0.0 1.0
191.46666666666667 378.93333333333334 2992.0 0.0 0.0 1.0
191.46666666666667 378.93333333333334 2992.0 0.0 0.0 1.0
191.73333333333335 385.3333333333333 2992.0 0.0 0.0 1.0
62.7328 210.26999999999998 1562.4000000000003 5.193657725126511e-26 5.53755168042255e-25 1.0
78.44513333333333 -143.05166666666665 1744.61 0.0 0.0 1.0
78.44513333333333 -143.05166666666665 1744.61 0.0 0.0 1.0
80.93293333333334 -132.47833333333332 1744.61 0.0 0.0 1.0
80.46923333333332 -67.72240000000001 1754.84 0.0 0.0 1.0
59.10653333333334 33.814433333333334 1542.2699999999998 2.326326761514135e-27 2.907861435446807e-27 1.0
194.13333333333333 129.0666666666667 2992.0 0.0 0.0 1.0
190.4 133.86666666666667 2992.0 0.0 0.0 1.0
191.4666666666667 142.9333333333333 2992.0 0.0 0.0 1.0
66.63073333333332 183.86333333333334 1612.9399999999998 1.1336043245968307e-24 7.971331035404338e-25 1.0
59.04696666666666 209.06799999999998 1577.506666666667 0.04775868543874623 0.9555358599441344 0.2909816632126264
114.47633333333333 -257.71433333333334 2137.14 0.0 0.0 1.0
78.44053333333333 -161.55966666666666 1749.71 0.0 0.0 1.0
78.44053333333333 -161.55966666666666 1749.71 0.0 0.0 1.0
77.05426666666666 -103.25566666666668 1739.53 0.0 0.0 1.0
191.73333333333335 -143.73333333333332 2992.0 0.0 0.0 1.0
80.62743333333333 -53.8039 1760.0 0.0 0.0 1.0
189.0666666666667 155.73333333333335 2992.0 0.0 0.0 1.0
195.4666666666667 187.46666666666667 2992.0 0.0 0.0 1.0
196.0 220.0 2992.0 0.0 0.0 1.0
66.19943333333333 150.79966666666667 1612.9399999999998 1.8175132183450298e-26 -9.913270627398367e-27 1.0
68.49953333333333 180.126 1612.9399999999998 -4.397459219919019e-28 8.794789374825737e-28 1.0
188.0 441.86666666666673 2992.0 0.0 0.0 1.0
114.66633333333334 -273.52366666666666 2137.14 0.0 0.0 1.0
113.71433333333334 -255.80933333333329 2137.14 0.0 0.0 1.0
77.04566666666666 -152.06966666666665 1744.61 0.0 0.0 1.0
79.37803333333333 -137.14266666666666 1744.61 0.0 0.0 1.0
192.53333333333333 -148.53333333333333 2992.0 0.0 0.0 1.0
79.218 -71.16326666666667 1754.84 0.0 0.0 1.0
80.15683333333332 -65.7255 1760.0 0.0 0.0 1.0
190.9333333333333 -50.666666666666664 2992.0 0.0 0.0 1.0
78.2699 -22.8359 1766.9300000000003 -0.7209844412785642 0.3604731257602819 0.5918112545726455
78.11206666666665 -14.15929 1765.1899999999998 -1.8130740198414974e-27 6.043556056930281e-28 1.0
190.13333333333333 103.46666666666665 2992.0 0.0 0.0 1.0
191.4666666666667 142.9333333333333 2992.0 0.0 0.0 1.0
188.0 206.4 2992.0 0.0 0.0 1.0
66.45043333333334 139.96366666666665 1617.3 0.0 0.0 1.0
65.65106666666667 175.213 1610.0466666666664 0.25929433378736655 -0.7762586517073149 0.5746207045654614
65.87386666666667 190.84666666666666 1617.3 0.0 0.0 1.0
112.762 -257.3333333333333 2137.14 0.0 0.0 1.0
76.5792 -154.24666666666667 1744.61 0.0 0.0 1.0
80.0 -52.23526666666666 1760.0 0.0 0.0 1.0
82.3599 -42.00586666666667 1765.1899999999998 -5.094649436705681e-28 -4.295508038300496e-28 1.0
191.73333333333335 16.8 2992.0 0.0 0.0 1.0
189.0666666666667 22.400000000000002 2992.0 0.0 0.0 1.0
59.518899999999995 24.467333333333332 1542.2699999999998 -6.031948815055968e-28 1.5079976505057053e-27 1.0
193.6 91.46666666666665 2992.0 0.0 0.0 1.0
190.4 133.86666666666667 2992.0 0.0 0.0 1.0
191.4666666666667 142.9333333333333 2992.0 0.0 0.0 1.0
188.80000000000004 160.53333333333333 2992.0 0.0 0.0 1.0
191.4666666666667 164.8 2992.0 0.0 0.0 1.0
64.5161 161.00366666666665 1608.5999999999997 -2.149666291036453e-27 -9.144638495373677e-28 1.0
67.10146666666667 199.1303333333333 1626.09 0.0 0.0 1.0
184.79999999999998 -442.40000000000003 2992.0 0.0 0.0 1.0
113.45300000000002 -309.295 2144.8 0.0 0.0 1.0
111.42833333333333 -272.95233333333334 2137.14 0.0 0.0 1.0
188.0 -299.4666666666667 2992.0 0.0 0.0 1.0
79.3744 -167.97633333333334 1754.84 0.0 0.0 1.0
78.6006 -144.76200000000003 1744.61 0.0 0.0 1.0
76.43413333333334 -117.05433333333333 1739.53 0.0 0.0 1.0
76.43413333333334 -117.05433333333333 1739.53 0.0 0.0 1.0
77.05426666666666 -103.25566666666667 1739.53 0.0 0.0 1.0
80.15683333333332 -65.7255 1760.0 0.0 0.0 1.0
79.21336666666667 -8.810226666666667 1765.1899999999998 1.6487601589061842e-25 2.2647383010108816e-26 1.0
189.33333333333334 24.0 2992.0 0.0 0.0 1.0
60.068733333333334 19.244 1542.2699999999998 2.9690812318647957e-28 2.3751641873511757e-28 1.0
59.106533333333324 21.030933333333333 1542.2699999999998 -2.942257416283196e-25 2.3944510077425126e-26 1.0
189.6 106.13333333333333 2992.0 0.0 0.0 1.0
187.46666666666667 203.20000000000002 2992.0 0.0 0.0 1.0
65.44143333333334 189.11733333333333 1617.3 0.0 0.0 1.0
65.87386666666667 190.84666666666666 1617.3 0.0 0.0 1.0
63.07286666666667 210.789 1556.9833333333333 -0.11986296142117997 0.9604307915990915 0.2514071698016729
76.2018 -192.60133333333332 1775.67 0.0 0.0 1.0
188.0 -299.4666666666667 2992.0 0.0 0.0 1.0
78.44053333333333 -161.55966666666666 1749.71 0.0 0.0 1.0
76.4341 -105.89133333333335 1739.53 0.0 0.0 1.0
191.73333333333335 -143.73333333333332 2992.0 0.0 0.0 1.0
78.9052 -69.13003333333334 1754.84 0.0 0.0 1.0
77.95846666666667 -6.4434000000000005 1763.46 -0.8852485066618164 -0.08851059593998487 0.45661904894493044
190.4 0.5333333333333333 2992.0 0.0 0.0 1.0
188.79999999999998 26.666666666666668 2992.0 0.0 0.0 1.0
57.869400000000006 34.9141 1542.2699999999998 5.277678695999932e-27 2.506752203195011e-27 1.0
57.594500000000004 44.811 1542.2699999999998 3.3360514393543805e-27 -4.3493339879301975e-27 1.0
189.86666666666667 163.46666666666667 2992.0 0.0 0.0 1.0
188.0 206.4 2992.0 0.0 0.0 1.0
63.51253333333333 173.33333333333334 1608.5999999999997 -9.661062602107933e-25 2.4865507167993957e-24 1.0
65.755 186.04533333333333 1614.3933333333334 -0.7629626423387711 -0.5449408233438573 0.34774632341515777
65.44143333333334 189.11733333333333 1617.3 0.0 0.0 1.0
65.15313333333334 190.5583333333333 1617.3 0.0 0.0 1.0
62.7328 210.26999999999998 1562.4000000000003 5.193657725126523e-26 5.537551680422561e-25 1.0
188.0 441.86666666666673 2992.0 0.0 0.0 1.0
113.07033333333334 -292.091 2144.8 0.0 0.0 1.0
194.9333333333333 -330.93333333333334 2992.0 0.0 0.0 1.0
77.47533333333332 -182.87966666666668 1770.41 0.0 0.0 1.0
75.19383333333333 -119.07000000000001 1739.53 0.0 0.0 1.0
76.43413333333334 -117.05433333333333 1739.53 0.0 0.0 1.0
74.7287 -110.85266666666666 1739.53 0.0 0.0 1.0
75.76473333333333 -40.156866666666666 1760.0 0.0 0.0 1.0
187.73333333333335 25.333333333333332 2992.0 0.0 0.0 1.0
185.86666666666667 35.199999999999996 2992.0 0.0 0.0 1.0
59.106533333333324 33.814433333333334 1542.2699999999998 -4.652653523028275e-27 -5.815722870893621e-27 1.0
57.594500000000004 44.811 1542.2699999999998 3.336051439354383e-27 -4.349333987930201e-27 1.0
190.4 133.86666666666667 2992.0 0.0 0.0 1.0
189.0666666666667 155.73333333333332 2992.0 0.0 0.0 1.0
63.799266666666675 155.69933333333333 1608.5999999999997 1.5721064797169777e-26 -1.746875221672726e-27 1.0
63.082433333333334 157.41966666666664 1608.5999999999997 -1.0811781821257746e-28 -1.2630533341981957e-27 1.0
63.79926666666666 161.29033333333334 1608.5999999999997 -2.909641409981721e-27 2.771246569196993e-27 1.0
189.6 385.3333333333333 2992.0 0.0 0.0 1.0
54.057500000000005 210.15733333333333 1484.8700000000001 0.32380780550464544 0.9314256397283637 0.1661167744415785
189.6 437.8666666666666 2992.0 0.0 0.0 1.0
85.3002 -242.9813333333333 1858.39 0.0 0.0 1.0
84.47203333333333 -242.15300000000002 1858.39 0.0 0.0 1.0
112.762 -257.3333333333333 2137.14 0.0 0.0 1.0
77.1433 -195.3646666666667 1779.1899999999998 -0.4323780847900279 0.8030712672945305 0.4100313786032287
75.3079 -171.41733333333332 1754.84 0.0 0.0 1.0
184.0 -122.93333333333334 2992.0 0.0 0.0 1.0
78.58593333333334 -33.8585 1766.93 -0.7097551512761732 0.1637860910233451 0.6851435919748714
76.53883333333333 -21.39623333333334 1765.1899999999998 -2.1886879517965783e-27 -1.4162569200353536e-27 1.0
189.0666666666667 22.400000000000002 2992.0 0.0 0.0 1.0
188.53333333333333 157.6 2992.0 0.0 0.0 1.0
62.461800000000004 146.63066666666666 1612.9399999999998 8.434285008275337e-26 -2.8753441465347914e-25 1.0
65.15313333333334 190.5583333333333 1617.3 0.0 0.0 1.0
191.46666666666667 378.93333333333334 2992.0 0.0 0.0 1.0
59.04696666666666 209.06799999999998 1577.506666666667 0.04775868543874618 0.9555358599441346 0.29098166321262625
113.45300000000002 -309.295 2144.8 0.0 0.0 1.0
107.61899999999999 -286.47633333333334 2137.14 0.0 0.0 1.0
77.47533333333332 -182.87966666666668 1770.41 0.0 0.0 1.0
75.80176666666667 -149.11533333333333 1744.61 0.0 0.0 1.0
75.65893333333334 -108.217 1739.53 0.0 0.0 1.0
190.4 0.5333333333333333 2992.0 0.0 0.0 1.0
58.5567 22.955333333333332 1542.2699999999998 -9.326858767808217e-29 -1.1869538222083515e-28 1.0
65.22916666666667 124.461 1640.9533333333336 -0.7050064063485565 0.7049420809465152 0.07760560236407442
63.799266666666675 155.69933333333333 1608.5999999999997 1.572106479716977e-26 -1.7468752216727263e-27 1.0
63.42343333333333 192.57633333333334 1617.3 0.0 0.0 1.0
63.37846666666667 196.8563333333333 1621.68 0.0 0.0 1.0
58.6509 208.51333333333332 1516.22 0.08217664231818188 0.9862617415209517 0.14329960456808336
184.79999999999998 -442.40000000000003 2992.0 0.0 0.0 1.0
107.61899999999999 -286.47633333333334 2137.14 0.0 0.0 1.0
188.0 -299.46666666666664 2992.0 0.0 0.0 1.0
187.19999999999996 -168.26666666666665 2992.0 0.0 0.0 1.0
74.35296666666666 -59.450966666666666 1760.0 0.0 0.0 1.0
76.53883333333333 -21.39623333333334 1765.1899999999998 -2.1886879517965783e-27 -1.4162569200353541e-27 1.0
75.92156666666666 -7.843136666666666 1760.0 0.0 0.0 1.0
187.73333333333335 25.333333333333332 2992.0 0.0 0.0 1.0
57.457033333333335 35.8763 1542.2699999999998 0.0 0.0 1.0
56.08246666666667 36.56356666666667 1542.2699999999998 0.0 0.0 1.0
188.79999999999998 104.8 2992.0 0.0 0.0 1.0
65.22916666666667 124.461 1640.9533333333331 -0.7050064063485565 0.7049420809465153 0.07760560236407425
62.17393333333333 130.28966666666668 1626.09 0.0 0.0 1.0
63.369166666666665 177.77766666666665 1608.5999999999997 -6.799155993960727e-26 -1.9658135902228468e-26 1.0
64.07403333333333 179.08399999999997 1610.0466666666664 -0.7493589717856257 -2.1712740307409648e-15 0.6621639762206866
63.42343333333333 192.57633333333334 1617.3 0.0 0.0 1.0
63.37846666666667 196.8563333333333 1621.68 0.0 0.0 1.0
189.33333333333334 -184.0 2992.0 0.0 0.0 1.0
75.92156666666666 -43.764700000000005 1760.0 0.0 0.0 1.0
76.54486666666668 -38.194 1763.46 -0.7465677912747606 -0.5806696962623441 0.32474487967283255
190.9333333333333 -50.666666666666664 2992.0 0.0 0.0 1.0
75.45096666666667 -8.156863333333334 1760.0 0.0 0.0 1.0
75.45096666666667 -8.156863333333334 1760.0 0.0 0.0 1.0
185.33333333333334 172.79999999999998 2992.0 0.0 0.0 1.0
64.0 137.94566666666665 1617.3 0.0 0.0 1.0
83.80953333333333 -243.6436666666667 1858.39 0.0 0.0 1.0
179.4666666666667 -352.53333333333336 2992.0 0.0 0.0 1.0
75.89743333333332 -183.66833333333332 1770.41 0.0 0.0 1.0
74.40233333333333 -155.17966666666666 1744.61 0.0 0.0 1.0
75.4908 -146.62766666666664 1744.61 0.0 0.0 1.0
72.86819999999999 -113.95333333333333 1739.53 0.0 0.0 1.0
72.5797 -94.6087 1734.49 0.0 0.0 1.0
73.88236666666667 -53.8039 1760.0 0.0 0.0 1.0
57.594500000000004 44.811 1542.2699999999998 3.3360514393543805e-27 -4.3493339879301975e-27 1.0
187.46666666666667 203.20000000000002 2992.0 0.0 0.0 1.0
62.17393333333333 130.28966666666668 1626.09 0.0 0.0 1.0
63.799266666666675 159.71333333333334 1608.5999999999997 6.931640016051246e-28 5.948591832322256e-28 1.0
63.42343333333333 192.57633333333334 1617.3 0.0 0.0 1.0
63.1884 200.28966666666668 1626.09 0.0 0.0 1.0
180.79999999999998 415.73333333333335 2992.0 0.0 0.0 1.0
54.057500000000005 210.15733333333333 1484.8700000000001 0.32380780550464544 0.9314256397283637 0.1661167744415785
105.90466666666667 -269.71433333333334 2137.14 0.0 0.0 1.0
71.938 -130.07766666666666 1739.53 0.0 0.0 1.0
73.79846666666667 -118.29466666666667 1739.53 0.0 0.0 1.0
72.5797 -95.53623333333333 1734.49 0.0 0.0 1.0
75.7522 -19.980333333333334 1765.1899999999998 3.4447631841585903e-26 4.8953171642212137e-26 1.0
74.82353333333333 -8.0 1760.0 0.0 0.0 1.0
73.41176666666667 7.37254 1760.0 0.0 0.0 1.0
64.0 137.94566666666665 1617.3 0.0 0.0 1.0
62.461800000000004 146.63066666666668 1612.9399999999998 -3.2432378875230097e-26 1.1457340008724382e-25 1.0
60.27396666666667 209.09633333333332 1639.45 0.0 0.0 1.0
57.0888 210.38966666666667 1548.93 4.3421891209158204e-16 -0.990918454468554 0.13446418331158896
188.0 441.8666666666666 2992.0 0.0 0.0 1.0
180.79999999999998 -346.1333333333334 2992.0 0.0 0.0 1.0
74.05113333333334 -174.24766666666665 1756.5600000000002 -0.41918858228390316 0.8381538751951504 0.3489684999798176
72.71316666666667 -115.81400000000001 1739.53 0.0 0.0 1.0
72.86819999999999 -113.95333333333333 1739.53 0.0 0.0 1.0
71.1884 -104.96633333333334 1734.49 0.0 0.0 1.0
71.49756666666667 -96.1546 1734.49 0.0 0.0 1.0
72.4251 -93.0628 1734.49 0.0 0.0 1.0
72.4251 -93.0628 1734.49 0.0 0.0 1.0
184.0 -122.93333333333334 2992.0 0.0 0.0 1.0
180.26666666666665 -118.13333333333334 2992.0 0.0 0.0 1.0
73.56863333333332 -48.7843 1760.0 0.0 0.0 1.0
73.88236666666667 -6.431373333333333 1760.0 0.0 0.0 1.0
72.62743333333334 11.921566666666665 1760.0 0.0 0.0 1.0
53.37923333333333 48.025533333333335 1539.6233333333332 0.6683095214640966 0.5940549139277126 0.4477288719289477
180.80000000000004 219.20000000000002 2992.0 0.0 0.0 1.0
65.22916666666667 124.461 1640.9533333333336 -0.7050064063485565 0.7049420809465152 0.07760560236407442
64.38046666666666 125.545 1637.9566666666667 -0.5423177532383927 0.5422682716915626 0.6417449462513184
62.461800000000004 146.63066666666668 1612.9399999999998 -3.2432378875230097e-26 1.1457340008724382e-25 1.0
180.0 -115.73333333333335 2992.0 0.0 0.0 1.0
73.88236666666667 -53.8039 1760.0 0.0 0.0 1.0
74.03923333333333 -37.9608 1760.0 0.0 0.0 1.0
75.7522 -19.980333333333334 1765.1899999999998 3.4447631841585903e-26 4.8953171642212137e-26 1.0
74.82353333333333 -8.0 1760.0 0.0 0.0 1.0
185.0666666666667 26.400000000000002 2992.0 0.0 0.0 1.0
178.9333333333333 125.59999999999998 2992.0 0.0 0.0 1.0
178.13333333333333 144.0 2992.0 0.0 0.0 1.0
179.73333333333335 192.53333333333333 2992.0 0.0 0.0 1.0
63.37846666666667 196.8563333333333 1621.68 0.0 0.0 1.0
61.723333333333336 201.34333333333333 1627.5666666666666 -0.3075426625737786 -0.7689273965523447 0.560507064655089
57.0888 210.38966666666667 1548.93 4.3421891209158204e-16 -0.990918454468554 0.13446418331158896
109.78466666666667 -290.60066666666665 2142.2466666666664 -0.09433368518808913 0.8498263227589601 0.5185521931154262
73.82793333333332 -193.23433333333332 1775.67 0.0 0.0 1.0
71.759 -158.756 1744.61 0.0 0.0 1.0
71.938 -130.07766666666666 1739.53 0.0 0.0 1.0
70.41543333333334 -111.923 1734.49 0.0 0.0 1.0
71.1884 -104.96633333333334 1734.49 0.0 0.0 1.0
74.35296666666666 -59.45096666666666 1760.0 0.0 0.0 1.0
74.35296666666666 -59.45096666666666 1760.0 0.0 0.0 1.0
73.56863333333332 -48.7843 1760.0 0.0 0.0 1.0
73.2549 -5.333333333333333 1760.0 0.0 0.0 1.0
183.46666666666667 34.666666666666664 2992.0 0.0 0.0 1.0
56.082466666666676 36.56356666666667 1542.2699999999998 1.5834779900451677e-27 4.751202089461243e-27 1.0
54.98283333333333 40.13743333333333 1542.2699999999998 -1.1318463498992152e-27 7.420903179701336e-29 1.0
178.9333333333333 125.59999999999998 2992.0 0.0 0.0 1.0
71.37256666666666 100.70566666666667 1760.0 0.0 0.0 1.0
181.6 178.13333333333333 2992.0 0.0 0.0 1.0
180.79999999999998 219.20000000000002 2992.0 0.0 0.0 1.0
58.351266666666675 147.67 1608.5999999999997 6.404766768005265e-28 -8.074017564160859e-28 1.0
59.23186666666667 170.315 1607.1633333333332 -0.8252400960494335 -5.887148599496102e-16 0.5647820675909621
61.64876666666667 172.043 1608.5999999999997 5.240138323625564e-28 -6.551696200556263e-28 1.0
60.27396666666667 209.09633333333332 1639.45 0.0 0.0 1.0
80.16563333333335 -243.31233333333333 1858.39 0.0 0.0 1.0
73.82793333333333 -193.23433333333332 1775.67 0.0 0.0 1.0
75.89743333333332 -183.66833333333332 1770.41 0.0 0.0 1.0
70.51506666666666 -154.24666666666667 1744.61 0.0 0.0 1.0
70.51506666666666 -153.15833333333333 1744.61 0.0 0.0 1.0
71.4729 -131.47299999999998 1739.53 0.0 0.0 1.0
70.41543333333334 -111.923 1734.49 0.0 0.0 1.0
180.26666666666665 -118.13333333333333 2992.0 0.0 0.0 1.0
72.0 -51.92156666666667 1760.0 0.0 0.0 1.0
73.41176666666667 7.37254 1760.0 0.0 0.0 1.0
185.33333333333334 161.33333333333334 2992.0 0.0 0.0 1.0
180.79999999999998 415.73333333333335 2992.0 0.0 0.0 1.0
184.79999999999998 -442.3999999999999 2992.0 0.0 0.0 1.0
105.90466666666667 -269.71433333333334 2137.14 0.0 0.0 1.0
104.76166666666666 -254.09533333333334 2137.14 0.0 0.0 1.0
68.31726666666667 -171.37366666666665 1748.01 -0.6764582844074896 0.5637112205100779 0.47395553517974054
69.6425 -105.73933333333333 1734.49 0.0 0.0 1.0
73.09806666666667 -52.70586666666667 1760.0 0.0 0.0 1.0
72.62743333333334 11.921566666666665 1760.0 0.0 0.0 1.0
54.866899999999994 45.5951 1540.9466666666667 0.5713278329845828 0.6855989413423329 0.4511525228649537
51.345333333333336 58.54326666666666 1538.3 0.0 0.0 1.0
176.26666666666665 134.66666666666666 2992.0 0.0 0.0 1.0
180.53333333333333 184.26666666666665 2992.0 0.0 0.0 1.0
177.6 194.13333333333335 2992.0 0.0 0.0 1.0
180.80000000000004 219.20000000000002 2992.0 0.0 0.0 1.0
60.25223333333333 193.7296666666667 1617.3 0.0 0.0 1.0
184.79999999999998 385.3333333333333 2992.0 0.0 0.0 1.0
103.61899999999999 -269.3333333333333 2137.14 0.0 0.0 1.0
104.76166666666666 -254.09533333333334 2137.14 0.0 0.0 1.0
104.76166666666666 -254.09533333333334 2137.14 0.0 0.0 1.0
71.4729 -131.47299999999998 1739.53 0.0 0.0 1.0
71.49756666666667 -96.1546 1734.49 0.0 0.0 1.0
69.6124 -75.34883333333333 1739.53 0.0 0.0 1.0
180.26666666666665 -118.13333333333333 2992.0 0.0 0.0 1.0
72.93793333333333 -25.905033333333336 1761.7300000000002 -0.7627484159401605 0.381384338238309 0.522265105599927
71.68626666666667 -4.235293333333333 1760.0 0.0 0.0 1.0
179.73333333333335 192.53333333333333 2992.0 0.0 0.0 1.0
56.917566666666666 145.08933333333334 1608.5999999999997 -2.2175064520550875e-28 -8.53085442780783e-29 1.0
177.6 416.0 2992.0 0.0 0.0 1.0
176.5333333333333 -351.7333333333333 2992.0 0.0 0.0 1.0
-42.165 -242.50699999999998 2557.26 0.0 0.0 1.0
74.05113333333334 -174.24766666666665 1756.5600000000002 -0.4191885822839031 0.8381538751951503 0.3489684999798176
70.51506666666667 -153.15833333333333 1744.61 0.0 0.0 1.0
69.45733333333332 -138.60433333333336 1739.53 0.0 0.0 1.0
68.99223333333333 -137.364 1739.53 0.0 0.0 1.0
189.86666666666667 -212.0 2992.0 0.0 0.0 1.0
70.38756666666666 -124.496 1739.53 0.0 0.0 1.0
70.8527 -121.24033333333334 1739.53 0.0 0.0 1.0
69.6425 -111.61366666666667 1734.49 0.0 0.0 1.0
68.21706666666667 -88.68216666666666 1739.53 0.0 0.0 1.0
67.90696666666666 -80.00003333333332 1739.53 0.0 0.0 1.0
72.9412 -56.62743333333333 1760.0 0.0 0.0 1.0
71.68626666666667 -4.235293333333333 1760.0 0.0 0.0 1.0
71.68626666666667 -4.235293333333334 1760.0 0.0 0.0 1.0
177.6 146.4 2992.0 0.0 0.0 1.0
58.44003333333333 189.18866666666668 1612.9466666666667 -0.6822966125106505 -0.40842819195169544 0.6063478742236672
40.985533333333336 209.01333333333332 1454.8066666666666 -0.29918149091198615 0.9510481961390649 0.07744523301218684
101.02756666666669 -302.987 2144.8 0.0 0.0 1.0
80.16563333333333 -243.31233333333333 1858.39 0.0 0.0 1.0
80.16563333333333 -243.31233333333333 1858.39 0.0 0.0 1.0
176.53333333333333 -351.7333333333333 2992.0 0.0 0.0 1.0
73.1878 -195.64633333333333 1777.43 1.8373132928225965e-16 0.7691518166331672 0.6390661021912354
73.82793333333333 -193.23433333333332 1775.67 0.0 0.0 1.0
70.51506666666667 -154.24666666666667 1744.61 0.0 0.0 1.0
66.55073333333333 -126.918 1734.49 0.0 0.0 1.0
72.62743333333334 11.921566666666665 1760.0 0.0 0.0 1.0
69.6774 20.175933333333333 1754.84 0.0 0.0 1.0
181.86666666666667 40.266666666666666 2992.0 0.0 0.0 1.0
173.33333333333334 77.33333333333333 2992.0 0.0 0.0 1.0
71.37256666666666 100.70566666666667 1760.0 0.0 0.0 1.0
56.2586 140.57433333333333 1614.3933333333334 0.4378139787961447 0.7881870024579551 0.4325276512860564
56.83646666666667 170.43800000000002 1604.29 0.0 0.0 1.0
100.19043333333333 -284.95233333333334 2137.14 0.0 0.0 1.0
177.33333333333334 -344.0 2992.0 0.0 0.0 1.0
70.98153333333333 -158.60033333333334 1744.61 0.0 0.0 1.0
68.99223333333333 -137.364 1739.53 0.0 0.0 1.0
68.09660000000001 -111.45899999999999 1734.49 0.0 0.0 1.0
67.90696666666666 -80.00003333333332 1739.53 0.0 0.0 1.0
68.06203333333333 -72.24803333333334 1739.53 0.0 0.0 1.0
72.0 -51.92156666666667 1760.0 0.0 0.0 1.0
69.8039 -43.450966666666666 1760.0 0.0 0.0 1.0
71.05883333333333 -38.588233333333335 1760.0 0.0 0.0 1.0
68.739 25.806466666666665 1754.84 0.0 0.0 1.0
176.0 59.46666666666666 2992.0 0.0 0.0 1.0
51.0711 51.825199999999995 1538.3 0.0 0.0 1.0
56.83646666666667 170.43800000000002 1604.29 0.0 0.0 1.0
61.723333333333336 201.34333333333333 1627.5666666666666 -0.3075426625737786 -0.7689273965523447 0.560507064655089
176.53333333333333 -351.7333333333333 2992.0 0.0 0.0 1.0
68.99223333333333 -137.364 1739.53 0.0 0.0 1.0
65.80593333333333 -107.54266666666666 1731.1499999999999 0.2860298408115447 0.858275122187142 0.4260877196070886
69.8039 -43.450966666666666 1760.0 0.0 0.0 1.0
70.90193333333333 -30.4314 1760.0 0.0 0.0 1.0
173.33333333333334 77.33333333333333 2992.0 0.0 0.0 1.0
176.0 140.26666666666665 2992.0 0.0 0.0 1.0
177.6 194.13333333333333 2992.0 0.0 0.0 1.0
62.17393333333334 130.28966666666668 1626.09 0.0 0.0 1.0
58.66663333333333 194.883 1617.3 0.0 0.0 1.0
58.66663333333333 194.883 1617.3 0.0 0.0 1.0
103.61866666666667 -253.90466666666666 2137.14 0.0 0.0 1.0
68.42620000000001 -47.85923333333333 1754.84 0.0 0.0 1.0
68.42620000000001 27.5269 1754.84 0.0 0.0 1.0
51.0711 51.825199999999995 1538.3 0.0 0.0 1.0
51.0711 51.825199999999995 1538.3 0.0 0.0 1.0
178.13333333333335 129.33333333333331 2992.0 0.0 0.0 1.0
71.37256666666666 100.70566666666667 1760.0 0.0 0.0 1.0
170.9333333333333 173.33333333333334 2992.0 0.0 0.0 1.0
71.04913333333333 103.63633333333333 1761.7300000000002 0.06624027889238186 -0.5305846339279802 0.8450397456284353
172.53333333333333 217.6 2992.0 0.0 0.0 1.0
58.502633333333335 136.04933333333335 1618.76 0.11382353283622725 0.9104435160006825 0.3976641894173972
56.917566666666666 145.08933333333334 1608.5999999999997 -2.2175064520550875e-28 -8.530854427807826e-29 1.0
171.73333333333335 377.59999999999997 2992.0 0.0 0.0 1.0
175.20000000000002 417.8666666666666 2992.0 0.0 0.0 1.0
99.99990000000001 -269.1426666666667 2137.14 0.0 0.0 1.0
99.4286 -261.9046666666666 2137.14 0.0 0.0 1.0
174.9333333333333 -346.1333333333334 2992.0 0.0 0.0 1.0
68.4813 -193.136 1770.41 0.0 0.0 1.0
66.70530000000001 -110.37666666666667 1734.49 0.0 0.0 1.0
68.21706666666667 -88.68216666666666 1739.53 0.0 0.0 1.0
68.21706666666667 -88.68216666666666 1739.53 0.0 0.0 1.0
169.6 -105.33333333333333 2992.0 0.0 0.0 1.0
68.42620000000001 -47.85923333333333 1754.84 0.0 0.0 1.0
173.6 148.53333333333333 2992.0 0.0 0.0 1.0
173.86666666666667 215.73333333333335 2992.0 0.0 0.0 1.0
173.86666666666667 215.73333333333335 2992.0 0.0 0.0 1.0
53.54783333333333 165.43333333333334 1604.29 0.0 0.0 1.0
55.46493333333333 187.696 1610.0466666666664 -0.3154221463860308 -0.7572038716940538 0.5719712984589036
171.73333333333335 377.59999999999997 2992.0 0.0 0.0 1.0
173.6 406.40000000000003 2992.0 0.0 0.0 1.0
43.004799999999996 209.54166666666666 1466.6733333333334 0.9577395549819447 -0.08759251901509606 0.2739753555259606
78.67493333333334 -243.14700000000002 1858.39 0.0 0.0 1.0
99.99990000000001 -269.1426666666667 2137.14 0.0 0.0 1.0
67.32366666666667 -111.14966666666668 1734.49 0.0 0.0 1.0
66.70530000000001 -110.37666666666667 1734.49 0.0 0.0 1.0
66.70530000000001 -104.96633333333334 1734.49 0.0 0.0 1.0
71.2157 -58.35293333333334 1760.0 0.0 0.0 1.0
69.8039 -43.450966666666666 1760.0 0.0 0.0 1.0
69.01960000000001 -5.960783333333333 1760.0 0.0 0.0 1.0
69.6774 20.175933333333333 1754.84 0.0 0.0 1.0
68.42620000000001 27.5269 1754.84 0.0 0.0 1.0
48.32906666666667 66.49526666666667 1538.3 0.0 0.0 1.0
67.3314 115.58133333333335 1754.84 0.0 0.0 1.0
55.91400000000001 145.94966666666667 1608.5999999999997 4.076615774485241e-27 8.0171572438722095e-28 1.0
53.690799999999996 152.422 1604.29 0.0 0.0 1.0
55.12063333333333 168.293 1604.29 0.0 0.0 1.0
172.53333333333333 420.8 2992.0 0.0 0.0 1.0
100.6451 -306.2366666666667 2144.8 0.0 0.0 1.0
100.19043333333332 -284.95233333333334 2137.14 0.0 0.0 1.0
66.47003333333333 -189.89200000000002 1765.1899999999998 7.980756656422563e-26 -2.2501905000667948e-25 1.0
69.19116666666666 -179.27366666666668 1758.28 -0.6109754237334443 0.6109354776449374 0.5034549371577267
182.13333333333335 -297.6 2992.0 0.0 0.0 1.0
65.15943333333333 -130.78266666666664 1734.49 0.0 0.0 1.0
68.42620000000001 27.5269 1754.84 0.0 0.0 1.0
68.42620000000001 29.0909 1754.84 0.0 0.0 1.0
172.26666666666665 82.93333333333334 2992.0 0.0 0.0 1.0
67.95700000000001 114.48666666666666 1754.84 0.0 0.0 1.0
67.3314 115.58133333333335 1754.84 0.0 0.0 1.0
98.73366666666668 -302.987 2144.8 0.0 0.0 1.0
68.4813 -193.136 1770.41 0.0 0.0 1.0
65.83760000000001 -172.76433333333333 1746.3099999999997 -0.610904672261192 0.6110094586543795 0.5034510133511777
64.29543333333334 -171.03966666666668 1744.61 0.0 0.0 1.0
64.34106666666666 -151.783 1739.53 0.0 0.0 1.0
64.85026666666666 -130.00966666666667 1734.49 0.0 0.0 1.0
68.42620000000001 -47.85923333333333 1754.84 0.0 0.0 1.0
68.54899999999999 12.392166666666666 1760.0 0.0 0.0 1.0
48.05486666666667 68.82603333333333 1538.3 0.0 0.0 1.0
48.32906666666667 70.33416666666666 1538.3 0.0 0.0 1.0
167.46666666666667 236.0 2992.0 0.0 0.0 1.0
56.52396666666667 138.82866666666666 1615.8466666666666 0.8572710716395268 -0.17145421432790525 0.4854788997672486
55.91400000000001 145.94966666666667 1608.5999999999997 4.0766157744852396e-27 8.017157243872211e-28 1.0
52.1372 209.11166666666668 1578.89 0.0 0.0 1.0
43.004799999999996 209.54166666666666 1466.6733333333334 0.9577395549819447 -0.08759251901509589 0.2739753555259606
99.4286 -261.9046666666666 2137.14 0.0 0.0 1.0
66.47003333333333 -189.89200000000002 1765.1899999999998 7.980756656422563e-26 -2.2501905000667948e-25 1.0
65.00483333333334 -125.836 1734.49 0.0 0.0 1.0
65.5814 -91.31783333333333 1739.53 0.0 0.0 1.0
68.54899999999999 -3.4509799999999995 1760.0 0.0 0.0 1.0
170.9333333333333 173.33333333333334 2992.0 0.0 0.0 1.0
167.46666666666667 224.80000000000004 2992.0 0.0 0.0 1.0
56.340466666666664 137.0583333333333 1618.76 -0.8156418267872644 0.16312836535745195 0.5550833692437022
171.20000000000002 424.0 2992.0 0.0 0.0 1.0
168.79999999999998 425.3333333333333 2992.0 0.0 0.0 1.0
98.73366666666668 -302.987 2144.8 0.0 0.0 1.0
98.85700000000001 -269.3333333333333 2137.14 0.0 0.0 1.0
99.4286 -261.9046666666666 2137.14 0.0 0.0 1.0
64.85026666666666 -132.17399999999998 1734.49 0.0 0.0 1.0
64.3411 -80.00003333333333 1739.53 0.0 0.0 1.0
63.410866666666664 -69.3023 1739.53 0.0 0.0 1.0
67.60783333333332 -5.176469999999999 1760.0 0.0 0.0 1.0
66.82353333333333 11.294123333333333 1760.0 0.0 0.0 1.0
170.4 150.13333333333333 2992.0 0.0 0.0 1.0
170.9333333333333 218.9333333333333 2992.0 0.0 0.0 1.0
169.86666666666667 222.66666666666666 2992.0 0.0 0.0 1.0
55.27406666666667 140.73666666666668 1612.9399999999998 1.4888543008056768e-28 1.700178366950307e-27 1.0
100.19043333333332 -284.95233333333334 2137.14 0.0 0.0 1.0
98.85700000000001 -269.3333333333333 2137.14 0.0 0.0 1.0
161.462 -342.4503333333334 2958.273333333333 0.16965737916394671 0.9840127991508902 0.05417734584169722
64.3411 -80.00003333333333 1739.53 0.0 0.0 1.0
63.26489999999999 -36.75463333333334 1754.84 0.0 0.0 1.0
64.56139999999999 -18.2456 1749.71 0.0 0.0 1.0
167.73333333333335 158.66666666666666 2992.0 0.0 0.0 1.0
67.3314 115.58133333333335 1754.84 0.0 0.0 1.0
166.4 401.06666666666666 2992.0 0.0 0.0 1.0
35.5347 209.17666666666665 1429.3233333333335 0.3149545773334228 0.9445215002835987 -0.09318127343380242
97.01316666666666 -295.53166666666664 2144.8 0.0 0.0 1.0
68.4813 -193.136 1770.41 0.0 0.0 1.0
63.76813333333333 -132.01933333333332 1734.49 0.0 0.0 1.0
64.07726666666666 -114.70533333333333 1734.49 0.0 0.0 1.0
64.7238 -105.84233333333333 1731.1499999999999 -0.3036483956876034 -0.9111422191869029 0.27859918917956417
64.031 -81.55040000000001 1739.53 0.0 0.0 1.0
169.6 -105.33333333333333 2992.0 0.0 0.0 1.0
64.09356666666666 -17.77776666666667 1749.71 0.0 0.0 1.0
66.82353333333333 11.294123333333333 1760.0 0.0 0.0 1.0
64.35969999999999 41.60313333333334 1754.84 0.0 0.0 1.0
172.26666666666665 82.93333333333334 2992.0 0.0 0.0 1.0
168.53333333333333 153.33333333333334 2992.0 0.0 0.0 1.0
167.46666666666667 156.26666666666668 2992.0 0.0 0.0 1.0
166.9333333333333 172.80000000000004 2992.0 0.0 0.0 1.0
161.86666666666667 267.2 2992.0 0.0 0.0 1.0
52.26096666666667 150.849 1604.29 0.0 0.0 1.0
43.00480000000001 209.54166666666666 1466.6733333333334 0.9577395549819447 -0.08759251901509532 0.27397535552596086
98.73366666666668 -302.987 2144.8 0.0 0.0 1.0
97.96893333333333 -299.16366666666664 2144.8 0.0 0.0 1.0
64.36786666666667 -180.17933333333335 1754.8500000000001 -0.5855330634062891 -0.7810284894765432 0.21713021504165622
64.13993333333333 -172.12833333333333 1744.61 0.0 0.0 1.0
62.79066666666666 -150.69766666666666 1739.53 0.0 0.0 1.0
61.913000000000004 -104.50233333333334 1734.49 0.0 0.0 1.0
63.2558 -94.41860000000001 1739.53 0.0 0.0 1.0
166.66666666666666 -107.2 2992.0 0.0 0.0 1.0
64.2033 29.090899999999994 1754.84 0.0 0.0 1.0
52.90323333333333 143.65566666666666 1608.5999999999997 3.204409371684674e-20 -3.2044838818579226e-20 1.0
51.832 152.136 1604.29 0.0 0.0 1.0
53.40483333333333 167.721 1604.29 0.0 0.0 1.0
51.546 178.44500000000002 1604.29 0.0 0.0 1.0
171.73333333333335 377.59999999999997 2992.0 0.0 0.0 1.0
64.34106666666666 -151.78300000000002 1739.53 0.0 0.0 1.0
62.17053333333333 -145.58133333333333 1739.53 0.0 0.0 1.0
62.5314 -131.09166666666667 1734.49 0.0 0.0 1.0
64.031 -81.55040000000001 1739.53 0.0 0.0 1.0
65.29813333333333 -46.60803333333333 1754.84 0.0 0.0 1.0
64.51613333333333 -33.782966666666674 1754.84 0.0 0.0 1.0
63.73409999999999 29.872899999999998 1754.84 0.0 0.0 1.0
165.06666666666666 112.26666666666665 2992.0 0.0 0.0 1.0
47.50643333333333 72.39073333333333 1538.3 0.0 0.0 1.0
46.1354 73.76176666666667 1538.3 0.0 0.0 1.0
167.73333333333335 158.66666666666666 2992.0 0.0 0.0 1.0
52.71273333333334 141.18433333333334 1611.493333333333 -0.7055585851696167 0.4703087771545978 0.5300912534882984
49.483066666666666 161.711 1600.0 0.0 0.0 1.0
53.40483333333333 167.721 1604.29 0.0 0.0 1.0
52.444633333333336 198.09033333333332 1618.76 0.3972195600002627 -0.7951747117783304 0.45816350673252737
50.599066666666666 209.814 1601.43 -0.4645837552307799 -0.6965499900270858 0.546790678202302
94.71926666666666 -293.8113333333333 2144.8 0.0 0.0 1.0
62.99516666666667 -137.42966666666666 1734.49 0.0 0.0 1.0
60.83090000000001 -118.72466666666666 1734.49 0.0 0.0 1.0
63.410866666666664 -69.3023 1739.53 0.0 0.0 1.0
66.70576666666666 -48.015633333333334 1754.84 0.0 0.0 1.0
64.35969999999999 41.60313333333334 1754.84 0.0 0.0 1.0
158.13333333333333 309.3333333333333 2992.0 0.0 0.0 1.0
51.26003333333333 176.729 1604.29 0.0 0.0 1.0
168.79999999999998 425.3333333333333 2992.0 0.0 0.0 1.0
164.0 428.5333333333333 2992.0 0.0 0.0 1.0
62.32556666666667 -143.8756666666667 1739.53 0.0 0.0 1.0
62.20513333333333 -140.04 1736.17 -2.6292048424991516e-16 0.8792919665367713 0.47628314854075776
62.685966666666666 -117.33333333333333 1734.49 0.0 0.0 1.0
61.913000000000004 -104.50233333333334 1734.49 0.0 0.0 1.0
63.410866666666664 -69.3023 1739.53 0.0 0.0 1.0
166.66666666666666 -107.2 2992.0 0.0 0.0 1.0
61.7544 -20.740733333333335 1749.71 0.0 0.0 1.0
63.73409999999999 29.872899999999998 1754.84 0.0 0.0 1.0
64.35969999999999 41.60313333333334 1754.84 0.0 0.0 1.0
165.0666666666667 112.26666666666667 2992.0 0.0 0.0 1.0
47.23223333333333 69.23733333333332 1538.3 0.0 0.0 1.0
63.264900000000004 123.71466666666667 1754.84 0.0 0.0 1.0
63.264900000000004 123.71466666666667 1754.84 0.0 0.0 1.0
51.546033333333334 149.27599999999998 1604.29 0.0 0.0 1.0
52.444633333333336 198.09033333333332 1618.76 0.39721956000026226 -0.7951747117783308 0.4581635067325278
94.4762 -288.0 2137.14 0.0 0.0 1.0
72.54656666666666 -243.9753333333333 1858.39 0.0 0.0 1.0
62.118599999999994 -169.79600000000002 1744.61 0.0 0.0 1.0
61.9631 -167.46366666666668 1744.61 0.0 0.0 1.0
61.70543333333333 -146.35666666666668 1739.53 0.0 0.0 1.0
150.66666666666666 -139.20000000000002 2992.0 0.0 0.0 1.0
60.918866666666666 -29.560099999999995 1754.84 0.0 0.0 1.0
63.73409999999999 29.872899999999998 1754.84 0.0 0.0 1.0
165.0666666666667 112.26666666666667 2992.0 0.0 0.0 1.0
49.483066666666666 161.711 1600.0 0.0 0.0 1.0
48.917333333333325 189.365 1607.1633333333332 -0.5301140708678163 -0.7950684108211259 0.2946952561245621
55.1598 209.53466666666668 1639.45 0.0 0.0 1.0
49.19786666666666 209.3406666666667 1600.0 0.0 0.0 1.0
39.46666666666667 209.73333333333332 1496.0 0.0 0.0 1.0
92.38093333333332 -259.61899999999997 2137.14 0.0 0.0 1.0
62.907999999999994 -196.55766666666668 1775.67 0.0 0.0 1.0
62.74053333333333 -171.66166666666666 1744.61 0.0 0.0 1.0
61.395333333333326 -149.45733333333334 1739.53 0.0 0.0 1.0
62.32556666666667 -143.87566666666666 1739.53 0.0 0.0 1.0
60.9855 -130.62800000000001 1734.49 0.0 0.0 1.0
60.9855 -129.0823333333333 1734.49 0.0 0.0 1.0
61.99709999999999 -49.160133333333334 1756.5600000000002 0.3226725729483068 0.887319489987797 0.3294640091948065
61.5445 17.047900000000002 1754.84 0.0 0.0 1.0
45.31276666666667 74.72149999999999 1538.3 0.0 0.0 1.0
63.264900000000004 123.71466666666667 1754.84 0.0 0.0 1.0
52.16203333333333 141.6303333333333 1610.0466666666664 -0.5989710773037664 0.5988318464629213 0.5316333964447435
49.8302 149.27599999999998 1604.29 0.0 0.0 1.0
50.974066666666666 179.58900000000003 1604.29 0.0 0.0 1.0
51.198366666666665 196.149 1615.8466666666666 0.4287424214474519 -0.8582788103420523 0.282023792913305
92.57143333333333 -272.5713333333333 2137.14 0.0 0.0 1.0
62.37956666666667 -190.36366666666666 1765.1899999999998 9.666346834498965e-28 1.645205724227841e-27 1.0
61.4966 -166.22 1744.61 0.0 0.0 1.0
61.91299999999999 -104.50233333333334 1734.49 0.0 0.0 1.0
161.86666666666667 -91.46666666666665 2992.0 0.0 0.0 1.0
61.7544 -20.740733333333335 1749.71 0.0 0.0 1.0
62.274499999999996 0.9411746666666666 1760.0 0.0 0.0 1.0
62.274499999999996 0.9411746666666666 1760.0 0.0 0.0 1.0
61.8573 23.147599999999997 1754.84 0.0 0.0 1.0
61.8573 23.1476 1754.84 0.0 0.0 1.0
62.9521 30.49853333333333 1754.84 0.0 0.0 1.0
162.13333333333333 172.80000000000004 2992.0 0.0 0.0 1.0
164.0 225.0666666666667 2992.0 0.0 0.0 1.0
50.116166666666665 152.136 1604.29 0.0 0.0 1.0
50.974066666666666 179.58900000000003 1604.29 0.0 0.0 1.0
92.57143333333333 -272.5713333333333 2137.14 0.0 0.0 1.0
91.61903333333333 -270.095 2137.14 0.0 0.0 1.0
91.99996666666668 -261.905 2137.14 0.0 0.0 1.0
91.99996666666665 -261.905 2137.14 0.0 0.0 1.0
62.37956666666667 -190.36366666666666 1765.1899999999998 9.666346834498965e-28 1.645205724227841e-27 1.0
60.563633333333335 -165.13133333333334 1744.61 0.0 0.0 1.0
60.93023333333334 -95.96900000000001 1739.53 0.0 0.0 1.0
61.86046666666667 -70.23253333333332 1739.53 0.0 0.0 1.0
161.86666666666667 -91.46666666666668 2992.0 0.0 0.0 1.0
161.86666666666667 -91.46666666666665 2992.0 0.0 0.0 1.0
61.5445 17.047900000000002 1754.84 0.0 0.0 1.0
62.795700000000004 29.403699999999997 1754.84 0.0 0.0 1.0
44.353033333333336 74.4473 1538.3 0.0 0.0 1.0
162.13333333333333 216.0 2992.0 0.0 0.0 1.0
160.26666666666668 261.8666666666667 2992.0 0.0 0.0 1.0
156.79999999999998 314.6666666666667 2992.0 0.0 0.0 1.0
51.26003333333333 176.729 1604.29 0.0 0.0 1.0
49.19786666666667 209.3406666666667 1600.0 0.0 0.0 1.0
90.89606666666667 -309.67733333333337 2144.8 0.0 0.0 1.0
93.38113333333332 -304.70733333333334 2144.8 0.0 0.0 1.0
91.61903333333333 -270.095 2137.14 0.0 0.0 1.0
62.907999999999994 -196.55766666666668 1775.67 0.0 0.0 1.0
59.22483333333333 -160.77533333333335 1739.53 0.0 0.0 1.0
60.3101 -147.287 1739.53 0.0 0.0 1.0
60.73543333333333 -83.57446666666668 1742.9166666666667 0.8294511393196381 -0.33178401201717506 0.44936641713766434
60.918866666666666 -29.560099999999995 1754.84 0.0 0.0 1.0
59.980466666666665 -25.180833333333336 1754.84 0.0 0.0 1.0
62.274499999999996 0.9411746666666666 1760.0 0.0 0.0 1.0
61.8573 23.147599999999997 1754.84 0.0 0.0 1.0
59.82403333333334 47.85923333333333 1754.84 0.0 0.0 1.0
44.353033333333336 74.4473 1538.3 0.0 0.0 1.0
157.0666666666667 245.6 2992.0 0.0 0.0 1.0
49.066900000000004 195.97199999999998 1614.3933333333334 -0.4098986633793351 -0.7375895558834327 0.5366048199667193
162.13333333333333 429.86666666666673 2992.0 0.0 0.0 1.0
162.13333333333333 433.6000000000001 2992.0 0.0 0.0 1.0
90.4762 -289.905 2137.14 0.0 0.0 1.0
68.57143333333333 -244.30633333333333 1858.39 0.0 0.0 1.0
62.37956666666667 -190.36366666666666 1765.1899999999998 9.666346834498965e-28 1.645205724227841e-27 1.0
60.9855 -130.62800000000001 1734.49 0.0 0.0 1.0
61.754400000000004 -20.740733333333335 1749.71 0.0 0.0 1.0
60.818733333333334 -16.5302 1749.71 0.0 0.0 1.0
59.10333333333333 -14.346966666666667 1749.71 0.0 0.0 1.0
59.76473333333333 5.333333333333333 1760.0 0.0 0.0 1.0
156.53333333333333 193.33333333333334 2992.0 0.0 0.0 1.0
159.46666666666667 228.0 2992.0 0.0 0.0 1.0
158.66666666666666 255.20000000000002 2992.0 0.0 0.0 1.0
160.26666666666665 261.8666666666666 2992.0 0.0 0.0 1.0
47.2014 170.26766666666666 1600.0 0.0 0.0 1.0
47.2014 170.26766666666666 1600.0 0.0 0.0 1.0
47.971399999999996 182.73466666666664 1604.29 0.0 0.0 1.0
39.46666666666667 209.73333333333332 1496.0 0.0 0.0 1.0
162.13333333333333 429.86666666666673 2992.0 0.0 0.0 1.0
31.3493 210.048 1436.1733333333334 0.0587522303729745 0.997220919723453 0.04581061767878129
90.66663333333332 -261.143 2137.14 0.0 0.0 1.0
58.52273333333333 -175.567 1746.3099999999997 -0.23834063939872036 0.7142053335643673 0.6581067399132301
60.563633333333335 -165.13133333333334 1744.61 0.0 0.0 1.0
