ply
format ascii 1.0
comment VCGLIB generated
element vertex 524
property float x
property float y
property float z
property float nx
property float ny
property float nz
element face 0
property list uchar int vertex_indices
end_header
-84.1732 0.470076 1171.04 -0.8274643642855565 -0.27819528205774025 0.48776030063783815
-86.28273333333334 9.70331 1566.49 0.0 0.0 1.0
-84.78320000000001 10.652033333333334 1277.73 0.9560739140197955 -0.25151400094186976 0.1505436091671836
-82.12863333333333 9.508866666666668 1192.0333333333335 0.6232587483587465 0.2710256880729857 0.7335486411948791
-84.46233333333333 11.846233333333332 1284.1233333333332 -0.7048425691710389 0.7049662146982126 0.07886436976507667
-87.03339999999999 28.896133333333335 1547.5866666666668 -0.8499806963545762 -0.4249903481772851 0.3113133787371497
-86.09993333333334 34.31656666666667 1555.6366666666665 -0.9451149042408041 0.31502145579686175 0.08671389836422634
-84.10253333333333 41.604166666666664 1180.28 0.0 0.0 1.0
-84.56836666666668 54.66526666666667 1164.9566666666667 -0.9912202717671277 2.7363539599867334e-17 0.13222092435730984
-84.35953333333333 68.62973333333333 1321.9433333333334 0.4089501729779096 0.8179003459558187 0.40472061981901747
-86.34863333333332 84.14043333333335 1548.9233333333334 -0.6957526394585791 -0.6957526394585785 0.17848397511497097
-85.69839999999999 97.09616666666666 1522.6533333333334 -0.9253107216664512 -0.3788678010001398 0.016101482367470357
-85.99329999999999 -102.86633333333333 1461.89 -0.9945022469684837 -2.7791047292711834e-18 0.10471523659256618
-85.86736666666667 -100.60266666666666 1463.0866666666668 -0.9945062905774997 0.0002608287446315897 0.10467650151847836
-86.11383333333333 -100.09743333333331 1459.51 0.0 0.0 1.0
-85.6361 -92.80946666666667 1437.3100000000002 -0.9693682245928908 0.21540271503260017 0.11801235319326271
-85.48646666666667 -89.62896666666666 1431.5833333333333 0.3713157828110682 -0.7330074324679084 0.569933937735075
-85.10366666666665 -74.48096666666667 1331.7533333333333 -0.9586037715035803 0.23965094287589864 0.15377332290681697
-85.21403333333332 -73.89546666666666 1329.783333333333 -0.8918100077203014 0.44616772238345886 0.07489508417161225
-85.65980000000002 -72.69113333333333 1322.9166666666667 0.9409789766626381 -0.31367934999551766 -0.12713705543752407
-85.18416666666667 -70.98753333333333 1321.9433333333334 0.8798084352759645 -0.4399042176379813 -0.1800594249729095
-85.50453333333333 -68.2276 1314.2 -0.9354958007344846 0.23384069638720073 0.26488891166165185
-81.97473333333333 -63.05063333333334 1383.0566666666666 0.3357649510845584 0.854665409477029 0.3959910800341931
-86.51943333333334 -56.8984 1283.2033333333331 -0.6653904457317252 0.7393346802433176 0.10314933503637935
-85.27343333333333 -52.79403333333334 1344.72 0.0 0.0 1.0
-85.27343333333333 -52.79403333333334 1344.72 0.0 0.0 1.0
-85.08786666666667 -47.32316666666666 1268.7 -0.6789116401078144 0.6789116401078261 0.27956746923098713
-85.31683333333335 -47.6792 1325.86 -0.9945476605490128 -0.062136281185249186 0.08374982660849747
-84.88466666666667 -45.33076666666667 1336.7066666666667 0.8487993053914039 0.5092700766065661 -0.14206944865175083
-85.6706 -40.3062 1247.5366666666666 -0.9334854775073351 0.3394469500792351 0.11567467901320416
-82.32696666666666 -37.50103333333333 1304.6599999999999 0.608429790588609 -0.7936071047455201 0.0009763307506818063
-85.24926666666667 -30.786466666666666 1227.07 -0.910571686094259 0.30355475383317176 0.2805596476843032
-84.5808 -25.903233333333333 1223.72 0.0 0.0 1.0
-84.7956 -25.7767 1222.8866666666665 -0.7032744146536309 0.703274414653638 0.10397208946239252
-85.18633333333334 -23.607133333333337 1212.1566666666665 0.8925949367018059 -0.44629746835089545 -0.0639753758713495
-83.6631 -17.724400000000003 1208.8933333333334 -0.5811709448749869 0.799079210582686 0.15398944135123618
-83.96249999999999 -15.582333333333333 1201.61 0.0 0.0 1.0
-85.11636666666668 -15.7228 1196.0033333333333 -0.7035416191222423 0.7035416191222563 0.10029147683471207
-84.25813333333333 -11.550200000000002 1194.41 0.0 0.0 1.0
-85.1852 -10.106493333333335 1187.3033333333333 -0.8638591052831227 0.4936594366130119 0.1002387493056771
-86.28273333333334 9.70331 1566.49 0.0 0.0 1.0
-84.79683333333334 11.8194 1281.3733333333332 0.7048080548420479 -0.7050012228410812 -0.07885988601531733
-86.29003333333333 19.213866666666664 1567.86 0.6281759493658443 -0.628175949365844 0.4591186701460102
-86.24459999999999 20.60786666666667 1556.9833333333333 0.18696249670957374 -0.9348349199449256 0.30187530087055303
-86.87286666666665 23.711333333333332 1542.2699999999998 7.387036893421734e-27 1.1312713849129752e-27 1.0
-85.29156666666667 30.147966666666665 1562.4000000000003 0.0 0.0 1.0
-85.15243333333333 35.727266666666665 1521.36 0.8625505828072091 0.4312858844645757 0.2645731996264029
-87.63889999999999 40.7639 1558.33 0.0 0.0 1.0
-85.37676666666668 36.720333333333336 1206.4533333333336 0.24259977757263984 -0.9701252224560835 -0.001549411578740827
-85.51086666666667 37.9868 1188.8733333333332 0.5036859686015481 0.7555421487621237 0.418875287499553
-85.32923333333333 41.01943333333333 1172.5666666666666 -0.7054438283582002 0.7054438283581839 0.06854203135795915
-84.73166666666667 44.2352 1180.28 -0.8266074787949618 -0.01616123596359072 0.5625467895672023
-83.32990000000001 46.93783333333332 1166.4733333333334 0.39027724858671187 0.5640423733781359 0.7276949019125705
-83.43433333333333 51.666666666666664 1133.33 0.0 0.0 1.0
-89.24443333333333 87.55556666666666 1994.67 0.0 0.0 1.0
-84.56533333333333 53.90376666666666 1164.2033333333334 -0.8901616949673831 0.44493284894036667 0.09821871892161828
-84.66626666666667 54.80273333333333 1163.4466666666667 0.9999918935514666 6.813659129146896e-17 0.0040265160315585205
-84.66626666666667 54.80273333333334 1163.4466666666667 0.9999918935514663 6.813704128975945e-17 0.0040265160315585205
-84.95209999999999 68.2084 1322.9166666666667 -0.392289443261494 0.7844680702960893 0.4803320095428962
-88.57146666666665 85.7823 1526.53 0.0 0.0 1.0
-86.60543333333332 93.7507 1512.3866666666665 0.9780043383411415 0.09779075158148452 0.18424028628677885
-86.2439 -101.65833333333332 1459.51 0.0 0.0 1.0
-86.2439 -101.65833333333335 1459.51 0.0 0.0 1.0
-86.2439 -101.65833333333335 1459.51 0.0 0.0 1.0
-86.10876666666667 -99.10703333333333 1458.3266666666668 -0.985176499203617 0.1407240436318939 0.09810203341824239
-85.6361 -92.80946666666667 1437.3100000000002 -0.9693682245928908 0.21540271503260017 0.11801235319326271
-85.6802 -74.61500000000001 1327.8133333333333 -0.9448905036779593 0.3149043142484065 0.08953886824699783
-86.16236666666667 -66.33683333333333 1304.6499999999999 -0.8976631180919475 0.4080499725730942 0.1664215920502489
-86.16236666666667 -66.33683333333333 1304.6499999999999 -0.8976631180919474 0.40804997257309417 0.1664215920502492
-85.31683333333334 -47.6792 1325.86 -0.9945476605490128 -0.062136281185249186 0.08374982660849747
-85.63973333333333 -48.121900000000004 1266.0199999999998 -0.9656446310123685 0.19305882631228452 0.1739503842476624
-86.2574 -42.73773333333333 1253.6333333333334 0.3926854056808528 -0.9162529390227956 -0.0792383991342156
-85.95043333333332 -36.30853333333334 1236.36 0.0 0.0 1.0
-84.95870000000001 -34.214866666666666 1236.36 0.0 0.0 1.0
-86.01093333333334 -30.65573333333333 1226.23 0.0 0.0 1.0
-85.11636666666668 -15.7228 1196.0033333333333 -0.7035416191222426 0.7035416191222563 0.1002914768347121
-85.65466666666667 -5.39281 1174.8700000000001 0.3708715019886489 -0.927178754971626 -0.05285721655506562
-84.81043333333332 -5.17647 1173.33 0.0 0.0 1.0
-87.39966666666668 11.65793 1566.49 0.0 0.0 1.0
-87.83503333333333 21.374566666666666 1542.2699999999998 0.0 0.0 1.0
-86.3947 21.199233333333332 1559.6866666666665 0.19435333671108534 -0.9717900068887612 0.13360749612356754
-87.56013333333333 33.05843333333333 1542.2699999999998 2.20716730399125e-25 -1.4952181385714823e-25 1.0
-86.91816666666666 42.665600000000005 1551.6033333333332 0.7495766396767521 0.5189280433348401 0.41091184832221966
-85.32923333333333 41.01943333333333 1172.5666666666666 -0.7054438283582009 0.7054438283581833 0.0685420313579596
-83.48933333333333 42.67126666666667 1186.5166666666667 -0.056496378610844604 -0.6778853667901631 0.7329935802553977
-85.62666666666667 45.361399999999996 1168.7533333333333 0.20526378303556278 0.6144872517067239 0.7617559956205443
-84.12376666666667 56.64986666666667 1156.7033333333334 0.18203150144979105 -0.910334008381588 0.37169412917592004
-87.11110000000001 82.11963333333334 1534.36 0.0 0.0 1.0
-86.60543333333332 93.75070000000001 1512.3866666666665 0.9780043383411414 0.09779075158148486 0.18424028628677863
-86.4961 98.07010000000001 1518.7900000000002 -0.9793318405713939 0.0008012796723916364 0.20225850784066557
-86.40916666666668 102.91533333333332 1530.4399999999998 -0.957642780795145 -0.15864727828756386 0.2403150962442641
-86.92113333333333 107.54866666666668 1522.6500000000003 4.507635972096465e-27 -1.591221553849319e-27 1.0
-85.42833333333333 108.63433333333334 1522.6500000000003 -6.087502089361018e-28 -2.436420598417736e-27 1.0
-85.43193333333333 -107.358 1486.1066666666666 0.867573584567706 -0.4755228729498838 -0.14558184179982958
-86.3686 -103.13366666666666 1458.3266666666668 -0.99449331968561 -3.5134932314145623e-16 0.10479998616743416
-86.02633333333334 -74.97763333333334 1325.8500000000001 -0.9410380694701176 0.3136204108250093 0.12684474652860675
-85.70946666666667 -56.13076666666666 1281.3733333333332 -0.6884783076636813 -0.6895601193814452 0.22473197733122066
-86.8274 -54.340133333333334 1276.8166666666668 0.24497015227873914 0.653285655265917 0.7163850062056805
-85.5786 -41.897866666666665 1251.8866666666668 -0.9625450018928742 0.2398051380393987 0.1264935377833662
-86.45346666666667 -41.668866666666666 1248.4033333333334 0.6204407326150562 -0.7755393065941222 0.11658508154820058
-86.63903333333333 -39.88933333333333 1241.49 0.0 0.0 1.0
-86.01093333333334 -30.65573333333333 1226.23 0.0 0.0 1.0
-85.42873333333334 -15.808433333333333 1194.4133333333332 -0.1643934306924977 -0.9863606018839505 0.008219671300096905
-85.48443333333334 -10.704856666666666 1183.39 -0.9819268558471739 -0.14027336388269393 0.12705523661430354
-84.77096666666667 -9.91389 1189.6633333333332 -0.8517647480552532 0.5110553842972942 0.11540887379710399
-85.2799 -9.768583333333334 1184.9533333333331 -0.8880904994523853 0.4438030752272392 0.11972508175506953
-84.81043333333332 -5.17647 1173.33 0.0 0.0 1.0
-84.46643333333333 -1.9212183333333333 1165.72 -0.9351719398011802 0.3367123493008257 0.10990103200978789
-84.79166666666667 -0.6770833333333334 1168.75 0.0 0.0 1.0
-84.79166666666667 -0.6770833333333334 1168.75 0.0 0.0 1.0
-84.78233333333333 1.2967116666666667 1166.4733333333334 0.709932501738484 0.5069607762218866 0.48886257204641836
-88.42153333333333 9.45729 1548.9233333333334 -0.519791036952385 -0.8316586368862995 0.1953488919763487
-86.7291 18.439766666666667 1573.36 -0.6370364101297632 0.5574163149318564 0.5324205706176026
-86.1046 26.01946666666667 1556.9833333333333 -0.35106258310644056 0.936157526614957 0.019082665033991645
-87.71746666666667 28.0448 1546.25 0.0 0.0 1.0
-86.22873333333332 31.906166666666667 1552.9466666666667 0.826432920209894 -0.2754629098269304 0.49104868771133836
-87.13499999999999 35.725500000000004 1509.84 0.6963034045673518 -0.5802504436039847 0.42245827188645957
-84.30583333333334 37.20093333333333 1208.0766666666668 -0.38452468005062546 0.9228735081445227 0.021101146816833515
-89.61710000000001 49.26643333333333 1563.7633333333333 0.37988259481751163 0.6964590017813335 0.6087972347115769
-90.13886666666667 55.625 1558.33 0.0 0.0 1.0
-83.47516666666667 47.69313333333333 1147.0933333333332 -0.6625527772399236 0.3567668621306986 0.6585903305220018
-88.4416 73.7036 1552.9466666666667 -0.8895860742384921 0.2965445477141751 0.3474161017309695
-85.82066666666667 88.86633333333333 1518.78 0.0 0.0 1.0
-87.04513333333334 104.52033333333334 1520.07 0.9940350248143143 -2.9061257987320883e-16 0.10906131047445557
-85.95603333333334 106.05733333333335 1518.78 0.0 0.0 1.0
-86.85833333333335 -97.66120000000001 1399.4133333333332 -0.9993582013852895 -0.03388402466515597 0.011621454145268762
-86.34263333333335 -90.4073 1423.64 -0.976547649292854 -1.1039593895015117e-15 0.21530139028952205
-86.34263333333335 -90.4073 1423.64 -0.976547649292854 -3.836162904819928e-16 0.21530139028952228
-86.37116666666668 -75.10373333333332 1323.8966666666668 -0.9933633452073223 -0.0020165603144228716 0.11500086035772285
-86.77850000000001 -70.06586666666666 1311.3233333333335 -0.9180699506811578 0.36719658253133214 0.14937950138358083
-86.15796666666665 -56.621100000000006 1279.5433333333333 -0.8943203676932094 0.4471601838466012 0.015454769857767376
-85.22593333333333 -49.82913333333334 1332.7433333333333 -0.9562012634454634 0.2732355675325788 0.10498318160757455
-86.37740000000001 -43.35726666666667 1255.3866666666665 -0.35004724136092763 0.8167653013171571 0.45865168851743926
-82.32696666666666 -37.50103333333333 1304.6599999999999 0.608429790588609 -0.7936071047455201 0.0009763307506818587
-85.88959999999999 -28.084533333333336 1223.72 0.0 0.0 1.0
-85.06636666666667 -22.909966666666666 1209.71 -0.8905570445681659 0.4452785222840753 0.09292571206358316
-84.61113333333333 -17.10513333333333 1203.2166666666665 -0.6377182888677391 0.6377182888677368 0.432007833363249
-85.74066666666666 -14.937466666666666 1192.8233333333335 -0.9844004980065982 -0.12304041050855348 0.1257645296029378
-85.48443333333334 -10.704856666666666 1183.39 -0.9819268558471739 -0.14027336388269393 0.12705523661430354
-86.96300000000001 -9.030556666666667 1323.9066666666665 0.6999372690659676 -0.6999372690659647 -0.14204097558435178
-89.00613333333332 -1.477572333333333 1578.89 0.0 0.0 1.0
-89.72223333333334 4.097223333333333 1558.33 0.0 0.0 1.0
-86.78896666666667 26.525733333333335 1554.2933333333333 0.8116079091429472 -0.5799653443398902 -0.07023390336102799
-88.06836666666668 25.5043 1534.36 0.0 0.0 1.0
-85.29156666666667 30.147966666666665 1562.4000000000003 0.0 0.0 1.0
-88.68216666666666 32.8682 1546.25 0.0 0.0 1.0
-87.80399999999999 36.064933333333336 1535.6733333333332 0.4524004968139805 -0.7540498408340985 0.476174997265222
-85.37676666666665 36.720333333333336 1206.4533333333334 0.24259977757263984 -0.9701252224560835 -0.001549411578740827
-86.17403333333334 45.63226666666666 1154.4766666666667 0.9163137183320686 0.34363157689062024 0.20563683755622184
-89.95553333333334 86.4889 1994.67 0.0 0.0 1.0
-87.11110000000001 82.11963333333333 1534.36 0.0 0.0 1.0
-87.11110000000001 82.11963333333334 1534.36 0.0 0.0 1.0
-85.956 86.97126666666666 1518.78 0.0 0.0 1.0
-82.50693333333334 81.79756666666667 1286.0033333333333 -0.9509854866814628 0.07884113500292607 0.29901618610481867
-88.00599999999999 93.47670000000001 1497.25 -0.9423596249819909 -0.314119874993999 0.11526942932779563
-87.0156 96.25763333333333 1513.6633333333332 0.977498863834937 -3.4330134026067256e-17 0.21094068171267336
-87.02656666666667 97.63619999999999 1516.22 -0.9793050618474787 3.3131532532600355e-16 0.20238971278181586
-86.52403333333332 103.11000000000001 1525.2366666666667 -0.3929872187775183 0.9165745165463296 0.07383902420382406
-87.59966666666666 103.74900000000001 1522.6500000000003 -2.1658419566444414e-27 -1.082788023014881e-27 1.0
-84.08646666666668 -92.20933333333333 1385.22 0.9290884938808808 -0.34022540800434176 -0.1450559970715981
-86.12683333333332 -73.58 1321.9433333333334 -0.92651567633067 0.3369147913929721 0.16750261148457188
-87.04183333333333 -63.434333333333335 1295.24 0.0 0.0 1.0
-87.36226666666666 -60.90539999999999 1290.5866666666668 0.6101828715753657 -0.6102713551704362 0.5052185035155384
-86.15796666666665 -56.621100000000006 1279.5433333333333 -0.8943203676932094 0.4471601838466012 0.015454769857767376
-86.88913333333335 -42.166533333333334 1246.6699999999998 0.5132145868744015 -0.8560421362539664 0.06166562070621941
-86.68936666666667 -35.47623333333333 1230.4366666666667 -0.9451725355380383 0.3150894115586507 0.08583437998971541
-86.2081 -28.263966666666665 1222.0533333333333 -0.9411843544618004 0.31369609200876547 0.12556581053277321
-85.18633333333334 -23.607133333333334 1212.1566666666668 0.8925949367018061 -0.44629746835089523 -0.06397537587134935
-85.01283333333333 -20.653666666666666 1222.8866666666665 -0.4750007403182511 0.8708346905834627 0.12657503060840408
-86.6386 -21.604833333333332 1221.2266666666667 -0.7775768657405834 0.6225622177921932 0.08826382522141446
-85.72546666666666 -13.9435 1189.6633333333332 -0.9913263938417567 0.10620942079961698 0.07740503734323807
-85.2084 -13.979366666666666 1192.8233333333335 -0.7221728590397725 -0.09026452669855717 0.6857978396628311
-89.9912 -5.98065 1578.89 0.0 0.0 1.0
-88.26873333333333 9.577956666666667 1546.25 0.0 0.0 1.0
-84.17373333333335 10.285680000000001 1263.3833333333334 0.7811974969340968 -0.6167690977036109 -0.09657303403008341
-88.35626666666667 21.986 1536.9866666666667 0.705878119111069 -0.7058209166703023 -0.05960632978898459
-87.57293333333332 26.919033333333335 1544.9233333333334 -0.9234437983484437 0.36938645358665034 0.10394806009963099
-87.29199999999999 25.657933333333332 1543.5966666666666 0.8585950505680424 0.4906299923480869 0.14864975529269095
-87.56013333333333 33.05843333333333 1542.2699999999998 2.2071673039912537e-25 -1.4952181385714848e-25 1.0
-88.22966666666667 36.7573 1565.1266666666668 -0.9807325535973248 -3.5160113076072276e-16 0.1953552106151001
-88.22966666666667 36.7573 1565.1266666666668 -0.9807325535973249 -2.2575200817204796e-16 0.19535521061509994
-85.22916666666667 37.485800000000005 1504.78 0.2418176464073818 -0.9673006624512243 0.07650917792929915
-90.1223 49.985733333333336 1555.6366666666665 0.4075089995804232 -0.46572657210306606 0.7855158657201586
-84.7552 39.6818 1185.7333333333333 -0.2897424730345283 0.579484946069061 0.7617391263412778
-84.82403333333333 45.6603 1176.41 0.12217895461532195 0.48872877487217015 0.8638382300298215
-89.95553333333334 86.4889 1994.67 0.0 0.0 1.0
-89.95553333333334 86.4889 1994.67 0.0 0.0 1.0
-89.28826666666667 69.39233333333333 1555.6366666666665 -0.6865290540876959 0.4576906248496811 0.5649753532838064
-84.94903333333333 55.3088 1156.7033333333334 0.8731572321011148 -0.21830106360220944 0.43582231890951184
-85.33550000000001 66.89716666666668 1329.7933333333333 0.9186967171300998 -0.39368479182579497 -0.03175888252848046
-87.28523333333334 88.1787 1542.2699999999998 4.8439114371503853e-29 1.5510154640496542e-27 1.0
-87.2109 90.95236666666666 1526.53 0.0 0.0 1.0
-88.00599999999999 93.47670000000001 1497.25 -0.9423596249819912 -0.3141198749939988 0.11526942932779555
-87.59966666666666 103.74900000000001 1522.6500000000003 -2.1658419566444414e-27 -1.082788023014881e-27 1.0
-87.19253333333334 105.24166666666667 1522.6500000000003 2.3384153413383356e-26 -5.065995976450381e-27 1.0
-85.66643333333333 111.366 1513.6633333333332 0.3160235251293715 0.9482266363881765 0.03154960552479561
-87.26226666666666 -72.56329999999998 1314.2 0.9410207501461981 -0.31367358338206575 -0.1268417552801172
-86.77850000000001 -70.06586666666666 1311.3233333333335 -0.9180699506811578 0.36719658253133214 0.14937950138358083
-86.88473333333333 -69.72956666666666 1309.4133333333332 -0.7064798260585103 0.7069238861030273 0.03383599605938894
-87.34463333333333 -53.9548 1267.8 0.0 0.0 1.0
-86.97136666666667 -50.7672 1261.5633333333333 0.951580343054499 -0.2718743449134937 -0.14345449205284638
-87.41526666666668 -50.168733333333336 1260.6766666666665 -0.6604180540459 0.6604180540459024 0.3573457538301671
-86.52596666666666 -28.4432 1220.3933333333334 -0.9354834512072219 0.31179598491135874 0.16629484751663498
-89.48586666666665 -32.3553 1588.676666666667 -0.847894122700014 -0.5299182188229112 0.016193765785847154
-89.8934 -26.218133333333338 1585.87 -0.9369322727345021 0.33461866883375047 0.10093692474258163
-86.96300000000001 -9.030556666666667 1323.9066666666665 0.6999372690659612 -0.6999372690659708 -0.14204097558435433
-88.9895 -5.82882 1576.1233333333332 -0.8111351022343112 0.579366489748005 0.07996447011272127
-89.60836666666667 3.6901666666666664 1562.4000000000003 1.8363211915901673e-27 1.211505082656969e-27 1.0
-88.26873333333333 9.577956666666667 1546.25 0.0 0.0 1.0
-90.14566666666667 8.431876666666666 1538.3 0.0 0.0 1.0
-87.8335 18.671733333333332 1569.2299999999998 0.6281076008012553 -0.6282571858455044 0.4591010240123389
-86.3947 21.199233333333336 1559.6866666666665 0.19435333671108534 -0.9717900068887612 0.13360749612356754
-88.2118 23.608933333333336 1535.6733333333332 -0.9889459102154091 -0.10989478291617 0.09954457974206447
-87.57966666666668 30.387600000000003 1546.25 0.0 0.0 1.0
-87.56013333333333 33.05843333333333 1542.2699999999998 2.2071673039912537e-25 -1.4952181385714848e-25 1.0
-86.2704 40.391999999999996 1172.5666666666666 0.5278515653061816 -0.844575964940365 0.08980069291973904
-85.15033333333332 42.94323333333333 1179.5033333333333 -0.8103276475013773 -0.08103790023177558 0.58034641587668
-88.4416 73.7036 1552.9466666666667 -0.8895860742384921 0.296544547714175 0.3474161017309696
-88.78946666666667 78.62826666666666 1540.9466666666667 -0.959644475486785 -0.17449235320682863 0.22053321595631947
-89.08813333333335 85.8501 1544.9233333333334 -0.4362749471575236 0.7271366369136735 0.5300344156189979
-88.4635 99.88236666666667 1507.3 0.0 0.0 1.0
-89.0939 -115.59466666666667 1594.3166666666666 -0.9955421000564706 3.280643106848042e-16 0.0943182220737473
-89.23573333333333 -115.31099999999999 1594.3166666666666 -0.9814956856713463 3.0496126198400476e-17 0.19148425263852373
-89.50353333333334 -113.26233333333333 1591.49 0.0 0.0 1.0
-87.21956666666667 -69.4624 1306.5533333333333 -0.9756066117578666 0.19517161352084983 0.1004976635051968
-86.74459999999999 -67.73423333333334 1304.6499999999999 -0.8891810679176709 0.4041942941217684 0.21443880492157935
-87.04183333333333 -63.434333333333335 1295.24 0.0 0.0 1.0
-87.27796666666666 -63.24916666666667 1296.1766666666665 0.9999841925709676 -2.968754093811753e-17 0.005622686919081926
-87.04183333333333 -63.434333333333335 1295.24 0.0 0.0 1.0
-87.36226666666666 -60.90539999999999 1290.5866666666668 0.6101828715753657 -0.6102713551704362 0.5052185035155384
-87.58120000000001 -55.38966666666667 1269.5933333333332 -7.848500584834121e-17 0.8769307579723014 0.480616734750388
-86.76326666666667 -42.07886666666667 1244.0766666666666 -0.8293389020239397 0.5522099793201319 0.08521223109968322
-87.52423333333333 -41.9917 1241.49 0.0 0.0 1.0
-87.08163333333334 -41.106500000000004 1241.49 0.0 0.0 1.0
-86.68936666666667 -35.47623333333333 1230.4366666666667 -0.9451725355380381 0.315089411558651 0.08583437998971544
-87.00870000000002 -35.8664 1228.7533333333333 -0.8876559414197756 0.4436792654481853 0.12335168857186607
-86.65796666666667 -29.74163333333333 1224.5566666666666 0.9190664858645028 -0.3939028347922095 0.012543974782159467
-86.52596666666666 -28.4432 1220.3933333333334 -0.935483451207222 0.31179598491135874 0.16629484751663487
-89.75306666666667 -32.295633333333335 1585.87 0.8416637604481045 0.5260243571027241 -0.12206756359910277
-89.14686666666667 -22.02286666666667 1578.89 0.0 0.0 1.0
-89.14686666666667 -22.02286666666667 1578.89 0.0 0.0 1.0
-86.96300000000001 -9.030556666666667 1323.9066666666665 0.6999372690659655 -0.6999372690659668 -0.1420409755843527
-85.65466666666667 -5.39281 1174.8700000000001 0.37087150198864893 -0.927178754971626 -0.052857216555065645
-89.23343333333332 11.645150000000001 1546.25 0.0 0.0 1.0
-87.8335 18.671733333333332 1569.2299999999998 0.6281076008012553 -0.6282571858455043 0.4591010240123389
-88.06836666666668 25.5043 1534.36 0.0 0.0 1.0
-88.50123333333333 36.16766666666667 1563.7633333333333 -0.9807325535973249 -2.0580723402409235e-15 0.19535521061510033
-88.50123333333333 36.16766666666667 1563.7633333333333 -0.9807325535973248 -3.818540696334949e-15 0.19535521061510067
-90.24176666666666 41.9799 1531.74 0.6221742212538742 -6.070427840542414e-16 0.7828788146368091
-90.23020000000001 43.034933333333335 1530.43 0.0 0.0 1.0
-86.8129 46.19403333333333 1158.1966666666667 -0.9524519730296138 -0.27214169650356856 0.1370187435942799
-86.38036666666666 46.3544 1154.4766666666667 0.9231542998975316 0.34619689898845746 0.16713421466436468
-89.9225 75.31436666666666 1546.25 0.0 0.0 1.0
-87.28523333333334 88.1787 1542.2699999999998 4.843911437150359e-29 1.5510154640496537e-27 1.0
-88.4635 99.88236666666667 1507.3 0.0 0.0 1.0
-87.567 101.42063333333333 1516.22 -0.8531257757415397 -0.255973542056027 0.45459207706765825
-89.3617 -114.53866666666666 1591.49 0.0 0.0 1.0
-89.90276666666666 -111.97166666666668 1587.2699999999998 2.979576513143792e-27 -9.30799528704451e-28 1.0
-87.26226666666666 -72.56329999999998 1314.2 0.941020750146198 -0.31367358338206563 -0.12684175528011685
-87.34463333333333 -53.9548 1267.8 0.0 0.0 1.0
-87.4205 -52.226866666666666 1261.5633333333333 -0.94635725738063 0.2703820662988973 0.17692224175312463
-86.92309999999999 -43.8239 1252.756666666667 0.799268374109579 -0.3996222480535949 0.44885646370395654
-86.90326666666665 -42.03203333333334 1249.27 0.0 0.0 1.0
-87.08163333333334 -41.106500000000004 1241.49 0.0 0.0 1.0
-86.71653333333332 -37.27403333333333 1235.51 -0.7945586902480742 0.5959039954012063 0.11651144156752861
-87.21783333333333 -36.14456666666667 1227.07 -0.9726714174168066 0.19455801730675942 0.12671815829644642
-87.08933333333334 -33.42953333333333 1223.7233333333334 0.9975849490349439 -0.06879166960821982 -0.009590393707325869
-86.41243333333334 -34.00183333333334 1240.6333333333332 0.4044129082789129 0.9099138149444601 0.09223366516956039
-86.01093333333334 -30.65573333333333 1226.23 0.0 0.0 1.0
-90.29653333333333 -33.931666666666665 1583.0766666666668 -0.2743517291478649 0.9603020072788494 -0.05050924202350806
-91.16926666666666 -4.677136666666667 1566.49 0.0 0.0 1.0
-90.19196666666666 0.4886566666666667 1566.49 0.0 0.0 1.0
-89.48453333333333 5.56701 1542.2699999999998 -9.894767616337369e-29 -2.4737144208849678e-29 1.0
-90.80703333333334 6.666666666666667 1574.74 0.0 0.0 1.0
-88.35626666666667 21.986 1536.9866666666667 0.705878119111069 -0.7058209166703023 -0.05960632978898459
-89.67380000000001 20.2421 1529.14 -0.9030463061923102 0.42141177646746236 0.08318343300779252
-90.96319999999999 60.85063333333333 1556.9833333333333 0.09485822125264103 -0.9487188302238375 0.30155347625172274
-85.99023333333334 46.63636666666667 1158.9433333333334 -0.31520337592156467 -0.9456440133136009 0.08002644495287128
-89.4577 76.8473 1538.3099999999997 -0.30807011559872316 -0.9290236131203299 0.2049583619661248
-89.21849999999999 81.10323333333334 1543.5966666666666 0.9628724320300006 0.1750792932118645 0.2054845997272445
-89.0441 95.82783333333333 1492.2766666666666 0.927811496129645 0.3710974422542471 -0.038111887935731024
-88.4635 99.88236666666667 1507.3 0.0 0.0 1.0
-89.43546666666667 107.043 1491.0333333333335 0.5999968299609706 -0.7999957732812942 -0.0032506566798413887
-89.3617 -114.53866666666666 1591.49 0.0 0.0 1.0
-89.50353333333334 -113.26233333333333 1591.49 0.0 0.0 1.0
-90.04423333333334 -110.27433333333333 1587.2699999999998 0.0 0.0 1.0
-90.04423333333334 -110.27433333333333 1587.2699999999998 0.0 0.0 1.0
-90.01763333333334 -98.83596666666666 1583.07 0.0 0.0 1.0
-87.73450000000001 -64.35786666666667 1295.24 0.0 0.0 1.0
-87.73450000000001 -64.35786666666667 1295.24 0.0 0.0 1.0
-87.58120000000001 -55.38966666666667 1269.5933333333332 -7.848500584834121e-17 0.8769307579723014 0.480616734750388
-87.34463333333333 -53.9548 1267.8 0.0 0.0 1.0
-88.1854 -51.85646666666667 1258.0233333333333 0.8004312556116722 -0.40021562780584147 0.4462479762417956
-88.0114 -46.008266666666664 1248.4033333333334 0.9651064991841078 -0.16085375847524244 0.2066289273479976
-86.37740000000001 -43.35726666666667 1255.3866666666665 -0.3500472413609276 0.816765301317157 0.45865168851743926
-86.90326666666665 -42.03203333333334 1249.27 0.0 0.0 1.0
-87.58716666666668 -38.4324 1233.8166666666666 -0.9924560997373241 0.00117593368590126 0.12259489089739745
-87.21783333333333 -36.14456666666667 1227.07 -0.9726714174168064 0.19455801730675956 0.12671815829644642
-86.73706666666665 -34.06380000000001 1238.9233333333332 0.658090867081712 0.7520580535614093 0.03640185073680766
-85.86713333333334 -21.886466666666664 1218.74 0.24335399801910448 -0.9099315302654619 0.33586223645547353
-89.14686666666667 -22.02286666666667 1578.89 0.0 0.0 1.0
-90.14979999999998 -8.388936666666666 1581.6766666666665 -0.9635045100609249 0.24085549901708522 0.11682331824378143
-90.03416666666665 -4.390976666666667 1563.7633333333333 -0.8295183621060769 -0.5530056225456099 0.07800043821539814
-90.19196666666666 0.4886566666666667 1566.49 0.0 0.0 1.0
-90.02613333333333 4.80418 1562.4000000000003 -2.8930745144388644e-28 2.8929244664893403e-28 1.0
-90.02613333333333 4.80418 1562.4000000000003 -2.893074514438862e-28 2.8929244664893376e-28 1.0
-89.75096666666666 6.7982933333333335 1540.9466666666667 -0.8937451669644232 0.4468996748786096 0.038733152739335745
-89.07506666666666 12.914466666666668 1566.49 0.0 0.0 1.0
-91.50723333333333 48.7001 1536.9866666666667 -0.4285928215187081 -0.7857390338665434 0.4460071344733215
-87.0972 42.0091 1171.04 0.0 0.0 1.0
-86.8129 46.19403333333333 1158.1966666666667 -0.9524519730296139 -0.2721416965035686 0.13701874359427968
-84.2992 50.0061 1148.5633333333333 0.2833179003558365 0.9562523934970004 0.07288571375254647
-89.52383333333334 88.63943333333333 1526.53 0.0 0.0 1.0
-89.40376666666667 94.37196666666667 1486.0933333333332 -0.9767844780847338 -0.1302477715727316 0.1700811611351237
-89.28596666666665 95.8528 1488.5633333333333 -0.7061316732705967 -0.7072134232719111 -0.035031899007790517
-89.05936666666666 96.25403333333333 1494.756666666667 0.9936638068851281 1.5118355296629686e-14 0.11239323327743062
-89.05936666666666 96.25403333333333 1494.756666666667 0.9936638068851281 1.5118355296629686e-14 0.11239323327743062
-89.86666666666667 103.39999999999999 1496.0 0.0 0.0 1.0
-89.55953333333333 106.159 1489.7966666666664 -0.9119707111056379 0.4053457758657988 0.06327893862282015
-91.00533333333333 -106.03466666666668 1583.0766666666666 -0.6851602838346582 0.6846646188858151 0.24857543141177924
-90.29983333333332 -99.25926666666668 1583.07 0.0 0.0 1.0
-90.15873333333333 -98.27159999999999 1583.07 0.0 0.0 1.0
-90.4409 -93.19223333333333 1583.07 0.0 0.0 1.0
-90.4409 -93.19223333333332 1583.07 0.0 0.0 1.0
-59.03639999999999 -45.67566666666667 1143.4566666666667 0.38951057738055705 -0.919784081120268 0.047736298834423735
-87.3504 -61.8512 1288.7333333333333 -0.6996993327187467 0.699800797239157 -0.14387386133826
-87.76736666666666 -59.216 1281.3733333333332 0.9352552633169834 -0.18697917718564167 0.3005601100227049
-87.36226666666666 -60.90539999999999 1290.5866666666668 0.6101828715753659 -0.610271355170436 0.5052185035155384
-88.30310000000001 -52.342033333333326 1258.9066666666668 0.9578627765081361 0.2736808823671663 0.08716464883686356
-87.96083333333333 -52.64243333333334 1258.0233333333333 0.8873384733293113 -0.44366923666465946 -0.12565047627050882
-87.9008 -38.79206666666666 1231.28 -0.9924825479905642 0.0018026018731681038 0.12237296499081782
-91.5088 -14.526333333333334 1574.74 0.0 0.0 1.0
-91.5088 -14.526333333333334 1574.74 0.0 0.0 1.0
-89.99119999999999 -5.98065 1578.89 0.0 0.0 1.0
-89.48453333333333 5.56701 1542.2699999999998 -9.894767616337369e-29 -2.4737144208849678e-29 1.0
-90.14566666666667 8.431876666666666 1538.3 0.0 0.0 1.0
-91.59423333333332 9.207153333333332 1530.43 0.0 0.0 1.0
-90.20076666666667 13.065266666666666 1567.86 -0.79663239170024 0.5974980681691094 0.09150350281894963
-90.17316666666666 39.29756666666666 1502.2633333333333 -0.5949656342172239 -0.21248017568256697 0.7751568028743617
-89.3386 47.038399999999996 1563.7633333333335 0.7267362377515934 -0.6540556555674171 0.209918174913312
-85.51086666666667 37.986799999999995 1188.8733333333332 0.5036859686015484 0.7555421487621237 0.41887528749955305
-86.2704 40.391999999999996 1172.5666666666666 0.5278515653061815 -0.844575964940365 0.08980069291973913
-90.95846666666667 62.26176666666667 1536.9866666666667 -0.807038494588933 -0.4035069841354554 0.4311275704539647
-90.63903333333333 72.05526666666667 1550.26 0.0 0.0 1.0
-89.9225 75.31436666666666 1546.25 0.0 0.0 1.0
-90.63279999999999 91.78956666666666 1529.13 -0.17634247950951093 -0.9699051845261059 0.16789062793919798
-89.53609999999999 96.48943333333334 1486.0933333333332 -0.6715596628361428 0.6715596628361407 0.3130738547097403
-90.00803333333333 103.88666666666666 1497.25 -0.8894112534914977 0.44470562674575703 0.10575692744849619
-90.32716666666666 -110.83999999999999 1587.2699999999998 1.9621164323755617e-26 1.1212167940111317e-27 1.0
-90.04423333333334 -110.27433333333333 1587.2699999999998 0.0 0.0 1.0
-90.15873333333333 -98.27159999999999 1583.07 0.0 0.0 1.0
-91.11696666666666 -94.35356666666667 1578.89 0.0 0.0 1.0
-91.40769999999999 -79.36433333333333 1580.2833333333335 -0.7654390043759911 -0.38269683863010134 0.5173453974690583
-87.31886666666666 -58.72566666666666 1283.2033333333331 0.5237528765757736 -0.5819570569635012 0.6221004003607317
-87.05943333333333 -56.88263333333333 1277.7233333333334 -0.7173537445182682 0.35867687225913036 0.5972892988594611
-88.23666666666666 -54.78113333333334 1266.0133333333333 -0.970980586906437 -3.8830065325361923e-16 0.2391583154540759
-88.23666666666666 -54.78113333333334 1266.0133333333333 -0.970980586906437 -3.605450776379903e-16 0.2391583154540759
-87.61906666666665 -54.41363333333334 1275.91 0.0 0.0 1.0
-88.2581 -40.46713333333333 1235.51 -0.9074507644390093 0.27225169948896133 0.3200189404463893
-87.88526666666667 -38.4954 1228.7533333333333 0.9165700542331643 -0.39285585182222504 -0.07458964654727944
-90.98556666666667 -43.16733333333334 1580.2833333333335 1.6167272473137092e-16 -0.8265677345584197 0.5628372590607003
-90.98556666666667 -43.16733333333334 1580.2833333333335 0.0 -0.8265677345584197 0.5628372590607003
-92.30563333333333 -35.7353 1569.2299999999998 -0.7075893412592702 0.1768938249595037 0.6841241837762122
-87.20396666666666 -25.593333333333334 1224.5566666666666 0.1788851531231332 0.9838683421772334 -0.0017852880819653422
-90.74219999999998 -28.62306666666667 1585.87 0.9444341290653652 -0.314811376355115 -0.09454085452302224
-90.74219999999998 -28.62306666666667 1585.8700000000001 0.9444341290653653 -0.3148113763551147 -0.09454085452302191
-89.4283 -20.756366666666665 1578.89 0.0 0.0 1.0
-90.44093333333335 -10.229303333333332 1583.07 0.0 0.0 1.0
-91.08773333333333 -6.666666666666667 1574.74 0.0 0.0 1.0
-90.02613333333333 -0.4873799999999999 1562.4000000000003 2.591648200401086e-25 -1.5272334073567195e-25 1.0
-91.80556666666666 4.791666666666667 1558.33 0.0 0.0 1.0
-90.68543333333334 4.786796666666667 1556.9833333333333 0.8937712894937857 -0.4468695567993268 -0.038477022787488255
-90.31413333333334 9.41023 1563.7633333333335 0.9837659059270869 0.17886419292758826 0.014568555996395805
-89.39550000000001 11.53714 1550.26 0.0 0.0 1.0
-90.73123333333332 16.7133 1543.5966666666666 0.9644849980845699 0.09643212763059135 0.24590553720980907
-89.36236666666667 34.7665 1544.9233333333334 -0.6441227154795027 -0.7514678459234375 -0.14283558361451856
-90.44643333333333 35.807 1542.2733333333333 -0.8922650620624609 0.4450558483440079 0.07608121238169256
-90.63976666666667 48.08103333333333 1530.4399999999998 0.9485759245218118 -0.31611741062112086 0.01653777856265656
-87.0972 42.0091 1171.04 0.0 0.0 1.0
-90.6746 59.55103333333333 1555.6366666666665 -0.812942286456186 0.58068503851059 0.04392863464009288
-90.557 64.23306666666666 1538.3 0.0 0.0 1.0
-92.28566666666666 75.42753333333333 1531.74 0.21537979819649872 -0.9333300036379264 0.2872397027537515
-89.2256 83.78826666666667 1544.9233333333334 0.4305214994361868 -0.7175474027529479 0.5475189159524226
-89.4359 84.8547 1534.36 0.0 0.0 1.0
-91.29253333333334 84.69386666666666 1526.53 0.0 0.0 1.0
-90.27159999999999 92.90533333333333 1477.53 0.0 0.0 1.0
-89.53609999999999 96.48943333333334 1486.0933333333332 -0.6715596628361428 0.6715596628361407 0.3130738547097403
-90.30486666666667 99.024 1482.4133333333332 0.3882251001715674 0.7764992186638646 0.4963166680771304
-89.86666666666667 103.40000000000002 1496.0 0.0 0.0 1.0
-90.29983333333332 -99.25926666666668 1583.07 0.0 0.0 1.0
-90.4409 -93.19223333333333 1583.07 0.0 0.0 1.0
-92.52416666666666 -86.47316666666666 1578.89 0.0 0.0 1.0
-88.17316666666666 -52.5678 1256.2633333333333 -0.8872901661096025 0.44364508305480543 0.12607617303237229
-87.85963333333335 -51.14386666666667 1259.79 0.0 0.0 1.0
-88.39116666666666 -51.524766666666665 1255.3866666666665 -0.9358779924473499 3.628853008105799e-17 0.35232425867759726
-87.90516666666667 -46.9308 1249.2733333333333 -0.9317942054454773 0.36237854563730154 0.021008292649001656
-93.14136666666667 -64.64450000000001 1843.1233333333337 -0.9968375605775143 2.8321889819976172e-16 0.07946620553336115
-87.52423333333333 -41.9917 1241.49 0.0 0.0 1.0
-91.3581 -39.33433333333333 1573.36 -0.9655750019243436 0.19308748197888229 0.17430473304491415
-87.20396666666666 -25.593333333333334 1224.5566666666666 0.17888515312313322 0.9838683421772334 -0.0017852880819653463
-90.1857 -30.627766666666663 1587.2699999999998 2.746891146732109e-27 1.424276639301821e-27 1.0
-92.21053333333333 -19.578933333333335 1574.74 0.0 0.0 1.0
-91.27666666666666 -12.474333333333334 1581.6766666666665 -0.9528929760140558 0.23823731424414293 0.187717762518132
-93.56643333333334 -0.4843106666666667 1552.9466666666667 0.6925109502376292 0.10653146930314691 0.7134981638722615
-90.02613333333333 4.80418 1562.4000000000003 -2.893074514438862e-28 2.8929244664893376e-28 1.0
-91.59423333333332 9.207153333333332 1530.43 0.0 0.0 1.0
-92.63156666666667 8.070176666666667 1574.74 0.0 0.0 1.0
-91.58813333333332 12.076776666666667 1566.49 0.0 0.0 1.0
-90.76756666666667 13.321033333333332 1548.9233333333334 -0.9881373506305404 -0.10979303895894649 0.10737813969805875
-89.20960000000001 18.625433333333334 1542.2699999999998 -1.1400857211725278e-27 4.560536414773483e-28 1.0
-90.96446666666668 27.005066666666668 1518.78 0.0 0.0 1.0
-91.2459 30.68936666666666 1520.07 0.8824949296257779 1.0779095594160699e-16 0.47032191016876224
-89.46266666666668 35.85313333333334 1538.3099999999997 0.11043350767275825 0.9933044271027216 -0.03392278704977675
-90.72133333333333 45.606899999999996 1562.4066666666668 -0.9768082541035485 0.19537391262832518 0.08760518808539397
-91.44873333333334 47.631766666666664 1529.13 0.7383949520424165 -0.6563332468994701 0.15491792605336696
-90.63903333333333 72.05526666666667 1550.26 0.0 0.0 1.0
-91.17846666666667 79.798 1511.11 0.0 0.0 1.0
-91.51356666666668 84.95576666666666 1502.2633333333333 -0.7731755423004905 -0.22089944778422752 0.594477093551102
-91.07693333333333 87.04273333333333 1534.36 0.0 0.0 1.0
-90.26316666666666 91.9078 1476.3166666666666 0.7067910442500485 -0.7068805001473242 -0.02768353805775013
-90.27159999999999 92.90533333333333 1477.53 0.0 0.0 1.0
-89.86666666666667 103.40000000000002 1496.0 0.0 0.0 1.0
-89.43546666666667 107.043 1491.0333333333335 0.5999968299609708 -0.7999957732812941 -0.0032506566798414125
-91.07963333333333 103.34733333333334 1479.97 -0.9699481954168314 0.19397331273771146 0.14688380493842687
-90.99836666666666 102.97966666666666 1469.07 0.9514087295017553 -0.27181871859402285 0.14469282514955362
-91.6691 -108.609 1577.506666666667 -0.9813862606746905 -1.9218263319724104e-16 0.19204428489009653
-91.17596666666667 -109.00099999999999 1587.2699999999998 1.7977569970030794e-26 8.986667485607828e-27 1.0
-91.17596666666667 -109.00099999999999 1587.2699999999998 1.7977569970030794e-26 8.986667485607828e-27 1.0
-92.38346666666666 -103.36 1578.89 0.0 0.0 1.0
-91.11696666666667 -94.35356666666667 1578.89 0.0 0.0 1.0
-91.11696666666667 -94.35356666666667 1578.89 0.0 0.0 1.0
-91.3984 -82.6737 1578.89 0.0 0.0 1.0
-91.3984 -82.6737 1578.89 0.0 0.0 1.0
-91.3984 -81.9701 1578.89 0.0 0.0 1.0
-91.3984 -81.9701 1578.89 0.0 0.0 1.0
-93.14136666666667 -64.64450000000001 1843.1233333333337 -0.9968375605775139 2.462336268632334e-16 0.07946620553336128
-88.16189999999999 -56.972433333333335 1580.2933333333333 -0.26711288447051146 -0.9539939057905962 0.13618492818313746
-93.14136666666667 -64.6445 1843.1233333333332 -0.9968375605775143 -5.019911049386778e-17 0.07946620553336081
-91.3581 -40.17423333333333 1573.36 -0.9789594727342321 0.19576399469011688 0.05757437908377488
-92.70586666666667 -18.496299999999998 1566.4966666666667 0.1812844046761612 -0.9070743774859796 0.3799368872979201
-91.86733333333332 -7.609073333333332 1566.49 0.0 0.0 1.0
-90.4439 -2.9939066666666663 1562.4000000000003 -7.970452009198097e-29 -5.313571075299302e-29 1.0
-89.42016666666666 1.6144043333333336 1577.506666666667 0.1531925453023224 0.6893716248280267 0.7080245807496816
-92.72813333333333 0.9086046666666667 1569.2299999999998 -0.2154030451644507 0.9693054963936497 0.11852587394717677
-91.80556666666666 4.23611 1558.33 0.0 0.0 1.0
-90.2074 13.725 1547.5866666666668 0.6332888084794133 0.7599343161348872 -0.14644152490098694
-92.36853333333333 33.00763333333334 1508.57 -0.6982785479248282 -0.698278547924831 0.15752504250430435
-91.1108 45.4845 1558.3400000000001 -0.9768787551768293 0.19501342381597964 0.08762227009006957
-90.1223 47.069066666666664 1555.6366666666665 -0.6194523054996326 0.707948533943358 0.3392458024775542
-91.35853333333334 46.46866666666667 1535.6733333333332 -0.7563399476210009 0.6483064332696769 0.08745657330247751
-91.6768 54.00313333333333 1559.6866666666665 0.9469437987315849 0.23672884753338236 0.2173865101364675
-87.23636666666668 44.80486666666667 1159.6933333333334 0.9328650662903488 -0.17763031097368054 0.3133851316168283
-91.19170000000001 70.53543333333333 1550.26 0.0 0.0 1.0
-90.62083333333334 72.48190000000001 1547.5866666666668 0.9337870469291863 -0.35016661354687156 -0.07365523568888896
-91.32986666666666 71.77893333333334 1550.26 0.0 0.0 1.0
-89.92250000000001 75.31436666666666 1546.25 0.0 0.0 1.0
-90.11863333333334 76.24033333333334 1534.3633333333335 -0.26932760571592296 -0.9449533767244315 0.1858110777548613
-92.91813333333334 83.769 1509.84 -0.09697119418980314 -0.8726207635530844 0.47867482753267415
-90.27159999999999 92.90533333333333 1477.53 0.0 0.0 1.0
-90.09153333333335 105.75999999999999 1489.7966666666664 0.8962873464723571 -0.3983749537461319 0.19484965686730935
-92.44743333333334 -108.18133333333333 1569.2299999999998 -0.3100208874474574 -0.9322083916349762 0.18674732638413372
-93.29833333333333 -87.55906666666665 1570.5999999999997 -1.658639477145798e-26 2.4067420412506117e-26 1.0
-91.52876666666667 -81.617 1577.506666666667 -0.9955886825855517 3.5070549254427433e-16 0.09382523705041196
-78.22623333333333 -57.264199999999995 1690.72 0.3261099467446492 -0.44357307291549675 0.8348025105487558
-88.4676 -40.743966666666665 1233.8166666666666 -0.7675145374914909 0.5961658839068277 0.23560066554408104
-90.98556666666667 -43.16733333333334 1580.2833333333335 0.0 -0.8265677345584197 0.5628372590607003
-92.02746666666667 -40.628433333333334 1569.2299999999998 -0.9812678454708326 1.6195015546422437e-16 0.19264842445509317
-91.88786666666665 -39.790733333333336 1569.2299999999998 -0.9955712506976604 -1.5006008572028143e-16 0.09401002491381498
-92.70503333333333 -39.02269999999999 1566.49 0.0 0.0 1.0
-92.45843333333333 -27.086633333333328 1570.5999999999997 1.0989690797017698e-26 3.663462888645459e-26 1.0
-92.45843333333333 -27.086633333333328 1570.5999999999997 1.0989690797017691e-26 3.6634628886454564e-26 1.0
-92.70503333333333 -8.86562 1566.49 0.0 0.0 1.0
-91.9613 -7.10642 1578.89 0.0 0.0 1.0
-92.5654 -3.8394399999999997 1566.49 0.0 0.0 1.0
-91.86733333333332 1.4659673333333334 1566.49 0.0 0.0 1.0
-92.66666666666667 24.066666666666666 1496.0 0.0 0.0 1.0
-93.07983333333334 51.406866666666666 1561.0433333333333 -0.4494148875524345 0.823936258834908 0.34518878924925794
-87.61333333333334 40.6269 1170.2766666666666 -0.5352704280440758 -0.3345520308777993 0.7756033183896598
-91.22213333333332 60.42863333333333 1535.6733333333332 -0.8153323305362381 0.5435769701836209 0.19939224726237867
-90.557 64.23306666666666 1538.3 0.0 0.0 1.0
-92.60606666666666 66.56276666666666 1554.29 0.0 0.0 1.0
-91.6062 70.53543333333333 1550.26 0.0 0.0 1.0
-92.60020000000002 72.9542 1520.07 0.7808232563237598 -0.6246201503308024 -0.012833946574836606
-90.34016666666666 86.46256666666666 1526.53 0.0 0.0 1.0
-91.39029999999998 87.4372 1503.5199999999998 4.0274272688139288e-25 1.4403558682887512e-25 1.0
-91.35366666666665 89.32979999999999 1464.2766666666666 -0.9644461167811328 0.1205596168348863 0.23517879711916856
-91.3915 100.35889999999999 1469.07 0.9534110606039473 0.15892205738176476 0.25641982995783097
-92.2205 -109.21866666666665 1576.1233333333332 -0.9496471308170775 -0.17268362100217283 0.2614396564572223
-91.3984 -95.47933333333333 1578.89 0.0 0.0 1.0
-91.67983333333332 -80.98503333333332 1578.89 0.0 0.0 1.0
-92.49119999999999 -75.29823333333333 1574.74 0.0 0.0 1.0
-92.21049999999998 -74.59646666666667 1574.74 0.0 0.0 1.0
-92.21049999999998 -74.59646666666667 1574.74 0.0 0.0 1.0
-92.76013333333333 -67.38096666666667 1573.36 -0.949152379666933 0.10547250747532788 0.2966231790326999
-93.54393333333333 -69.27656666666667 1852.7133333333331 0.4945891912729631 -0.8661785258655933 -0.07152826857448828
-92.88906666666666 -59.052166666666665 1571.9800000000002 -0.981207944766198 0.07007793717063683 0.17977778463870858
-94.29676666666667 -53.41303333333334 1802.42 -0.9689310181787354 -0.24228890529335595 0.049686702274012916
-92.70503333333333 -39.02269999999999 1566.49 0.0 0.0 1.0
-91.88786666666665 -26.92373333333333 1569.2300000000002 -0.9955712506976603 -1.4108927361497246e-15 0.09401002491381462
-92.49123333333334 -20.421066666666665 1574.74 0.0 0.0 1.0
-94.3168 -17.448166666666665 1559.6866666666665 0.0 0.6942498362642836 0.7197340931531696
-92.94633333333333 -14.8461 1578.89 0.0 0.0 1.0
-92.66486666666667 -13.720333333333334 1578.89 0.0 0.0 1.0
-92.63156666666667 7.929826666666666 1574.74 0.0 0.0 1.0
-93.06233333333334 14.759866666666667 1526.5366666666669 0.740861083562082 -0.6668172141547228 -0.0804963214696931
-91.91199999999999 22.8088 1518.78 0.0 0.0 1.0
-91.5625 30.1865 1508.57 -0.954835937123542 -0.059674469652587415 0.29107952667456644
-89.28166666666668 37.4727 1531.74 -0.62532306992591 0.33350020392457935 0.7055130560100922
-91.9336 55.853199999999994 1556.9833333333333 -0.9673415461906344 -0.24182813141350887 0.07595714496058742
-91.32986666666666 71.77893333333334 1550.26 0.0 0.0 1.0
-92.5734 77.30569999999999 1550.26 0.0 0.0 1.0
-91.6055 91.21433333333334 1463.08 0.0 0.0 1.0
-91.80363333333332 99.73773333333332 1471.4766666666667 0.9743470995180376 0.16241184108067014 0.15578871441017378
-90.94763333333333 101.103 1479.97 0.3637123499040575 0.7274706230846189 0.5818073728272485
-91.07963333333333 103.34733333333332 1479.97 -0.9699481954168314 0.19397331273771146 0.14688380493842687
-92.22806666666668 103.81266666666666 1444.25 -0.903561936964347 0.30123277945938887 0.30468777239726746
-92.08016666666667 -112.44666666666666 1576.1233333333332 -0.9842360311499981 0.08202291563769513 0.15668974534535132
-92.44743333333332 -108.18133333333333 1569.2300000000002 -0.3100208874474573 -0.9322083916349762 0.1867473263841337
-92.38346666666666 -103.36 1578.89 0.0 0.0 1.0
-91.80946666666667 -96.6597 1577.506666666667 -0.7032026664420219 0.7032026664420211 -0.10493817140422414
-92.52416666666666 -86.47316666666666 1578.89 0.0 0.0 1.0
-93.57830000000001 -74.12073333333333 1570.5999999999997 -6.395521837636901e-27 -5.938750641461261e-27 1.0
-92.91226666666667 -72.21053333333333 1574.74 0.0 0.0 1.0
-93.15833333333335 -64.46193333333333 1570.5999999999997 -2.0611886059250018e-26 1.8178430456098448e-31 1.0
