ply
format ascii 1.0
comment VCGLIB generated
element vertex 779
property float x
property float y
property float z
property float nx
property float ny
property float nz
element face 0
property list uchar int vertex_indices
end_header
55.2798 48.56446666666667 2183.94 0.0 0.0 1.0
56.64233333333333 68.8078 2183.94 0.0 0.0 1.0
48.30886666666667 70.27513333333333 1786.3033333333333 0.44972301313440716 0.7657457557161642 0.45976368827908803
55.66909999999999 102.67666666666666 2183.94 0.0 0.0 1.0
56.64233333333333 114.93900000000001 2183.94 0.0 0.0 1.0
55.47446666666667 116.10666666666667 2183.94 0.0 0.0 1.0
55.66913333333333 128.759 2183.94 0.0 0.0 1.0
56.25303333333334 138.102 2183.94 0.0 0.0 1.0
7.234676666666668 90.37236666666666 1321.0233333333333 0.5841280389863841 0.8031696219514265 -0.11710248692629871
55.66909999999999 157.5666666666667 2183.94 0.0 0.0 1.0
-3.3333333330591114e-07 -93.90556666666667 1284.12 0.0 0.0 1.0
-3.3333333330591114e-07 -93.90556666666667 1284.12 0.0 0.0 1.0
10.473886666666665 -100.43366666666667 1441.93 0.0 0.0 1.0
10.473886666666665 -100.43366666666667 1441.93 0.0 0.0 1.0
-4.7457633333333336 -82.3164 1267.8 0.0 0.0 1.0
5.262393333333333 -73.6142 1326.83 0.0 0.0 1.0
7.93131 -75.50349999999999 1401.41 0.0 0.0 1.0
3.6847766666666666 -72.61726666666665 1356.9333333333332 0.969065265734111 0.11628847438360088 0.21769129857027245
9.831313333333332 -72.28916666666667 1441.93 0.0 0.0 1.0
10.08836 -61.36543333333333 1441.93 0.0 0.0 1.0
9.311176666666666 -48.07603333333333 1421.38 0.0 0.0 1.0
-0.903954 -25.141266666666667 1267.8 0.0 0.0 1.0
-0.8421046666666666 -20.154366666666668 1259.79 0.0 0.0 1.0
55.08516666666667 -13.9173 2183.94 0.0 0.0 1.0
-1.2429366666666668 1.525425 1267.8 0.0 0.0 1.0
56.25303333333333 1.07056 2183.94 0.0 0.0 1.0
-2.1894733333333334 0.9543860000000001 1259.79 0.0 0.0 1.0
-1.9649133333333335 3.64912 1259.79 0.0 0.0 1.0
2.5844333333333336 4.28781 1318.06 0.0 0.0 1.0
55.47446666666667 12.165466666666667 2183.94 0.0 0.0 1.0
-2.9383200000000005 13.804566666666666 1244.07 0.0 0.0 1.0
-4.4077166666666665 17.465566666666668 1236.36 0.0 0.0 1.0
-4.297523333333333 21.8733 1236.36 0.0 0.0 1.0
-2.6122433333333333 29.7687 1221.22 0.0 0.0 1.0
-3.195593 30.35813333333333 1236.36 0.0 0.0 1.0
49.86286666666666 58.3491 2049.46 -0.6242175803464812 0.7803431449711093 0.03764290747248078
42.57626666666667 58.6667 2028.47 0.0 0.0 1.0
55.47446666666667 94.11193333333334 2183.94 0.0 0.0 1.0
57.03163333333333 112.79833333333333 2183.94 0.0 0.0 1.0
55.4745 126.03366666666666 2183.94 0.0 0.0 1.0
55.4745 126.03366666666666 2183.94 0.0 0.0 1.0
55.4745 127.007 2183.94 0.0 0.0 1.0
55.66913333333333 128.759 2183.94 0.0 0.0 1.0
55.47446666666667 129.343 2183.94 0.0 0.0 1.0
55.66910000000001 142.96866666666668 2183.94 0.0 0.0 1.0
55.66909999999999 145.888 2183.94 0.0 0.0 1.0
10.226526666666667 -86.40776666666666 1452.43 0.0 0.0 1.0
8.931726666666668 -58.409633333333325 1441.93 0.0 0.0 1.0
8.803213333333334 -57.12449999999999 1441.93 0.0 0.0 1.0
-0.6335483333333333 -37.72496666666667 1292.44 0.0 0.0 1.0
-1.0803123333333333 -34.0583 1275.91 0.0 0.0 1.0
-1.5819219999999998 -27.288133333333334 1267.8 0.0 0.0 1.0
55.47446666666667 12.165466666666667 2183.94 0.0 0.0 1.0
53.528 19.756733333333333 2183.94 0.0 0.0 1.0
-5.730026666666667 25.950400000000002 1236.36 0.0 0.0 1.0
56.25303333333334 54.598533333333336 2183.94 0.0 0.0 1.0
54.8905 66.47203333333333 2183.94 0.0 0.0 1.0
38.132466666666666 59.500566666666664 1949.1899999999998 -1.5015463377518426e-28 -2.821019738595746e-28 1.0
16.449633333333335 63.62180000000001 1570.6233333333332 -0.7063198619825577 -0.7062636531760981 0.04799900802405434
54.11193333333333 119.80533333333334 2183.94 0.0 0.0 1.0
54.89053333333334 129.343 2183.94 0.0 0.0 1.0
54.11193333333333 134.59866666666665 2183.94 0.0 0.0 1.0
54.8905 137.518 2183.94 0.0 0.0 1.0
55.66910000000001 142.96866666666668 2183.94 0.0 0.0 1.0
54.50123333333334 148.41833333333332 2183.94 0.0 0.0 1.0
53.91726666666667 154.647 2183.94 0.0 0.0 1.0
-0.29175700000000004 -92.95403333333333 1309.41 0.0 0.0 1.0
6.271586666666667 -73.90596666666666 1378.82 -0.28805907534401887 -0.72015353509883 0.6311900308121217
-0.8421066666666667 -71.80353333333333 1259.79 0.0 0.0 1.0
2.6258193333333337 -60.51056666666667 1309.41 0.0 0.0 1.0
0.232635 -58.30336666666667 1312.2933333333333 0.9948928198947404 3.2059763652531423e-15 0.10093699481306091
8.546183333333333 -59.437733333333334 1441.93 0.0 0.0 1.0
8.931420000000001 -52.12123333333333 1431.58 0.0 0.0 1.0
8.931420000000001 -52.12123333333333 1431.58 0.0 0.0 1.0
-0.6335483333333333 -37.72496666666667 1292.44 0.0 0.0 1.0
-1.0803123333333333 -34.0583 1275.91 0.0 0.0 1.0
-2.1468933333333333 -23.55933333333333 1267.8 0.0 0.0 1.0
-2.0339 -23.107366666666667 1267.8 0.0 0.0 1.0
-2.0339 -23.107366666666667 1267.8 0.0 0.0 1.0
-2.6385966666666665 -16.785966666666667 1259.79 0.0 0.0 1.0
3.7616366666666665 4.3600900000000005 1338.7133333333334 -0.813478663388863 0.5810547936000504 -0.02505575872871994
53.1387 17.6156 2183.94 0.0 0.0 1.0
-3.3818400000000004 13.471933333333334 1244.07 0.0 0.0 1.0
-4.544833333333333 20.533866666666665 1228.75 0.0 0.0 1.0
-4.544833333333333 20.533866666666665 1228.75 0.0 0.0 1.0
-4.654346666666666 21.848033333333333 1228.75 0.0 0.0 1.0
54.30656666666667 63.74696666666667 2183.94 0.0 0.0 1.0
-6.1290233333333335 39.946266666666666 1206.45 0.0 0.0 1.0
14.705353333333335 59.595400000000005 1578.89 0.0 0.0 1.0
55.66910000000001 102.67666666666666 2183.94 0.0 0.0 1.0
53.722633333333334 107.73700000000001 2183.94 0.0 0.0 1.0
54.30656666666667 116.88533333333334 2183.94 0.0 0.0 1.0
54.11193333333333 119.80533333333334 2183.94 0.0 0.0 1.0
55.08520000000001 128.759 2183.94 0.0 0.0 1.0
54.11193333333333 136.35 2183.94 0.0 0.0 1.0
54.11193333333333 136.35 2183.94 0.0 0.0 1.0
54.50123333333334 148.41833333333332 2183.94 0.0 0.0 1.0
54.50123333333334 148.41833333333332 2183.94 0.0 0.0 1.0
-0.29175700000000004 -92.95403333333333 1309.41 0.0 0.0 1.0
-8.884276666666667 -87.55593333333333 1194.42 -9.035150047189146e-15 -0.9725747560558667 0.23259050686318034
5.99681 -95.63 1431.58 0.0 0.0 1.0
0.5804626666666667 -83.38496666666667 1295.25 -0.9034031975331445 -0.10324554620615754 0.41617666906673506
10.226526666666667 -86.40776666666666 1452.43 0.0 0.0 1.0
5.262393333333333 -73.6142 1326.83 0.0 0.0 1.0
-2.200893333333333 -68.38586666666667 1265.1299999999999 0.698595851156774 -0.6985649398359298 0.15482526143548472
10.326153333333332 -81.75870000000002 1514.9533333333331 0.7953627426405604 -0.6059899504617173 0.013201801342660413
8.80259 -59.4822 1452.43 0.0 0.0 1.0
8.80259 -59.4822 1452.43 0.0 0.0 1.0
8.803213333333334 -57.12449999999999 1441.93 0.0 0.0 1.0
52.94403333333333 -77.17763333333333 2183.94 0.0 0.0 1.0
5.257323333333333 -44.2755 1421.38 0.0 0.0 1.0
-1.5819219999999998 -27.288133333333334 1267.8 0.0 0.0 1.0
-2.4858766666666665 -24.1243 1267.8 0.0 0.0 1.0
-9.10622 -5.291316666666667 1223.7300000000002 0.6033147725663167 0.7938397822140172 0.07635237637202325
-3.6820066666666666 -3.2914933333333334 1251.88 0.0 0.0 1.0
-3.6820066666666666 -3.2914933333333334 1251.88 0.0 0.0 1.0
53.1387 0.29197066666666666 2183.94 0.0 0.0 1.0
-1.9649133333333335 3.64912 1259.79 0.0 0.0 1.0
54.501200000000004 14.501233333333332 2183.94 0.0 0.0 1.0
53.91726666666667 16.253066666666665 2183.94 0.0 0.0 1.0
-3.3818400000000004 13.471933333333334 1244.07 0.0 0.0 1.0
-4.26888 18.572433333333333 1244.07 0.0 0.0 1.0
-4.544833333333333 20.533866666666665 1228.75 0.0 0.0 1.0
-4.654346666666666 21.848033333333333 1228.75 0.0 0.0 1.0
54.30656666666667 63.74696666666667 2183.94 0.0 0.0 1.0
-3.856066666666667 35.499 1254.5166666666667 -0.9331225987862932 0.33325750207688354 0.1349876029263073
18.058333333333334 61.59263333333334 1583.0900000000001 0.9187836627146398 0.3937666476585257 -0.028007290487250466
52.16543333333333 89.82966666666668 2183.94 0.0 0.0 1.0
6.499430333333333 69.73856666666667 1507.36 0.13988327839007889 -0.5453481441604097 0.8264551228515925
53.722633333333334 107.73700000000001 2183.94 0.0 0.0 1.0
53.527966666666664 108.12633333333333 2183.94 0.0 0.0 1.0
53.527966666666664 121.168 2183.94 0.0 0.0 1.0
53.3333 122.33600000000001 2183.94 0.0 0.0 1.0
53.722633333333334 136.73933333333332 2183.94 0.0 0.0 1.0
53.91726666666667 154.64700000000002 2183.94 0.0 0.0 1.0
6.889953333333334 -98.6922 1431.58 0.0 0.0 1.0
55.2798 -145.888 2183.94 0.0 0.0 1.0
6.618473333333333 -93.23693333333334 1441.93 0.0 0.0 1.0
-8.102613333333332 -72.49576666666667 1246.6733333333332 -0.3839451224186749 0.9214729107495315 -0.05893910183990497
8.546183333333333 -59.437733333333334 1441.93 0.0 0.0 1.0
8.80259 -59.4822 1452.43 0.0 0.0 1.0
0.06600666666666684 -43.8778 1254.5166666666667 9.097601464707657e-16 -0.8240577303828944 0.5665058313876328
7.044026666666667 -52.893100000000004 1411.32 0.0 0.0 1.0
7.044026666666667 -52.893100000000004 1411.32 0.0 0.0 1.0
52.94403333333333 -77.17763333333333 2183.94 0.0 0.0 1.0
-1.3246930000000001 -38.18573333333333 1292.44 0.0 0.0 1.0
-2.174533333333333 -33.36193333333333 1284.12 0.0 0.0 1.0
49.63506666666667 -49.537699999999994 2183.94 0.0 0.0 1.0
21.433516666666666 -34.098933333333335 1666.88 0.5674862754659309 -0.4986984861866625 0.6551787138124504
-3.53684 -4.2105266666666665 1259.79 0.0 0.0 1.0
-1.9834733333333332 13.057843333333333 1236.36 0.0 0.0 1.0
-4.239886666666667 14.449100000000001 1251.88 0.0 0.0 1.0
-4.4077166666666665 17.465566666666664 1236.36 0.0 0.0 1.0
4.541683333333334 21.626833333333334 1391.6766666666665 0.6501889977810915 0.1614353924518679 0.7424236534677024
-4.60152 19.792099999999998 1244.07 0.0 0.0 1.0
-7.00565 24.3503 1267.8 0.0 0.0 1.0
-5.221053333333333 33.06666666666666 1259.79 0.0 0.0 1.0
-2.0260096666666665 35.86586666666667 1228.75 0.0 0.0 1.0
52.55473333333333 82.8224 2183.94 0.0 0.0 1.0
16.449633333333335 63.62180000000001 1570.6233333333332 -0.7063198619825577 -0.7062636531760981 0.04799900802405434
53.528 93.52796666666666 2183.94 0.0 0.0 1.0
16.075333333333333 78.31196666666666 1546.2766666666666 -0.8288449204863346 -0.16576719747589452 0.5343569350396694
53.722633333333334 107.73700000000001 2183.94 0.0 0.0 1.0
53.333333333333336 116.69066666666667 2183.94 0.0 0.0 1.0
53.722633333333334 120.38933333333334 2183.94 0.0 0.0 1.0
54.11193333333333 134.59866666666665 2183.94 0.0 0.0 1.0
53.722633333333334 136.73933333333332 2183.94 0.0 0.0 1.0
53.91726666666667 154.64700000000002 2183.94 0.0 0.0 1.0
53.91726666666667 157.956 2183.94 0.0 0.0 1.0
50.413599999999995 -160.292 2183.94 0.0 0.0 1.0
6.889953333333334 -98.6922 1431.58 0.0 0.0 1.0
21.5846 -98.07256666666667 1538.3233333333335 0.40192752295710993 -0.48231458702404617 0.7783488327436393
-3.56702 -70.90703333333333 1251.9133333333332 -0.7056919256728857 -0.7056927036050935 0.06321957069316503
6.279686666666667 -77.38403333333333 1394.89 -0.5008186447390235 -0.8012936804839774 0.32727530108184016
-1.4689266666666665 -70.79096666666666 1267.8 0.0 0.0 1.0
13.760333333333335 -79.45853333333334 1507.36 0.37745429138540243 -0.9170603566385676 0.12856344813626852
2.810303333333333 -73.62996666666668 1401.41 0.0 0.0 1.0
6.251993333333334 -70.4944 1431.58 0.0 0.0 1.0
6.634766666666667 -69.85643333333333 1431.58 0.0 0.0 1.0
-2.060086666666667 -32.21746666666667 1284.12 0.0 0.0 1.0
-2.4858766666666665 -24.124299999999995 1267.8 0.0 0.0 1.0
-3.2298533333333332 -21.4201 1295.25 -0.8862964384909648 -0.46086922380424006 -0.04558707786543068
1.5396700000000003 -30.361833333333333 1381.99 0.0 0.0 1.0
54.8905 -37.66423333333333 2183.94 0.0 0.0 1.0
-3.0877166666666667 -18.58246666666667 1259.79 0.0 0.0 1.0
-3.7614 -14.989466666666667 1259.79 0.0 0.0 1.0
50.99753333333333 -18.00486666666667 2183.94 0.0 0.0 1.0
-3.53684 -4.2105266666666665 1259.79 0.0 0.0 1.0
-2.1894733333333334 0.954386 1259.79 0.0 0.0 1.0
-3.6958066666666674 1.3077456666666667 1275.91 0.0 0.0 1.0
53.138666666666666 48.95376666666667 2183.94 0.0 0.0 1.0
52.55473333333333 82.8224 2183.94 0.0 0.0 1.0
-3.3119066666666668 54.266999999999996 1231.2866666666666 0.13917589464165425 0.9742072581268564 0.1776240089730204
52.360099999999996 105.79066666666665 2183.94 0.0 0.0 1.0
52.74936666666667 109.29433333333334 2183.94 0.0 0.0 1.0
53.333333333333336 118.248 2183.94 0.0 0.0 1.0
52.943999999999996 123.89299999999999 2183.94 0.0 0.0 1.0
52.36006666666666 125.45 2183.94 0.0 0.0 1.0
51.9708 158.54 2183.94 0.0 0.0 1.0
51.38686666666666 -154.45266666666666 2183.94 0.0 0.0 1.0
6.889953333333334 -98.6922 1431.58 0.0 0.0 1.0
-3.51656 -71.9898 1273.2066666666667 -0.9807695406486655 -0.08528376442803592 0.1755499577350812
4.10758 -77.6528 1463.08 0.0 0.0 1.0
3.3872233333333335 -72.24016666666667 1381.99 0.0 0.0 1.0
0.232635 -58.30336666666667 1312.2933333333333 0.9948928198947404 3.2059763652531423e-15 0.10093699481306091
-1.16674 -58.42943333333333 1375.6499999999999 0.5989398712362933 0.6654892495564625 0.44541563664540207
52.16543333333333 -77.76156666666667 2183.94 0.0 0.0 1.0
-2.174533333333333 -33.36193333333333 1284.12 0.0 0.0 1.0
-2.060086666666667 -32.21746666666667 1284.12 0.0 0.0 1.0
-3.24094 -29.737 1275.91 0.0 0.0 1.0
-3.3546566666666666 -25.188333333333333 1275.91 0.0 0.0 1.0
-3.3546566666666666 -25.188333333333333 1275.91 0.0 0.0 1.0
-3.42456 -16.336833333333335 1259.79 0.0 0.0 1.0
-3.7614 -14.989466666666667 1259.79 0.0 0.0 1.0
-3.7614 -14.989466666666667 1259.79 0.0 0.0 1.0
-1.7186399999999997 -5.377683333333334 1244.07 0.0 0.0 1.0
-9.314103333333334 -8.512186666666667 1201.6166666666668 -0.2971563903516148 0.9508926643880485 -0.08660958657213745
-4.574613333333334 -4.741983333333334 1251.88 0.0 0.0 1.0
-3.53684 -4.2105266666666665 1259.79 0.0 0.0 1.0
51.9708 9.8297 2183.94 0.0 0.0 1.0
-4.239886666666667 14.449100000000001 1251.88 0.0 0.0 1.0
-4.4077166666666665 17.465566666666664 1236.36 0.0 0.0 1.0
-4.60152 19.792099999999998 1244.07 0.0 0.0 1.0
-4.60152 19.7921 1244.07 0.0 0.0 1.0
50.024333333333324 36.49636666666666 2183.94 0.0 0.0 1.0
2.13691 37.89433333333333 1369.3533333333332 -0.31578335333842256 0.9472812244069178 0.05421398012018559
-4.23462 34.048633333333335 1284.12 0.0 0.0 1.0
-4.97175 35.42373333333334 1267.8 0.0 0.0 1.0
-2.2462866666666668 45.59803333333334 1292.4766666666667 -0.6661673503073209 -0.5002350635160624 0.5531599611446985
50.60826666666666 78.73476666666666 2183.94 0.0 0.0 1.0
52.55473333333333 82.8224 2183.94 0.0 0.0 1.0
51.19223333333333 92.74936666666667 2183.94 0.0 0.0 1.0
51.9708 100.73 2183.94 0.0 0.0 1.0
51.9708 100.73 2183.94 0.0 0.0 1.0
51.9708 100.73 2183.94 0.0 0.0 1.0
51.77613333333333 109.48899999999999 2183.94 0.0 0.0 1.0
52.94403333333333 127.20166666666667 2183.94 0.0 0.0 1.0
51.9708 130.90033333333335 2183.94 0.0 0.0 1.0
52.554766666666666 150.17033333333333 2183.94 0.0 0.0 1.0
51.38686666666666 -155.231 2183.94 0.0 0.0 1.0
51.38686666666666 -154.45266666666666 2183.94 0.0 0.0 1.0
6.507176666666666 -98.18183333333333 1431.58 0.0 0.0 1.0
-8.122526666666666 -78.37793333333333 1208.8966666666668 0.24383576302305934 -0.9347436542240011 0.25845390606242313
4.690763333333334 -86.16866666666665 1441.93 0.0 0.0 1.0
4.593303333333333 -74.70493333333333 1431.58 0.0 0.0 1.0
-2.611993333333334 -69.55203333333333 1363.1 0.0 0.0 1.0
6.251993333333332 -70.4944 1431.58 0.0 0.0 1.0
3.636310333333333 -50.3912 1404.7133333333334 1.868677032299447e-16 -0.999997818466105 0.0020887946359480726
5.257323333333333 -44.2755 1421.38 0.0 0.0 1.0
-1.3246930000000001 -38.18573333333333 1292.44 0.0 0.0 1.0
14.844666666666667 -41.57853333333333 1507.3 0.0 0.0 1.0
-2.6723533333333336 -33.9446 1275.91 0.0 0.0 1.0
-3.5820899999999996 -30.3056 1275.91 0.0 0.0 1.0
15.69041 3.0255066666666672 1578.89 0.0 0.0 1.0
12.818466666666666 0.3411190000000002 1481.2033333333331 -0.34455778644388163 -0.6675804976612025 0.6600122809034037
50.60829999999999 18.00486666666667 2183.94 0.0 0.0 1.0
-4.909343333333333 14.225933333333332 1251.88 0.0 0.0 1.0
-4.996503 15.550899999999999 1259.79 0.0 0.0 1.0
-4.97175 35.42373333333334 1267.8 0.0 0.0 1.0
-5.287846666666667 38.1521 1275.91 0.0 0.0 1.0
51.19219999999999 105.20666666666666 2183.94 0.0 0.0 1.0
52.7494 137.12866666666665 2183.94 0.0 0.0 1.0
50.024333333333324 145.304 2183.94 0.0 0.0 1.0
50.80293333333333 150.17033333333333 2183.94 0.0 0.0 1.0
50.218999999999994 160.876 2183.94 0.0 0.0 1.0
-5.635363333333333 -98.29373333333335 1332.75 -0.1292912106326776 -0.9912595656037895 -0.02623464221450456
51.38686666666666 -154.45266666666666 2183.94 0.0 0.0 1.0
-0.29175700000000004 -92.95403333333333 1309.41 0.0 0.0 1.0
6.618473333333333 -93.23693333333334 1441.93 0.0 0.0 1.0
-2.0339 -73.72883333333333 1267.8 0.0 0.0 1.0
-3.5340166666666666 -68.08470000000001 1278.6466666666668 0.9945178386259123 0.08647926098189765 0.05878440333004061
5.869219999999999 -70.87716666666667 1431.58 0.0 0.0 1.0
5.869219999999999 -70.87716666666667 1431.58 0.0 0.0 1.0
50.41363333333333 -77.56689999999999 2183.94 0.0 0.0 1.0
5.975903333333334 -49.285133333333334 1441.93 0.0 0.0 1.0
-1.5964529999999997 -38.2557 1326.83 0.0 0.0 1.0
-2.4034333333333335 -35.07866666666667 1284.12 0.0 0.0 1.0
-4.036956666666667 -31.783966666666668 1275.91 0.0 0.0 1.0
-3.6958066666666665 -30.078166666666664 1275.91 0.0 0.0 1.0
-4.747299999999999 -30.175233333333335 1315.1766666666665 0.6275313886783853 -0.6589039517403829 0.41478902903076453
-3.7647366666666664 -26.091966666666664 1298.06 0.7058169879906292 -0.7058182562594928 0.060357009490570684
-4.519776666666666 -20.508499999999998 1267.8 0.0 0.0 1.0
50.99753333333333 -18.00486666666667 2183.94 0.0 0.0 1.0
-9.716003333333335 -7.779216666666667 1204.0333333333335 -1.9285526002737727e-17 -0.9966414101667513 0.0818895569705286
-1.2429366666666668 1.5254250000000003 1267.8 0.0 0.0 1.0
51.581500000000005 15.2798 2183.94 0.0 0.0 1.0
51.9708 29.2944 2183.94 0.0 0.0 1.0
-6.501376666666666 29.256199999999996 1236.36 0.0 0.0 1.0
52.74936666666667 51.87346666666667 2183.94 0.0 0.0 1.0
-5.1324966666666665 33.751733333333334 1251.88 0.0 0.0 1.0
2.13691 37.89433333333333 1369.3533333333332 -0.31578335333842256 0.9472812244069179 0.05421398012018559
49.63503333333333 73.67396666666667 2183.94 0.0 0.0 1.0
49.63503333333333 88.85646666666666 2183.94 0.0 0.0 1.0
50.99756666666667 109.09966666666666 2183.94 0.0 0.0 1.0
29.048656666666663 96.46776666666666 1830.0033333333333 -0.28787724528363084 0.37091811669200536 0.8829192728429729
51.77616666666666 135.37733333333333 2183.94 0.0 0.0 1.0
50.218999999999994 139.854 2183.94 0.0 0.0 1.0
48.2725 -132.4573333333333 2183.94 0.0 0.0 1.0
4.976076666666667 -66.0287 1431.58 0.0 0.0 1.0
5.257323333333334 -66.06493333333333 1421.38 0.0 0.0 1.0
5.975903333333332 -49.285133333333334 1441.93 0.0 0.0 1.0
-0.9429196666666666 -39.70433333333333 1323.9066666666665 4.709350795942881e-16 -0.9987237784830707 0.050505586745409656
-1.5964529999999997 -38.2557 1326.83 0.0 0.0 1.0
-3.809523333333333 -30.41933333333333 1275.91 0.0 0.0 1.0
-4.03696 -28.599833333333333 1275.91 0.0 0.0 1.0
-4.519776666666666 -20.508499999999998 1267.8 0.0 0.0 1.0
49.05113333333333 -31.435533333333336 2183.94 0.0 0.0 1.0
-5.782453333333334 -7.129826666666666 1259.79 0.0 0.0 1.0
-8.3316 -1.1594286666666667 1238.93 -0.09938983097151188 -0.9939088326616129 0.04761190876959038
-2.051283333333333 -2.60568 1244.07 0.0 0.0 1.0
50.99756666666667 -0.2919696666666667 2183.94 0.0 0.0 1.0
-3.6958066666666674 1.3077456666666667 1275.91 0.0 0.0 1.0
50.80293333333333 16.642333333333333 2183.94 0.0 0.0 1.0
50.60829999999999 18.00486666666667 2183.94 0.0 0.0 1.0
2.13691 37.89433333333333 1369.3533333333332 -0.31578335333842256 0.9472812244069178 0.05421398012018559
50.60826666666666 78.73476666666666 2183.94 0.0 0.0 1.0
16.6264 60.701166666666666 1608.6966666666667 0.989684292657515 -0.1413694586056314 0.02323095005687553
-3.9625800000000004 56.1886 1306.5633333333333 0.958673614283508 0.17430474610344765 0.22486163915263105
50.02433333333334 100.53533333333333 2183.94 0.0 0.0 1.0
50.60826666666666 101.11933333333332 2183.94 0.0 0.0 1.0
50.99756666666667 109.09966666666666 2183.94 0.0 0.0 1.0
4.405953333333334 75.26323333333333 1470.2866666666669 -0.7297673491380037 0.017799192621585563 0.68346382850456
49.05113333333333 154.06366666666668 2183.94 0.0 0.0 1.0
49.440400000000004 159.90266666666665 2183.94 0.0 0.0 1.0
49.0511 -159.124 2183.94 0.0 0.0 1.0
50.60826666666666 -154.258 2183.94 0.0 0.0 1.0
11.600786666666666 -106.02466666666668 1595.7566666666664 -0.9203135764150964 -1.604073831207248e-15 0.39118144264018295
6.618473333333333 -93.23693333333334 1441.93 0.0 0.0 1.0
5.566343333333333 -90.16183333333333 1452.43 0.0 0.0 1.0
4.819275666666667 -71.13253333333334 1441.93 0.0 0.0 1.0
4.976076666666667 -65.64593333333333 1431.58 0.0 0.0 1.0
3.444976666666666 -61.30783333333333 1431.58 0.0 0.0 1.0
5.975903333333332 -49.285133333333334 1441.93 0.0 0.0 1.0
48.856433333333335 -70.36496666666666 2183.94 0.0 0.0 1.0
-3.92324 -30.3056 1275.91 0.0 0.0 1.0
-4.719259999999999 -24.392299999999995 1275.91 0.0 0.0 1.0
48.85646666666667 -34.35523333333333 2183.94 0.0 0.0 1.0
0.8228206666666674 -23.93466666666667 1366.2266666666667 0.32491213606135044 0.3668357056474342 0.8717015939541464
50.99753333333333 -18.00486666666667 2183.94 0.0 0.0 1.0
11.278266666666667 2.56082 1473.9433333333334 0.8326692430143622 -0.47346491589152667 0.2872157815262223
-4.909343333333333 14.225933333333332 1251.88 0.0 0.0 1.0
-7.364016666666667 18.5774 1251.88 0.0 0.0 1.0
-6.1708 19.779633333333333 1236.36 0.0 0.0 1.0
-6.721763333333333 22.20386666666667 1236.36 0.0 0.0 1.0
-6.721763333333333 26.501366666666666 1236.36 0.0 0.0 1.0
-6.61157 27.823666666666668 1236.36 0.0 0.0 1.0
-6.501376666666666 29.256199999999996 1236.36 0.0 0.0 1.0
35.3605 60.773266666666665 1875.86 0.0 0.0 1.0
49.63503333333333 73.67396666666667 2183.94 0.0 0.0 1.0
16.6264 60.701166666666666 1608.6966666666667 0.9896842926575146 -0.14136945860563363 0.02323095005687529
50.60826666666666 78.73476666666666 2183.94 0.0 0.0 1.0
50.413599999999995 80.87593333333334 2183.94 0.0 0.0 1.0
5.718683333333334 66.14723333333333 1477.5466666666669 0.8931084371574509 -0.021783119132016047 0.44931371579226875
-4.337406666666667 52.45276666666666 1284.1566666666665 -0.9181030801269786 0.12090778870732681 0.3774493885162078
50.02433333333334 100.53533333333333 2183.94 0.0 0.0 1.0
49.44039999999999 104.81766666666665 2183.94 0.0 0.0 1.0
48.856433333333335 112.40899999999999 2183.94 0.0 0.0 1.0
51.581466666666664 124.08766666666668 2183.94 0.0 0.0 1.0
50.024333333333324 145.304 2183.94 0.0 0.0 1.0
49.440400000000004 159.90266666666665 2183.94 0.0 0.0 1.0
49.0511 -159.124 2183.94 0.0 0.0 1.0
46.90996666666667 -128.95366666666666 2183.94 0.0 0.0 1.0
46.910000000000004 -119.80533333333334 2183.94 0.0 0.0 1.0
-3.5340166666666666 -68.0847 1278.6466666666665 0.9945178386259124 0.08647926098189758 0.058784403330040653
-7.374426666666667 -60.72323333333333 1208.8966666666668 -0.4738549659650647 0.4738255887197969 0.7422605894863241
4.848483333333333 -66.53906666666667 1431.58 0.0 0.0 1.0
4.848483333333333 -66.53906666666667 1431.58 0.0 0.0 1.0
4.976076666666667 -65.64593333333333 1431.58 0.0 0.0 1.0
4.720893333333333 -62.71136666666666 1431.58 0.0 0.0 1.0
48.856433333333335 -70.36496666666666 2183.94 0.0 0.0 1.0
-4.036956666666667 -31.783966666666668 1275.91 0.0 0.0 1.0
44.405100000000004 -37.99453333333333 1881.7966666666664 0.6704220411441363 0.1289249428548296 0.7306932638652205
-4.719259999999999 -24.392299999999995 1275.91 0.0 0.0 1.0
-4.519776666666667 -20.5085 1267.8 0.0 0.0 1.0
-7.107686666666666 -10.11361 1226.24 0.9124562549870542 0.11773684006770276 0.39186939051917824
-5.801950000000001 -6.861926666666666 1251.88 0.0 0.0 1.0
50.99756666666667 -0.2919696666666667 2183.94 0.0 0.0 1.0
-4.605543333333333 1.194029 1275.91 0.0 0.0 1.0
49.24573333333333 10.218966666666667 2183.94 0.0 0.0 1.0
48.2725 26.764 2183.94 0.0 0.0 1.0
10.129513333333334 17.6339 1448.93 -0.06691247543545034 -0.9368883883491789 0.34316594878801493
50.024333333333324 36.49636666666667 2183.94 0.0 0.0 1.0
50.024333333333324 36.49636666666667 2183.94 0.0 0.0 1.0
-8.005243333333334 16.579600000000003 1204.0333333333335 0.6553347233365917 -0.23129053112366016 0.7190556936718379
-6.831956666666667 25.730033333333335 1236.36 0.0 0.0 1.0
-6.831956666666667 25.730033333333335 1236.36 0.0 0.0 1.0
-6.501376666666666 29.256199999999996 1236.36 0.0 0.0 1.0
48.2725 89.0511 2183.94 0.0 0.0 1.0
48.467166666666664 90.41363333333334 2183.94 0.0 0.0 1.0
-4.843003333333333 56.810833333333335 1323.9066666666665 0.5144521100724436 -0.8574185722162949 -0.013130821017017465
48.46713333333333 111.825 2183.94 0.0 0.0 1.0
48.2725 130.31633333333332 2183.94 0.0 0.0 1.0
48.2725 130.31633333333332 2183.94 0.0 0.0 1.0
50.024333333333324 145.304 2183.94 0.0 0.0 1.0
49.63506666666666 149.97566666666668 2183.94 0.0 0.0 1.0
49.24576666666667 160.68133333333333 2183.94 0.0 0.0 1.0
-8.884276666666667 -87.55593333333333 1194.42 5.9441776626244376e-15 -0.9725747560558685 0.23259050686317345
49.0511 -159.124 2183.94 0.0 0.0 1.0
6.845953333333334 -101.38529999999999 1463.08 0.0 0.0 1.0
5.99681 -95.63000000000001 1431.58 0.0 0.0 1.0
-7.374426666666667 -60.72323333333333 1208.8966666666668 -0.473854965965076 0.473825588719788 0.7422605894863226
50.41363333333334 -77.5669 2183.94 0.0 0.0 1.0
-4.120173333333333 -30.15736666666667 1284.12 0.0 0.0 1.0
47.49393333333334 -47.3966 2183.94 0.0 0.0 1.0
48.2725 -35.5231 2183.94 0.0 0.0 1.0
49.440400000000004 -32.798066666666664 2183.94 0.0 0.0 1.0
49.05113333333333 -29.878366666666665 2183.94 0.0 0.0 1.0
49.05113333333333 -29.878366666666665 2183.94 0.0 0.0 1.0
-7.118643333333334 -13.615799999999998 1267.8 0.0 0.0 1.0
47.88323333333333 -23.455000000000002 2183.94 0.0 0.0 1.0
48.0779 -23.06573333333333 2183.94 0.0 0.0 1.0
5.929776666666668 6.598183333333334 1435.03 -0.02987056938051294 -0.8363845268240526 0.5473286694246791
-5.95136 33.705299999999994 1284.12 0.0 0.0 1.0
-6.1193 31.831566666666664 1259.79 0.0 0.0 1.0
-6.1193 31.831566666666664 1259.79 0.0 0.0 1.0
-7.05234 38.84296666666666 1236.36 0.0 0.0 1.0
-10.83666 39.787499999999994 1192.03 0.0 0.0 1.0
49.63503333333333 73.67396666666667 2183.94 0.0 0.0 1.0
-4.369023333333334 51.751466666666666 1421.4266666666665 -0.5896692156459874 0.8075937203978631 -0.009088393333487535
48.661833333333334 91.19223333333332 2183.94 0.0 0.0 1.0
48.661833333333334 91.19223333333332 2183.94 0.0 0.0 1.0
-3.046666666666667 58.5611 1318.1000000000001 -0.37007605355540285 -0.9257472203567316 0.07769040215267088
47.49393333333334 141.02200000000002 2183.94 0.0 0.0 1.0
48.077866666666665 150.17033333333333 2183.94 0.0 0.0 1.0
48.272533333333335 153.285 2183.94 0.0 0.0 1.0
49.05113333333333 154.06366666666668 2183.94 0.0 0.0 1.0
49.24576666666667 160.68133333333333 2183.94 0.0 0.0 1.0
-8.884276666666667 -87.55593333333333 1194.42 -8.519987983095028e-15 -0.9725747560558669 0.23259050686318006
-13.161056666666667 -83.03373333333333 1241.5 -0.5133109627370587 -0.4779108855927717 0.7128204829870468
47.299266666666675 -112.21433333333333 2183.94 0.0 0.0 1.0
5.10367 -71.25996666666667 1431.58 0.0 0.0 1.0
12.893769999999998 -72.3077 1643.96 0.0 0.0 1.0
47.493900000000004 -71.33819999999999 2183.94 0.0 0.0 1.0
5.257323333333333 -44.2755 1421.38 0.0 0.0 1.0
-5.710326666666666 -30.21483333333333 1244.07 0.0 0.0 1.0
-4.4918266666666655 -28.941000000000003 1275.91 0.0 0.0 1.0
-4.719259999999999 -24.392299999999995 1275.91 0.0 0.0 1.0
-5.401563333333333 1.0803123333333333 1275.91 0.0 0.0 1.0
-6.917713333333334 12.998600000000001 1251.88 0.0 0.0 1.0
-6.819126666666667 22.0097 1244.07 0.0 0.0 1.0
48.2725 89.0511 2183.94 0.0 0.0 1.0
48.2725 89.63503333333334 2183.94 0.0 0.0 1.0
48.07783333333333 113.18766666666666 2183.94 0.0 0.0 1.0
9.841569999999999 86.20806666666665 1546.2766666666666 0.8746087032766794 0.17491985538758187 0.45217547516851553
47.68856666666667 152.117 2183.94 0.0 0.0 1.0
2.634538333333333 -98.63446666666668 1441.93 0.0 0.0 1.0
3.2771066666666666 -86.4257 1441.93 0.0 0.0 1.0
46.910000000000004 -119.80533333333334 2183.94 0.0 0.0 1.0
46.71533333333334 -113.577 2183.94 0.0 0.0 1.0
12.893769999999998 -72.3077 1643.96 0.0 0.0 1.0
47.10463333333333 -87.49393333333335 2183.94 0.0 0.0 1.0
47.10463333333333 -87.49393333333335 2183.94 0.0 0.0 1.0
47.10463333333333 -47.980533333333334 2183.94 0.0 0.0 1.0
47.49393333333334 -22.871066666666668 2183.94 0.0 0.0 1.0
-5.801950000000001 -6.861926666666666 1251.88 0.0 0.0 1.0
1.7118100000000005 -1.6985549999999998 1408.0166666666667 -0.4474517236377214 0.5851287069756982 0.6763219287340755
46.71533333333334 4.574206666666666 2183.94 0.0 0.0 1.0
46.71533333333334 4.574206666666666 2183.94 0.0 0.0 1.0
-8.814516666666666 30.18133333333333 1251.88 0.0 0.0 1.0
-9.591136666666666 28.7734 1244.07 0.0 0.0 1.0
-6.119299999999999 31.831566666666664 1259.79 0.0 0.0 1.0
-4.89796 31.0748 1221.22 0.0 0.0 1.0
-3.3383799999999995 53.1539 1315.1766666666665 -0.9795664741123874 0.0576217977431997 0.19268952026477057
35.3605 60.773266666666665 1875.86 0.0 0.0 1.0
-10.420833333333333 42.69873333333334 1199.2 0.0 0.0 1.0
-10.420833333333333 42.69873333333334 1199.2 0.0 0.0 1.0
47.4939 105.01233333333333 2183.94 0.0 0.0 1.0
46.131400000000006 117.46933333333334 2183.94 0.0 0.0 1.0
47.299299999999995 142.38466666666667 2183.94 0.0 0.0 1.0
3.1485966666666667 -104.032 1441.93 0.0 0.0 1.0
49.051066666666664 -154.258 2183.94 0.0 0.0 1.0
9.761683333333332 -107.35733333333333 1704.87 0.44272118374130354 0.49797307961707094 0.7456679994765695
2.04147 -78.02233333333334 1431.58 0.0 0.0 1.0
46.90996666666666 -110.657 2183.94 0.0 0.0 1.0
3.3173833333333334 -68.19776666666667 1431.58 0.0 0.0 1.0
30.606066666666663 -80.53033333333333 1700.0 0.0 0.0 1.0
6.845956666666667 -65.78646666666667 1463.08 0.0 0.0 1.0
46.13136666666666 -90.41363333333334 2183.94 0.0 0.0 1.0
46.326033333333335 -89.24576666666667 2183.94 0.0 0.0 1.0
11.18465 -61.82486666666667 1522.6633333333332 0.34498546813446296 0.7474675703734521 0.5676946873241406
4.65409 -48.113200000000006 1411.32 0.0 0.0 1.0
46.90996666666667 -47.201966666666664 2183.94 0.0 0.0 1.0
46.326033333333335 -36.49633333333333 2183.94 0.0 0.0 1.0
46.71533333333334 -23.065700000000003 2183.94 0.0 0.0 1.0
-3.9941266666666664 -8.046993333333335 1318.06 0.0 0.0 1.0
-3.9941266666666664 -8.046993333333335 1318.06 0.0 0.0 1.0
-6.737283333333333 -5.1885433333333335 1228.7766666666666 0.37500342331487524 -0.8417978285661717 0.38826389005855666
-1.7621166666666668 -0.41116333333333327 1318.06 0.0 0.0 1.0
46.32603333333333 12.749366666666667 2183.94 0.0 0.0 1.0
12.014009999999999 37.05433333333333 1515.07 0.061393368107415885 0.9974387580711229 0.03669847748835372
48.2725 72.70073333333333 2183.94 0.0 0.0 1.0
4.4622 48.99386666666666 1492.2866666666666 -0.8904016134599853 0.12720023049428347 0.43704126591210574
46.715300000000006 88.66180000000001 2183.94 0.0 0.0 1.0
46.13136666666667 109.09966666666666 2183.94 0.0 0.0 1.0
46.32603333333333 111.825 2183.94 0.0 0.0 1.0
46.90996666666666 113.18766666666666 2183.94 0.0 0.0 1.0
46.326033333333335 119.80533333333334 2183.94 0.0 0.0 1.0
47.1046 127.20166666666667 2183.94 0.0 0.0 1.0
46.71533333333333 131.095 2183.94 0.0 0.0 1.0
46.90996666666667 139.6593333333333 2183.94 0.0 0.0 1.0
47.68856666666667 151.1436666666667 2183.94 0.0 0.0 1.0
3.955346666666667 -98.94736666666667 1431.58 0.0 0.0 1.0
3.8277533333333333 -98.5646 1431.58 0.0 0.0 1.0
2.5060233333333333 -88.0964 1441.93 0.0 0.0 1.0
3.2771066666666666 -86.4257 1441.93 0.0 0.0 1.0
45.93673333333333 -126.03399999999999 2183.94 0.0 0.0 1.0
46.90996666666666 -110.657 2183.94 0.0 0.0 1.0
2.2489966666666668 -46.71483333333333 1441.93 0.0 0.0 1.0
9.967633333333334 -48.9968 1452.43 0.0 0.0 1.0
-1.5964529999999997 -38.2557 1326.83 0.0 0.0 1.0
-5.710326666666666 -30.21483333333333 1244.07 0.0 0.0 1.0
-5.83691 -29.3562 1284.12 0.0 0.0 1.0
-5.401563333333333 -24.61973333333333 1275.91 0.0 0.0 1.0
46.71533333333334 -23.065700000000003 2183.94 0.0 0.0 1.0
-5.401563333333333 1.0803123333333333 1275.91 0.0 0.0 1.0
46.32603333333333 12.749366666666667 2183.94 0.0 0.0 1.0
46.32603333333333 12.749366666666667 2183.94 0.0 0.0 1.0
44.9635 45.83943333333334 2183.94 0.0 0.0 1.0
-5.95136 33.7053 1284.12 0.0 0.0 1.0
-6.652449999999999 37.92466666666667 1275.91 0.0 0.0 1.0
-6.652449999999999 37.92466666666667 1275.91 0.0 0.0 1.0
-11.6866 40.106233333333336 1192.03 0.0 0.0 1.0
44.9635 76.59366666666666 2183.94 0.0 0.0 1.0
45.54743333333334 90.21896666666667 2183.94 0.0 0.0 1.0
-3.9625800000000004 56.1886 1306.5633333333333 0.958673614283508 0.17430474610344765 0.22486163915263105
45.3528 108.12633333333333 2183.94 0.0 0.0 1.0
46.13136666666667 111.241 2183.94 0.0 0.0 1.0
46.32603333333333 111.825 2183.94 0.0 0.0 1.0
46.32603333333333 143.94166666666666 2183.94 0.0 0.0 1.0
45.54743333333334 149.39166666666668 2183.94 0.0 0.0 1.0
3.1485966666666667 -104.032 1441.93 0.0 0.0 1.0
1.0356003333333332 -99.48226666666666 1452.43 0.0 0.0 1.0
2.6345383333333334 -98.63446666666668 1441.93 0.0 0.0 1.0
48.2725 -132.4573333333333 2183.94 0.0 0.0 1.0
-0.25157 -71.13206666666666 1411.32 0.0 0.0 1.0
3.0622000000000003 -69.6013 1431.58 0.0 0.0 1.0
-2.278677666666667 -53.0254 1381.99 0.0 0.0 1.0
-0.5620630000000002 -51.397333333333336 1401.41 0.0 0.0 1.0
47.4939 -71.33819999999999 2183.94 0.0 0.0 1.0
-9.044493333333333 -37.053266666666666 1309.41 0.0 0.0 1.0
-6.197579999999999 -30.760499999999997 1275.91 0.0 0.0 1.0
46.52066666666667 -47.7859 2183.94 0.0 0.0 1.0
-7.55365 -20.543633333333336 1284.12 0.0 0.0 1.0
0.062453666666667 -27.416066666666666 1401.41 0.0 0.0 1.0
46.13136666666667 3.7956199999999995 2183.94 0.0 0.0 1.0
46.13136666666667 3.7956199999999995 2183.94 0.0 0.0 1.0
-6.23158 6.680700000000001 1259.79 0.0 0.0 1.0
-8.479776666666666 18.689 1251.88 0.0 0.0 1.0
-6.819126666666667 22.0097 1244.07 0.0 0.0 1.0
-6.214686666666666 33.389833333333335 1267.8 0.0 0.0 1.0
-10.420833333333333 42.69873333333334 1199.2 0.0 0.0 1.0
-11.6866 40.106233333333336 1192.03 0.0 0.0 1.0
44.9635 76.59366666666666 2183.94 0.0 0.0 1.0
45.54743333333334 90.21896666666665 2183.94 0.0 0.0 1.0
44.1849 100.73 2183.94 0.0 0.0 1.0
45.7421 104.81766666666665 2183.94 0.0 0.0 1.0
46.13136666666666 111.241 2183.94 0.0 0.0 1.0
45.35276666666667 127.20166666666667 2183.94 0.0 0.0 1.0
45.35276666666667 137.90733333333333 2183.94 0.0 0.0 1.0
45.54743333333334 145.49866666666665 2183.94 0.0 0.0 1.0
44.96346666666667 155.23100000000002 2183.94 0.0 0.0 1.0
44.96346666666667 155.23100000000002 2183.94 0.0 0.0 1.0
3.9630566666666667 -106.59966666666666 1507.3 0.0 0.0 1.0
44.37956666666667 -141.41133333333332 2183.94 0.0 0.0 1.0
2.5060233333333333 -87.32530000000001 1441.93 0.0 0.0 1.0
1.4035133333333334 -76.61883333333333 1431.58 0.0 0.0 1.0
43.99026666666666 -113.96633333333334 2183.94 0.0 0.0 1.0
0.4433900000000001 -70.75216666666667 1421.38 0.0 0.0 1.0
13.994066666666667 -73.80763333333333 1635.0 -0.6976944540060265 0.6976944540060178 0.16261887251631435
44.184900000000006 -95.27980000000001 2183.94 0.0 0.0 1.0
46.13136666666666 -90.41363333333334 2183.94 0.0 0.0 1.0
-0.2551833333333333 -53.52473333333333 1431.58 0.0 0.0 1.0
43.40633333333333 -82.43310000000001 2183.94 0.0 0.0 1.0
1.2572366666666668 -52.605466666666665 1484.86 0.0 0.0 1.0
-1.5311000000000001 -48.0383 1431.58 0.0 0.0 1.0
-9.043473333333333 -37.391333333333336 1300.87 0.0 0.0 1.0
-11.231106666666667 -13.765300000000002 1292.44 0.0 0.0 1.0
46.131400000000006 -22.287133333333333 2183.94 0.0 0.0 1.0
-9.842636666666666 -6.008583333333334 1284.12 0.0 0.0 1.0
43.99026666666666 -7.493916666666666 2183.94 0.0 0.0 1.0
43.99026666666666 -7.493916666666666 2183.94 0.0 0.0 1.0
-8.033473333333333 12.106 1251.88 0.0 0.0 1.0
45.3528 25.9854 2183.94 0.0 0.0 1.0
-8.479776666666666 19.358433333333334 1251.88 0.0 0.0 1.0
44.9635 45.83943333333334 2183.94 0.0 0.0 1.0
-6.879883333333333 36.7875 1275.91 0.0 0.0 1.0
44.9635 90.21896666666667 2183.94 0.0 0.0 1.0
-3.973306666666667 57.253800000000005 1312.2933333333333 -0.9448707265955139 -0.17179512364372387 0.2787575030651254
43.99026666666666 122.53066666666666 2183.94 0.0 0.0 1.0
44.37956666666667 132.847 2183.94 0.0 0.0 1.0
44.76883333333333 146.861 2183.94 0.0 0.0 1.0
44.57423333333333 -141.99533333333332 2183.94 0.0 0.0 1.0
44.37956666666667 -141.41133333333332 2183.94 0.0 0.0 1.0
10.326153333333332 -81.75870000000002 1514.9533333333331 0.7953627426405604 -0.6059899504617173 0.01320180134266039
44.76886666666667 -119.80533333333334 2183.94 0.0 0.0 1.0
0.4433900000000001 -70.75216666666667 1421.38 0.0 0.0 1.0
13.994066666666667 -73.80763333333333 1635.0 -0.6976944540060265 0.6976944540060178 0.16261887251631435
45.93676666666667 -78.54016666666666 2183.94 0.0 0.0 1.0
2.2489966666666668 -46.71483333333333 1441.93 0.0 0.0 1.0
-6.180256666666666 -31.416300000000003 1284.12 0.0 0.0 1.0
-6.425016666666667 -29.6233 1275.91 0.0 0.0 1.0
45.098400000000005 -46.6472 2176.056666666667 -0.8222361678493426 0.5481730907816202 0.1530815038577593
-8.587570000000001 -13.050833333333332 1267.8 0.0 0.0 1.0
-7.242103333333334 -9.26317 1259.79 0.0 0.0 1.0
-8.474576666666668 -9.548026666666667 1267.8 0.0 0.0 1.0
-3.9941266666666664 -8.046993333333333 1318.06 0.0 0.0 1.0
-6.680700000000001 3.0877176666666664 1259.79 0.0 0.0 1.0
-8.02807 5.557893333333333 1259.79 0.0 0.0 1.0
44.96353333333334 13.138666666666666 2183.94 0.0 0.0 1.0
44.3796 14.306566666666667 2183.94 0.0 0.0 1.0
44.96353333333334 14.501233333333332 2183.94 0.0 0.0 1.0
-6.905263333333333 31.382433333333335 1259.79 0.0 0.0 1.0
-9.378516666666668 32.485866666666666 1267.8 0.0 0.0 1.0
4.72192 39.95896666666667 1492.2866666666666 -0.9997790073859598 -2.5002130627595246e-14 0.02102228318581412
-6.652449999999999 37.92466666666667 1275.91 0.0 0.0 1.0
-9.386283333333333 39.113733333333336 1204.0333333333335 0.11664411157987722 0.9914116727949582 0.05913582906871207
44.9635 90.21896666666667 2183.94 0.0 0.0 1.0
-7.285956666666666 60.902966666666664 1278.6466666666665 -0.8858894581134175 -0.20134012276754776 0.41792585821825406
44.5742 104.42833333333333 2183.94 0.0 0.0 1.0
44.37956666666667 114.35533333333335 2183.94 0.0 0.0 1.0
43.99026666666666 131.48433333333332 2183.94 0.0 0.0 1.0
1.3136296666666667 -101.8721 1473.89 0.0 0.0 1.0
44.37956666666667 -141.41133333333332 2183.94 0.0 0.0 1.0
2.5060233333333333 -88.0964 1441.93 0.0 0.0 1.0
1.4035133333333334 -76.61883333333333 1431.58 0.0 0.0 1.0
1.4035133333333334 -76.61883333333334 1431.58 0.0 0.0 1.0
43.99026666666666 -113.96633333333334 2183.94 0.0 0.0 1.0
-0.25157 -71.13206666666666 1411.32 0.0 0.0 1.0
-1.5456599999999998 -61.80956666666666 1388.4166666666667 -0.9459588941276833 -0.31531115731968884 0.07576704224429612
11.709849999999998 -61.5751 1526.5466666666669 -0.24417025100711112 0.8057785359652759 0.5395385431095546
1.2572366666666668 -52.605466666666665 1484.86 0.0 0.0 1.0
-1.2403133333333332 -51.2868 1391.63 0.0 0.0 1.0
-8.23614 -35.53636666666667 1292.44 0.0 0.0 1.0
-17.782133333333334 -37.7823 1216.2666666666667 -0.6197851471234984 0.7804623263856494 0.08212751364678882
-6.638053333333333 -31.1874 1284.12 0.0 0.0 1.0
-6.981403333333333 -28.211699999999997 1284.12 0.0 0.0 1.0
46.32603333333333 -36.49633333333333 2183.94 0.0 0.0 1.0
-7.095853333333333 -21.802566666666667 1284.12 0.0 0.0 1.0
-8.35821 -19.6162 1275.91 0.0 0.0 1.0
46.91 -29.099766666666667 2183.94 0.0 0.0 1.0
-8.587570000000001 -13.050833333333332 1267.8 0.0 0.0 1.0
-7.242103333333334 -9.26317 1259.79 0.0 0.0 1.0
-9.14922 11.5481 1251.88 0.0 0.0 1.0
44.37956666666667 20.72993333333333 2183.94 0.0 0.0 1.0
-8.479776666666666 18.688999999999997 1251.88 0.0 0.0 1.0
-9.26082 19.693166666666666 1251.88 0.0 0.0 1.0
43.7956 46.22873333333333 2183.94 0.0 0.0 1.0
-8.814516666666666 30.18133333333333 1251.88 0.0 0.0 1.0
-9.035803333333334 28.48483333333333 1236.36 0.0 0.0 1.0
4.72192 39.95896666666667 1492.2866666666666 -0.9997790073859598 -2.5002130627595246e-14 0.02102228318581412
4.72192 39.95896666666667 1492.2866666666666 -0.99977900738596 -4.4082534567840487e-14 0.021022283185805936
42.23846666666666 65.1095 2183.94 0.0 0.0 1.0
-11.6866 40.106233333333336 1192.03 0.0 0.0 1.0
43.211666666666666 101.50866666666666 2183.94 0.0 0.0 1.0
43.600966666666665 102.09266666666667 2183.94 0.0 0.0 1.0
43.40633333333333 109.29433333333334 2183.94 0.0 0.0 1.0
43.211666666666666 122.92 2183.94 0.0 0.0 1.0
43.600966666666665 130.12166666666667 2183.94 0.0 0.0 1.0
43.600966666666665 135.37699999999998 2183.94 0.0 0.0 1.0
43.600966666666665 135.37699999999998 2183.94 0.0 0.0 1.0
43.600966666666665 142.774 2183.94 0.0 0.0 1.0
44.379533333333335 144.33100000000002 2183.94 0.0 0.0 1.0
43.40633333333333 147.63966666666667 2183.94 0.0 0.0 1.0
43.99023333333333 155.03633333333335 2183.94 0.0 0.0 1.0
42.433099999999996 160.48666666666668 2183.94 0.0 0.0 1.0
2.488373333333333 -101.60713333333332 1514.9533333333331 0.4290615473434197 0.8250544087580757 0.3676838467761841
11.600786666666666 -106.02466666666668 1595.756666666667 -0.9203135764150968 1.782796452648294e-14 0.3911814426401817
11.600786666666666 -106.02466666666668 1595.756666666667 -0.9203135764150961 -1.6598159034871553e-15 0.391181442640183
4.10758 -77.6528 1463.08 0.0 0.0 1.0
43.99026666666666 -113.96633333333334 2183.94 0.0 0.0 1.0
-1.909161 -56.22786666666667 1381.99 0.0 0.0 1.0
-1.5456599999999998 -61.80956666666666 1388.4166666666667 -0.9459588941276834 -0.31531115731968856 0.07576704224429613
-1.6586933333333331 -60.92503333333334 1431.58 0.0 0.0 1.0
43.40633333333333 -82.43310000000001 2183.94 0.0 0.0 1.0
2.2489966666666668 -46.71483333333333 1441.93 0.0 0.0 1.0
-10.703236666666667 -8.510863333333333 1298.06 -0.4280357370650559 0.794918112158434 0.42998907283516574
-8.69936 3.8095233333333334 1275.91 0.0 0.0 1.0
-9.930263333333333 10.097606666666666 1251.88 0.0 0.0 1.0
-10.798886666666668 27.713466666666665 1236.36 0.0 0.0 1.0
-7.782546666666666 34.39196666666667 1284.12 0.0 0.0 1.0
42.433099999999996 75.81506666666667 2183.94 0.0 0.0 1.0
-12.111566666666667 41.38113333333334 1192.03 0.0 0.0 1.0
42.822399999999995 84.9635 2183.94 0.0 0.0 1.0
42.4331 86.1314 2183.94 0.0 0.0 1.0
43.2117 91.5815 2183.94 0.0 0.0 1.0
43.01703333333333 98.58883333333334 2183.94 0.0 0.0 1.0
42.62773333333333 100.34066666666666 2183.94 0.0 0.0 1.0
43.211666666666666 101.50866666666666 2183.94 0.0 0.0 1.0
43.211666666666666 108.12633333333333 2183.94 0.0 0.0 1.0
43.211666666666666 110.657 2183.94 0.0 0.0 1.0
43.211666666666666 122.92 2183.94 0.0 0.0 1.0
43.211666666666666 135.96066666666664 2183.94 0.0 0.0 1.0
42.62773333333333 142.19 2183.94 0.0 0.0 1.0
43.40633333333333 147.63966666666667 2183.94 0.0 0.0 1.0
43.40633333333333 147.63966666666667 2183.94 0.0 0.0 1.0
-4.309143333333333 97.02313333333332 1511.1266666666668 -0.481117960742917 0.7066713374349961 0.5187881346931624
-11.648533333333333 93.3342 1295.25 -0.5571235118948823 -0.6267715081730049 0.5447668024360972
0.847596666666667 -102.95030000000001 1463.08 0.0 0.0 1.0
2.6345383333333334 -98.63446666666668 1441.93 0.0 0.0 1.0
-4.7457633333333336 -82.3164 1267.8 0.0 0.0 1.0
-0.06425700000000001 -90.79520000000001 1441.93 0.0 0.0 1.0
-0.64725 -89.64399999999999 1452.43 0.0 0.0 1.0
-0.321285 -84.24096666666667 1441.93 0.0 0.0 1.0
41.2652 -123.69866666666667 2183.94 0.0 0.0 1.0
42.62773333333333 -120.97333333333334 2183.94 0.0 0.0 1.0
0.706827 -79.35743333333333 1441.93 0.0 0.0 1.0
0.706827 -79.35743333333333 1441.93 0.0 0.0 1.0
4.479903333333334 -71.6435 1484.9166666666667 -0.5848527517391171 0.7792781089412577 0.22510639197526178
42.62773333333333 -83.7956 2183.94 0.0 0.0 1.0
2.3775093333333337 -55.45383333333333 1441.93 0.0 0.0 1.0
-8.240343333333334 -27.525000000000002 1284.12 0.0 0.0 1.0
-8.240343333333334 -22.6037 1284.12 0.0 0.0 1.0
-8.813076666666666 -15.7498 1275.91 0.0 0.0 1.0
-11.357123333333334 -8.512186666666667 1201.6166666666668 0.28247846290252693 -0.9039236810751128 0.3211353247275105
-11.089356666666667 -7.100840000000001 1196.8100000000002 -0.22468764911542013 0.7189945909278272 0.657694639290539
-7.56219 2.4449166666666664 1275.91 0.0 0.0 1.0
43.211666666666666 12.165433333333334 2183.94 0.0 0.0 1.0
43.795633333333335 13.333333333333334 2183.94 0.0 0.0 1.0
42.82236666666666 42.5304 2183.94 0.0 0.0 1.0
-7.00565 24.3503 1267.8 0.0 0.0 1.0
43.7956 46.22873333333333 2183.94 0.0 0.0 1.0
42.62773333333333 98.58883333333334 2183.94 0.0 0.0 1.0
42.43306666666666 100.73 2183.94 0.0 0.0 1.0
42.82236666666666 101.31400000000001 2183.94 0.0 0.0 1.0
43.40633333333333 106.76366666666667 2183.94 0.0 0.0 1.0
42.23843333333333 111.63033333333334 2183.94 0.0 0.0 1.0
43.211666666666666 122.92 2183.94 0.0 0.0 1.0
43.600966666666665 130.12166666666667 2183.94 0.0 0.0 1.0
43.211666666666666 135.96066666666664 2183.94 0.0 0.0 1.0
-17.572366666666667 74.82929999999999 1216.2666666666667 0.30705550987451896 0.26319172426929666 0.9145747810495617
41.849133333333334 149.97566666666668 2183.94 0.0 0.0 1.0
42.43306666666667 155.42533333333333 2183.94 0.0 0.0 1.0
24.7527 -92.20390000000002 1662.25 0.5530014746620161 -0.7776543028255183 0.2990704838639091
-0.38277333333333335 -74.83253333333334 1431.58 0.0 0.0 1.0
3.148592666666666 -58.795199999999994 1441.93 0.0 0.0 1.0
53.76176666666667 -85.2801 2042.3700000000001 0.2853556134266529 0.9399938806880059 0.18703924228621568
42.0438 -82.43310000000001 2183.94 0.0 0.0 1.0
40.29196666666667 -67.25063333333334 2183.94 0.0 0.0 1.0
-8.813076666666667 -19.047633333333334 1275.91 0.0 0.0 1.0
-8.813076666666667 -19.047633333333334 1275.91 0.0 0.0 1.0
-8.813076666666666 -15.7498 1275.91 0.0 0.0 1.0
-8.926793333333334 -6.3113 1275.91 0.0 0.0 1.0
43.99026666666666 -7.493916666666666 2183.94 0.0 0.0 1.0
-9.818686666666666 10.878633333333333 1251.88 0.0 0.0 1.0
-11.852926666666667 12.731913333333333 1204.0333333333335 -0.9411149341055218 0.3321523569656404 -0.06306736529877112
-10.376566666666667 13.221733333333333 1251.88 0.0 0.0 1.0
43.600966666666665 24.233566666666665 2183.94 0.0 0.0 1.0
-10.04182 17.907966666666667 1251.88 0.0 0.0 1.0
41.45983333333333 40.0 2183.94 0.0 0.0 1.0
-11.808733333333334 27.77546666666667 1244.07 0.0 0.0 1.0
41.45986666666666 75.42576666666668 2183.94 0.0 0.0 1.0
42.433099999999996 75.81506666666667 2183.94 0.0 0.0 1.0
41.265233333333335 82.43306666666666 2183.94 0.0 0.0 1.0
42.0438 90.99756666666667 2183.94 0.0 0.0 1.0
41.849133333333334 100.34066666666666 2183.94 0.0 0.0 1.0
41.07056666666667 113.38233333333334 2183.94 0.0 0.0 1.0
42.433099999999996 160.48666666666668 2183.94 0.0 0.0 1.0
9.128163333333333 -109.40933333333334 1587.29 -0.9879107692723865 -1.9038096894578308e-13 0.1550235851592942
30.364433333333334 -126.17400000000002 1786.3033333333333 -0.0694897301068505 0.9729432649991683 0.22034650099884803
9.761683333333332 -107.35733333333333 1704.87 0.44272118374130304 0.49797307961707193 0.7456679994765691
0.06425700000000001 -81.41366666666667 1441.93 0.0 0.0 1.0
-0.6379583333333333 -77.63953333333333 1431.58 0.0 0.0 1.0
-2.216946333333333 -72.90576666666666 1421.38 0.0 0.0 1.0
2.933986666666667 -72.04563333333333 1463.08 0.0 0.0 1.0
-2.278677666666667 -53.0254 1381.99 0.0 0.0 1.0
-2.278677666666667 -53.0254 1381.99 0.0 0.0 1.0
-2.9761899999999994 -47.083333333333336 1335.71 0.0 0.0 1.0
-9.04248 -37.8402 1292.44 0.0 0.0 1.0
-10.318833333333334 -29.507233333333335 1300.87 0.0 0.0 1.0
-8.813076666666667 -19.047633333333334 1275.91 0.0 0.0 1.0
-9.381673333333334 -6.652449999999999 1275.91 0.0 0.0 1.0
-8.926793333333334 -6.3113 1275.91 0.0 0.0 1.0
-10.376566666666667 10.990200000000002 1251.88 0.0 0.0 1.0
-10.376566666666667 13.221733333333333 1251.88 0.0 0.0 1.0
-10.822899999999999 19.693166666666666 1251.88 0.0 0.0 1.0
-8.474576666666666 27.17513333333333 1267.8 0.0 0.0 1.0
-11.808733333333334 27.77546666666667 1244.07 0.0 0.0 1.0
-9.193756666666665 32.00756666666667 1289.6666666666667 -0.22891282464737533 0.9155784386048039 0.33062825268562457
-8.814516666666666 30.18133333333333 1251.88 0.0 0.0 1.0
