ply
format ascii 1.0
comment VCGLIB generated
element vertex 840
property float x
property float y
property float z
property float nx
property float ny
property float nz
element face 0
property list uchar int vertex_indices
end_header
-112.49366666666667 -49.283966666666664 2216.3 0.0 0.0 1.0
-106.09733333333332 -33.73983333333334 1824.39 0.0 0.0 1.0
-106.99099999999999 -22.9382 1818.84 0.0 0.0 1.0
-105.77233333333334 -11.3008 1824.39 0.0 0.0 1.0
-106.66666666666667 -5.953106666666667 1829.97 0.0 0.0 1.0
-110.91366666666666 13.530833333333334 2216.3 0.0 0.0 1.0
-112.09866666666666 36.444433333333336 2216.3 0.0 0.0 1.0
-111.90133333333334 37.6296 2216.3 0.0 0.0 1.0
-112.29633333333334 71.01233333333333 2216.3 0.0 0.0 1.0
-112.296 73.7778 2216.3 0.0 0.0 1.0
-112.09866666666666 75.35803333333332 2216.3 0.0 0.0 1.0
-112.29633333333334 95.50616666666667 2216.3 0.0 0.0 1.0
-107.07833333333333 89.1358 1846.91 0.0 0.0 1.0
-107.07833333333333 89.1358 1846.91 0.0 0.0 1.0
-112.49366666666667 124.346 2216.3 0.0 0.0 1.0
-114.27133333333332 127.90133333333334 2216.3 0.0 0.0 1.0
-106.99666666666667 114.89266666666667 1864.1866666666667 -0.9795465088642432 0.08108621273635129 0.18415662647851827
-112.29633333333334 156.3456666666667 2216.3 0.0 0.0 1.0
-109.84133333333334 -143.03866666666667 2035.37 0.0 0.0 1.0
-109.65966666666667 -142.313 2035.37 0.0 0.0 1.0
-110.38566666666667 -131.79166666666666 2035.37 0.0 0.0 1.0
-112.88866666666667 -121.58033333333333 2216.3 0.0 0.0 1.0
-112.88866666666667 -116.04933333333334 2216.3 0.0 0.0 1.0
-113.48133333333334 -108.54333333333334 2216.3 0.0 0.0 1.0
-112.29633333333334 -90.76546666666665 2216.3 0.0 0.0 1.0
-112.69133333333333 -87.80246666666666 2216.3 0.0 0.0 1.0
-113.87666666666667 -81.48150000000001 2216.3 0.0 0.0 1.0
-113.08666666666666 -53.827133333333336 2216.3 0.0 0.0 1.0
-106.09733333333332 -33.73983333333334 1824.39 0.0 0.0 1.0
-106.991 -22.9382 1818.84 0.0 0.0 1.0
-106.66666666666667 -17.58866666666667 1818.84 0.0 0.0 1.0
-107.07333333333334 -13.252 1824.39 0.0 0.0 1.0
-106.82966666666668 -8.073393333333334 1829.97 0.0 0.0 1.0
-106.99300000000001 -7.094799999999999 1829.97 0.0 0.0 1.0
-112.49399999999999 9.580256666666665 2216.3 0.0 0.0 1.0
-114.27166666666666 23.209866666666667 2216.3 0.0 0.0 1.0
-112.49366666666667 37.03703333333333 2216.3 0.0 0.0 1.0
-112.29633333333334 55.80246666666667 2216.3 0.0 0.0 1.0
-107.40433333333333 49.6274 1846.9233333333334 -0.971202088296338 0.0011829299854680933 0.23825428509363974
-112.29633333333334 71.01233333333333 2216.3 0.0 0.0 1.0
-113.08666666666666 77.33330000000001 2216.3 0.0 0.0 1.0
-112.29633333333334 95.50616666666667 2216.3 0.0 0.0 1.0
-107.572 89.46499999999999 1846.91 0.0 0.0 1.0
-111.50633333333333 153.58066666666664 2216.3 0.0 0.0 1.0
-112.29633333333334 156.3456666666667 2216.3 0.0 0.0 1.0
-110.38533333333334 -134.694 2035.37 0.0 0.0 1.0
-110.38533333333334 -134.694 2035.37 0.0 0.0 1.0
-113.08633333333334 -135.20966666666666 2216.3 0.0 0.0 1.0
-113.87633333333333 -120.395 2216.3 0.0 0.0 1.0
-113.28366666666666 -115.06166666666667 2216.3 0.0 0.0 1.0
-113.87633333333333 -114.66666666666667 2216.3 0.0 0.0 1.0
-113.67866666666667 -111.11133333333333 2216.3 0.0 0.0 1.0
-113.48133333333334 -108.54333333333334 2216.3 0.0 0.0 1.0
-114.07366666666667 -107.16033333333333 2216.3 0.0 0.0 1.0
-113.086 -72.5926 2216.3 0.0 0.0 1.0
-113.086 -72.5926 2216.3 0.0 0.0 1.0
-113.28366666666666 -51.2593 2216.3 0.0 0.0 1.0
-113.48133333333334 -49.08643333333333 2216.3 0.0 0.0 1.0
-107.153 -24.72136666666667 1818.84 0.0 0.0 1.0
-106.991 -22.9382 1818.84 0.0 0.0 1.0
-107.80833333333334 -3.8328233333333332 1829.97 0.0 0.0 1.0
-107.80833333333334 -3.8328233333333332 1829.97 0.0 0.0 1.0
-114.074 41.77779999999999 2216.3 0.0 0.0 1.0
-114.074 56.79013333333334 2216.3 0.0 0.0 1.0
-108.46066666666667 76.9011 1829.97 0.0 0.0 1.0
-106.74900000000001 87.1605 1846.91 0.0 0.0 1.0
-108.395 90.28806666666667 1846.91 0.0 0.0 1.0
-108.12366666666667 103.67 1850.7233333333334 -0.9974781369570479 -9.374939200694928e-16 0.07097440589886587
-108.12366666666667 103.67 1850.7233333333334 -0.9974781369570479 7.278756147484325e-16 0.07097440589886599
-112.49366666666667 126.32133333333333 2216.3 0.0 0.0 1.0
-108.403 114.20100000000001 1858.3966666666668 -0.8941877088413223 0.3555508960641186 0.27205128499073356
-108.96133333333334 121.40966666666667 1862.2433333333336 -0.8870335593795641 -0.44307192835608317 0.12984117543076684
-110.74866666666667 -145.75933333333333 2035.37 0.0 0.0 1.0
-110.92999999999999 -137.59666666666666 2035.37 0.0 0.0 1.0
-112.01833333333333 -129.07 2035.37 0.0 0.0 1.0
-111.83699999999999 -124.71666666666665 2035.37 0.0 0.0 1.0
-114.46933333333334 -126.71600000000001 2216.3 0.0 0.0 1.0
-113.48133333333334 -108.54333333333334 2216.3 0.0 0.0 1.0
-113.87666666666667 -81.4815 2216.3 0.0 0.0 1.0
-114.27166666666666 -78.12343333333332 2216.3 0.0 0.0 1.0
-114.27166666666666 -78.12343333333332 2216.3 0.0 0.0 1.0
-114.27133333333332 -74.56793333333333 2216.3 0.0 0.0 1.0
-113.28366666666666 -51.2593 2216.3 0.0 0.0 1.0
-115.45666666666666 -42.17283333333334 2216.3 0.0 0.0 1.0
-107.63933333333334 -24.397166666666667 1818.84 0.0 0.0 1.0
-108.21133333333334 -12.439 1824.39 0.0 0.0 1.0
-108.13466666666666 -4.32212 1829.97 0.0 0.0 1.0
-107.89366666666666 3.5173833333333335 1835.58 0.0 0.0 1.0
-113.67899999999999 9.185196666666666 2216.3 0.0 0.0 1.0
-114.27166666666666 9.97532 2216.3 0.0 0.0 1.0
-114.074 41.77779999999999 2216.3 0.0 0.0 1.0
-112.88900000000001 87.60493333333334 2216.3 0.0 0.0 1.0
-112.88900000000001 87.60493333333334 2216.3 0.0 0.0 1.0
-108.23033333333332 89.95883333333332 1846.91 0.0 0.0 1.0
-107.90133333333334 94.23866666666667 1846.91 0.0 0.0 1.0
-109.565 99.6272 1858.39 0.0 0.0 1.0
-108.12366666666667 103.67 1850.7233333333334 -0.9974781369570479 8.527407071385721e-16 0.07097440589886599
-108.96133333333334 121.40966666666667 1862.2433333333336 -0.8870335593795641 -0.44307192835608317 0.12984117543076684
-115.457 -162.86433333333332 2216.3 0.0 0.0 1.0
-112.56266666666666 -145.9406666666667 2035.37 0.0 0.0 1.0
-111.29266666666666 -140.68033333333332 2035.37 0.0 0.0 1.0
-111.65566666666666 -139.0476666666667 2035.37 0.0 0.0 1.0
-112.19966666666669 -130.88466666666667 2035.37 0.0 0.0 1.0
-111.83699999999999 -124.71666666666665 2035.37 0.0 0.0 1.0
-115.25933333333334 -133.8273333333333 2216.3 0.0 0.0 1.0
-115.25933333333334 -133.8273333333333 2216.3 0.0 0.0 1.0
-114.66666666666667 -128.09866666666667 2216.3 0.0 0.0 1.0
-115.25933333333334 -124.54333333333334 2216.3 0.0 0.0 1.0
-114.27166666666666 -115.45666666666666 2216.3 0.0 0.0 1.0
-113.87633333333333 -114.66666666666667 2216.3 0.0 0.0 1.0
-115.65433333333333 -99.4568 2216.3 0.0 0.0 1.0
-115.65433333333334 -91.55556666666666 2216.3 0.0 0.0 1.0
-114.27166666666666 -80.09876666666668 2216.3 0.0 0.0 1.0
-114.27166666666666 -78.12343333333332 2216.3 0.0 0.0 1.0
-115.85199999999999 -67.45683333333334 2216.3 0.0 0.0 1.0
-114.27166666666666 -62.12343333333333 2216.3 0.0 0.0 1.0
-114.86433333333333 -54.22220000000001 2216.3 0.0 0.0 1.0
-114.86433333333333 -54.22220000000001 2216.3 0.0 0.0 1.0
-114.074 -50.074099999999994 2216.3 0.0 0.0 1.0
-116.04933333333334 -36.0494 2216.3 0.0 0.0 1.0
-107.55033333333334 -17.91163333333333 1802.41 0.0 0.0 1.0
-108.29766666666667 -7.5840966666666665 1829.97 0.0 0.0 1.0
-108.13466666666666 -4.32212 1829.97 0.0 0.0 1.0
-109.27633333333334 -2.2018366666666664 1829.97 0.0 0.0 1.0
-115.25933333333334 23.802466666666664 2216.3 0.0 0.0 1.0
-110.60366666666668 26.22436666666667 1756.5600000000002 0.2857404358300687 -0.9524342875819145 0.10593078480769162
-108.78800000000001 27.373166666666666 1760.0100000000002 0.12327830464595944 -0.9865812372751953 0.10705102456381671
-114.074 41.7778 2216.3 0.0 0.0 1.0
-114.86433333333332 48.69136666666666 2216.3 0.0 0.0 1.0
-114.86433333333332 48.69136666666666 2216.3 0.0 0.0 1.0
-115.45666666666666 52.83950000000001 2216.3 0.0 0.0 1.0
-110.76033333333334 50.624433333333336 1841.24 0.0829639088677225 0.9957926472844716 0.038910068614333194
-115.85199999999999 66.2716 2216.3 0.0 0.0 1.0
-114.27166666666666 78.32096666666666 2216.3 0.0 0.0 1.0
-108.78699999999999 73.14983333333333 1829.97 0.0 0.0 1.0
-108.78699999999999 73.14983333333333 1829.97 0.0 0.0 1.0
-108.78699999999999 74.9439 1829.97 0.0 0.0 1.0
-108.395 90.28806666666667 1846.91 0.0 0.0 1.0
-107.90133333333334 94.23866666666667 1846.91 0.0 0.0 1.0
-111.70400000000001 145.28366666666668 2216.3 0.0 0.0 1.0
-108.69066666666667 122.665 1866.1133333333335 0.860703499310079 0.42992010296530386 -0.27268698418092424
-112.19966666666669 -130.88466666666667 2035.37 0.0 0.0 1.0
-112.01833333333333 -129.07 2035.37 0.0 0.0 1.0
-112.01833333333333 -129.07 2035.37 0.0 0.0 1.0
-111.837 -124.71666666666665 2035.37 0.0 0.0 1.0
-115.25933333333334 -129.4813333333333 2216.3 0.0 0.0 1.0
-115.45666666666666 -123.55566666666665 2216.3 0.0 0.0 1.0
-115.45666666666666 -123.55566666666665 2216.3 0.0 0.0 1.0
-115.45666666666666 -119.20966666666665 2216.3 0.0 0.0 1.0
-115.45666666666666 -119.20966666666665 2216.3 0.0 0.0 1.0
-115.85166666666667 -110.71600000000001 2216.3 0.0 0.0 1.0
-114.86399999999999 -109.926 2216.3 0.0 0.0 1.0
-114.86399999999999 -107.16033333333333 2216.3 0.0 0.0 1.0
-116.24666666666667 -85.6296 2216.3 0.0 0.0 1.0
-114.66666666666667 -76.14816666666667 2216.3 0.0 0.0 1.0
-114.07366666666667 -72.5926 2216.3 0.0 0.0 1.0
-115.85199999999999 -67.45683333333334 2216.3 0.0 0.0 1.0
-114.66666666666667 -52.839499999999994 2216.3 0.0 0.0 1.0
-107.80133333333333 -22.28976666666667 1818.84 0.0 0.0 1.0
-109.113 -8.236493333333334 1829.97 0.0 0.0 1.0
-109.11333333333333 -3.180426666666667 1829.97 0.0 0.0 1.0
-107.89366666666666 3.5173833333333335 1835.58 0.0 0.0 1.0
-115.85166666666667 16.691366666666664 2216.3 0.0 0.0 1.0
-115.25933333333334 23.802466666666664 2216.3 0.0 0.0 1.0
-110.53266666666667 31.794866666666664 1770.41 0.0 0.0 1.0
-114.86433333333332 48.69136666666666 2216.3 0.0 0.0 1.0
-115.45666666666666 52.83950000000001 2216.3 0.0 0.0 1.0
-115.85200000000002 66.8642 2216.3 0.0 0.0 1.0
-115.06166666666667 79.11110000000001 2216.3 0.0 0.0 1.0
-115.85166666666667 80.49383333333333 2216.3 0.0 0.0 1.0
-108.78699999999999 73.14983333333333 1829.97 0.0 0.0 1.0
-108.78699999999999 73.8022 1829.97 0.0 0.0 1.0
-110.39333333333333 98.46786666666667 1858.39 0.0 0.0 1.0
-116.04933333333334 155.55566666666667 2216.3 0.0 0.0 1.0
-115.654 156.54333333333332 2216.3 0.0 0.0 1.0
-116.24666666666667 159.70366666666666 2216.3 0.0 0.0 1.0
-115.65433333333333 -163.25933333333333 2216.3 0.0 0.0 1.0
-115.65433333333333 -162.66666666666666 2216.3 0.0 0.0 1.0
-115.85166666666667 -131.45666666666668 2216.3 0.0 0.0 1.0
-115.25933333333334 -124.54333333333334 2216.3 0.0 0.0 1.0
-115.45666666666666 -119.20966666666668 2216.3 0.0 0.0 1.0
-116.247 -107.95066666666666 2216.3 0.0 0.0 1.0
-116.642 -97.4815 2216.3 0.0 0.0 1.0
-116.44466666666666 -92.93823333333334 2216.3 0.0 0.0 1.0
-115.65433333333333 -91.55556666666666 2216.3 0.0 0.0 1.0
-114.86433333333332 -39.20986666666667 2216.3 0.0 0.0 1.0
-116.44433333333335 -34.271633333333334 2216.3 0.0 0.0 1.0
-107.55033333333334 -17.91163333333333 1802.41 0.0 0.0 1.0
-110.16266666666667 -10.9756 1824.39 0.0 0.0 1.0
-109.113 -8.236493333333334 1829.97 0.0 0.0 1.0
-115.45666666666666 9.97532 2216.3 0.0 0.0 1.0
-115.85166666666667 16.691366666666667 2216.3 0.0 0.0 1.0
-116.04933333333334 21.6296 2216.3 0.0 0.0 1.0
-116.04933333333334 21.6296 2216.3 0.0 0.0 1.0
-115.85166666666667 23.802466666666664 2216.3 0.0 0.0 1.0
-108.38933333333334 19.250933333333336 1680.9000000000003 1.5621826334685755e-27 -2.2719688554990987e-27 1.0
-112.573 20.818966666666668 1711.3433333333332 3.5551871797000386e-15 0.9658543874113534 0.2590855115946063
-114.27166666666666 39.01233333333334 2216.3 0.0 0.0 1.0
-116.04933333333334 57.1852 2216.3 0.0 0.0 1.0
-116.04933333333334 57.1852 2216.3 0.0 0.0 1.0
-110.142 105.37833333333333 1843.1233333333332 -0.7634313930502598 -0.6360205342913625 0.1124739439384486
-110.95966666666668 115.17033333333332 1852.63 0.0 0.0 1.0
-111.05566666666668 123.80933333333333 1858.39 0.0 0.0 1.0
-110.89033333333333 123.97499999999998 1858.39 0.0 0.0 1.0
-102.4903 130.68066666666667 1822.54 -0.32559149973678014 0.814513053341526 0.48016524367702695
-116.642 -163.45666666666668 2216.3 0.0 0.0 1.0
-113.65066666666667 -142.49433333333334 2035.37 0.0 0.0 1.0
-113.28800000000001 -137.0523333333333 2035.37 0.0 0.0 1.0
-112.56233333333334 -132.1543333333333 2035.37 0.0 0.0 1.0
-115.25933333333334 -133.8273333333333 2216.3 0.0 0.0 1.0
-116.24666666666667 -117.62966666666667 2216.3 0.0 0.0 1.0
-117.03699999999999 -112.69133333333333 2216.3 0.0 0.0 1.0
-116.83933333333334 -105.38266666666668 2216.3 0.0 0.0 1.0
-116.44433333333332 -100.4443 2216.3 0.0 0.0 1.0
-116.642 -97.4815 2216.3 0.0 0.0 1.0
-116.642 -92.14813333333332 2216.3 0.0 0.0 1.0
-116.24666666666667 -85.6296 2216.3 0.0 0.0 1.0
-117.432 -62.518499999999996 2216.3 0.0 0.0 1.0
-116.247 -59.950633333333336 2216.3 0.0 0.0 1.0
-117.62933333333332 -45.135799999999996 2216.3 0.0 0.0 1.0
-116.04933333333334 -36.0494 2216.3 0.0 0.0 1.0
-110.32533333333333 -21.8699 1824.39 0.0 0.0 1.0
-110.0 -13.414633333333333 1824.39 0.0 0.0 1.0
-109.76566666666668 -2.364933333333333 1829.97 0.0 0.0 1.0
-109.60266666666666 -1.8756366666666666 1829.97 0.0 0.0 1.0
-110.74399999999999 4.159016666666666 1829.97 0.0 0.0 1.0
-116.83933333333333 9.97532 2216.3 0.0 0.0 1.0
-115.85166666666667 16.691366666666667 2216.3 0.0 0.0 1.0
-116.64166666666667 23.20986666666667 2216.3 0.0 0.0 1.0
-116.24666666666667 23.604933333333335 2216.3 0.0 0.0 1.0
-112.573 20.818966666666668 1711.3433333333332 3.5551871797000386e-15 0.9658543874113534 0.2590855115946063
-116.44433333333332 46.518499999999996 2216.3 0.0 0.0 1.0
-116.24666666666667 52.83950000000001 2216.3 0.0 0.0 1.0
-116.04933333333334 57.1852 2216.3 0.0 0.0 1.0
-116.64166666666667 73.38273333333332 2216.3 0.0 0.0 1.0
-116.64166666666667 73.38273333333332 2216.3 0.0 0.0 1.0
-116.444 74.17286666666666 2216.3 0.0 0.0 1.0
-109.27633333333331 72.49746666666667 1829.97 0.0 0.0 1.0
-110.39333333333333 98.46786666666667 1858.39 0.0 0.0 1.0
-110.89033333333333 99.9585 1858.39 0.0 0.0 1.0
-110.95966666666668 115.17033333333332 1852.63 0.0 0.0 1.0
-116.64166666666667 157.33333333333334 2216.3 0.0 0.0 1.0
-113.50833333333333 -146.83433333333332 2037.6866666666665 9.368542644546681e-17 0.9558354900119717 0.29390222189288395
-113.83233333333332 -127.80033333333334 2035.37 0.0 0.0 1.0
-116.04933333333334 -116.83933333333334 2216.3 0.0 0.0 1.0
-116.83933333333334 -110.71600000000001 2216.3 0.0 0.0 1.0
-117.432 -85.82713333333334 2216.3 0.0 0.0 1.0
-115.25933333333334 -77.9259 2216.3 0.0 0.0 1.0
-117.62966666666667 -55.01233333333334 2216.3 0.0 0.0 1.0
-116.44433333333332 -35.2593 2216.3 0.0 0.0 1.0
-116.64200000000001 -32.8889 2216.3 0.0 0.0 1.0
-117.432 -31.901233333333334 2216.3 0.0 0.0 1.0
-110.32533333333333 -21.8699 1824.39 0.0 0.0 1.0
-110.81299999999999 -16.3415 1824.39 0.0 0.0 1.0
-110.65033333333334 -14.715466666666666 1824.39 0.0 0.0 1.0
-110.16266666666667 -10.9756 1824.39 0.0 0.0 1.0
-110.16266666666667 -10.9756 1824.39 0.0 0.0 1.0
-110.74399999999999 1.2232393333333336 1829.97 0.0 0.0 1.0
-110.74399999999999 1.2232393333333336 1829.97 0.0 0.0 1.0
-116.64166666666667 23.20986666666667 2216.3 0.0 0.0 1.0
-116.642 43.35803333333333 2216.3 0.0 0.0 1.0
-117.43200000000002 50.469166666666666 2216.3 0.0 0.0 1.0
-116.83933333333334 51.65433333333334 2216.3 0.0 0.0 1.0
-117.43233333333335 63.703700000000005 2216.3 0.0 0.0 1.0
-116.83933333333334 72.98766666666667 2216.3 0.0 0.0 1.0
-116.83933333333334 72.98766666666667 2216.3 0.0 0.0 1.0
-115.85166666666667 80.49383333333334 2216.3 0.0 0.0 1.0
-111.52266666666667 87.65429999999999 1846.91 0.0 0.0 1.0
-111.52266666666667 89.30040000000001 1846.91 0.0 0.0 1.0
-110.53500000000001 91.60493333333334 1846.91 0.0 0.0 1.0
-110.72466666666666 99.13033333333333 1858.39 0.0 0.0 1.0
-111.056 100.95233333333333 1858.39 0.0 0.0 1.0
-117.62966666666667 126.32099999999998 2216.3 0.0 0.0 1.0
-118.02466666666668 127.70366666666666 2216.3 0.0 0.0 1.0
-111.95066666666666 117.97733333333333 1852.63 0.0 0.0 1.0
-116.83933333333334 161.28400000000002 2216.3 0.0 0.0 1.0
-116.64200000000001 -163.45666666666668 2216.3 0.0 0.0 1.0
-114.01366666666667 -145.39666666666668 2035.37 0.0 0.0 1.0
-114.62166666666667 -113.98866666666667 2028.47 0.0 0.0 1.0
-114.62166666666667 -113.98866666666667 2028.47 0.0 0.0 1.0
-117.03699999999999 -114.469 2216.3 0.0 0.0 1.0
-118.41966666666666 -109.13600000000001 2216.3 0.0 0.0 1.0
-116.64200000000001 -97.4815 2216.3 0.0 0.0 1.0
-117.62966666666667 -92.74073333333335 2216.3 0.0 0.0 1.0
-117.432 -89.58026666666667 2216.3 0.0 0.0 1.0
-118.02466666666665 -73.38273333333332 2216.3 0.0 0.0 1.0
-117.03699999999999 -68.642 2216.3 0.0 0.0 1.0
-118.02466666666665 -62.716033333333336 2216.3 0.0 0.0 1.0
-117.432 -57.97533333333333 2216.3 0.0 0.0 1.0
-117.62966666666667 -55.01233333333334 2216.3 0.0 0.0 1.0
-110.581 -5.463813333333333 1829.97 0.0 0.0 1.0
-110.74400000000001 1.2232393333333336 1829.97 0.0 0.0 1.0
-110.74399999999999 4.159016666666666 1829.97 0.0 0.0 1.0
-117.82733333333333 13.530833333333334 2216.3 0.0 0.0 1.0
-118.22233333333332 13.925899999999999 2216.3 0.0 0.0 1.0
-108.38933333333334 19.250933333333336 1680.9000000000003 1.5621826334685752e-27 -2.2719688554990987e-27 1.0
-110.53266666666667 31.794866666666664 1770.41 0.0 0.0 1.0
-117.43233333333335 63.703700000000005 2216.3 0.0 0.0 1.0
-117.63 64.8889 2216.3 0.0 0.0 1.0
-117.82733333333333 66.0741 2216.3 0.0 0.0 1.0
-111.056 100.95233333333333 1858.39 0.0 0.0 1.0
-117.03699999999999 155.75300000000001 2216.3 0.0 0.0 1.0
-115.82766666666667 -137.23366666666666 2035.37 0.0 0.0 1.0
-115.28366666666666 -127.43766666666666 2035.37 0.0 0.0 1.0
-114.37633333333333 -123.084 2035.37 0.0 0.0 1.0
-114.62166666666667 -113.98866666666667 2028.47 0.0 0.0 1.0
-115.70633333333332 -104.407 2028.47 0.0 0.0 1.0
-117.62966666666667 -109.926 2216.3 0.0 0.0 1.0
-118.02433333333333 -99.8517 2216.3 0.0 0.0 1.0
-118.81466666666665 -94.5185 2216.3 0.0 0.0 1.0
-117.62966666666667 -87.80246666666666 2216.3 0.0 0.0 1.0
-118.02466666666665 -73.38273333333332 2216.3 0.0 0.0 1.0
-118.02466666666665 -73.38273333333332 2216.3 0.0 0.0 1.0
-118.02466666666665 -72.39506666666666 2216.3 0.0 0.0 1.0
-118.02466666666665 -62.716033333333336 2216.3 0.0 0.0 1.0
-118.02466666666665 -62.716033333333336 2216.3 0.0 0.0 1.0
-118.61733333333332 -55.407399999999996 2216.3 0.0 0.0 1.0
-119.01233333333333 -47.90123333333333 2216.3 0.0 0.0 1.0
-118.81466666666665 -47.1111 2216.3 0.0 0.0 1.0
-119.21 -42.962999999999994 2216.3 0.0 0.0 1.0
-118.02466666666665 -31.308633333333333 2216.3 0.0 0.0 1.0
-118.61733333333332 -29.530833333333334 2216.3 0.0 0.0 1.0
-110.65033333333334 -14.715466666666666 1824.39 0.0 0.0 1.0
-118.02433333333333 9.97532 2216.3 0.0 0.0 1.0
-118.41966666666666 13.3333 2216.3 0.0 0.0 1.0
-118.222 46.32096666666666 2216.3 0.0 0.0 1.0
-118.02466666666668 50.271633333333334 2216.3 0.0 0.0 1.0
-117.82733333333333 66.0741 2216.3 0.0 0.0 1.0
-117.827 72.98766666666667 2216.3 0.0 0.0 1.0
-117.827 73.18520000000001 2216.3 0.0 0.0 1.0
-111.23366666666668 74.2915 1829.97 0.0 0.0 1.0
-113.79933333333332 80.1621 1818.84 0.0 0.0 1.0
-112.51033333333334 94.07406666666668 1846.91 0.0 0.0 1.0
-112.77600000000001 96.8421 1852.63 0.0 0.0 1.0
-118.02433333333333 157.33333333333334 2216.3 0.0 0.0 1.0
-118.61733333333335 162.46900000000002 2216.3 0.0 0.0 1.0
-114.55766666666666 -144.3083333333333 2035.37 0.0 0.0 1.0
-115.82766666666667 -137.23366666666666 2035.37 0.0 0.0 1.0
-116.009 -136.508 2035.37 0.0 0.0 1.0
-116.009 -123.44666666666667 2035.37 0.0 0.0 1.0
-119.20966666666665 -129.87666666666667 2216.3 0.0 0.0 1.0
-116.42933333333333 -101.33333333333333 2028.47 0.0 0.0 1.0
-117.827 -103.20966666666668 2216.3 0.0 0.0 1.0
-119.20966666666665 -93.9259 2216.3 0.0 0.0 1.0
-117.432 -85.82713333333334 2216.3 0.0 0.0 1.0
-119.21 -42.962999999999994 2216.3 0.0 0.0 1.0
-118.61733333333332 -36.44446666666667 2216.3 0.0 0.0 1.0
-119.21 -32.09876666666667 2216.3 0.0 0.0 1.0
-118.61733333333332 -30.716033333333332 2216.3 0.0 0.0 1.0
-118.61733333333332 -29.530833333333334 2216.3 0.0 0.0 1.0
-118.61733333333332 -29.530833333333334 2216.3 0.0 0.0 1.0
-109.42233333333336 -21.965533333333337 1818.84 0.0 0.0 1.0
-110.97566666666667 -10.9756 1824.39 0.0 0.0 1.0
-112.21199999999999 -6.605503333333334 1829.97 0.0 0.0 1.0
-117.62966666666667 16.098766666666666 2216.3 0.0 0.0 1.0
-118.41966666666667 23.012333333333334 2216.3 0.0 0.0 1.0
-109.438 19.400766666666666 1680.9000000000003 -2.3988968210191457e-28 9.597722483739257e-28 1.0
-111.96833333333332 22.583333333333332 1729.49 -0.08655519959568829 -0.952680971734509 0.2913883379923472
-120.0 32.69136666666667 2216.3 0.0 0.0 1.0
-118.02466666666665 50.86423333333334 2216.3 0.0 0.0 1.0
-118.222 56.98766666666666 2216.3 0.0 0.0 1.0
-118.81466666666665 71.20986666666667 2216.3 0.0 0.0 1.0
-112.70133333333332 70.2141 1829.97 0.0 0.0 1.0
-113.004 94.5679 1846.91 0.0 0.0 1.0
-112.38099999999999 98.13663333333334 1858.39 0.0 0.0 1.0
-120.59266666666667 120.0 2216.3 0.0 0.0 1.0
-119.01233333333334 125.33333333333333 2216.3 0.0 0.0 1.0
-110.142 105.37833333333333 1843.1233333333332 -0.76343139305026 -0.6360205342913624 0.1124739439384486
-111.29 116.161 1852.63 0.0 0.0 1.0
-111.95066666666666 117.97733333333333 1852.63 0.0 0.0 1.0
-112.87766666666668 125.96300000000001 1858.39 0.0 0.0 1.0
-112.87766666666668 127.78466666666667 1858.39 0.0 0.0 1.0
-120.0 -160.29633333333334 2216.3 0.0 0.0 1.0
-119.40733333333333 -130.07399999999998 2216.3 0.0 0.0 1.0
-119.40733333333333 -129.48133333333334 2216.3 0.0 0.0 1.0
-116.42933333333333 -110.73466666666667 2028.47 0.0 0.0 1.0
-115.70633333333332 -104.407 2028.47 0.0 0.0 1.0
-116.068 -103.68366666666667 2028.47 0.0 0.0 1.0
-119.20966666666665 -108.741 2216.3 0.0 0.0 1.0
-118.81466666666665 -97.4815 2216.3 0.0 0.0 1.0
-118.81466666666665 -97.4815 2216.3 0.0 0.0 1.0
-119.20966666666665 -93.9259 2216.3 0.0 0.0 1.0
-119.20966666666665 -93.9259 2216.3 0.0 0.0 1.0
-119.01233333333333 -54.617266666666666 2216.3 0.0 0.0 1.0
-113.02766666666666 -3.506626666666667 1829.97 0.0 0.0 1.0
-112.70133333333332 -2.528033333333333 1829.97 0.0 0.0 1.0
-119.80233333333332 9.580256666666665 2216.3 0.0 0.0 1.0
-118.41966666666667 13.728366666666668 2216.3 0.0 0.0 1.0
-118.41966666666667 23.012333333333334 2216.3 0.0 0.0 1.0
-110.887 27.583533333333335 1763.46 1.516946028858465e-17 -0.9998776320665159 0.015643557557572817
-118.81466666666665 38.222199999999994 2216.3 0.0 0.0 1.0
-115.27866666666667 33.6974 1779.1899999999998 -1.0010778706626264e-16 -0.9807730981718876 0.1951515562385216
-120.19733333333333 56.0 2216.3 0.0 0.0 1.0
-118.81466666666665 71.20986666666667 2216.3 0.0 0.0 1.0
-112.70133333333332 70.2141 1829.97 0.0 0.0 1.0
-113.90233333333333 79.9187 1824.39 0.0 0.0 1.0
-111.52266666666667 87.65429999999999 1846.91 0.0 0.0 1.0
-112.776 96.8421 1852.63 0.0 0.0 1.0
-120.48599999999999 93.93400000000001 1806.0366666666669 0.1351747033587925 -0.29169006977711415 0.9469132498625652
-112.87766666666668 125.96299999999998 1858.39 0.0 0.0 1.0
-112.87766666666668 125.96300000000001 1858.39 0.0 0.0 1.0
-112.87766666666668 127.78466666666667 1858.39 0.0 0.0 1.0
-118.41966666666667 156.3456666666667 2216.3 0.0 0.0 1.0
-120.0 -160.29633333333334 2216.3 0.0 0.0 1.0
-115.82766666666667 -137.23366666666666 2035.37 0.0 0.0 1.0
-116.372 -128.16333333333333 2035.37 0.0 0.0 1.0
-119.40733333333333 -129.48133333333334 2216.3 0.0 0.0 1.0
-116.42933333333333 -110.73466666666667 2028.47 0.0 0.0 1.0
-116.791 -110.19233333333334 2028.47 0.0 0.0 1.0
-120.19733333333333 -107.75333333333333 2216.3 0.0 0.0 1.0
-116.61 -98.98306666666667 2028.47 0.0 0.0 1.0
-119.01233333333333 -92.34566666666666 2216.3 0.0 0.0 1.0
-120.98766666666667 -80.8889 2216.3 0.0 0.0 1.0
-119.20966666666665 -55.01233333333334 2216.3 0.0 0.0 1.0
-119.605 -47.1111 2216.3 0.0 0.0 1.0
-120.19766666666668 -36.0494 2216.3 0.0 0.0 1.0
-119.21 -32.09876666666667 2216.3 0.0 0.0 1.0
-121.38266666666668 -25.1852 2216.3 0.0 0.0 1.0
-111.78866666666666 -10.4878 1824.39 0.0 0.0 1.0
-113.02766666666666 -3.506626666666667 1829.97 0.0 0.0 1.0
-115.58266666666667 3.1901833333333336 1835.58 0.0 0.0 1.0
-109.438 19.400766666666666 1680.9000000000003 -2.3988968210191466e-28 9.597722483739257e-28 1.0
-120.19766666666668 31.901233333333334 2216.3 0.0 0.0 1.0
-120.19733333333333 46.518499999999996 2216.3 0.0 0.0 1.0
-119.40733333333333 53.4321 2216.3 0.0 0.0 1.0
-120.0 63.7037 2216.3 0.0 0.0 1.0
-120.0 63.7037 2216.3 0.0 0.0 1.0
-120.19766666666668 64.2963 2216.3 0.0 0.0 1.0
-113.02766666666668 74.4546 1829.97 0.0 0.0 1.0
-113.10066666666667 89.44423333333333 1843.1233333333332 -0.9976390504611415 -9.528535413309661e-17 0.06867550505815002
-114.37966666666667 91.81536666666666 1841.2300000000002 1.5997918253679346e-27 1.0664866188613185e-27 1.0
-113.66233333333332 94.2387 1846.91 0.0 0.0 1.0
-113.49766666666666 94.56790000000001 1846.91 0.0 0.0 1.0
-112.776 96.8421 1852.63 0.0 0.0 1.0
-112.38099999999999 98.13663333333334 1858.39 0.0 0.0 1.0
-119.40733333333333 127.30833333333332 2216.3 0.0 0.0 1.0
-121.18533333333333 130.66666666666666 2216.3 0.0 0.0 1.0
-118.42 147.06166666666667 2216.3 0.0 0.0 1.0
-120.0 -160.29633333333334 2216.3 0.0 0.0 1.0
-120.988 -158.12333333333333 2216.3 0.0 0.0 1.0
-117.46033333333332 -140.68033333333332 2035.37 0.0 0.0 1.0
-117.46033333333332 -140.68033333333332 2035.37 0.0 0.0 1.0
-116.73466666666667 -132.69833333333332 2035.37 0.0 0.0 1.0
-117.82333333333334 -129.07033333333334 2035.37 0.0 0.0 1.0
-118.18599999999999 -125.07933333333334 2035.37 0.0 0.0 1.0
-117.33366666666666 -103.68366666666667 2028.47 0.0 0.0 1.0
-117.928 -86.39640000000001 2021.62 0.0 0.0 1.0
-117.748 -78.2883 2021.62 0.0 0.0 1.0
-120.98766666666667 -80.88889999999999 2216.3 0.0 0.0 1.0
-121.778 -75.9506 2216.3 0.0 0.0 1.0
-121.38266666666668 -50.469166666666666 2216.3 0.0 0.0 1.0
-120.79033333333335 -49.481500000000004 2216.3 0.0 0.0 1.0
-119.21 -42.962999999999994 2216.3 0.0 0.0 1.0
-112.21199999999999 -6.605503333333332 1829.97 0.0 0.0 1.0
-113.02766666666668 -3.506626666666666 1829.97 0.0 0.0 1.0
-110.27999999999999 13.658499999999998 1621.68 0.0 0.0 1.0
-120.19766666666668 64.2963 2216.3 0.0 0.0 1.0
-113.843 69.5617 1829.97 0.0 0.0 1.0
-113.51666666666667 70.051 1829.97 0.0 0.0 1.0
-113.827 94.5679 1846.91 0.0 0.0 1.0
-113.87133333333334 125.13466666666666 1858.39 0.0 0.0 1.0
-120.19766666666668 153.9753333333333 2216.3 0.0 0.0 1.0
-121.383 160.88866666666667 2216.3 0.0 0.0 1.0
-120.593 161.67866666666666 2216.3 0.0 0.0 1.0
-121.383 162.66633333333334 2216.3 0.0 0.0 1.0
-117.46033333333332 -140.68033333333332 2035.37 0.0 0.0 1.0
-116.42933333333333 -113.08466666666668 2028.47 0.0 0.0 1.0
-117.514 -109.64999999999999 2028.47 0.0 0.0 1.0
-116.791 -101.33333333333333 2028.47 0.0 0.0 1.0
-121.38266666666668 -107.75333333333333 2216.3 0.0 0.0 1.0
-118.10833333333333 -89.99996666666665 2021.62 0.0 0.0 1.0
-117.748 -78.2883 2021.62 0.0 0.0 1.0
-120.79033333333335 -49.481500000000004 2216.3 0.0 0.0 1.0
-121.38266666666668 -23.012333333333334 2216.3 0.0 0.0 1.0
-110.569 14.670233333333334 1621.68 0.0 0.0 1.0
-121.77766666666668 32.8889 2216.3 0.0 0.0 1.0
-121.38266666666665 37.432066666666664 2216.3 0.0 0.0 1.0
-122.37033333333333 50.07410000000001 2216.3 0.0 0.0 1.0
-117.827 81.08643333333333 2216.3 0.0 0.0 1.0
-114.16933333333333 70.7034 1829.97 0.0 0.0 1.0
-113.90233333333333 79.9187 1824.39 0.0 0.0 1.0
-113.827 94.4033 1846.91 0.0 0.0 1.0
-120.59266666666667 120.0 2216.3 0.0 0.0 1.0
-121.18533333333333 124.543 2216.3 0.0 0.0 1.0
-114.92266666666666 114.50966666666666 1852.63 0.0 0.0 1.0
-114.97933333333333 121.23466666666667 1846.91 0.0 0.0 1.0
-114.36833333333334 125.30033333333331 1858.39 0.0 0.0 1.0
-114.03699999999999 125.63166666666666 1858.39 0.0 0.0 1.0
-120.988 -158.12333333333333 2216.3 0.0 0.0 1.0
-118.18599999999999 -125.07933333333334 2035.37 0.0 0.0 1.0
-118.418 -109.469 2028.47 0.0 0.0 1.0
-118.10833333333333 -89.99996666666665 2021.62 0.0 0.0 1.0
-121.778 -75.9506 2216.3 0.0 0.0 1.0
-121.97533333333335 -63.30863333333334 2216.3 0.0 0.0 1.0
-122.37066666666668 -63.1111 2216.3 0.0 0.0 1.0
-120.59266666666667 -34.271633333333334 2216.3 0.0 0.0 1.0
-122.96300000000001 -28.7407 2216.3 0.0 0.0 1.0
-122.37033333333333 -25.38273333333333 2216.3 0.0 0.0 1.0
-113.08933333333334 -11.3008 1824.39 0.0 0.0 1.0
-122.96333333333332 8.790123333333334 2216.3 0.0 0.0 1.0
-120.98766666666667 14.518500000000001 2216.3 0.0 0.0 1.0
-122.568 14.913566666666668 2216.3 0.0 0.0 1.0
-110.569 14.670233333333334 1621.68 0.0 0.0 1.0
-122.37033333333333 31.901233333333334 2216.3 0.0 0.0 1.0
-114.31966666666666 31.321499999999997 1770.41 0.0 0.0 1.0
-121.778 61.728366666666666 2216.3 0.0 0.0 1.0
-122.96300000000001 74.17283333333334 2216.3 0.0 0.0 1.0
-114.33233333333334 70.21409999999999 1829.97 0.0 0.0 1.0
-113.02766666666668 74.45460000000001 1829.97 0.0 0.0 1.0
-122.173 120.395 2216.3 0.0 0.0 1.0
-115.30866666666667 121.89299999999999 1846.91 0.0 0.0 1.0
-121.97533333333335 -161.284 2216.3 0.0 0.0 1.0
-119.27433333333335 -124.71666666666665 2035.37 0.0 0.0 1.0
-117.33366666666666 -103.68366666666667 2028.47 0.0 0.0 1.0
-122.37 -101.432 2216.3 0.0 0.0 1.0
-122.37 -101.432 2216.3 0.0 0.0 1.0
-122.37 -101.432 2216.3 0.0 0.0 1.0
-118.10833333333333 -89.99996666666665 2021.62 0.0 0.0 1.0
-118.28833333333334 -83.6937 2021.62 0.0 0.0 1.0
-118.46866666666665 -79.36936666666666 2021.62 0.0 0.0 1.0
-122.568 -80.49383333333334 2216.3 0.0 0.0 1.0
-122.568 -64.09876666666666 2216.3 0.0 0.0 1.0
-123.16066666666666 -51.45683333333333 2216.3 0.0 0.0 1.0
-122.37033333333333 -25.382733333333334 2216.3 0.0 0.0 1.0
-114.33266666666667 -1.875636 1829.97 0.0 0.0 1.0
-115.14800000000001 -0.7339433333333334 1829.97 0.0 0.0 1.0
-110.85833333333333 14.5257 1621.68 0.0 0.0 1.0
-110.85833333333333 14.5257 1621.68 0.0 0.0 1.0
-110.91466666666666 15.423233333333334 1624.6266666666668 0.6938066926921179 -0.694446735766553 0.19072494424905267
-122.568 32.69136666666667 2216.3 0.0 0.0 1.0
-113.78166666666668 27.480033333333335 1766.93 1.2786892854509226e-16 0.9971964596859433 0.07482794123735301
-114.31966666666666 31.321499999999997 1770.41 0.0 0.0 1.0
-121.58 48.09876666666667 2216.3 0.0 0.0 1.0
-122.37033333333333 50.07410000000001 2216.3 0.0 0.0 1.0
-122.17266666666666 55.80246666666667 2216.3 0.0 0.0 1.0
-114.49533333333333 70.5403 1829.97 0.0 0.0 1.0
-115.85366666666665 72.92683333333333 1824.39 0.0 0.0 1.0
-115.096 80.4863 1818.84 0.0 0.0 1.0
-115.30866666666667 121.89299999999999 1846.91 0.0 0.0 1.0
-120.79 154.56799999999998 2216.3 0.0 0.0 1.0
-123.358 -161.87633333333335 2216.3 0.0 0.0 1.0
-124.54333333333334 -153.97533333333334 2216.3 0.0 0.0 1.0
-120.0 -129.97733333333332 2035.37 0.0 0.0 1.0
-119.63733333333334 -120.18133333333333 2035.37 0.0 0.0 1.0
-119.63733333333334 -120.18133333333333 2035.37 0.0 0.0 1.0
-118.77966666666667 -110.19233333333334 2028.47 0.0 0.0 1.0
-118.418 -109.469 2028.47 0.0 0.0 1.0
-122.76533333333333 -107.16066666666667 2216.3 0.0 0.0 1.0
-118.46866666666666 -79.36936666666666 2021.62 0.0 0.0 1.0
-123.358 -83.06173333333334 2216.3 0.0 0.0 1.0
-122.568 -75.55556666666666 2216.3 0.0 0.0 1.0
-122.568 -75.55556666666666 2216.3 0.0 0.0 1.0
-123.55566666666668 -73.1852 2216.3 0.0 0.0 1.0
-123.35799999999999 -56.98766666666666 2216.3 0.0 0.0 1.0
-123.35799999999999 -56.98766666666666 2216.3 0.0 0.0 1.0
-123.35799999999999 -46.518499999999996 2216.3 0.0 0.0 1.0
-123.35799999999999 -46.518499999999996 2216.3 0.0 0.0 1.0
-123.16066666666666 -41.58026666666667 2216.3 0.0 0.0 1.0
-122.96300000000001 -28.740700000000004 2216.3 0.0 0.0 1.0
-122.76533333333333 -24.987666666666666 2216.3 0.0 0.0 1.0
-122.76533333333333 -24.987666666666666 2216.3 0.0 0.0 1.0
-122.37033333333333 -23.012333333333334 2216.3 0.0 0.0 1.0
-118.26633333333332 -12.43059 1846.9233333333334 -0.9133705844839769 -0.06379529598008454 0.4020999074983874
-115.31099999999999 0.7339433333333334 1829.97 0.0 0.0 1.0
-115.80033333333334 1.549436 1829.97 0.0 0.0 1.0
-123.16066666666666 31.308633333333336 2216.3 0.0 0.0 1.0
-122.96300000000001 72.39506666666666 2216.3 0.0 0.0 1.0
-115.31099999999999 67.9307 1829.97 0.0 0.0 1.0
-115.04066666666667 77.3171 1824.39 0.0 0.0 1.0
-115.096 80.4863 1818.84 0.0 0.0 1.0
-115.096 80.4863 1818.84 0.0 0.0 1.0
-116.07833333333333 112.198 1852.63 0.0 0.0 1.0
-114.25 115.08333333333333 1870.0 0.0 0.0 1.0
-115.30866666666667 121.89299999999999 1846.91 0.0 0.0 1.0
-115.30866666666667 122.55133333333333 1846.91 0.0 0.0 1.0
-116.02499999999999 126.62566666666665 1858.39 0.0 0.0 1.0
-123.35833333333333 161.48166666666668 2216.3 0.0 0.0 1.0
-123.75333333333333 162.66666666666666 2216.3 0.0 0.0 1.0
-120.54433333333333 -139.95433333333332 2035.37 0.0 0.0 1.0
-120.36266666666666 -138.86599999999999 2035.37 0.0 0.0 1.0
-121.08833333333332 -136.32633333333334 2035.37 0.0 0.0 1.0
-120.0 -129.97733333333332 2035.37 0.0 0.0 1.0
-119.63733333333334 -120.18133333333333 2035.37 0.0 0.0 1.0
-124.74066666666666 -120.0 2216.3 0.0 0.0 1.0
-124.54333333333334 -90.3704 2216.3 0.0 0.0 1.0
-123.358 -66.27163333333333 2216.3 0.0 0.0 1.0
-123.35799999999999 -65.08643333333333 2216.3 0.0 0.0 1.0
-123.16066666666666 -51.45683333333333 2216.3 0.0 0.0 1.0
-123.16066666666666 -51.45683333333333 2216.3 0.0 0.0 1.0
-122.96300000000001 -25.580266666666663 2216.3 0.0 0.0 1.0
-124.14833333333333 -19.2593 2216.3 0.0 0.0 1.0
-124.14833333333333 -19.2593 2216.3 0.0 0.0 1.0
-123.75333333333333 -9.382726666666667 2216.3 0.0 0.0 1.0
-123.75333333333333 -8.197533333333334 2216.3 0.0 0.0 1.0
-114.82166666666666 -3.8328200000000003 1829.97 0.0 0.0 1.0
-122.96333333333332 8.790123333333334 2216.3 0.0 0.0 1.0
-122.96333333333332 8.790123333333334 2216.3 0.0 0.0 1.0
-122.96300000000001 32.49383333333333 2216.3 0.0 0.0 1.0
-122.76566666666666 35.6543 2216.3 0.0 0.0 1.0
-115.27866666666667 33.6974 1779.1899999999998 -1.2513473383282828e-16 -0.9807730981718876 0.1951515562385216
-122.37033333333333 50.07410000000001 2216.3 0.0 0.0 1.0
-123.95100000000001 59.9506 2216.3 0.0 0.0 1.0
-116.56433333333332 51.9427 1835.58 0.0 0.0 1.0
-116.01633333333332 74.87806666666667 1824.39 0.0 0.0 1.0
-116.28933333333333 77.8797 1829.97 0.0 0.0 1.0
-126.71600000000001 100.44436666666665 2216.3 0.0 0.0 1.0
-116.62533333333334 87.3251 1846.91 0.0 0.0 1.0
-116.62533333333334 87.3251 1846.91 0.0 0.0 1.0
-118.52766666666666 89.73413333333333 1835.58 0.0 0.0 1.0
-124.14833333333333 121.38266666666668 2216.3 0.0 0.0 1.0
-123.95066666666666 123.358 2216.3 0.0 0.0 1.0
-122.96300000000001 130.66666666666666 2216.3 0.0 0.0 1.0
-117.44866666666667 115.47333333333334 1846.91 0.0 0.0 1.0
-123.75333333333333 161.28400000000002 2216.3 0.0 0.0 1.0
-123.75333333333333 162.66666666666666 2216.3 0.0 0.0 1.0
-124.54333333333334 -153.97533333333334 2216.3 0.0 0.0 1.0
-120.36266666666666 -130.703 2035.37 0.0 0.0 1.0
-120.0 -129.97733333333332 2035.37 0.0 0.0 1.0
-120.18133333333333 -124.354 2035.37 0.0 0.0 1.0
-124.93833333333333 -113.87633333333333 2216.3 0.0 0.0 1.0
-123.753 -106.173 2216.3 0.0 0.0 1.0
-124.93833333333333 -99.06176666666666 2216.3 0.0 0.0 1.0
-123.75333333333333 -66.0741 2216.3 0.0 0.0 1.0
-124.34566666666667 -57.97533333333333 2216.3 0.0 0.0 1.0
-123.35799999999999 -46.518499999999996 2216.3 0.0 0.0 1.0
-122.96300000000001 -28.740700000000004 2216.3 0.0 0.0 1.0
-124.34566666666666 -9.97533 2216.3 0.0 0.0 1.0
-124.54333333333334 -7.604939999999999 2216.3 0.0 0.0 1.0
-124.543 -1.0864179999999999 2216.3 0.0 0.0 1.0
-124.543 -1.0864179999999999 2216.3 0.0 0.0 1.0
-115.80033333333334 1.549436 1829.97 0.0 0.0 1.0
-117.055 3.0265866666666668 1835.58 0.0 0.0 1.0
-123.55566666666668 15.1111 2216.3 0.0 0.0 1.0
-111.43666666666667 14.236633333333335 1621.68 0.0 0.0 1.0
-116.56433333333332 51.9427 1835.58 0.0 0.0 1.0
-122.96300000000001 72.39506666666666 2216.3 0.0 0.0 1.0
-124.54333333333334 75.55553333333334 2216.3 0.0 0.0 1.0
-116.55499999999999 82.4316 1818.84 0.0 0.0 1.0
-115.85666666666667 93.94869999999999 1841.2300000000002 1.332167821114204e-26 1.3946961739905198e-26 1.0
-123.95066666666666 122.37033333333333 2216.3 0.0 0.0 1.0
-123.95066666666666 123.358 2216.3 0.0 0.0 1.0
-124.34566666666666 126.32099999999998 2216.3 0.0 0.0 1.0
-116.62533333333334 120.247 1846.91 0.0 0.0 1.0
-124.74066666666666 -161.48133333333334 2216.3 0.0 0.0 1.0
-121.26966666666665 -137.95899999999997 2035.37 0.0 0.0 1.0
-120.18133333333333 -124.354 2035.37 0.0 0.0 1.0
-124.93833333333333 -113.87633333333333 2216.3 0.0 0.0 1.0
-124.93833333333333 -99.06176666666666 2216.3 0.0 0.0 1.0
-126.12366666666667 -94.91356666666665 2216.3 0.0 0.0 1.0
-124.54333333333334 -90.3704 2216.3 0.0 0.0 1.0
-124.93833333333333 -84.44443333333334 2216.3 0.0 0.0 1.0
-124.93833333333333 -80.09876666666666 2216.3 0.0 0.0 1.0
-125.13566666666668 -79.50616666666666 2216.3 0.0 0.0 1.0
-124.74099999999999 -72.19753333333334 2216.3 0.0 0.0 1.0
-125.13566666666668 -60.93823333333333 2216.3 0.0 0.0 1.0
-117.05499999999999 3.0265866666666668 1835.58 0.0 0.0 1.0
-123.55566666666668 14.518500000000001 2216.3 0.0 0.0 1.0
-115.13100000000001 18.9513 1680.9000000000003 3.997983506312487e-27 1.5986596263559352e-26 1.0
-124.741 31.703699999999998 2216.3 0.0 0.0 1.0
-115.73966666666666 31.005899999999997 1770.41 0.0 0.0 1.0
-124.34566666666667 56.19753333333333 2216.3 0.0 0.0 1.0
-116.56433333333332 51.9427 1835.58 0.0 0.0 1.0
-116.61566666666666 68.25690000000002 1829.97 0.0 0.0 1.0
-116.829 72.43900000000001 1824.39 0.0 0.0 1.0
-116.62533333333334 87.3251 1846.91 0.0 0.0 1.0
-125.13600000000001 117.03699999999999 2216.3 0.0 0.0 1.0
-124.14833333333333 121.38266666666668 2216.3 0.0 0.0 1.0
-117.284 119.42366666666668 1846.91 0.0 0.0 1.0
-117.18433333333333 126.62566666666665 1858.39 0.0 0.0 1.0
-124.741 162.27166666666668 2216.3 0.0 0.0 1.0
-120.54433333333333 -139.95433333333332 2035.37 0.0 0.0 1.0
-125.926 -133.23466666666664 2216.3 0.0 0.0 1.0
-126.51833333333333 -125.531 2216.3 0.0 0.0 1.0
-124.74066666666666 -120.0 2216.3 0.0 0.0 1.0
-125.92566666666666 -118.815 2216.3 0.0 0.0 1.0
-125.926 -100.4443 2216.3 0.0 0.0 1.0
-124.54333333333334 -90.3704 2216.3 0.0 0.0 1.0
-125.13566666666668 -79.50616666666666 2216.3 0.0 0.0 1.0
-125.13566666666667 -79.50616666666666 2216.3 0.0 0.0 1.0
-125.13566666666667 -60.93823333333333 2216.3 0.0 0.0 1.0
-125.13566666666668 -60.93823333333333 2216.3 0.0 0.0 1.0
-124.14833333333333 -51.65436666666667 2216.3 0.0 0.0 1.0
-117.94266666666668 -22.469133333333332 1846.91 0.0 0.0 1.0
-117.94266666666668 -22.469133333333332 1846.91 0.0 0.0 1.0
-124.14833333333333 -19.2593 2216.3 0.0 0.0 1.0
-126.12366666666667 -13.3333 2216.3 0.0 0.0 1.0
-125.33333333333333 -10.3704 2216.3 0.0 0.0 1.0
-125.926 0.2962963333333334 2216.3 0.0 0.0 1.0
-117.05499999999999 3.0265866666666668 1835.58 0.0 0.0 1.0
-117.26799999999999 5.13761 1829.97 0.0 0.0 1.0
-114.88900000000001 16.2222 1662.22 0.0 0.0 1.0
-117.94866666666667 28.323433333333337 1770.41 0.0 0.0 1.0
-124.34533333333333 45.53086666666667 2216.3 0.0 0.0 1.0
-124.34533333333333 45.53086666666667 2216.3 0.0 0.0 1.0
-118.48233333333333 44.0615 1841.2300000000002 -3.2010201247072096e-27 -4.801855295747063e-27 1.0
-117.88233333333334 65.5814 1828.11 0.6796448829130479 -0.6795059814450535 0.2763230976782503
-117.92033333333335 69.3986 1829.97 0.0 0.0 1.0
-127.90133333333334 97.67906666666666 2216.3 0.0 0.0 1.0
-115.85666666666667 93.94869999999999 1841.2300000000002 1.3321678211142095e-26 1.394696173990526e-26 1.0
-125.72833333333334 127.50633333333333 2216.3 0.0 0.0 1.0
-116.07833333333333 112.198 1852.63 0.0 0.0 1.0
-118.27166666666666 115.30866666666667 1846.91 0.0 0.0 1.0
-117.284 119.42366666666668 1846.91 0.0 0.0 1.0
-117.61333333333334 121.07 1846.91 0.0 0.0 1.0
-118.178 126.46 1858.39 0.0 0.0 1.0
-123.04899999999999 -147.713 2042.32 0.0 0.0 1.0
-122.53966666666668 -136.32666666666668 2035.37 0.0 0.0 1.0
-126.12366666666667 -134.61733333333333 2216.3 0.0 0.0 1.0
-126.12366666666667 -134.025 2216.3 0.0 0.0 1.0
-126.91366666666666 -116.83933333333334 2216.3 0.0 0.0 1.0
-125.531 -113.08633333333334 2216.3 0.0 0.0 1.0
-125.531 -113.08633333333334 2216.3 0.0 0.0 1.0
-125.926 -105.58033333333333 2216.3 0.0 0.0 1.0
-125.72866666666665 -99.85173333333334 2216.3 0.0 0.0 1.0
-126.12366666666667 -94.91356666666665 2216.3 0.0 0.0 1.0
-125.53066666666666 -79.50616666666666 2216.3 0.0 0.0 1.0
-126.51866666666666 -75.16053333333333 2216.3 0.0 0.0 1.0
-126.32100000000001 -74.76546666666667 2216.3 0.0 0.0 1.0
-124.54333333333334 -64.88889999999999 2216.3 0.0 0.0 1.0
-125.13566666666668 -59.35803333333333 2216.3 0.0 0.0 1.0
-124.34566666666667 -46.91356666666667 2216.3 0.0 0.0 1.0
-124.34566666666667 -42.765433333333334 2216.3 0.0 0.0 1.0
-127.30866666666667 -32.09876666666667 2216.3 0.0 0.0 1.0
-117.94266666666668 -22.469133333333332 1846.91 0.0 0.0 1.0
-126.91366666666666 -24.987666666666666 2216.3 0.0 0.0 1.0
-125.53099999999999 -7.0123500000000005 2216.3 0.0 0.0 1.0
-126.12366666666667 -6.419756666666667 2216.3 0.0 0.0 1.0
-125.926 0.2962963333333334 2216.3 0.0 0.0 1.0
-117.26799999999999 5.13761 1829.97 0.0 0.0 1.0
-125.33366666666666 9.58025 2216.3 0.0 0.0 1.0
-115.13100000000001 18.9513 1680.9000000000003 3.997983506312487e-27 1.5986596263559352e-26 1.0
-118.318 42.0923 1841.2300000000002 0.0 0.0 1.0
-117.99000000000001 43.24100000000001 1841.2300000000002 8.45355351963116e-26 -1.77852538662947e-26 1.0
-125.72866666666665 56.98766666666666 2216.3 0.0 0.0 1.0
-117.21866666666666 52.76070000000001 1835.58 0.0 0.0 1.0
-118.35733333333333 57.410833333333336 1843.1233333333337 -0.9656580660623615 -0.2412551508163754 -0.09643884929460707
-120.28733333333334 57.846133333333334 1841.2300000000002 4.080976390791071e-28 -1.0883208965874418e-27 1.0
-117.04133333333333 81.62103333333333 1818.84 0.0 0.0 1.0
-121.20466666666668 83.29316666666666 1802.41 0.0 0.0 1.0
-125.13600000000001 117.03699999999999 2216.3 0.0 0.0 1.0
-118.27166666666666 115.30866666666667 1846.91 0.0 0.0 1.0
-117.61333333333334 121.07 1846.91 0.0 0.0 1.0
-126.71600000000001 156.3456666666667 2216.3 0.0 0.0 1.0
-125.926 162.66666666666666 2216.3 0.0 0.0 1.0
-123.04899999999999 -147.713 2042.32 0.0 0.0 1.0
-127.11133333333333 -152.79033333333334 2216.3 0.0 0.0 1.0
-127.11133333333333 -152.79033333333334 2216.3 0.0 0.0 1.0
-122.17666666666666 -137.23366666666666 2035.37 0.0 0.0 1.0
-122.53966666666668 -136.32666666666665 2035.37 0.0 0.0 1.0
-126.32133333333333 -135.605 2216.3 0.0 0.0 1.0
-126.32133333333333 -135.605 2216.3 0.0 0.0 1.0
-126.12366666666667 -134.025 2216.3 0.0 0.0 1.0
-126.71633333333334 -100.4443 2216.3 0.0 0.0 1.0
-126.12366666666667 -72.5926 2216.3 0.0 0.0 1.0
-119.42366666666668 -39.2593 1846.91 0.0 0.0 1.0
-118.92966666666666 -37.6132 1846.91 0.0 0.0 1.0
-126.71633333333334 -13.530833333333334 2216.3 0.0 0.0 1.0
-126.71633333333334 -13.135766666666667 2216.3 0.0 0.0 1.0
-126.51866666666666 -10.17286 2216.3 0.0 0.0 1.0
-126.12366666666667 -6.419756666666667 2216.3 0.0 0.0 1.0
-125.926 0.29629633333333333 2216.3 0.0 0.0 1.0
-126.91366666666666 10.172856666666666 2216.3 0.0 0.0 1.0
-115.13133333333333 15.655433333333335 1680.9000000000003 -1.5192452965197776e-26 6.016116540667218e-27 1.0
-114.88900000000001 16.2222 1662.22 0.0 0.0 1.0
-119.10033333333332 24.429000000000002 1751.42 -0.36574380066018086 -0.9147504206336287 0.1716483038927132
-124.93866666666666 32.493833333333335 2216.3 0.0 0.0 1.0
-119.30266666666667 41.6 1841.2300000000002 0.0 0.0 1.0
-125.72866666666665 56.98766666666666 2216.3 0.0 0.0 1.0
-118.52766666666668 51.1247 1835.58 0.0 0.0 1.0
-120.28733333333334 57.846133333333334 1841.2300000000002 4.080976390791071e-28 -1.0883208965874418e-27 1.0
-118.573 79.1845 1829.97 0.0 0.0 1.0
-118.01400000000001 83.08003333333333 1818.84 0.0 0.0 1.0
-117.99766666666666 90.78499999999998 1833.71 -0.2549016109471182 0.8919998304842625 0.37331149346438725
-126.12366666666667 121.778 2216.3 0.0 0.0 1.0
-118.27166666666666 115.30866666666667 1846.91 0.0 0.0 1.0
-118.178 126.46 1858.39 0.0 0.0 1.0
-127.901 -162.66666666666666 2216.3 0.0 0.0 1.0
-127.901 -162.66666666666666 2216.3 0.0 0.0 1.0
-127.50600000000001 -130.27133333333333 2216.3 0.0 0.0 1.0
-127.901 -126.32133333333333 2216.3 0.0 0.0 1.0
-127.901 -126.32133333333333 2216.3 0.0 0.0 1.0
-125.92566666666669 -120.0 2216.3 0.0 0.0 1.0
-127.70366666666666 -117.23466666666667 2216.3 0.0 0.0 1.0
-126.32100000000001 -84.2469 2216.3 0.0 0.0 1.0
-127.901 -82.86420000000001 2216.3 0.0 0.0 1.0
-126.91366666666666 -74.56793333333333 2216.3 0.0 0.0 1.0
-119.42366666666668 -39.2593 1846.91 0.0 0.0 1.0
-119.09433333333334 -37.6132 1846.91 0.0 0.0 1.0
-126.91366666666666 -24.987666666666666 2216.3 0.0 0.0 1.0
-127.70366666666666 -16.098766666666666 2216.3 0.0 0.0 1.0
-126.91366666666666 -13.530833333333334 2216.3 0.0 0.0 1.0
-126.91366666666666 -13.135766666666667 2216.3 0.0 0.0 1.0
-115.76400000000001 14.020366666666666 1682.4766666666667 1.0561587104514226e-16 0.9962497504745667 0.086524185516903
-118.42233333333333 31.163699999999995 1770.41 0.0 0.0 1.0
-119.83633333333334 48.834399999999995 1835.58 0.0 0.0 1.0
-117.15433333333333 73.57723333333333 1824.39 0.0 0.0 1.0
-127.11133333333333 123.16066666666666 2216.3 0.0 0.0 1.0
-128.29633333333334 133.62966666666668 2216.3 0.0 0.0 1.0
-126.71600000000001 156.3456666666667 2216.3 0.0 0.0 1.0
-126.71600000000001 156.3456666666667 2216.3 0.0 0.0 1.0
-127.50600000000001 163.25933333333333 2216.3 0.0 0.0 1.0
-124.141 -147.53099999999998 2042.32 0.0 0.0 1.0
-124.354 -131.4283333333333 2035.37 0.0 0.0 1.0
-127.70366666666666 -117.23466666666667 2216.3 0.0 0.0 1.0
-127.90133333333334 -106.173 2216.3 0.0 0.0 1.0
-127.70400000000001 -101.03699999999999 2216.3 0.0 0.0 1.0
-126.71633333333334 -99.6542 2216.3 0.0 0.0 1.0
-127.11133333333333 -96.09876666666666 2216.3 0.0 0.0 1.0
-127.90133333333334 -78.91356666666667 2216.3 0.0 0.0 1.0
-127.90133333333334 -78.91356666666665 2216.3 0.0 0.0 1.0
-127.70366666666666 -74.96296666666666 2216.3 0.0 0.0 1.0
-121.06966666666666 -41.069966666666666 1846.91 0.0 0.0 1.0
-128.49366666666666 -31.901233333333334 2216.3 0.0 0.0 1.0
-126.91366666666666 -24.987666666666666 2216.3 0.0 0.0 1.0
-127.70366666666666 -16.098766666666666 2216.3 0.0 0.0 1.0
-126.51866666666668 -10.17286 2216.3 0.0 0.0 1.0
-120.16366666666666 3.84458 1835.58 0.0 0.0 1.0
-115.76400000000001 14.020366666666666 1682.4766666666667 1.0561587104514227e-16 0.9962497504745667 0.086524185516903
-115.87766666666666 15.969966666666666 1666.86 0.9997685346885294 -0.0002761548484791586 0.021512805146009048
-116.07433333333334 15.629600000000002 1662.22 0.0 0.0 1.0
-115.48166666666667 15.9259 1662.22 0.0 0.0 1.0
-115.959 16.979266666666668 1663.7633333333333 -0.8888231249774082 -0.4439616014061878 0.11354095728963973
-129.4813333333333 36.64196666666667 2216.3 0.0 0.0 1.0
-118.42233333333333 31.163699999999995 1770.41 0.0 0.0 1.0
-118.48233333333333 44.0615 1841.2300000000002 -3.2010201247072096e-27 -4.801855295747063e-27 1.0
-128.889 75.35803333333334 2216.3 0.0 0.0 1.0
-120.53000000000002 64.1794 1829.97 0.0 0.0 1.0
-118.899 70.7034 1829.97 0.0 0.0 1.0
-118.52766666666668 89.73413333333333 1835.58 0.0 0.0 1.0
-128.09900000000002 124.93866666666668 2216.3 0.0 0.0 1.0
-127.704 126.32133333333333 2216.3 0.0 0.0 1.0
-127.704 128.09900000000002 2216.3 0.0 0.0 1.0
-127.90133333333334 130.66666666666666 2216.3 0.0 0.0 1.0
-127.90133333333334 130.66666666666666 2216.3 0.0 0.0 1.0
-119.58833333333332 116.95466666666668 1846.91 0.0 0.0 1.0
-119.00600000000001 125.63166666666666 1858.39 0.0 0.0 1.0
-127.90133333333334 -152.0 2216.3 0.0 0.0 1.0
-127.90133333333334 -151.01233333333334 2216.3 0.0 0.0 1.0
-124.354 -131.4283333333333 2035.37 0.0 0.0 1.0
-127.90133333333334 -135.80233333333334 2216.3 0.0 0.0 1.0
