ply
format ascii 1.0
comment VCGLIB generated
element vertex 881
property float x
property float y
property float z
property float nx
property float ny
property float nz
element face 0
property list uchar int vertex_indices
end_header
-115.71 79.65216666666667 2601.74 0.0 0.0 1.0
-115.94200000000001 95.4203 2601.74 0.0 0.0 1.0
-115.94200000000001 95.4203 2601.74 0.0 0.0 1.0
-115.94200000000001 96.5797 2601.74 0.0 0.0 1.0
-115.94233333333334 103.07233333333333 2601.74 0.0 0.0 1.0
-116.40566666666666 112.116 2601.74 0.0 0.0 1.0
-116.86966666666667 116.52166666666666 2601.74 0.0 0.0 1.0
-115.01466666666666 119.30433333333333 2601.74 0.0 0.0 1.0
-113.95833333333333 -114.68733333333334 2337.5 0.0 0.0 1.0
-117.10166666666667 -106.087 2601.74 0.0 0.0 1.0
-117.33333333333333 -105.623 2601.74 0.0 0.0 1.0
-117.33366666666666 -97.04346666666667 2601.74 0.0 0.0 1.0
-117.56533333333334 -89.39133333333332 2601.74 0.0 0.0 1.0
-116.63799999999999 -85.91303333333333 2601.74 0.0 0.0 1.0
-117.10166666666667 -85.21736666666668 2601.74 0.0 0.0 1.0
-117.33333333333333 -76.86956666666667 2601.74 0.0 0.0 1.0
-116.60633333333332 -64.08863333333333 2307.5066666666667 -0.919993769233102 0.3460248969147747 0.18406041205916412
-117.56533333333334 -58.55073333333333 2601.74 0.0 0.0 1.0
-114.572 -49.222699999999996 2365.22 0.0 0.0 1.0
-117.10166666666667 -47.88406666666666 2601.74 0.0 0.0 1.0
-116.87 -46.2609 2601.74 0.0 0.0 1.0
-116.87 -45.10146666666666 2601.74 0.0 0.0 1.0
-116.406 -44.17393333333333 2601.74 0.0 0.0 1.0
-117.33333333333333 -41.391333333333336 2601.74 0.0 0.0 1.0
-113.51166666666666 -32.1839 2292.72 0.0 0.0 1.0
-112.89866666666666 -29.527466666666665 2292.72 0.0 0.0 1.0
-113.30766666666666 -28.914433333333335 2292.72 0.0 0.0 1.0
-111.46833333333332 -21.966800000000003 2292.72 0.0 0.0 1.0
-116.86966666666667 -19.5942 2601.74 0.0 0.0 1.0
-116.63766666666668 -16.347833333333334 2601.74 0.0 0.0 1.0
-116.86966666666667 -14.260866666666667 2601.74 0.0 0.0 1.0
-113.45966666666665 -5.57668 2275.29 0.0 0.0 1.0
-115.94233333333334 1.0434786666666667 2601.74 0.0 0.0 1.0
-111.717 10.202033333333333 2266.67 0.0 0.0 1.0
-111.717 11.616166666666667 2266.67 0.0 0.0 1.0
-116.86966666666667 24.2319 2601.74 0.0 0.0 1.0
-115.71033333333334 33.50726666666667 2601.74 0.0 0.0 1.0
-117.56533333333334 38.608666666666664 2601.74 0.0 0.0 1.0
-116.17433333333334 40.69563333333333 2601.74 0.0 0.0 1.0
-116.406 45.33336666666667 2601.74 0.0 0.0 1.0
-116.63799999999999 46.028999999999996 2601.74 0.0 0.0 1.0
-116.63799999999999 60.17393333333333 2601.74 0.0 0.0 1.0
-116.63799999999999 60.17393333333333 2601.74 0.0 0.0 1.0
-116.63799999999999 62.028999999999996 2601.74 0.0 0.0 1.0
-117.79733333333333 88.92756666666666 2601.74 0.0 0.0 1.0
-117.33366666666666 90.087 2601.74 0.0 0.0 1.0
-116.17399999999999 101.21736666666668 2601.74 0.0 0.0 1.0
-117.10166666666667 103.07233333333333 2601.74 0.0 0.0 1.0
-116.406 114.66666666666667 2601.74 0.0 0.0 1.0
-116.63799999999999 115.59433333333334 2601.74 0.0 0.0 1.0
-117.10166666666667 125.33333333333333 2601.74 0.0 0.0 1.0
-113.95833333333333 -114.68733333333334 2337.5 0.0 0.0 1.0
-116.63766666666668 -120.69566666666667 2601.74 0.0 0.0 1.0
-115.127 -107.63066666666667 2403.21 0.0 0.0 1.0
-118.029 -111.18866666666666 2601.74 0.0 0.0 1.0
-117.33333333333333 -105.623 2601.74 0.0 0.0 1.0
-117.33333333333333 -105.623 2601.74 0.0 0.0 1.0
-117.56533333333334 -89.39133333333332 2601.74 0.0 0.0 1.0
-117.33333333333333 -84.28983333333333 2601.74 0.0 0.0 1.0
-117.565 -83.1304 2601.74 0.0 0.0 1.0
-118.029 -81.97099999999999 2601.74 0.0 0.0 1.0
-113.84233333333333 -73.78846666666666 2403.21 0.0 0.0 1.0
-118.029 -77.33333333333333 2601.74 0.0 0.0 1.0
-117.33333333333333 -76.86956666666667 2601.74 0.0 0.0 1.0
-117.33333333333333 -73.3913 2601.74 0.0 0.0 1.0
-115.697 -64.91366666666667 2384.06 0.0 0.0 1.0
-114.847 -64.2762 2384.06 0.0 0.0 1.0
-116.63766666666668 -65.971 2601.74 0.0 0.0 1.0
-118.029 -64.11593333333333 2601.74 0.0 0.0 1.0
-117.565 -63.4203 2601.74 0.0 0.0 1.0
-118.029 -62.49276666666666 2601.74 0.0 0.0 1.0
-117.56533333333334 -58.55073333333333 2601.74 0.0 0.0 1.0
-118.029 -56.92756666666667 2601.74 0.0 0.0 1.0
-116.40566666666666 -52.52173333333334 2601.74 0.0 0.0 1.0
-117.33333333333333 -49.971000000000004 2601.74 0.0 0.0 1.0
-117.33333333333333 -41.391333333333336 2601.74 0.0 0.0 1.0
-117.33333333333333 -41.391333333333336 2601.74 0.0 0.0 1.0
-117.56533333333334 -19.3623 2601.74 0.0 0.0 1.0
-117.10166666666667 -15.420300000000003 2601.74 0.0 0.0 1.0
-112.649 -8.01014 2275.29 0.0 0.0 1.0
-118.029 9.159433333333332 2601.74 0.0 0.0 1.0
-112.121 10.404066666666665 2266.67 0.0 0.0 1.0
-112.72699999999999 12.626233333333333 2266.67 0.0 0.0 1.0
-118.72466666666666 20.28986666666667 2601.74 0.0 0.0 1.0
-117.56533333333334 24.463800000000003 2601.74 0.0 0.0 1.0
-116.63766666666668 25.855099999999997 2601.74 0.0 0.0 1.0
-117.56533333333334 38.608666666666664 2601.74 0.0 0.0 1.0
-116.86966666666667 46.95653333333333 2601.74 0.0 0.0 1.0
-118.26100000000001 50.202866666666665 2601.74 0.0 0.0 1.0
-118.26100000000001 51.5942 2601.74 0.0 0.0 1.0
-118.493 55.5362 2601.74 0.0 0.0 1.0
-112.637 49.65173333333333 2232.84 0.0 0.0 1.0
-117.33333333333333 67.5942 2601.74 0.0 0.0 1.0
-112.714 59.57873333333333 2224.54 0.0 0.0 1.0
-112.51566666666668 65.1301 2224.54 0.0 0.0 1.0
-112.51566666666668 65.1301 2224.54 0.0 0.0 1.0
-118.029 85.68116666666667 2601.74 0.0 0.0 1.0
-116.63766666666668 107.01466666666666 2601.74 0.0 0.0 1.0
-117.79699999999998 110.49266666666666 2601.74 0.0 0.0 1.0
-117.79700000000001 112.116 2601.74 0.0 0.0 1.0
-116.86966666666667 116.52166666666666 2601.74 0.0 0.0 1.0
-118.26100000000001 -129.739 2601.74 0.0 0.0 1.0
-118.26100000000001 -129.739 2601.74 0.0 0.0 1.0
-118.26100000000001 -129.739 2601.74 0.0 0.0 1.0
-117.33333333333333 -121.85533333333335 2601.74 0.0 0.0 1.0
-115.55533333333334 -107.84499999999998 2403.21 0.0 0.0 1.0
-115.55533333333334 -107.84499999999998 2403.21 0.0 0.0 1.0
-118.029 -111.18866666666666 2601.74 0.0 0.0 1.0
-118.029 -111.18866666666666 2601.74 0.0 0.0 1.0
-118.02933333333333 -107.24633333333333 2601.74 0.0 0.0 1.0
-118.26100000000001 -105.15933333333334 2601.74 0.0 0.0 1.0
-118.26100000000001 -101.44933333333334 2601.74 0.0 0.0 1.0
-118.02933333333333 -97.971 2601.74 0.0 0.0 1.0
-118.02933333333333 -89.6232 2601.74 0.0 0.0 1.0
-118.02933333333333 -86.3768 2601.74 0.0 0.0 1.0
-118.26100000000001 -74.55073333333333 2601.74 0.0 0.0 1.0
-118.029 -56.92756666666667 2601.74 0.0 0.0 1.0
-118.26100000000001 -56.69566666666666 2601.74 0.0 0.0 1.0
-118.029 -56.4638 2601.74 0.0 0.0 1.0
-114.572 -49.222699999999996 2365.22 0.0 0.0 1.0
-113.51166666666666 -32.1839 2292.72 0.0 0.0 1.0
-118.029 -19.130433333333333 2601.74 0.0 0.0 1.0
-118.493 -18.43476666666667 2601.74 0.0 0.0 1.0
-113.46 -8.415716666666667 2275.29 0.0 0.0 1.0
-118.95666666666666 -1.9710153333333336 2601.74 0.0 0.0 1.0
-118.493 7.768113333333333 2601.74 0.0 0.0 1.0
-118.029 9.159433333333332 2601.74 0.0 0.0 1.0
-118.26100000000001 22.6087 2601.74 0.0 0.0 1.0
-117.56533333333334 24.463800000000003 2601.74 0.0 0.0 1.0
-119.18833333333333 30.492766666666665 2601.74 0.0 0.0 1.0
-117.56533333333334 38.608666666666664 2601.74 0.0 0.0 1.0
-118.26100000000001 51.362300000000005 2601.74 0.0 0.0 1.0
-112.637 49.65173333333333 2232.84 0.0 0.0 1.0
-112.637 49.65173333333334 2232.84 0.0 0.0 1.0
-117.33333333333333 67.5942 2601.74 0.0 0.0 1.0
-112.714 59.57873333333333 2224.54 0.0 0.0 1.0
-118.029 84.52173333333333 2601.74 0.0 0.0 1.0
-118.26100000000001 85.44926666666667 2601.74 0.0 0.0 1.0
-118.493 86.84056666666667 2601.74 0.0 0.0 1.0
-117.79733333333333 87.76813333333332 2601.74 0.0 0.0 1.0
-118.26100000000001 89.39133333333332 2601.74 0.0 0.0 1.0
-118.029 95.65216666666667 2601.74 0.0 0.0 1.0
-117.10166666666667 99.36216666666667 2601.74 0.0 0.0 1.0
-118.02933333333333 102.84033333333333 2601.74 0.0 0.0 1.0
-118.26100000000001 118.84066666666666 2601.74 0.0 0.0 1.0
-119.42033333333332 129.04333333333335 2601.74 0.0 0.0 1.0
-115.0 -115.104 2337.5 0.0 0.0 1.0
-115.984 -107.63100000000001 2403.21 0.0 0.0 1.0
-118.95666666666666 -107.71 2601.74 0.0 0.0 1.0
-118.26100000000001 -105.15933333333334 2601.74 0.0 0.0 1.0
-117.45066666666666 -84.99976666666667 2295.6833333333334 0.7024980849992946 0.7031830035091688 -0.1096818314405255
-118.02933333333333 -97.971 2601.74 0.0 0.0 1.0
-118.26100000000001 -89.39133333333332 2601.74 0.0 0.0 1.0
-119.18866666666666 -86.6087 2601.74 0.0 0.0 1.0
-118.029 -84.05793333333332 2601.74 0.0 0.0 1.0
-119.18866666666666 -81.0435 2601.74 0.0 0.0 1.0
-118.957 -79.4203 2601.74 0.0 0.0 1.0
-118.029 -77.33333333333333 2601.74 0.0 0.0 1.0
-118.26100000000001 -75.71016666666667 2601.74 0.0 0.0 1.0
-115.697 -63.85123333333334 2384.06 0.0 0.0 1.0
-118.72466666666666 -64.3478 2601.74 0.0 0.0 1.0
-118.95666666666666 -62.260866666666665 2601.74 0.0 0.0 1.0
-114.572 -49.222699999999996 2365.22 0.0 0.0 1.0
-119.18866666666666 -40.92756666666667 2601.74 0.0 0.0 1.0
-119.18866666666666 -40.92756666666667 2601.74 0.0 0.0 1.0
-113.92066666666666 -33.00126666666666 2292.72 0.0 0.0 1.0
-119.65233333333333 -27.4783 2601.74 0.0 0.0 1.0
-119.42033333333332 -25.391333333333336 2601.74 0.0 0.0 1.0
-119.18866666666666 -20.985500000000002 2601.74 0.0 0.0 1.0
-119.18866666666666 -20.289833333333334 2601.74 0.0 0.0 1.0
-119.18866666666666 -20.289833333333334 2601.74 0.0 0.0 1.0
-118.493 -18.43476666666667 2601.74 0.0 0.0 1.0
-113.46 -8.415716666666667 2275.29 0.0 0.0 1.0
-114.068 -5.171103333333333 2275.29 0.0 0.0 1.0
-114.068 -5.171103333333334 2275.29 0.0 0.0 1.0
-114.271 -4.562736666666667 2275.29 0.0 0.0 1.0
-119.18866666666668 -0.811594 2601.74 0.0 0.0 1.0
-119.65233333333333 5.681156666666666 2601.74 0.0 0.0 1.0
-112.92899999999999 12.424233333333333 2266.67 0.0 0.0 1.0
-118.95666666666666 21.2174 2601.74 0.0 0.0 1.0
-119.65233333333333 41.15943333333333 2601.74 0.0 0.0 1.0
-118.957 42.78263333333334 2601.74 0.0 0.0 1.0
-118.95666666666666 44.8696 2601.74 0.0 0.0 1.0
-118.493 50.202866666666665 2601.74 0.0 0.0 1.0
-118.72499999999998 51.362300000000005 2601.74 0.0 0.0 1.0
-118.72499999999998 51.362300000000005 2601.74 0.0 0.0 1.0
-118.493 54.840533333333326 2601.74 0.0 0.0 1.0
-119.18866666666666 55.768100000000004 2601.74 0.0 0.0 1.0
-119.18866666666666 55.768100000000004 2601.74 0.0 0.0 1.0
-112.714 59.57873333333333 2224.54 0.0 0.0 1.0
-113.30866666666668 65.13010000000001 2224.54 0.0 0.0 1.0
-114.10166666666667 66.71623333333334 2224.54 0.0 0.0 1.0
-118.493 85.91303333333333 2601.74 0.0 0.0 1.0
-118.95666666666666 102.37666666666667 2601.74 0.0 0.0 1.0
-117.79733333333333 119.76833333333333 2601.74 0.0 0.0 1.0
-119.18866666666668 124.40566666666666 2601.74 0.0 0.0 1.0
-119.42033333333332 129.04333333333335 2601.74 0.0 0.0 1.0
-121.04333333333334 -119.30433333333333 2601.74 0.0 0.0 1.0
-116.41266666666667 -107.20233333333333 2403.21 0.0 0.0 1.0
-116.41266666666667 -107.20233333333333 2403.21 0.0 0.0 1.0
-119.652 -111.884 2601.74 0.0 0.0 1.0
-119.65233333333333 -107.94200000000001 2601.74 0.0 0.0 1.0
-119.18833333333335 -94.02896666666668 2601.74 0.0 0.0 1.0
-119.884 -81.97103333333332 2601.74 0.0 0.0 1.0
-119.65233333333333 -63.88403333333334 2601.74 0.0 0.0 1.0
-116.12833333333333 -49.07376666666667 2289.8033333333333 0.8595988037456816 0.4976411018379171 0.11594494538588904
-119.18866666666666 -40.92756666666667 2601.74 0.0 0.0 1.0
-115.14699999999999 -33.00126666666666 2292.72 0.0 0.0 1.0
-114.73833333333333 -29.73183333333333 2292.72 0.0 0.0 1.0
-119.65233333333333 -25.855100000000004 2601.74 0.0 0.0 1.0
-119.65233333333333 -24.927566666666667 2601.74 0.0 0.0 1.0
-119.652 -23.536233333333332 2601.74 0.0 0.0 1.0
-119.652 -22.3768 2601.74 0.0 0.0 1.0
-119.42033333333332 -20.985500000000002 2601.74 0.0 0.0 1.0
-119.42033333333332 -20.753600000000002 2601.74 0.0 0.0 1.0
-114.67666666666666 -4.3599499999999995 2275.29 0.0 0.0 1.0
-119.652 -2.2029 2601.74 0.0 0.0 1.0
-119.65233333333333 5.681156666666666 2601.74 0.0 0.0 1.0
-120.11566666666666 17.739133333333335 2601.74 0.0 0.0 1.0
-119.652 18.666666666666668 2601.74 0.0 0.0 1.0
-119.42033333333332 19.8261 2601.74 0.0 0.0 1.0
-114.415 19.62263333333333 2258.11 0.0 0.0 1.0
-114.415 19.62263333333333 2258.11 0.0 0.0 1.0
-114.415 19.622633333333336 2258.11 0.0 0.0 1.0
-119.18833333333333 30.492766666666665 2601.74 0.0 0.0 1.0
-119.884 30.95653333333333 2601.74 0.0 0.0 1.0
-120.11566666666666 48.11593333333334 2601.74 0.0 0.0 1.0
-120.11566666666666 48.11593333333334 2601.74 0.0 0.0 1.0
-119.42033333333332 56.231899999999996 2601.74 0.0 0.0 1.0
-119.42033333333332 56.231899999999996 2601.74 0.0 0.0 1.0
-120.34766666666667 60.405833333333334 2601.74 0.0 0.0 1.0
-118.95666666666666 64.3478 2601.74 0.0 0.0 1.0
-114.76533333333334 71.01233333333333 2216.3 0.0 0.0 1.0
-114.568 74.3704 2216.3 0.0 0.0 1.0
-118.72466666666666 89.15943333333333 2601.74 0.0 0.0 1.0
-120.11566666666666 94.72463333333333 2601.74 0.0 0.0 1.0
-120.11566666666666 94.72463333333333 2601.74 0.0 0.0 1.0
-118.95666666666666 102.37666666666667 2601.74 0.0 0.0 1.0
-120.116 110.493 2601.74 0.0 0.0 1.0
-119.884 113.04333333333334 2601.74 0.0 0.0 1.0
-120.116 113.507 2601.74 0.0 0.0 1.0
-116.45833333333333 -115.104 2337.5 0.0 0.0 1.0
-118.27966666666667 -108.71 2412.9 0.0 0.0 1.0
-119.65233333333333 -107.94200000000001 2601.74 0.0 0.0 1.0
-118.95666666666666 -100.98546666666665 2601.74 0.0 0.0 1.0
-119.88433333333334 -86.84056666666667 2601.74 0.0 0.0 1.0
-119.88433333333334 -86.84056666666667 2601.74 0.0 0.0 1.0
-116.972 -64.4887 2384.06 0.0 0.0 1.0
-117.60966666666667 -60.4515 2384.06 0.0 0.0 1.0
-119.65233333333333 -62.956500000000005 2601.74 0.0 0.0 1.0
-120.57966666666668 -50.666666666666664 2601.74 0.0 0.0 1.0
-120.57966666666668 -50.666666666666664 2601.74 0.0 0.0 1.0
-120.57966666666668 -49.50726666666667 2601.74 0.0 0.0 1.0
-121.507 -45.10146666666666 2601.74 0.0 0.0 1.0
-119.65233333333333 -40.2319 2601.74 0.0 0.0 1.0
-115.96466666666667 -29.118800000000004 2292.72 0.0 0.0 1.0
-121.04333333333334 -28.405833333333334 2601.74 0.0 0.0 1.0
-120.116 -25.62323333333333 2601.74 0.0 0.0 1.0
-120.116 -25.159466666666663 2601.74 0.0 0.0 1.0
-114.87933333333332 -5.373893333333332 2275.29 0.0 0.0 1.0
-115.08233333333332 -4.765526666666666 2275.29 0.0 0.0 1.0
-120.116 -0.5797106666666666 2601.74 0.0 0.0 1.0
-119.88433333333334 0.347826 2601.74 0.0 0.0 1.0
-119.65233333333333 5.681156666666666 2601.74 0.0 0.0 1.0
-120.57966666666668 15.188400000000001 2601.74 0.0 0.0 1.0
-120.348 15.652166666666666 2601.74 0.0 0.0 1.0
-120.57966666666668 16.347833333333334 2601.74 0.0 0.0 1.0
-119.884 30.95653333333333 2601.74 0.0 0.0 1.0
-119.884 56.231899999999996 2601.74 0.0 0.0 1.0
-120.34766666666667 60.405833333333334 2601.74 0.0 0.0 1.0
-120.34766666666667 65.7391 2601.74 0.0 0.0 1.0
-113.70533333333333 65.92316666666667 2224.54 0.0 0.0 1.0
-114.10166666666667 66.71623333333334 2224.54 0.0 0.0 1.0
-114.76533333333334 71.01233333333333 2216.3 0.0 0.0 1.0
-114.568 74.3704 2216.3 0.0 0.0 1.0
-119.88400000000001 96.34783333333333 2601.74 0.0 0.0 1.0
-119.42033333333332 103.07233333333333 2601.74 0.0 0.0 1.0
-120.116 110.493 2601.74 0.0 0.0 1.0
-120.116 110.493 2601.74 0.0 0.0 1.0
-120.116 113.04333333333334 2601.74 0.0 0.0 1.0
-120.57966666666668 113.507 2601.74 0.0 0.0 1.0
-112.73566666666666 97.01150000000001 2063.45 0.0 0.0 1.0
-121.507 -123.24633333333333 2601.74 0.0 0.0 1.0
-121.507 -123.24633333333333 2601.74 0.0 0.0 1.0
-121.04333333333334 -119.30433333333333 2601.74 0.0 0.0 1.0
-121.04333333333334 -113.04333333333334 2601.74 0.0 0.0 1.0
-121.04333333333334 -112.34766666666667 2601.74 0.0 0.0 1.0
-119.097 -96.36123333333335 2384.06 0.0 0.0 1.0
-121.507 -89.39133333333332 2601.74 0.0 0.0 1.0
-121.04333333333334 -82.4348 2601.74 0.0 0.0 1.0
-118.247 -69.16333333333331 2384.06 0.0 0.0 1.0
-117.60966666666667 -60.4515 2384.06 0.0 0.0 1.0
-120.57966666666668 -50.666666666666664 2601.74 0.0 0.0 1.0
-120.81133333333334 -49.50726666666667 2601.74 0.0 0.0 1.0
-121.043 -47.6522 2601.74 0.0 0.0 1.0
-120.81133333333334 -46.2609 2601.74 0.0 0.0 1.0
-116.169 -33.001266666666666 2292.72 0.0 0.0 1.0
-120.57966666666668 -27.4783 2601.74 0.0 0.0 1.0
-121.73899999999999 -17.50726666666667 2601.74 0.0 0.0 1.0
-121.507 -14.956533333333333 2601.74 0.0 0.0 1.0
-121.507 -14.956533333333333 2601.74 0.0 0.0 1.0
-115.28533333333333 -10.849186666666666 2275.29 0.0 0.0 1.0
-116.09666666666668 -10.646396666666666 2275.29 0.0 0.0 1.0
-116.50200000000001 -8.415716666666667 2275.29 0.0 0.0 1.0
-120.116 -0.5797106666666666 2601.74 0.0 0.0 1.0
-121.971 8.0 2601.74 0.0 0.0 1.0
-120.57966666666668 15.188400000000001 2601.74 0.0 0.0 1.0
-120.34766666666667 17.043466666666667 2601.74 0.0 0.0 1.0
-120.11566666666666 19.130433333333333 2601.74 0.0 0.0 1.0
-115.824 18.4151 2258.11 0.0 0.0 1.0
-121.73899999999999 26.31886666666667 2601.74 0.0 0.0 1.0
-121.27500000000002 27.246399999999998 2601.74 0.0 0.0 1.0
-121.507 36.057966666666665 2601.74 0.0 0.0 1.0
-121.507 36.9855 2601.74 0.0 0.0 1.0
-121.04333333333334 40.4638 2601.74 0.0 0.0 1.0
-121.507 44.8696 2601.74 0.0 0.0 1.0
-120.57933333333334 46.2609 2601.74 0.0 0.0 1.0
-120.11566666666666 48.11593333333334 2601.74 0.0 0.0 1.0
-121.27500000000002 58.78263333333333 2601.74 0.0 0.0 1.0
-120.81133333333334 59.71016666666666 2601.74 0.0 0.0 1.0
-118.209 55.02486666666667 2232.84 0.0 0.0 1.0
-121.507 66.89853333333333 2601.74 0.0 0.0 1.0
-115.29133333333334 59.38046666666667 2224.54 0.0 0.0 1.0
-115.29133333333334 59.38046666666667 2224.54 0.0 0.0 1.0
-115.29133333333334 64.13876666666667 2224.54 0.0 0.0 1.0
-120.34766666666667 95.88406666666667 2601.74 0.0 0.0 1.0
-121.73899999999999 108.63766666666668 2601.74 0.0 0.0 1.0
-120.57966666666668 113.507 2601.74 0.0 0.0 1.0
-112.73566666666666 97.01150000000001 2063.45 0.0 0.0 1.0
-121.27500000000002 127.42033333333332 2601.74 0.0 0.0 1.0
-121.27500000000002 128.34766666666667 2601.74 0.0 0.0 1.0
-122.43466666666666 -125.79699999999998 2601.74 0.0 0.0 1.0
-118.27966666666667 -108.71 2412.9 0.0 0.0 1.0
-118.27966666666667 -108.71 2412.9 0.0 0.0 1.0
-120.81166666666667 -97.04346666666667 2601.74 0.0 0.0 1.0
-121.971 -94.72463333333333 2601.74 0.0 0.0 1.0
-121.507 -89.39133333333332 2601.74 0.0 0.0 1.0
-121.507 -89.39133333333332 2601.74 0.0 0.0 1.0
-122.20266666666667 -83.5942 2601.74 0.0 0.0 1.0
-121.27533333333334 -77.33333333333333 2601.74 0.0 0.0 1.0
-118.45933333333333 -68.3134 2384.06 0.0 0.0 1.0
-118.45933333333333 -68.3134 2384.06 0.0 0.0 1.0
-118.03433333333334 -64.91366666666667 2384.06 0.0 0.0 1.0
-118.247 -60.4515 2384.06 0.0 0.0 1.0
-122.66633333333334 -59.942033333333335 2601.74 0.0 0.0 1.0
-121.50733333333334 -51.5942 2601.74 0.0 0.0 1.0
-121.50733333333334 -40.2319 2601.74 0.0 0.0 1.0
-121.971 -30.028999999999996 2601.74 0.0 0.0 1.0
-121.50733333333334 -29.101466666666663 2601.74 0.0 0.0 1.0
-120.81166666666667 -25.391333333333336 2601.74 0.0 0.0 1.0
-121.50733333333334 -23.536233333333332 2601.74 0.0 0.0 1.0
-121.73899999999999 -17.507266666666666 2601.74 0.0 0.0 1.0
-116.50200000000001 -8.415716666666667 2275.29 0.0 0.0 1.0
-121.27500000000002 27.246399999999998 2601.74 0.0 0.0 1.0
-122.43466666666666 33.50723333333334 2601.74 0.0 0.0 1.0
-121.507 36.057966666666665 2601.74 0.0 0.0 1.0
-121.73899999999999 36.52173333333334 2601.74 0.0 0.0 1.0
-121.507 36.9855 2601.74 0.0 0.0 1.0
-122.43466666666666 55.768100000000004 2601.74 0.0 0.0 1.0
-121.27500000000002 58.78263333333334 2601.74 0.0 0.0 1.0
-115.29133333333334 59.38046666666667 2224.54 0.0 0.0 1.0
-115.88600000000001 60.37173333333334 2224.54 0.0 0.0 1.0
-115.55566666666665 73.38273333333333 2216.3 0.0 0.0 1.0
-115.75333333333333 79.11110000000001 2216.3 0.0 0.0 1.0
-115.75333333333333 79.11110000000001 2216.3 0.0 0.0 1.0
-123.13033333333333 100.98533333333334 2601.74 0.0 0.0 1.0
-122.43466666666666 111.65233333333333 2601.74 0.0 0.0 1.0
-121.971 114.89833333333333 2601.74 0.0 0.0 1.0
-121.971 114.89833333333333 2601.74 0.0 0.0 1.0
-122.20266666666667 116.75333333333333 2601.74 0.0 0.0 1.0
-121.971 123.47833333333331 2601.74 0.0 0.0 1.0
-121.97066666666667 126.72466666666666 2601.74 0.0 0.0 1.0
-121.27500000000002 128.34766666666667 2601.74 0.0 0.0 1.0
-117.91666666666667 -115.104 2337.5 0.0 0.0 1.0
-122.43466666666666 -125.79699999999998 2601.74 0.0 0.0 1.0
-122.20266666666667 -123.71 2601.74 0.0 0.0 1.0
-122.89833333333333 -119.536 2601.74 0.0 0.0 1.0
-123.36233333333332 -113.04333333333334 2601.74 0.0 0.0 1.0
-119.097 -96.36123333333335 2384.06 0.0 0.0 1.0
-122.20266666666667 -82.2029 2601.74 0.0 0.0 1.0
-118.45933333333333 -68.3134 2384.06 0.0 0.0 1.0
-119.09666666666668 -64.91366666666667 2384.06 0.0 0.0 1.0
-118.88433333333334 -60.663999999999994 2384.06 0.0 0.0 1.0
-122.43466666666666 -50.666666666666664 2601.74 0.0 0.0 1.0
-121.50733333333334 -40.2319 2601.74 0.0 0.0 1.0
-118.21233333333333 -34.840333333333334 2292.72 0.0 0.0 1.0
-117.395 -32.38823333333334 2292.72 0.0 0.0 1.0
-117.59933333333333 -29.323133333333335 2292.72 0.0 0.0 1.0
-117.59933333333333 -29.323133333333335 2292.72 0.0 0.0 1.0
-122.66666666666667 -29.101466666666663 2601.74 0.0 0.0 1.0
-122.89866666666667 -22.608666666666664 2601.74 0.0 0.0 1.0
-122.20266666666667 -19.362333333333336 2601.74 0.0 0.0 1.0
-122.20300000000002 -16.579733333333333 2601.74 0.0 0.0 1.0
-122.20300000000002 -16.579733333333333 2601.74 0.0 0.0 1.0
-116.90733333333333 -8.212926666666666 2275.29 0.0 0.0 1.0
-117.31299999999999 -7.80735 2275.29 0.0 0.0 1.0
-123.36233333333332 3.594203333333333 2601.74 0.0 0.0 1.0
-122.66666666666667 7.768116666666667 2601.74 0.0 0.0 1.0
-122.66666666666667 7.768116666666667 2601.74 0.0 0.0 1.0
-122.43466666666666 13.7971 2601.74 0.0 0.0 1.0
-117.43400000000001 19.8239 2258.11 0.0 0.0 1.0
-123.13066666666667 24.927533333333333 2601.74 0.0 0.0 1.0
-121.971 25.159433333333336 2601.74 0.0 0.0 1.0
-122.66666666666667 33.04346666666667 2601.74 0.0 0.0 1.0
-122.43466666666666 33.50723333333334 2601.74 0.0 0.0 1.0
-122.43466666666666 44.405833333333334 2601.74 0.0 0.0 1.0
-122.43466666666666 55.768100000000004 2601.74 0.0 0.0 1.0
-115.688 62.55263333333334 2224.54 0.0 0.0 1.0
-115.753 71.20986666666666 2216.3 0.0 0.0 1.0
-116.74066666666666 77.13576666666667 2216.3 0.0 0.0 1.0
-115.75333333333333 79.1111 2216.3 0.0 0.0 1.0
-122.43466666666666 111.65233333333333 2601.74 0.0 0.0 1.0
-122.43466666666666 114.89833333333333 2601.74 0.0 0.0 1.0
-122.66666666666667 119.76799999999999 2601.74 0.0 0.0 1.0
-122.66666666666667 119.76799999999999 2601.74 0.0 0.0 1.0
-112.73566666666666 97.01150000000001 2063.45 0.0 0.0 1.0
-123.13033333333333 -125.565 2601.74 0.0 0.0 1.0
-122.89833333333333 -124.40566666666666 2601.74 0.0 0.0 1.0
-123.13 -120.0 2601.74 0.0 0.0 1.0
-123.13 -120.0 2601.74 0.0 0.0 1.0
-123.13033333333333 -119.30400000000002 2601.74 0.0 0.0 1.0
-118.676 -67.47370000000001 1722.8533333333332 8.230764707011325e-16 -0.7301141772733606 0.6833251701382321
-123.82600000000001 -87.07246666666667 2601.74 0.0 0.0 1.0
-123.36233333333332 -82.43476666666668 2601.74 0.0 0.0 1.0
-123.13033333333334 -78.029 2601.74 0.0 0.0 1.0
-119.94666666666667 -63.4263 2384.06 0.0 0.0 1.0
-119.52166666666666 -61.30146666666667 2384.06 0.0 0.0 1.0
-124.05766666666666 -62.02896666666666 2601.74 0.0 0.0 1.0
-122.66633333333334 -58.55073333333333 2601.74 0.0 0.0 1.0
-122.66633333333334 -58.55073333333333 2601.74 0.0 0.0 1.0
-121.507 -45.10146666666666 2601.74 0.0 0.0 1.0
-118.008 -29.118800000000004 2292.72 0.0 0.0 1.0
-123.82600000000001 -27.478266666666666 2601.74 0.0 0.0 1.0
-123.594 -20.05796666666667 2601.74 0.0 0.0 1.0
-117.313 -7.80735 2275.29 0.0 0.0 1.0
-123.36200000000001 -6.84058 2601.74 0.0 0.0 1.0
-123.36200000000001 -4.52174 2601.74 0.0 0.0 1.0
-123.36200000000001 1.0434786666666667 2601.74 0.0 0.0 1.0
-123.594 1.73913 2601.74 0.0 0.0 1.0
-123.13033333333333 5.913043333333333 2601.74 0.0 0.0 1.0
-122.66666666666667 7.768116666666667 2601.74 0.0 0.0 1.0
-123.82599999999998 9.623216666666666 2601.74 0.0 0.0 1.0
-123.594 16.11596666666667 2601.74 0.0 0.0 1.0
-123.594 16.11596666666667 2601.74 0.0 0.0 1.0
-123.82600000000001 20.521733333333334 2601.74 0.0 0.0 1.0
-117.43400000000001 19.8239 2258.11 0.0 0.0 1.0
-123.13033333333333 28.6377 2601.74 0.0 0.0 1.0
-122.66666666666667 33.04346666666667 2601.74 0.0 0.0 1.0
-123.82600000000001 41.15943333333333 2601.74 0.0 0.0 1.0
-123.13033333333333 44.637699999999995 2601.74 0.0 0.0 1.0
-122.89833333333333 56.0 2601.74 0.0 0.0 1.0
-122.66633333333334 56.231899999999996 2601.74 0.0 0.0 1.0
-122.89833333333333 59.942033333333335 2601.74 0.0 0.0 1.0
-122.66633333333334 67.82606666666668 2601.74 0.0 0.0 1.0
-116.08433333333333 60.17346666666666 2224.54 0.0 0.0 1.0
-116.93833333333333 72.0 2216.3 0.0 0.0 1.0
-122.43466666666666 111.65233333333333 2601.74 0.0 0.0 1.0
-123.13033333333333 114.89833333333333 2601.74 0.0 0.0 1.0
-122.89833333333333 118.84033333333332 2601.74 0.0 0.0 1.0
-122.89833333333333 118.84033333333333 2601.74 0.0 0.0 1.0
-118.23899999999999 98.74206666666667 2092.3266666666664 0.49501395129156267 0.8248896892236464 0.2729801982548011
-121.97066666666667 126.72466666666666 2601.74 0.0 0.0 1.0
-119.58333333333333 -115.104 2337.5 0.0 0.0 1.0
-123.82600000000001 -125.33333333333333 2601.74 0.0 0.0 1.0
-123.36200000000001 -119.536 2601.74 0.0 0.0 1.0
-124.05799999999999 -117.681 2601.74 0.0 0.0 1.0
-123.82599999999998 -117.21733333333333 2601.74 0.0 0.0 1.0
-123.82599999999998 -117.21733333333333 2601.74 0.0 0.0 1.0
-123.36233333333332 -113.04333333333334 2601.74 0.0 0.0 1.0
-123.36233333333332 -113.04333333333334 2601.74 0.0 0.0 1.0
-120.05399999999999 -81.641 2304.5 0.7062742557790267 0.7069628559634109 0.03715098803315103
-124.75366666666667 -91.71016666666667 2601.74 0.0 0.0 1.0
-123.82600000000001 -87.07246666666667 2601.74 0.0 0.0 1.0
-123.59433333333334 -83.13043333333333 2601.74 0.0 0.0 1.0
-120.15899999999999 -67.251 2384.06 0.0 0.0 1.0
-119.52166666666666 -64.4887 2384.06 0.0 0.0 1.0
-120.15933333333334 -62.57636666666667 2384.06 0.0 0.0 1.0
-124.98533333333334 -65.27536666666667 2601.74 0.0 0.0 1.0
-124.05766666666666 -62.02896666666666 2601.74 0.0 0.0 1.0
-124.05799999999999 -50.89853333333334 2601.74 0.0 0.0 1.0
-117.80366666666667 -31.366533333333336 2292.72 0.0 0.0 1.0
-118.008 -29.118800000000004 2292.72 0.0 0.0 1.0
-123.36233333333332 -28.869566666666667 2601.74 0.0 0.0 1.0
-124.05799999999999 -28.173933333333334 2601.74 0.0 0.0 1.0
-124.28966666666666 -8.463766666666666 2601.74 0.0 0.0 1.0
-124.52166666666666 -2.2028966666666667 2601.74 0.0 0.0 1.0
-123.36200000000001 1.0434786666666667 2601.74 0.0 0.0 1.0
-123.82600000000001 2.2028966666666667 2601.74 0.0 0.0 1.0
-123.59433333333334 4.057973333333334 2601.74 0.0 0.0 1.0
-123.13033333333333 8.231883333333334 2601.74 0.0 0.0 1.0
-123.82600000000001 13.7971 2601.74 0.0 0.0 1.0
-123.82600000000001 20.521733333333334 2601.74 0.0 0.0 1.0
-117.43400000000001 19.8239 2258.11 0.0 0.0 1.0
-123.82600000000001 41.15943333333333 2601.74 0.0 0.0 1.0
-123.13033333333333 44.637699999999995 2601.74 0.0 0.0 1.0
-124.29 52.5217 2601.74 0.0 0.0 1.0
-124.28966666666666 67.82606666666668 2601.74 0.0 0.0 1.0
-117.13566666666668 79.11110000000001 2216.3 0.0 0.0 1.0
-124.05799999999999 100.75366666666667 2601.74 0.0 0.0 1.0
-124.05799999999999 100.75366666666667 2601.74 0.0 0.0 1.0
-124.75333333333333 104.0 2601.74 0.0 0.0 1.0
-123.82600000000001 109.33366666666666 2601.74 0.0 0.0 1.0
-123.594 115.13033333333333 2601.74 0.0 0.0 1.0
-123.36233333333332 115.36200000000001 2601.74 0.0 0.0 1.0
-124.52166666666666 -125.33333333333333 2601.74 0.0 0.0 1.0
-124.05799999999999 -122.551 2601.74 0.0 0.0 1.0
-123.82599999999998 -120.23200000000001 2601.74 0.0 0.0 1.0
-124.05799999999999 -117.681 2601.74 0.0 0.0 1.0
-121.85933333333332 -96.14876666666667 2384.06 0.0 0.0 1.0
-121.647 -93.17399999999999 2384.06 0.0 0.0 1.0
-124.75366666666666 -94.26089999999999 2601.74 0.0 0.0 1.0
-120.05399999999999 -81.641 2304.5 0.7062742557790259 0.7069628559634117 0.037150988033150575
-125.44933333333334 -90.55073333333333 2601.74 0.0 0.0 1.0
-124.52166666666666 -87.76813333333332 2601.74 0.0 0.0 1.0
-123.82600000000001 -82.89853333333333 2601.74 0.0 0.0 1.0
-125.68133333333333 -79.65216666666667 2601.74 0.0 0.0 1.0
-120.79666666666667 -62.57636666666667 2384.06 0.0 0.0 1.0
-124.98533333333334 -54.144933333333334 2601.74 0.0 0.0 1.0
-124.75366666666667 -27.94203333333333 2601.74 0.0 0.0 1.0
-124.98533333333334 -22.144900000000003 2601.74 0.0 0.0 1.0
-124.05799999999999 -17.50726666666667 2601.74 0.0 0.0 1.0
-124.98566666666666 -13.333333333333334 2601.74 0.0 0.0 1.0
-125.21766666666667 -12.4058 2601.74 0.0 0.0 1.0
-124.52166666666666 -2.2028966666666667 2601.74 0.0 0.0 1.0
-124.29 2.89855 2601.74 0.0 0.0 1.0
-124.75366666666667 4.057973333333334 2601.74 0.0 0.0 1.0
-124.28966666666668 10.318866666666667 2601.74 0.0 0.0 1.0
-124.28966666666668 15.4203 2601.74 0.0 0.0 1.0
-125.21733333333333 18.666666666666668 2601.74 0.0 0.0 1.0
-124.522 25.3913 2601.74 0.0 0.0 1.0
-125.21733333333333 28.405833333333334 2601.74 0.0 0.0 1.0
-124.28966666666668 33.739133333333335 2601.74 0.0 0.0 1.0
-125.21733333333333 36.05793333333333 2601.74 0.0 0.0 1.0
-124.98533333333334 38.84056666666667 2601.74 0.0 0.0 1.0
-124.29 41.623200000000004 2601.74 0.0 0.0 1.0
-124.29 41.623200000000004 2601.74 0.0 0.0 1.0
-124.75366666666667 48.8116 2601.74 0.0 0.0 1.0
-124.29 50.89853333333334 2601.74 0.0 0.0 1.0
-124.75366666666667 54.1449 2601.74 0.0 0.0 1.0
-124.75366666666667 54.1449 2601.74 0.0 0.0 1.0
-123.13033333333333 59.47826666666666 2601.74 0.0 0.0 1.0
-118.71633333333334 67.2593 2216.3 0.0 0.0 1.0
-117.72866666666665 72.5926 2216.3 0.0 0.0 1.0
-118.12333333333333 76.7407 2216.3 0.0 0.0 1.0
-118.12333333333333 79.11110000000001 2216.3 0.0 0.0 1.0
-124.75366666666667 99.82626666666665 2601.74 0.0 0.0 1.0
-124.52166666666666 100.522 2601.74 0.0 0.0 1.0
-124.98566666666666 108.63799999999999 2601.74 0.0 0.0 1.0
-113.839 97.0115 2063.45 0.0 0.0 1.0
-124.75333333333333 -127.18833333333333 2601.74 0.0 0.0 1.0
-124.52166666666666 -125.33333333333333 2601.74 0.0 0.0 1.0
-122.07166666666667 -101.24833333333333 2384.06 0.0 0.0 1.0
-125.21733333333333 -88.69566666666667 2601.74 0.0 0.0 1.0
-125.913 -85.44926666666667 2601.74 0.0 0.0 1.0
-120.584 -65.9761 2384.06 0.0 0.0 1.0
-121.64666666666666 -63.00133333333333 2384.06 0.0 0.0 1.0
-125.913 -65.0435 2601.74 0.0 0.0 1.0
-125.21733333333333 -62.260866666666665 2601.74 0.0 0.0 1.0
-124.98533333333334 -54.144933333333334 2601.74 0.0 0.0 1.0
-124.98533333333334 -54.144933333333334 2601.74 0.0 0.0 1.0
-125.681 -47.188433333333336 2601.74 0.0 0.0 1.0
-125.681 -47.188433333333336 2601.74 0.0 0.0 1.0
-120.46 -36.4751 2292.72 0.0 0.0 1.0
-126.60866666666668 -32.347833333333334 2601.74 0.0 0.0 1.0
-125.21733333333333 -26.087 2601.74 0.0 0.0 1.0
-125.21733333333333 -23.072433333333333 2601.74 0.0 0.0 1.0
-124.98533333333334 -21.217366666666667 2601.74 0.0 0.0 1.0
-125.449 -20.753600000000002 2601.74 0.0 0.0 1.0
-124.98533333333334 -18.666666666666668 2601.74 0.0 0.0 1.0
-124.52166666666666 -2.2028966666666667 2601.74 0.0 0.0 1.0
-125.21733333333333 10.782633333333331 2601.74 0.0 0.0 1.0
-124.52166666666666 14.724633333333335 2601.74 0.0 0.0 1.0
-125.21733333333333 18.666666666666668 2601.74 0.0 0.0 1.0
-125.21733333333333 28.405833333333334 2601.74 0.0 0.0 1.0
-125.21733333333333 34.43476666666667 2601.74 0.0 0.0 1.0
-125.21733333333333 36.05793333333333 2601.74 0.0 0.0 1.0
-124.98533333333334 38.84056666666667 2601.74 0.0 0.0 1.0
-124.98533333333334 38.84056666666667 2601.74 0.0 0.0 1.0
-125.21733333333333 40.92756666666667 2601.74 0.0 0.0 1.0
-125.21733333333333 45.797133333333335 2601.74 0.0 0.0 1.0
-124.75366666666667 54.1449 2601.74 0.0 0.0 1.0
-125.21733333333333 55.072466666666664 2601.74 0.0 0.0 1.0
-120.199 54.62686666666667 2232.84 0.0 0.0 1.0
-125.449 71.7681 2601.74 0.0 0.0 1.0
-125.449 71.7681 2601.74 0.0 0.0 1.0
-125.449 72.46376666666667 2601.74 0.0 0.0 1.0
-119.11133333333333 67.85186666666667 2216.3 0.0 0.0 1.0
-118.91366666666666 71.20986666666667 2216.3 0.0 0.0 1.0
-117.72866666666665 72.5926 2216.3 0.0 0.0 1.0
-125.21733333333333 100.75366666666667 2601.74 0.0 0.0 1.0
-125.449 102.37666666666667 2601.74 0.0 0.0 1.0
-125.217 103.53633333333335 2601.74 0.0 0.0 1.0
-125.449 104.23200000000001 2601.74 0.0 0.0 1.0
-125.449 119.76833333333333 2601.74 0.0 0.0 1.0
-125.449 119.76833333333333 2601.74 0.0 0.0 1.0
-118.23899999999999 98.74206666666667 2092.3266666666664 0.49501395129156067 0.824889689223648 0.27298019825479974
-125.681 129.04333333333332 2601.74 0.0 0.0 1.0
-121.875 -114.896 2337.5 0.0 0.0 1.0
-122.07166666666667 -101.24833333333333 2384.06 0.0 0.0 1.0
-122.49666666666667 -96.78620000000001 2384.06 0.0 0.0 1.0
-121.647 -93.17399999999999 2384.06 0.0 0.0 1.0
-122.28433333333334 -91.89909999999999 2384.06 0.0 0.0 1.0
-122.28433333333334 -91.89909999999999 2384.06 0.0 0.0 1.0
-126.60866666666665 -98.89853333333333 2601.74 0.0 0.0 1.0
-125.91300000000001 -94.029 2601.74 0.0 0.0 1.0
-126.60866666666668 -91.71016666666667 2601.74 0.0 0.0 1.0
-125.21733333333333 -89.6232 2601.74 0.0 0.0 1.0
-126.14466666666665 -85.91303333333333 2601.74 0.0 0.0 1.0
-125.913 -79.1884 2601.74 0.0 0.0 1.0
-122.92199999999998 -61.30146666666667 2384.06 0.0 0.0 1.0
-125.913 -65.0435 2601.74 0.0 0.0 1.0
-125.449 -56.927533333333336 2601.74 0.0 0.0 1.0
-125.21733333333333 -50.89853333333334 2601.74 0.0 0.0 1.0
-125.21733333333333 -50.89853333333334 2601.74 0.0 0.0 1.0
-120.46 -36.4751 2292.72 0.0 0.0 1.0
-125.91300000000001 -28.173933333333334 2601.74 0.0 0.0 1.0
-126.145 -24.2319 2601.74 0.0 0.0 1.0
-126.145 -24.2319 2601.74 0.0 0.0 1.0
-125.449 -20.753600000000002 2601.74 0.0 0.0 1.0
-125.68133333333333 -14.260866666666667 2601.74 0.0 0.0 1.0
-125.681 -9.3913 2601.74 0.0 0.0 1.0
-126.60866666666665 -5.681159999999999 2601.74 0.0 0.0 1.0
-125.44933333333334 3.130433333333334 2601.74 0.0 0.0 1.0
-125.44933333333334 3.594203333333333 2601.74 0.0 0.0 1.0
-125.681 7.53623 2601.74 0.0 0.0 1.0
-126.14466666666665 11.0145 2601.74 0.0 0.0 1.0
-125.21733333333333 18.666666666666668 2601.74 0.0 0.0 1.0
-125.91300000000001 28.869600000000002 2601.74 0.0 0.0 1.0
-126.84066666666666 31.188433333333336 2601.74 0.0 0.0 1.0
-126.14466666666665 34.89853333333334 2601.74 0.0 0.0 1.0
-125.21733333333333 40.92756666666667 2601.74 0.0 0.0 1.0
-125.913 54.1449 2601.74 0.0 0.0 1.0
-127.07233333333333 66.89853333333333 2601.74 0.0 0.0 1.0
-125.449 71.7681 2601.74 0.0 0.0 1.0
-126.60866666666665 75.24636666666667 2601.74 0.0 0.0 1.0
-119.11133333333333 67.85186666666667 2216.3 0.0 0.0 1.0
-119.111 78.32096666666666 2216.3 0.0 0.0 1.0
-126.84033333333332 95.18843333333332 2601.74 0.0 0.0 1.0
-125.21733333333333 100.75366666666667 2601.74 0.0 0.0 1.0
-125.449 104.23200000000001 2601.74 0.0 0.0 1.0
-125.21733333333333 112.116 2601.74 0.0 0.0 1.0
-125.449 119.76833333333332 2601.74 0.0 0.0 1.0
-126.37666666666667 127.65233333333333 2601.74 0.0 0.0 1.0
-126.145 128.34766666666667 2601.74 0.0 0.0 1.0
-125.913 129.275 2601.74 0.0 0.0 1.0
-121.875 -114.896 2337.5 0.0 0.0 1.0
-126.145 -123.94200000000001 2601.74 0.0 0.0 1.0
-126.609 -122.55066666666669 2601.74 0.0 0.0 1.0
-126.609 -121.15933333333334 2601.74 0.0 0.0 1.0
-126.609 -121.15933333333334 2601.74 0.0 0.0 1.0
-122.70933333333333 -101.24833333333333 2384.06 0.0 0.0 1.0
-122.92166666666667 -100.39833333333333 2384.06 0.0 0.0 1.0
-122.70933333333333 -97.42363333333333 2384.06 0.0 0.0 1.0
-122.92166666666667 -96.14876666666667 2384.06 0.0 0.0 1.0
-122.28433333333334 -91.89909999999999 2384.06 0.0 0.0 1.0
-126.84066666666666 -97.971 2601.74 0.0 0.0 1.0
-126.60866666666668 -91.71016666666667 2601.74 0.0 0.0 1.0
-126.37666666666667 -85.21736666666666 2601.74 0.0 0.0 1.0
-126.60866666666668 -79.42026666666668 2601.74 0.0 0.0 1.0
-126.84066666666666 -77.33333333333333 2601.74 0.0 0.0 1.0
-127.53633333333333 -76.4058 2601.74 0.0 0.0 1.0
-122.49666666666667 -63.00133333333333 2384.06 0.0 0.0 1.0
-125.913 -65.0435 2601.74 0.0 0.0 1.0
-126.145 -62.95653333333333 2601.74 0.0 0.0 1.0
-125.681 -53.91303333333334 2601.74 0.0 0.0 1.0
-125.681 -47.188433333333336 2601.74 0.0 0.0 1.0
-120.46 -36.4751 2292.72 0.0 0.0 1.0
-120.25566666666667 -31.36656666666667 2292.72 0.0 0.0 1.0
-120.25566666666667 -31.36656666666667 2292.72 0.0 0.0 1.0
-126.60866666666668 -32.347833333333334 2601.74 0.0 0.0 1.0
-126.145 -24.2319 2601.74 0.0 0.0 1.0
-126.377 -23.536233333333332 2601.74 0.0 0.0 1.0
-126.377 -14.956533333333333 2601.74 0.0 0.0 1.0
-126.377 -14.956533333333333 2601.74 0.0 0.0 1.0
-126.145 -11.014499999999998 2601.74 0.0 0.0 1.0
-126.60866666666668 -5.681159999999999 2601.74 0.0 0.0 1.0
-127.30433333333333 -0.115942 2601.74 0.0 0.0 1.0
-127.30433333333333 16.3478 2601.74 0.0 0.0 1.0
-126.60866666666668 19.362333333333336 2601.74 0.0 0.0 1.0
-127.07233333333333 25.6232 2601.74 0.0 0.0 1.0
-126.60866666666668 29.333366666666667 2601.74 0.0 0.0 1.0
-127.30433333333333 33.7391 2601.74 0.0 0.0 1.0
-126.60866666666665 38.376799999999996 2601.74 0.0 0.0 1.0
-127.30433333333333 42.78263333333334 2601.74 0.0 0.0 1.0
-126.84066666666666 45.797133333333335 2601.74 0.0 0.0 1.0
-126.60866666666668 53.91303333333334 2601.74 0.0 0.0 1.0
-120.54733333333333 51.7768 2230.0733333333333 0.3147848050006194 -0.944354415001866 0.09542151438331828
-120.79599999999999 52.4378 2232.84 0.0 0.0 1.0
-119.11133333333333 67.85186666666667 2216.3 0.0 0.0 1.0
-126.377 108.406 2601.74 0.0 0.0 1.0
-127.07266666666665 113.27533333333334 2601.74 0.0 0.0 1.0
-126.145 129.04333333333332 2601.74 0.0 0.0 1.0
-121.875 -114.896 2337.5 0.0 0.0 1.0
-127.76799999999999 -114.20266666666667 2601.74 0.0 0.0 1.0
-123.13433333333332 -100.82333333333334 2384.06 0.0 0.0 1.0
-123.13433333333334 -100.39833333333333 2384.06 0.0 0.0 1.0
-122.70933333333333 -97.42363333333333 2384.06 0.0 0.0 1.0
-127.30433333333333 -99.3623 2601.74 0.0 0.0 1.0
-126.60866666666668 -91.71016666666667 2601.74 0.0 0.0 1.0
-120.05400000000002 -81.641 2304.5 0.7062742557790259 0.7069628559634117 0.037150988033150575
-127.53633333333333 -85.44923333333332 2601.74 0.0 0.0 1.0
-126.60866666666665 -79.42026666666668 2601.74 0.0 0.0 1.0
-123.55933333333333 -61.513933333333334 2384.06 0.0 0.0 1.0
-123.55933333333333 -61.513933333333334 2384.06 0.0 0.0 1.0
-126.60866666666665 -55.768100000000004 2601.74 0.0 0.0 1.0
-122.50333333333333 -39.54026666666667 2292.72 0.0 0.0 1.0
-121.68599999999999 -35.0447 2292.72 0.0 0.0 1.0
-127.07233333333333 -29.101466666666663 2601.74 0.0 0.0 1.0
-127.07233333333333 -24.927566666666667 2601.74 0.0 0.0 1.0
-127.30433333333333 -8.927533333333333 2601.74 0.0 0.0 1.0
-127.30433333333333 -6.84058 2601.74 0.0 0.0 1.0
-127.30433333333333 -0.115942 2601.74 0.0 0.0 1.0
-126.37666666666667 5.913043333333333 2601.74 0.0 0.0 1.0
-126.14466666666665 11.0145 2601.74 0.0 0.0 1.0
-126.37666666666667 15.420266666666665 2601.74 0.0 0.0 1.0
-126.60866666666668 19.362333333333336 2601.74 0.0 0.0 1.0
-127.536 22.840566666666664 2601.74 0.0 0.0 1.0
-127.536 22.840566666666664 2601.74 0.0 0.0 1.0
-127.07233333333333 24.463766666666668 2601.74 0.0 0.0 1.0
-127.53633333333335 26.550733333333337 2601.74 0.0 0.0 1.0
-126.60866666666665 29.333366666666667 2601.74 0.0 0.0 1.0
-127.30433333333333 33.7391 2601.74 0.0 0.0 1.0
-127.07233333333333 34.89853333333334 2601.74 0.0 0.0 1.0
-127.07233333333333 39.76813333333333 2601.74 0.0 0.0 1.0
-127.30433333333333 42.78263333333334 2601.74 0.0 0.0 1.0
-127.53633333333335 53.68113333333333 2601.74 0.0 0.0 1.0
-120.597 53.43283333333333 2232.84 0.0 0.0 1.0
-127.07233333333333 66.89853333333333 2601.74 0.0 0.0 1.0
-127.07233333333333 71.7681 2601.74 0.0 0.0 1.0
-120.09866666666666 69.82713333333334 2216.3 0.0 0.0 1.0
-120.09866666666666 77.1358 2216.3 0.0 0.0 1.0
-126.84033333333333 95.18843333333332 2601.74 0.0 0.0 1.0
-126.84033333333332 95.18843333333332 2601.74 0.0 0.0 1.0
-127.07233333333333 99.82593333333334 2601.74 0.0 0.0 1.0
-128.23166666666665 107.24633333333333 2601.74 0.0 0.0 1.0
-127.30433333333333 116.522 2601.74 0.0 0.0 1.0
-119.18733333333334 100.454 2144.8 0.0 0.0 1.0
-119.18733333333334 100.454 2144.8 0.0 0.0 1.0
-126.37666666666667 127.65233333333333 2601.74 0.0 0.0 1.0
-126.55766666666666 -116.61200000000001 2452.46 0.0 0.0 1.0
-127.76799999999999 -114.20266666666667 2601.74 0.0 0.0 1.0
-127.76799999999999 -114.20266666666667 2601.74 0.0 0.0 1.0
-123.77166666666666 -95.51133333333333 2384.06 0.0 0.0 1.0
-124.19666666666666 -93.59896666666667 2384.06 0.0 0.0 1.0
-123.55900000000001 -92.74903333333333 2384.06 0.0 0.0 1.0
-127.76833333333333 -97.27536666666667 2601.74 0.0 0.0 1.0
-126.93333333333332 -80.10666666666667 2393.6 0.0 0.0 1.0
-125.408 -81.71353333333333 2403.21 0.0 0.0 1.0
-127.55566666666668 -77.0 2493.33 0.0 0.0 1.0
-129.855 -73.15946666666667 2601.74 0.0 0.0 1.0
-123.55933333333333 -61.513933333333334 2384.06 0.0 0.0 1.0
-128.69566666666665 -32.8116 2601.74 0.0 0.0 1.0
-127.30433333333333 -30.260900000000003 2601.74 0.0 0.0 1.0
-128.23166666666665 -25.159433333333336 2601.74 0.0 0.0 1.0
-127.53633333333333 -0.5797106666666666 2601.74 0.0 0.0 1.0
-127.76799999999999 -0.3478266666666667 2601.74 0.0 0.0 1.0
-128.23166666666665 13.565233333333333 2601.74 0.0 0.0 1.0
-126.84066666666666 17.507233333333332 2601.74 0.0 0.0 1.0
-127.536 22.840566666666664 2601.74 0.0 0.0 1.0
-127.99999999999999 31.420299999999997 2601.74 0.0 0.0 1.0
-127.76799999999999 33.971000000000004 2601.74 0.0 0.0 1.0
-128.232 34.43476666666667 2601.74 0.0 0.0 1.0
-127.30433333333333 38.84056666666667 2601.74 0.0 0.0 1.0
-127.30433333333333 42.78263333333333 2601.74 0.0 0.0 1.0
-128.69566666666665 49.27536666666666 2601.74 0.0 0.0 1.0
-128.69566666666665 55.536233333333335 2601.74 0.0 0.0 1.0
-121.194 54.22886666666667 2232.84 0.0 0.0 1.0
-128.23166666666665 66.89853333333333 2601.74 0.0 0.0 1.0
-127.07233333333333 71.7681 2601.74 0.0 0.0 1.0
-121.28399999999999 74.56793333333333 2216.3 0.0 0.0 1.0
-120.69133333333333 75.95063333333333 2216.3 0.0 0.0 1.0
-128.23166666666665 99.82593333333334 2601.74 0.0 0.0 1.0
-128.69566666666665 102.84033333333333 2601.74 0.0 0.0 1.0
-128.23166666666665 107.24633333333333 2601.74 0.0 0.0 1.0
-119.37866666666666 99.68943333333333 2144.8 0.0 0.0 1.0
-119.18733333333331 100.454 2144.8 0.0 0.0 1.0
-128.69566666666665 123.94233333333334 2601.74 0.0 0.0 1.0
-126.55766666666666 -116.61200000000001 2452.46 0.0 0.0 1.0
-125.41666666666667 -105.31266666666666 2337.5 0.0 0.0 1.0
-129.85533333333333 -111.18866666666666 2601.74 0.0 0.0 1.0
-123.77199999999999 -100.39833333333333 2384.06 0.0 0.0 1.0
-124.834 -94.4489 2384.06 0.0 0.0 1.0
-128.69566666666665 -98.89853333333333 2601.74 0.0 0.0 1.0
-128.92766666666668 -97.27536666666667 2601.74 0.0 0.0 1.0
-128.92766666666668 -86.3768 2601.74 0.0 0.0 1.0
-128.92766666666668 -85.91303333333333 2601.74 0.0 0.0 1.0
-122.50333333333333 -39.54026666666667 2292.72 0.0 0.0 1.0
-123.11633333333334 -38.72286666666667 2292.72 0.0 0.0 1.0
-122.91199999999999 -34.636 2292.72 0.0 0.0 1.0
-128.69566666666665 -32.8116 2601.74 0.0 0.0 1.0
-128.46366666666665 -25.85506666666667 2601.74 0.0 0.0 1.0
-129.39133333333334 -22.6087 2601.74 0.0 0.0 1.0
-128.92766666666668 -19.8261 2601.74 0.0 0.0 1.0
-129.15966666666665 -19.130433333333333 2601.74 0.0 0.0 1.0
-128.00033333333332 -14.956533333333335 2601.74 0.0 0.0 1.0
-129.15966666666668 -14.260866666666667 2601.74 0.0 0.0 1.0
-127.76799999999999 -8.0 2601.74 0.0 0.0 1.0
-128.69566666666665 1.275362 2601.74 0.0 0.0 1.0
-129.39133333333334 27.478266666666666 2601.74 0.0 0.0 1.0
-128.69566666666665 28.869566666666667 2601.74 0.0 0.0 1.0
-128.92766666666668 34.89853333333334 2601.74 0.0 0.0 1.0
-122.70666666666666 36.19049999999999 2249.62 0.0 0.0 1.0
-128.92766666666668 44.8696 2601.74 0.0 0.0 1.0
-128.69566666666665 49.27536666666666 2601.74 0.0 0.0 1.0
-128.232 52.9855 2601.74 0.0 0.0 1.0
-129.39133333333334 53.91299999999999 2601.74 0.0 0.0 1.0
-122.786 51.64180000000001 2232.84 0.0 0.0 1.0
-121.79100000000001 54.22886666666667 2232.84 0.0 0.0 1.0
-128.0 71.07243333333334 2601.74 0.0 0.0 1.0
-129.39133333333334 76.4058 2601.74 0.0 0.0 1.0
-128.92766666666668 78.72463333333333 2601.74 0.0 0.0 1.0
-129.15966666666665 79.4203 2601.74 0.0 0.0 1.0
-120.49366666666667 68.64196666666668 2216.3 0.0 0.0 1.0
-129.39133333333334 101.681 2601.74 0.0 0.0 1.0
-129.1593333333333 105.15966666666667 2601.74 0.0 0.0 1.0
-129.85533333333333 110.49266666666666 2601.74 0.0 0.0 1.0
-129.39133333333334 115.13066666666667 2601.74 0.0 0.0 1.0
-129.15966666666668 124.63799999999999 2601.74 0.0 0.0 1.0
-128.696 129.275 2601.74 0.0 0.0 1.0
-125.625 -105.52066666666667 2337.5 0.0 0.0 1.0
-128.46366666666665 -114.89833333333333 2601.74 0.0 0.0 1.0
-125.408 -81.71353333333333 2403.21 0.0 0.0 1.0
-128.92766666666668 -86.3768 2601.74 0.0 0.0 1.0
-129.1593333333333 -85.91303333333333 2601.74 0.0 0.0 1.0
-129.855 -75.2464 2601.74 0.0 0.0 1.0
-125.89633333333335 -59.1766 2384.06 0.0 0.0 1.0
-129.855 -57.159400000000005 2601.74 0.0 0.0 1.0
-129.855 -53.21736666666667 2601.74 0.0 0.0 1.0
-129.62299999999996 -46.49276666666666 2601.74 0.0 0.0 1.0
-129.62299999999996 -46.49276666666666 2601.74 0.0 0.0 1.0
-122.50333333333333 -37.70113333333333 2292.72 0.0 0.0 1.0
-123.93366666666668 -31.775233333333333 2292.72 0.0 0.0 1.0
-128.69566666666665 -32.8116 2601.74 0.0 0.0 1.0
-128.69566666666665 -25.6232 2601.74 0.0 0.0 1.0
-128.92766666666668 -21.217399999999998 2601.74 0.0 0.0 1.0
-129.85500000000002 -9.391333333333334 2601.74 0.0 0.0 1.0
-127.99999999999999 -2.89855 2601.74 0.0 0.0 1.0
-130.087 7.536233333333333 2601.74 0.0 0.0 1.0
-129.39133333333334 12.6377 2601.74 0.0 0.0 1.0
-129.62333333333333 27.014499999999998 2601.74 0.0 0.0 1.0
-128.46366666666665 32.5797 2601.74 0.0 0.0 1.0
-122.90733333333333 35.7895 2249.62 0.0 0.0 1.0
-122.70666666666666 36.19049999999999 2249.62 0.0 0.0 1.0
-122.50633333333333 36.792 2249.62 0.0 0.0 1.0
-128.69566666666665 49.27536666666666 2601.74 0.0 0.0 1.0
-129.39133333333334 53.91299999999999 2601.74 0.0 0.0 1.0
-129.623 56.69566666666666 2601.74 0.0 0.0 1.0
-121.791 54.22886666666667 2232.84 0.0 0.0 1.0
-128.92733333333334 66.89853333333333 2601.74 0.0 0.0 1.0
-129.623 67.13043333333333 2601.74 0.0 0.0 1.0
-129.39133333333334 77.10143333333333 2601.74 0.0 0.0 1.0
-122.074 72.98766666666666 2216.3 0.0 0.0 1.0
-128.9273333333333 94.029 2601.74 0.0 0.0 1.0
-128.92733333333334 95.4203 2601.74 0.0 0.0 1.0
-129.39133333333334 101.681 2601.74 0.0 0.0 1.0
-129.1593333333333 103.30400000000002 2601.74 0.0 0.0 1.0
-129.1593333333333 105.15966666666667 2601.74 0.0 0.0 1.0
-129.62299999999996 106.78266666666667 2601.74 0.0 0.0 1.0
-129.62299999999996 106.78266666666667 2601.74 0.0 0.0 1.0
-129.39133333333334 115.13066666666667 2601.74 0.0 0.0 1.0
-129.1593333333333 122.78266666666667 2601.74 0.0 0.0 1.0
-130.55100000000002 -125.10166666666667 2601.74 0.0 0.0 1.0
-126.12599999999999 -106.15166666666669 2310.42 0.0 0.0 1.0
-129.85533333333333 -111.18866666666666 2601.74 0.0 0.0 1.0
-125.53266666666667 -98.61740000000002 2387.24 0.890507026715237 0.44493919210730926 0.09500710866921155
-126.10866666666668 -96.78623333333333 2384.06 0.0 0.0 1.0
-125.896 -96.14876666666667 2384.06 0.0 0.0 1.0
-125.47133333333333 -95.29883333333333 2384.06 0.0 0.0 1.0
-130.78266666666667 -101.913 2601.74 0.0 0.0 1.0
-129.15966666666668 -97.971 2601.74 0.0 0.0 1.0
-131.01466666666667 -90.31886666666666 2601.74 0.0 0.0 1.0
-125.408 -81.71353333333333 2403.21 0.0 0.0 1.0
-128.66666666666666 -76.55556666666666 2493.33 0.0 0.0 1.0
-129.855 -75.2464 2601.74 0.0 0.0 1.0
-130.55066666666667 -74.087 2601.74 0.0 0.0 1.0
-125.47133333333333 -60.4515 2384.06 0.0 0.0 1.0
-130.55066666666664 -58.55073333333333 2601.74 0.0 0.0 1.0
-129.62299999999996 -55.07243333333333 2601.74 0.0 0.0 1.0
-130.31866666666664 -51.5942 2601.74 0.0 0.0 1.0
-129.62299999999996 -46.49276666666666 2601.74 0.0 0.0 1.0
-124.13799999999999 -34.023 2292.72 0.0 0.0 1.0
