ply
format ascii 1.0
comment VCGLIB generated
element vertex 742
property float x
property float y
property float z
property float nx
property float ny
property float nz
element face 0
property list uchar int vertex_indices
end_header
21.94536666666667 -21.2459 1961.97 0.0 0.0 1.0
20.441633333333332 -18.590966666666667 1887.7 0.0 0.0 1.0
18.9496 -15.519799999999998 1924.12 0.0 0.0 1.0
19.807066666666667 -11.061093333333332 1924.12 0.0 0.0 1.0
19.4641 -7.974276666666666 1924.12 0.0 0.0 1.0
19.4641 -7.974276666666666 1924.12 0.0 0.0 1.0
18.174066666666665 5.85987 1905.7300000000002 3.384077111363375e-26 -2.528393660959955e-26 1.0
15.4386 10.980400000000001 1852.63 0.0 0.0 1.0
12.5971 11.697299999999998 1835.58 0.0 0.0 1.0
13.7423 15.132899999999998 1835.58 0.0 0.0 1.0
54.028999999999996 31.884066666666666 2601.74 0.0 0.0 1.0
54.260866666666665 33.50723333333334 2601.74 0.0 0.0 1.0
54.260866666666665 45.333333333333336 2601.74 0.0 0.0 1.0
54.028999999999996 52.52173333333334 2601.74 0.0 0.0 1.0
16.302833333333336 45.55783333333333 1875.8999999999999 -0.8939881832751285 -0.4469940916375647 0.03132746726985271
14.396700000000001 45.726 1835.58 0.0 0.0 1.0
55.652166666666666 77.5652 2601.74 0.0 0.0 1.0
25.2252 60.45046666666667 2021.62 0.0 0.0 1.0
54.49276666666666 92.4058 2601.74 0.0 0.0 1.0
55.1884 97.27536666666667 2601.74 0.0 0.0 1.0
-11.818833333333336 50.304399999999994 1332.74 0.0 0.0 1.0
-7.06811 61.0897 1391.6433333333334 -0.9333426613066103 0.35897720281480777 -0.0026161888981255186
12.882766666666667 74.09216666666667 1841.2633333333333 -0.8085861730959507 0.5880626713425108 0.01925344778358747
54.260866666666665 113.27500000000002 2601.74 0.0 0.0 1.0
53.56523333333333 122.087 2601.74 0.0 0.0 1.0
27.9812 -104.31933333333335 2107.04 0.0 0.0 1.0
27.9812 -104.31933333333335 2107.04 0.0 0.0 1.0
28.5446 -98.30986666666666 2107.04 0.0 0.0 1.0
27.9812 -87.04223333333333 2107.04 0.0 0.0 1.0
28.356799999999996 -86.29106666666667 2107.04 0.0 0.0 1.0
28.169 -77.8404 2107.04 0.0 0.0 1.0
28.169 -77.8404 2107.04 0.0 0.0 1.0
27.793433333333336 -77.08919999999999 2107.04 0.0 0.0 1.0
27.79343333333333 -72.20656666666667 2107.04 0.0 0.0 1.0
27.79343333333333 -70.14083333333333 2107.04 0.0 0.0 1.0
26.666633333333333 -60.30196666666666 2085.02 0.0 0.0 1.0
27.038299999999996 -53.240399999999994 2085.02 0.0 0.0 1.0
27.409966666666666 -52.125400000000006 2085.02 0.0 0.0 1.0
26.85246666666667 -50.82463333333334 2085.02 0.0 0.0 1.0
26.85246666666667 -43.01976666666667 2085.02 0.0 0.0 1.0
25.5632 -40.551700000000004 2063.45 0.0 0.0 1.0
25.5632 -37.057500000000005 2063.45 0.0 0.0 1.0
26.114933333333337 -35.2184 2063.45 0.0 0.0 1.0
52.869566666666664 -37.68116666666666 2601.74 0.0 0.0 1.0
18.263666666666666 -20.493033333333333 1924.12 0.0 0.0 1.0
18.9496 -15.519799999999998 1924.12 0.0 0.0 1.0
18.9496 -15.519799999999998 1924.12 0.0 0.0 1.0
17.324833333333334 7.218686666666667 1905.7300000000002 -1.5555958745536914e-27 1.526410898176508e-31 1.0
17.494666666666664 8.917196666666667 1905.7300000000002 9.331751419476765e-27 -7.778131983156152e-28 1.0
12.2391 13.049666666666667 1818.84 0.0 0.0 1.0
12.725466666666668 15.643366666666665 1818.84 0.0 0.0 1.0
12.725466666666668 15.643366666666665 1818.84 0.0 0.0 1.0
53.333333333333336 34.89853333333334 2601.74 0.0 0.0 1.0
53.56523333333333 45.5652 2601.74 0.0 0.0 1.0
53.333333333333336 53.91303333333334 2601.74 0.0 0.0 1.0
53.56523333333333 60.17393333333333 2601.74 0.0 0.0 1.0
16.6041 50.416133333333335 1881.8 -0.999228815102258 -0.03122396714725099 0.02380837972068538
14.396700000000001 45.726 1835.58 0.0 0.0 1.0
14.396700000000001 45.726 1835.58 0.0 0.0 1.0
54.95653333333333 67.36229999999999 2601.74 0.0 0.0 1.0
54.49276666666666 79.1884 2601.74 0.0 0.0 1.0
23.440933333333334 64.1643 2008.0999999999997 0.8132260977641024 0.5808819870728898 0.03520555367582774
53.7971 91.71013333333333 2601.74 0.0 0.0 1.0
53.56523333333333 92.4058 2601.74 0.0 0.0 1.0
-9.900856666666666 55.8247 1363.1133333333335 -0.31591342264816763 0.9476099764586873 -0.04726565250460835
53.56523333333333 112.81133333333334 2601.74 0.0 0.0 1.0
53.56523333333333 121.15966666666667 2601.74 0.0 0.0 1.0
53.10146666666666 126.493 2601.74 0.0 0.0 1.0
27.793400000000002 -104.69466666666666 2107.04 0.0 0.0 1.0
27.793400000000002 -104.69466666666666 2107.04 0.0 0.0 1.0
28.169 -100.00006666666667 2107.04 0.0 0.0 1.0
28.356799999999996 -96.8075 2107.04 0.0 0.0 1.0
27.981233333333336 -90.79809999999999 2107.04 0.0 0.0 1.0
27.9812 -87.04223333333333 2107.04 0.0 0.0 1.0
26.854466666666667 -83.47420000000001 2107.04 0.0 0.0 1.0
25.923333333333332 -63.832766666666664 2085.02 0.0 0.0 1.0
26.666633333333333 -60.30196666666666 2085.02 0.0 0.0 1.0
25.923333333333332 -59.55863333333334 2085.02 0.0 0.0 1.0
26.4808 -53.7979 2085.02 0.0 0.0 1.0
25.73753333333333 -48.40883333333333 2085.02 0.0 0.0 1.0
25.5632 -40.551700000000004 2063.45 0.0 0.0 1.0
25.5632 -40.551700000000004 2063.45 0.0 0.0 1.0
31.226766666666663 -22.503133333333334 2224.54 0.0 0.0 1.0
17.9207 -21.6935 1924.12 0.0 0.0 1.0
18.092200000000002 -21.3505 1924.12 0.0 0.0 1.0
16.475566666666666 -6.199573333333333 1905.7300000000002 1.0371317615135301e-27 -2.5930583826441293e-28 1.0
16.475566666666666 -2.972396666666667 1905.7300000000002 1.0803494012242657e-27 5.617797047648031e-28 1.0
16.815266666666666 1.1040326666666667 1905.7300000000002 4.633499560792971e-28 -2.44870775232129e-28 1.0
17.834366666666668 1.783437 1905.7300000000002 -7.345400473812896e-28 4.320956057601625e-28 1.0
17.3248 4.840763333333334 1905.7300000000002 7.875944348853086e-17 -7.875905707337857e-17 1.0
16.985133333333334 6.878983333333333 1905.7300000000002 3.8164017324088345e-33 3.888913365464866e-28 1.0
17.494666666666664 8.917196666666667 1905.7300000000002 9.331751419476765e-27 -7.778131983156154e-28 1.0
17.154966666666667 9.2569 1905.7300000000002 0.0 0.0 1.0
15.4386 10.980400000000001 1852.63 0.0 0.0 1.0
53.10146666666666 31.420299999999997 2601.74 0.0 0.0 1.0
52.869566666666664 36.057966666666665 2601.74 0.0 0.0 1.0
52.637699999999995 43.942033333333335 2601.74 0.0 0.0 1.0
53.56523333333333 45.5652 2601.74 0.0 0.0 1.0
-5.641026666666666 27.115400000000005 1438.46 0.0 0.0 1.0
52.8696 52.28983333333334 2601.74 0.0 0.0 1.0
16.302833333333336 45.55783333333333 1875.8999999999999 -0.8939881832751285 -0.4469940916375648 0.03132746726985271
54.49086666666667 77.39623333333334 2403.286666666667 0.7990929118080147 -0.599321404125952 -0.04758542691503467
15.057833333333333 62.67086666666666 1887.7 0.0 0.0 1.0
52.869566666666664 92.4058 2601.74 0.0 0.0 1.0
-12.056400000000002 49.948033333333335 1332.74 0.0 0.0 1.0
53.33336666666667 98.66666666666667 2601.74 0.0 0.0 1.0
53.33336666666667 98.66666666666667 2601.74 0.0 0.0 1.0
-9.900856666666668 55.8247 1363.1133333333335 -0.31591342264816746 0.9476099764586874 -0.04726565250460833
53.56523333333333 112.81133333333334 2601.74 0.0 0.0 1.0
52.17393333333333 115.13033333333333 2601.74 0.0 0.0 1.0
52.637699999999995 120.69599999999998 2601.74 0.0 0.0 1.0
52.405833333333334 124.17400000000002 2601.74 0.0 0.0 1.0
52.637699999999995 124.406 2601.74 0.0 0.0 1.0
53.10146666666666 126.493 2601.74 0.0 0.0 1.0
27.042266666666666 -103.75566666666667 2107.04 0.0 0.0 1.0
26.854466666666667 -91.36149999999999 2107.04 0.0 0.0 1.0
26.854466666666667 -83.47420000000001 2107.04 0.0 0.0 1.0
26.666700000000002 -76.15023333333333 2107.04 0.0 0.0 1.0
24.622533333333333 -72.93843333333334 2085.02 0.0 0.0 1.0
25.923333333333332 -63.08946666666666 2085.02 0.0 0.0 1.0
25.7375 -54.3554 2085.02 0.0 0.0 1.0
25.365866666666665 -52.6829 2085.02 0.0 0.0 1.0
26.109166666666667 -50.63883333333334 2085.02 0.0 0.0 1.0
26.85246666666667 -43.01976666666667 2085.02 0.0 0.0 1.0
25.195400000000003 -39.8161 2063.45 0.0 0.0 1.0
51.24636666666667 -45.7971 2601.74 0.0 0.0 1.0
51.71013333333334 -44.637699999999995 2601.74 0.0 0.0 1.0
17.7492 -21.179 1924.12 0.0 0.0 1.0
15.796199999999999 -9.93632 1905.7300000000002 7.778132013858183e-28 -7.777979360786698e-28 1.0
16.985133333333334 6.878983333333333 1905.7300000000002 3.8164017324157356e-33 3.8889133654648652e-28 1.0
17.324833333333334 7.218686666666667 1905.7300000000002 -1.5555958745536914e-27 1.526410898177173e-31 1.0
12.401233333333332 13.373866666666666 1818.84 0.0 0.0 1.0
11.084333333333333 15.662633333333332 1802.41 0.0 0.0 1.0
11.245 16.465866666666667 1802.41 0.0 0.0 1.0
9.15425 16.79601 1786.2699999999998 -2.9391733163554514e-27 1.2394196131968465e-27 1.0
9.15425 16.79601 1786.2699999999998 -2.9391733163554514e-27 1.2394196131968465e-27 1.0
52.17393333333333 31.1884 2601.74 0.0 0.0 1.0
51.71016666666666 36.753600000000006 2601.74 0.0 0.0 1.0
52.637699999999995 43.942033333333335 2601.74 0.0 0.0 1.0
-8.464599999999999 23.611766666666668 1428.16 0.0 0.0 1.0
52.17393333333333 52.05793333333333 2601.74 0.0 0.0 1.0
12.239099999999999 45.471133333333334 1818.84 0.0 0.0 1.0
12.401199999999998 46.281666666666666 1818.84 0.0 0.0 1.0
12.401199999999998 46.281666666666666 1818.84 0.0 0.0 1.0
18.181833333333334 54.458866666666665 1942.86 0.0 0.0 1.0
18.181833333333334 54.805200000000006 1942.86 0.0 0.0 1.0
20.3716 57.2678 1961.97 0.0 0.0 1.0
15.966033333333334 60.2123 1905.7300000000002 0.0 0.0 1.0
52.869566666666664 92.4058 2601.74 0.0 0.0 1.0
-12.650333333333334 51.254633333333324 1332.74 0.0 0.0 1.0
52.4058 116.28966666666668 2601.74 0.0 0.0 1.0
52.1739 117.44933333333334 2601.74 0.0 0.0 1.0
51.942033333333335 118.60866666666668 2601.74 0.0 0.0 1.0
52.17393333333333 124.63799999999999 2601.74 0.0 0.0 1.0
27.230033333333335 -105.07033333333334 2107.04 0.0 0.0 1.0
26.4789 -103.00466666666667 2107.04 0.0 0.0 1.0
26.1033 -92.4883 2107.04 0.0 0.0 1.0
26.4789 -84.22536666666666 2107.04 0.0 0.0 1.0
26.1033 -78.77933333333333 2107.04 0.0 0.0 1.0
26.666700000000002 -76.15023333333333 2107.04 0.0 0.0 1.0
26.2911 -75.96246666666666 2107.04 0.0 0.0 1.0
27.042266666666666 -71.4554 2107.04 0.0 0.0 1.0
27.042266666666666 -70.70423333333333 2107.04 0.0 0.0 1.0
24.622566666666668 -69.03603333333334 2085.02 0.0 0.0 1.0
24.99423333333333 -65.31936666666667 2085.02 0.0 0.0 1.0
24.99423333333333 -65.31936666666667 2085.02 0.0 0.0 1.0
25.923333333333332 -63.08946666666666 2085.02 0.0 0.0 1.0
25.180066666666665 -57.14286666666667 2085.02 0.0 0.0 1.0
25.180066666666665 -56.027899999999995 2085.02 0.0 0.0 1.0
25.923333333333332 -53.2404 2085.02 0.0 0.0 1.0
25.365866666666665 -51.19630000000001 2085.02 0.0 0.0 1.0
25.5517 -49.338 2085.02 0.0 0.0 1.0
25.73753333333333 -48.40883333333334 2085.02 0.0 0.0 1.0
17.273633333333333 -15.8408 1786.2699999999998 -4.222126859066497e-28 3.776004373658384e-28 1.0
17.2347 -21.864966666666664 1924.12 0.0 0.0 1.0
17.2347 -21.864966666666664 1924.12 0.0 0.0 1.0
17.4062 -21.3505 1924.12 0.0 0.0 1.0
17.4062 -18.60663333333333 1924.12 0.0 0.0 1.0
15.796166666666666 -12.8238 1905.7300000000002 1.5556340355750363e-27 5.834247768726341e-28 1.0
15.79616666666667 -7.558386666666666 1905.7300000000002 -9.074958037783814e-28 3.8892440986439164e-28 1.0
16.13586666666667 -6.878979999999999 1905.7300000000002 -1.1669007147785515e-26 -3.1113825748862345e-27 1.0
16.13586666666667 -2.2929933333333334 1905.7300000000002 -9.627203609011584e-27 2.4308628084944647e-27 1.0
15.966000000000001 -1.61359 1905.7300000000002 4.86123710798026e-29 9.722474215960532e-29 1.0
16.3057 3.9915066666666674 1905.7300000000002 -3.889218660600819e-27 4.667062392001988e-27 1.0
16.9851 9.087046666666668 1905.7300000000002 1.1667007219799589e-27 7.632054491249119e-33 1.0
11.084333333333333 15.662633333333332 1802.41 0.0 0.0 1.0
52.17393333333333 31.1884 2601.74 0.0 0.0 1.0
51.246399999999994 52.753600000000006 2601.74 0.0 0.0 1.0
51.4783 53.21736666666666 2601.74 0.0 0.0 1.0
51.4783 53.21736666666666 2601.74 0.0 0.0 1.0
51.71016666666667 59.246399999999994 2601.74 0.0 0.0 1.0
12.239099999999999 45.471133333333334 1818.84 0.0 0.0 1.0
17.692966666666667 54.11116666666666 1936.613333333333 1.1824690069414656e-16 -0.9996099000256592 0.027929335307013678
24.144133333333333 62.43243333333333 2021.62 0.0 0.0 1.0
52.17393333333333 96.34783333333333 2601.74 0.0 0.0 1.0
-12.650333333333334 51.25463333333334 1332.74 0.0 0.0 1.0
50.78263333333333 109.79733333333333 2601.74 0.0 0.0 1.0
20.841866666666665 79.45393333333334 2042.32 0.0 0.0 1.0
50.78263333333333 111.884 2601.74 0.0 0.0 1.0
50.78263333333334 114.20266666666667 2601.74 0.0 0.0 1.0
51.01453333333333 120.23200000000001 2601.74 0.0 0.0 1.0
51.94206666666667 120.464 2601.74 0.0 0.0 1.0
52.17393333333333 124.63799999999999 2601.74 0.0 0.0 1.0
50.55073333333333 129.507 2601.74 0.0 0.0 1.0
26.1033 -102.25366666666666 2107.04 0.0 0.0 1.0
25.7277 -100.93900000000001 2107.04 0.0 0.0 1.0
25.7277 -100.75099999999999 2107.04 0.0 0.0 1.0
25.7277 -99.99986666666666 2107.04 0.0 0.0 1.0
26.1033 -92.4883 2107.04 0.0 0.0 1.0
26.1033 -92.4883 2107.04 0.0 0.0 1.0
25.16433333333333 -88.92020000000001 2107.04 0.0 0.0 1.0
26.2911 -83.0986 2107.04 0.0 0.0 1.0
26.478866666666665 -82.91080000000001 2107.04 0.0 0.0 1.0
26.1033 -78.77933333333333 2107.04 0.0 0.0 1.0
26.1033 -78.77933333333333 2107.04 0.0 0.0 1.0
26.2911 -75.96246666666666 2107.04 0.0 0.0 1.0
24.436733333333336 -60.85946666666666 2085.02 0.0 0.0 1.0
24.436733333333333 -58.44363333333334 2085.02 0.0 0.0 1.0
24.436733333333333 -58.44363333333334 2085.02 0.0 0.0 1.0
24.808366666666668 -54.9129 2085.02 0.0 0.0 1.0
25.365866666666665 -51.93959999999999 2085.02 0.0 0.0 1.0
50.08696666666666 -48.11593333333334 2601.74 0.0 0.0 1.0
51.24636666666667 -46.9565 2601.74 0.0 0.0 1.0
51.0145 -45.10146666666666 2601.74 0.0 0.0 1.0
50.55073333333333 -37.44926666666667 2601.74 0.0 0.0 1.0
51.71013333333334 -36.75363333333333 2601.74 0.0 0.0 1.0
16.2058 -24.608766666666668 1924.12 0.0 0.0 1.0
15.116766666666665 -17.070066666666666 1905.7300000000002 9.331743787871522e-27 7.77686014089332e-27 1.0
15.796166666666666 -13.5032 1905.7300000000002 4.846762274179899e-19 -2.423381137089954e-19 1.0
15.7962 -9.426753333333332 1905.7300000000002 -2.4233998376711937e-17 -4.846752116200822e-17 1.0
16.475566666666666 -6.199573333333333 1905.7300000000002 1.0371317615135301e-27 -2.5930583826441284e-28 1.0
15.626333333333335 -2.9723966666666666 1905.7300000000002 -5.833599011517023e-28 4.374913046905479e-28 1.0
15.286633333333333 0.08492566666666666 1905.7300000000002 1.5555982595987978e-27 -7.307005492374603e-29 1.0
15.966033333333334 7.218686666666667 1905.7300000000002 0.0 0.0 1.0
10.942233333333334 14.184400000000002 1818.84 0.0 0.0 1.0
11.084333333333333 16.465866666666667 1802.41 0.0 0.0 1.0
-8.719173333333332 22.593466666666668 1428.16 0.0 0.0 1.0
49.8551 49.04346666666667 2601.74 0.0 0.0 1.0
51.246399999999994 52.753600000000006 2601.74 0.0 0.0 1.0
7.374526666666667 41.01936666666666 1760.03 -0.37132788970095815 -0.9283355523806845 0.017569875249486284
49.8551 71.07246666666667 2601.74 0.0 0.0 1.0
15.057833333333335 62.670866666666676 1887.7 0.0 0.0 1.0
15.966033333333334 60.2123 1905.7300000000002 0.0 0.0 1.0
8.786436666666667 62.8388 1791.6499999999999 -0.707066558842429 0.7070644439662326 -0.010805250827652095
50.31886666666666 95.4203 2601.74 0.0 0.0 1.0
-12.7691 49.948033333333335 1332.74 0.0 0.0 1.0
-12.888066666666667 50.33006666666666 1320.9800000000002 -0.5964327861384093 -0.7952624370405647 0.1087455187650345
11.475766666666665 80.82556666666667 1852.63 0.0 0.0 1.0
50.78263333333334 111.884 2601.74 0.0 0.0 1.0
50.78263333333334 114.20266666666667 2601.74 0.0 0.0 1.0
50.55073333333333 129.507 2601.74 0.0 0.0 1.0
25.35213333333333 -103.38033333333334 2107.04 0.0 0.0 1.0
25.5399 -100.93900000000001 2107.04 0.0 0.0 1.0
25.5399 -100.37533333333333 2107.04 0.0 0.0 1.0
25.5399 -100.37533333333333 2107.04 0.0 0.0 1.0
25.16433333333333 -88.92020000000001 2107.04 0.0 0.0 1.0
23.6934 -74.79676666666667 2085.02 0.0 0.0 1.0
23.6934 -72.38093333333333 2085.02 0.0 0.0 1.0
23.87923333333333 -69.22186666666667 2085.02 0.0 0.0 1.0
24.2509 -68.66436666666668 2085.02 0.0 0.0 1.0
23.87923333333333 -68.2927 2085.02 0.0 0.0 1.0
24.436733333333333 -64.57606666666666 2085.02 0.0 0.0 1.0
24.436733333333336 -60.85946666666666 2085.02 0.0 0.0 1.0
24.436733333333336 -60.85946666666666 2085.02 0.0 0.0 1.0
24.2509 -53.612066666666664 2085.02 0.0 0.0 1.0
24.2509 -47.6655 2085.02 0.0 0.0 1.0
48.69566666666666 -51.130433333333336 2601.74 0.0 0.0 1.0
53.333333333333336 -45.483900000000006 2412.9 0.0 0.0 1.0
51.0145 -45.10146666666666 2601.74 0.0 0.0 1.0
50.08696666666666 -38.608666666666664 2601.74 0.0 0.0 1.0
16.3773 -23.751333333333335 1924.12 0.0 0.0 1.0
16.548766666666666 -23.065366666666666 1924.12 0.0 0.0 1.0
16.205766666666666 -18.778133333333333 1924.12 0.0 0.0 1.0
15.116766666666665 -17.070066666666666 1905.7300000000002 9.331743787871522e-27 7.77686014089332e-27 1.0
15.116766666666665 -14.012733333333335 1905.7300000000002 5.60007190870681e-28 2.0534085277540364e-27 1.0
15.2866 -12.653933333333333 1905.7300000000002 3.1114207377051828e-27 -1.1669030046420577e-26 1.0
14.777066666666668 -3.8216566666666663 1905.7300000000002 -2.3331953877328895e-27 -1.5553516634542708e-27 1.0
15.6263 -1.104037 1905.7300000000002 -4.8611512471987377e-29 -1.9444261551734894e-28 1.0
15.2866 -0.7643326666666667 1905.7300000000002 1.0 0.0 0.0
15.116766666666669 -0.254777 1905.7300000000002 -2.829792229816247e-26 -1.419607332037945e-26 1.0
14.9469 2.6326933333333336 1905.7300000000002 8.750217254202758e-28 -5.833408208469744e-28 1.0
15.6263 3.14225 1905.7300000000002 1.9444853029367654e-28 -1.9444566827324304e-28 1.0
15.116766666666665 7.048833333333334 1905.7300000000002 4.666856312151479e-27 -1.2833940724421592e-26 1.0
11.2883 11.533700000000001 1835.58 0.0 0.0 1.0
10.7801 13.8602 1818.84 0.0 0.0 1.0
10.7801 13.8602 1818.84 0.0 0.0 1.0
7.174066666666666 18.006533333333334 1749.7366666666667 -0.8904606244572656 0.4452398013657234 0.09402869546573447
9.457356666666668 16.0465 1739.53 0.0 0.0 1.0
50.31886666666667 36.5217 2601.74 0.0 0.0 1.0
-8.719173333333332 22.593466666666668 1428.16 0.0 0.0 1.0
49.8551 49.04346666666667 2601.74 0.0 0.0 1.0
49.62323333333334 55.30433333333334 2601.74 0.0 0.0 1.0
49.62323333333334 55.30433333333334 2601.74 0.0 0.0 1.0
50.08700000000001 58.55073333333333 2601.74 0.0 0.0 1.0
13.494 45.060233333333336 1802.41 0.0 0.0 1.0
13.494 45.060233333333336 1802.41 0.0 0.0 1.0
15.456466666666666 54.437333333333335 1905.7300000000002 2.0000596266208554e-27 -2.9763271392071914e-28 1.0
49.8551 71.07246666666667 2601.74 0.0 0.0 1.0
17.662366666666667 54.63203333333333 1942.86 0.0 0.0 1.0
17.662366666666667 54.80519999999999 1942.86 0.0 0.0 1.0
9.368106666666668 63.0208 1797.03 0.8682350642650575 -0.49615307417907245 -1.2779175189663473e-05
-12.7691 49.948033333333335 1332.74 0.0 0.0 1.0
50.78263333333334 111.884 2601.74 0.0 0.0 1.0
50.78263333333334 114.20266666666667 2601.74 0.0 0.0 1.0
50.31886666666667 119.53633333333333 2601.74 0.0 0.0 1.0
30.100333333333335 105.1848 2275.483333333333 0.7754369906394912 -0.6070137156906072 0.17387300685112697
49.6232 128.11566666666667 2601.74 0.0 0.0 1.0
25.164299999999997 -97.74646666666666 2107.04 0.0 0.0 1.0
24.225333333333328 -96.61970000000001 2107.04 0.0 0.0 1.0
25.5399 -77.08923333333333 2107.04 0.0 0.0 1.0
23.135900000000003 -73.49593333333333 2085.02 0.0 0.0 1.0
23.321733333333338 -64.01859999999999 2085.02 0.0 0.0 1.0
23.87923333333333 -58.2578 2085.02 0.0 0.0 1.0
23.87923333333333 -55.098733333333335 2085.02 0.0 0.0 1.0
48.463766666666665 -54.1449 2601.74 0.0 0.0 1.0
50.08696666666666 -38.608666666666664 2601.74 0.0 0.0 1.0
15.519833333333333 -25.12323333333333 1924.12 0.0 0.0 1.0
15.005366666666667 -21.6935 1924.12 0.0 0.0 1.0
14.267533333333333 -10.615733333333333 1905.7300000000002 7.777979372768402e-28 -7.632953260792267e-32 1.0
14.437400000000002 -8.577496666666667 1905.7300000000002 -2.7222889644042516e-27 1.9444681308141655e-27 1.0
14.437400000000002 -8.067943333333332 1905.7300000000002 -5.250096008051759e-27 -3.500033477000107e-27 1.0
14.607233333333333 -3.3121033333333334 1905.7300000000002 9.33192692602939e-27 -4.666390787978765e-27 1.0
15.1168 -3.14225 1905.7300000000002 1.750045358872897e-27 2.33339381183053e-27 1.0
14.777066666666668 -0.08492566666666666 1905.7300000000002 -1.5555982595987978e-27 7.307005492374612e-29 1.0
11.2883 11.533700000000001 1835.58 0.0 0.0 1.0
10.942233333333334 14.184400000000002 1818.84 0.0 0.0 1.0
6.0465100000000005 14.961223333333335 1739.53 0.0 0.0 1.0
48.92756666666667 34.43476666666667 2601.74 0.0 0.0 1.0
7.573966666666667 41.2623 1770.41 0.0 0.0 1.0
7.573966666666667 41.2623 1770.41 0.0 0.0 1.0
11.860706666666667 46.407999999999994 1786.2699999999998 2.4452503160468823e-28 -4.452023493489009e-28 1.0
13.2515 45.562400000000004 1835.58 0.0 0.0 1.0
6.14108 49.6556 1744.6333333333332 0.9981682167129912 0.03119305017956196 0.05183825580111868
7.573966666666667 43.471399999999996 1770.41 0.0 0.0 1.0
20.3716 57.2678 1961.97 0.0 0.0 1.0
15.057833333333335 62.670866666666676 1887.7 0.0 0.0 1.0
-12.8061 53.504333333333335 1318.07 0.8738459033016027 -0.4766493811887111 -0.09590987798670425
48.69566666666666 102.377 2601.74 0.0 0.0 1.0
48.927533333333336 107.94233333333334 2601.74 0.0 0.0 1.0
49.6232 108.63799999999999 2601.74 0.0 0.0 1.0
48.69563333333334 117.681 2601.74 0.0 0.0 1.0
49.6232 118.60866666666668 2601.74 0.0 0.0 1.0
50.08696666666666 125.56533333333334 2601.74 0.0 0.0 1.0
27.952433333333335 86.15786666666666 2099.7 0.9069871753965755 -0.014169709395357617 0.42091980590344374
49.6232 128.11566666666667 2601.74 0.0 0.0 1.0
49.6232 128.11566666666667 2601.74 0.0 0.0 1.0
23.662000000000003 -103.00466666666667 2107.04 0.0 0.0 1.0
24.600966666666665 -88.3568 2107.04 0.0 0.0 1.0
24.037599999999998 -87.60563333333333 2107.04 0.0 0.0 1.0
24.413166666666665 -79.5305 2107.04 0.0 0.0 1.0
22.206733333333332 -77.02669999999999 2085.02 0.0 0.0 1.0
23.507566666666666 -76.28339999999999 2085.02 0.0 0.0 1.0
23.135900000000003 -73.49593333333333 2085.02 0.0 0.0 1.0
23.507566666666666 -71.4518 2085.02 0.0 0.0 1.0
23.135900000000003 -70.7085 2085.02 0.0 0.0 1.0
23.135900000000003 -69.9652 2085.02 0.0 0.0 1.0
22.950066666666668 -69.4077 2085.02 0.0 0.0 1.0
22.950066666666668 -68.8502 2085.02 0.0 0.0 1.0
22.950066666666668 -64.01859999999999 2085.02 0.0 0.0 1.0
23.32173333333333 -64.01859999999999 2085.02 0.0 0.0 1.0
23.135900000000003 -58.44363333333334 2085.02 0.0 0.0 1.0
23.135900000000003 -54.9129 2085.02 0.0 0.0 1.0
22.950066666666668 -54.3554 2085.02 0.0 0.0 1.0
23.135900000000003 -47.851333333333336 2085.02 0.0 0.0 1.0
48.463766666666665 -54.1449 2601.74 0.0 0.0 1.0
-3.3655566666666665 -28.51903333333333 1514.9966666666667 0.5239251741679996 -0.3778933569325092 0.7633472490677559
48.69566666666666 -49.27536666666666 2601.74 0.0 0.0 1.0
13.83708666666667 -22.397366666666667 1775.6966666666667 0.7422294987887401 -0.6470718295038437 0.17433708323349964
14.490866666666667 -27.00963333333333 1924.12 0.0 0.0 1.0
15.8628 -23.57983333333333 1924.12 0.0 0.0 1.0
15.005333333333333 -20.66453333333333 1924.12 0.0 0.0 1.0
15.519799999999998 -19.807066666666667 1924.12 0.0 0.0 1.0
14.9469 -16.050966666666667 1905.7300000000002 5.833357328252128e-28 2.592617389787971e-28 1.0
13.9278 -13.673000000000002 1905.7300000000002 0.0 1.1666969059152643e-27 1.0
14.2675 -12.9936 1905.7300000000002 1.0 0.0 0.0
14.2675 -11.974499999999999 1905.7300000000002 1.0 0.0 0.0
14.267533333333333 -10.615733333333333 1905.7300000000002 7.777979372768402e-28 -7.632953260793376e-32 1.0
14.6072 -4.33121 1905.7300000000002 -5.833484529576318e-28 -5.833484529576311e-28 1.0
14.097666666666669 -3.651806666666667 1905.7300000000002 -2.7223042285506855e-27 6.028094287938505e-27 1.0
14.267533333333333 0.08492566666666666 1905.7300000000002 7.778003223219523e-28 -7.299373348015985e-29 1.0
14.9469 2.6326933333333336 1905.7300000000002 8.750217254202758e-28 -5.833408208469744e-28 1.0
14.6072 6.539276666666666 1905.7300000000002 -1.3611406661374387e-27 1.555569162213188e-27 1.0
14.6072 7.048833333333334 1905.7300000000002 -1.9444719470286355e-27 -5.444387129318473e-27 1.0
14.2675 7.388536666666667 1905.7300000000002 1.0 0.0 0.0
14.2675 7.388536666666667 1905.7300000000002 1.0 0.0 0.0
11.2883 11.533700000000001 1835.58 0.0 0.0 1.0
4.613882666666666 13.05963 1754.84 0.0 0.0 1.0
4.266666666666667 18.514300000000002 1709.71 0.0 0.0 1.0
4.266666666666667 18.514300000000002 1709.71 0.0 0.0 1.0
48.463766666666665 32.5797 2601.74 0.0 0.0 1.0
49.391333333333336 35.594166666666666 2601.74 0.0 0.0 1.0
-8.719173333333332 22.593466666666668 1428.16 0.0 0.0 1.0
48.92756666666667 49.50723333333334 2601.74 0.0 0.0 1.0
49.62323333333334 55.30433333333334 2601.74 0.0 0.0 1.0
49.62323333333334 57.3913 2601.74 0.0 0.0 1.0
15.456466666666666 54.437333333333335 1905.7300000000002 2.0000596266208554e-27 -2.9763271392071914e-28 1.0
49.8551 71.07246666666667 2601.74 0.0 0.0 1.0
27.952433333333335 86.15786666666666 2099.7 0.9069871753965756 -0.014169709395357536 0.42091980590344374
8.38094 56.1524 1709.71 0.0 0.0 1.0
5.891473333333333 59.30233333333334 1739.53 0.0 0.0 1.0
50.31886666666667 95.4203 2601.74 0.0 0.0 1.0
12.882766666666667 74.09216666666667 1841.2633333333333 -0.8085861730959504 0.5880626713425109 0.01925344778358775
48.69566666666666 102.377 2601.74 0.0 0.0 1.0
48.92756666666667 121.39133333333332 2601.74 0.0 0.0 1.0
23.662000000000003 -103.00466666666667 2107.04 0.0 0.0 1.0
24.78873333333333 -100.37533333333333 2107.04 0.0 0.0 1.0
23.2864 -93.05163333333333 2107.04 0.0 0.0 1.0
23.662000000000003 -87.41783333333332 2107.04 0.0 0.0 1.0
23.2864 -82.5352 2107.04 0.0 0.0 1.0
23.2864 -82.5352 2107.04 0.0 0.0 1.0
23.135899999999996 -73.49593333333334 2085.02 0.0 0.0 1.0
22.950066666666668 -68.8502 2085.02 0.0 0.0 1.0
22.950066666666668 -64.01859999999999 2085.02 0.0 0.0 1.0
23.6934 -60.85946666666666 2085.02 0.0 0.0 1.0
22.5784 -58.629466666666666 2085.02 0.0 0.0 1.0
22.950066666666668 -54.3554 2085.02 0.0 0.0 1.0
22.206733333333332 -49.152166666666666 2085.02 0.0 0.0 1.0
30.2757 -47.619 2249.62 0.0 0.0 1.0
15.005366666666667 -21.6935 1924.12 0.0 0.0 1.0
14.833866666666665 -21.3505 1924.12 0.0 0.0 1.0
13.078566666666667 -19.787666666666667 1905.7300000000002 -8.710848481959545e-28 6.8446218803894225e-28 1.0
13.927833333333332 -10.44587 1905.7300000000002 4.6674288312837634e-27 1.555626415953028e-27 1.0
13.588133333333332 -10.106173333333333 1905.7300000000002 3.1105202217623414e-27 -3.1107643876041314e-27 1.0
13.588133333333332 -8.747346666666667 1905.7300000000002 4.665749805025264e-27 2.4419698881207157e-31 1.0
13.588133333333332 -8.747346666666667 1905.7300000000002 4.665749805025264e-27 2.4419698881207157e-31 1.0
13.758000000000001 -7.388536666666667 1905.7300000000002 -0.9999694838187879 0.0 0.007812261592334283
13.418299999999997 -6.709133333333334 1905.7300000000002 3.305639325394237e-27 1.944471946841412e-27 1.0
14.267533333333333 0.08492566666666666 1905.7300000000002 7.778003223219523e-28 -7.299373348015982e-29 1.0
11.692966666666669 5.299686666666666 1887.7 0.0 0.0 1.0
-0.5379433333333332 6.9932799999999995 1724.5 0.0 0.0 1.0
3.0972633333333337 15.939566666666666 1695.18 0.0 0.0 1.0
51.0145 43.47826666666666 2601.74 0.0 0.0 1.0
48.0 49.50723333333334 2601.74 0.0 0.0 1.0
7.094673333333333 36.8571 1690.42 0.2433337391551734 -0.8212434846719162 0.5160889751512718
11.860706666666667 46.407999999999994 1786.2699999999998 2.4452503160468823e-28 -4.452023493489009e-28 1.0
21.039266666666666 64.66959999999999 2035.42 0.9967056512816233 -7.359558146683701e-16 0.08110391299607543
21.039266666666666 64.66959999999999 2035.42 0.9967056512816233 -7.359443851002504e-16 0.08110391299607543
16.4238 62.4283 1981.46 0.0 0.0 1.0
5.6127666666666665 59.175466666666665 1749.7366666666667 -0.23875442592476684 0.9550329693273221 0.17580771200141795
3.8942799999999997 63.65966666666666 1714.64 0.9959971204075432 0.05858791512766139 0.06750697994190029
47.76813333333333 101.913 2601.74 0.0 0.0 1.0
48.927533333333336 107.94233333333334 2601.74 0.0 0.0 1.0
47.76813333333333 122.78266666666667 2601.74 0.0 0.0 1.0
23.661999999999995 -103.00466666666667 2107.04 0.0 0.0 1.0
22.535200000000003 -96.4319 2107.04 0.0 0.0 1.0
23.2864 -93.8028 2107.04 0.0 0.0 1.0
23.2864 -93.8028 2107.04 0.0 0.0 1.0
22.910800000000005 -92.48826666666668 2107.04 0.0 0.0 1.0
23.2864 -88.3568 2107.04 0.0 0.0 1.0
22.723 -83.66196666666667 2107.04 0.0 0.0 1.0
23.661999999999995 -80.46946666666666 2107.04 0.0 0.0 1.0
22.764233333333333 -70.33686666666667 2085.02 0.0 0.0 1.0
22.0209 -59.001133333333335 2085.02 0.0 0.0 1.0
21.64923333333333 -56.21373333333333 2085.02 0.0 0.0 1.0
19.310333333333332 -50.85056666666666 2063.45 0.0 0.0 1.0
22.206733333333332 -49.152166666666666 2085.02 0.0 0.0 1.0
22.206733333333332 -49.152166666666666 2085.02 0.0 0.0 1.0
30.2757 -47.619 2249.62 0.0 0.0 1.0
30.2757 -47.619 2249.62 0.0 0.0 1.0
47.536233333333335 -52.52173333333334 2601.74 0.0 0.0 1.0
14.1479 -26.495166666666666 1924.12 0.0 0.0 1.0
14.1479 -26.495166666666666 1924.12 0.0 0.0 1.0
14.1479 -25.9807 1924.12 0.0 0.0 1.0
14.1479 -25.46623333333333 1924.12 0.0 0.0 1.0
14.1479 -25.46623333333333 1924.12 0.0 0.0 1.0
13.078566666666667 -19.787666666666667 1905.7300000000002 -8.710848481959541e-28 6.844621880389421e-28 1.0
13.418266666666666 -13.842866666666668 1905.7300000000002 2.333470141363135e-27 7.001021090312781e-27 1.0
13.588133333333332 -10.106173333333333 1905.7300000000002 3.1105202217623414e-27 -3.1107643876041314e-27 1.0
13.588133333333332 -8.747346666666667 1905.7300000000002 4.665749805025264e-27 2.4419698881207157e-31 1.0
13.588099999999999 -3.651806666666667 1905.7300000000002 1.7500415428456505e-27 2.333332755694155e-27 1.0
13.588099999999999 -3.651806666666667 1905.7300000000002 1.750041542845651e-27 2.333332755694156e-27 1.0
1.2842333333333331 9.896156666666668 1695.18 0.0 0.0 1.0
4.266666666666667 18.514300000000002 1709.71 0.0 0.0 1.0
1.947563333333333 17.4532 1680.9000000000003 -9.718834407877891e-29 7.636814026794213e-29 1.0
3.0972633333333337 15.939566666666666 1695.18 0.0 0.0 1.0
1.6479393333333332 19.700366666666667 1680.9000000000003 -5.553953321224163e-28 -2.2215961576506897e-28 1.0
48.463766666666665 32.5797 2601.74 0.0 0.0 1.0
2.0973766666666664 28.53933333333333 1680.9000000000003 -2.5498711340288817e-26 5.749637003774793e-27 1.0
2.0973766666666664 28.53933333333333 1680.9000000000003 -2.549871134028666e-26 5.749637003774326e-27 1.0
48.0 49.50723333333334 2601.74 0.0 0.0 1.0
48.231899999999996 56.23186666666667 2601.74 0.0 0.0 1.0
7.573966666666666 41.2623 1770.41 0.0 0.0 1.0
6.901153333333333 41.177166666666665 1760.03 0.3713587958175789 0.9284128189896326 -0.011928214646009775
34.9051 66.40196666666667 2200.18 0.637993176854546 -0.7615002946465451 0.11437660398992645
47.768100000000004 74.31883333333333 2601.74 0.0 0.0 1.0
47.768100000000004 74.31883333333333 2601.74 0.0 0.0 1.0
50.08693333333333 81.971 2601.74 0.0 0.0 1.0
8.253676666666665 61.90636666666666 1797.03 -0.8656668225779325 0.4946854520330107 0.07685867442730403
2.0973766666666664 61.04866666666666 1680.9000000000003 8.497805496044278e-27 8.122713731865553e-27 1.0
2.0973766666666664 61.498133333333335 1680.9000000000003 4.998813793614181e-28 -2.4990732718597933e-28 1.0
2.0973766666666664 61.498133333333335 1680.9000000000003 4.998813793614181e-28 -2.4990732718597933e-28 1.0
4.71997 66.39276666666667 1734.5199999999998 -0.982602630118642 -0.0982602630118641 0.15759756342268177
35.91643333333334 92.5432 2258.1766666666667 -0.847143295520504 -0.42357164776025225 0.32083530988394127
48.69563333333334 117.681 2601.74 0.0 0.0 1.0
10.319946666666667 84.29306666666666 1852.63 0.0 0.0 1.0
10.485066666666667 84.45819999999999 1852.63 0.0 0.0 1.0
7.721396666666666 76.01989999999999 1786.2699999999998 -1.0441067171825265e-27 -1.921003885125866e-28 1.0
10.485066666666667 85.9443 1852.63 0.0 0.0 1.0
46.608666666666664 128.57933333333332 2601.74 0.0 0.0 1.0
22.535233333333334 -98.87309999999998 2107.04 0.0 0.0 1.0
22.535200000000003 -96.4319 2107.04 0.0 0.0 1.0
22.34743333333333 -88.3568 2107.04 0.0 0.0 1.0
22.535200000000003 -83.84976666666667 2107.04 0.0 0.0 1.0
22.535200000000003 -83.47420000000001 2107.04 0.0 0.0 1.0
20.3484 -66.0627 2085.02 0.0 0.0 1.0
22.392566666666664 -63.646966666666664 2085.02 0.0 0.0 1.0
22.0209 -59.001133333333335 2085.02 0.0 0.0 1.0
21.64923333333333 -56.21373333333333 2085.02 0.0 0.0 1.0
22.0209 -55.28456666666667 2085.02 0.0 0.0 1.0
46.608666666666664 -50.43476666666667 2601.74 0.0 0.0 1.0
12.261499999999998 -33.0118 1924.12 0.0 0.0 1.0
12.908733333333332 -13.503166666666667 1905.7300000000002 9.33357545701862e-27 4.66617715215587e-27 1.0
12.908733333333332 -13.503166666666667 1905.7300000000002 9.33357545701862e-27 4.66617715215587e-27 1.0
12.908733333333332 -6.539280000000001 1905.7300000000002 -3.816102135524693e-32 1.1667732317025556e-27 1.0
12.399166666666666 -0.7643343333333333 1905.7300000000002 3.110581262623869e-27 5.184753158906163e-28 1.0
11.019966666666667 1.26183 1887.7 0.0 0.0 1.0
13.078566666666667 1.6135856666666666 1905.7300000000002 -3.997285819780684e-28 2.862924864405273e-28 1.0
2.4806166666666667 7.054263333333334 1739.53 0.0 0.0 1.0
5.271316666666666 10.93023 1739.53 0.0 0.0 1.0
0.8170869999999999 14.930366666666666 1666.8499999999997 1.1438359378725677e-27 -4.130433315437289e-28 1.0
0.8170869999999999 16.564533333333333 1666.8499999999997 -9.293132861170257e-28 -3.336105753542832e-28 1.0
1.4981259999999998 27.191033333333333 1680.9000000000003 3.748760017306672e-28 -1.874373404904144e-28 1.0
0.6685263333333333 30.380666666666666 1666.8499999999997 7.342290690416439e-28 -2.965131266294281e-28 1.0
1.11421 32.46053333333333 1666.8499999999997 1.0 0.0 0.0
1.11421 34.5404 1666.8499999999997 1.0 0.0 0.0
1.11421 36.91736666666667 1666.8499999999997 1.0 0.0 0.0
1.11421 36.91736666666667 1666.8499999999997 1.0 0.0 0.0
1.11421 44.34539999999999 1666.8499999999997 1.0 0.0 0.0
1.11421 44.34539999999999 1666.8499999999997 1.0 0.0 0.0
0.6685263333333333 58.60723333333334 1666.8499999999997 9.518891441276482e-28 8.662155014137762e-29 1.0
1.7977499999999997 61.3483 1680.9000000000003 0.0 1.0 0.0
47.76813333333333 101.913 2601.74 0.0 0.0 1.0
1.947563333333333 64.19476666666667 1680.9000000000003 9.47299357747822e-28 2.4685141675141526e-29 1.0
10.154813333333331 84.62333333333333 1852.63 0.0 0.0 1.0
11.3635 86.09206666666667 1887.8100000000002 -0.9897998920248989 0.14138679779768343 0.017491345174555813
45.44926666666667 123.94200000000001 2601.74 0.0 0.0 1.0
46.608666666666664 128.57933333333332 2601.74 0.0 0.0 1.0
21.40846666666667 -102.44133333333333 2107.04 0.0 0.0 1.0
21.971833333333336 -96.8075 2107.04 0.0 0.0 1.0
21.784033333333337 -92.1127 2107.04 0.0 0.0 1.0
22.1596 -84.22533333333334 2107.04 0.0 0.0 1.0
22.347400000000004 -83.66196666666667 2107.04 0.0 0.0 1.0
20.162566666666667 -76.2834 2085.02 0.0 0.0 1.0
20.534233333333333 -71.6376 2085.02 0.0 0.0 1.0
20.3484 -48.59466666666666 2085.02 0.0 0.0 1.0
12.433033333333334 -36.78456666666667 1924.12 0.0 0.0 1.0
47.072466666666664 -49.27536666666666 2601.74 0.0 0.0 1.0
13.290466666666667 -24.437300000000004 1924.12 0.0 0.0 1.0
12.059433333333333 -20.127366666666667 1905.7300000000002 3.4566535929391676e-28 -4.0329509684203555e-28 1.0
12.399133333333333 -17.409766666666666 1905.7300000000002 0.0 0.0 1.0
12.399133333333333 -14.861966666666667 1905.7300000000002 1.4617594985267048e-12 -1.461759498526706e-12 1.0
12.059466666666665 -6.709129999999999 1905.7300000000002 4.666940267746476e-27 -1.4001126106388594e-26 1.0
12.569 -4.33121 1905.7300000000002 -5.83348452957632e-28 -3.1057033308760758e-43 1.0
12.569 -4.33121 1905.7300000000002 -5.83348452957632e-28 -3.1057033308760758e-43 1.0
12.399166666666666 -0.7643343333333333 1905.7300000000002 3.110581262623867e-27 5.184753158906155e-28 1.0
12.738866666666667 -0.25477866666666665 1905.7300000000002 0.0 0.0 1.0
13.078566666666667 4.331206666666667 1905.7300000000002 -2.6997368795735275e-28 9.8021523523035e-29 1.0
7.228903333333332 8.11244 1802.41 0.0 0.0 1.0
1.2842333333333331 9.896156666666668 1695.18 0.0 0.0 1.0
1.947563333333333 17.4532 1680.9000000000003 -9.718834407877885e-29 7.636814026794213e-29 1.0
-1.6206263333333333 17.311233333333334 1653.04 0.0 0.0 1.0
0.07428066666666666 19.981466666666666 1666.8499999999997 0.0 0.0 1.0
0.8988746666666666 23.29586666666667 1680.9000000000003 6.24850612225044e-27 -6.1858179724902345e-27 1.0
0.0 37.79006666666667 1653.04 0.0 0.0 1.0
0.0 37.79006666666667 1653.04 0.0 0.0 1.0
0.0 37.79006666666667 1653.04 0.0 0.0 1.0
-0.7366493333333334 40.147333333333336 1653.04 0.0 0.0 1.0
-0.8839800000000001 42.062599999999996 1653.04 0.0 0.0 1.0
-0.29465933333333333 46.629799999999996 1653.04 0.0 0.0 1.0
-0.29465933333333333 46.629799999999996 1653.04 0.0 0.0 1.0
-0.29465933333333333 48.10313333333334 1653.04 0.0 0.0 1.0
-0.58932 48.69246666666667 1653.04 0.0 0.0 1.0
16.4238 62.4283 1981.46 0.0 0.0 1.0
16.4238 62.4283 1981.46 0.0 0.0 1.0
8.039803333333333 56.756233333333334 1786.2699999999998 0.0 0.0 1.0
1.79775 61.3483 1680.9000000000003 0.0 -1.0 0.0
11.208966666666667 77.01856666666667 1864.21 0.7056717497042722 0.7056717497042735 -0.06367702363192218
20.841866666666665 79.45393333333334 2042.32 0.0 0.0 1.0
9.494323333333332 84.62333333333333 1852.63 0.0 0.0 1.0
13.295566666666666 82.17753333333333 1899.72 -0.9878521616532173 -0.15366704065001865 0.023120279732984677
46.608666666666664 128.57933333333332 2601.74 0.0 0.0 1.0
20.8451 -103.568 2107.04 0.0 0.0 1.0
21.971833333333336 -96.8075 2107.04 0.0 0.0 1.0
22.34743333333333 -88.3568 2107.04 0.0 0.0 1.0
19.790900000000004 -76.84086666666667 2085.02 0.0 0.0 1.0
20.534233333333333 -71.6376 2085.02 0.0 0.0 1.0
19.976733333333332 -71.08013333333334 2085.02 0.0 0.0 1.0
19.976733333333335 -68.47853333333333 2085.02 0.0 0.0 1.0
20.3484 -66.62020000000001 2085.02 0.0 0.0 1.0
20.3484 -48.59466666666666 2085.02 0.0 0.0 1.0
12.6045 -35.0697 1924.12 0.0 0.0 1.0
12.776000000000002 -26.666666666666668 1924.12 0.0 0.0 1.0
12.433033333333334 -24.437300000000004 1924.12 0.0 0.0 1.0
12.059433333333333 -16.050933333333333 1905.7300000000002 2.612858960032212e-27 1.8663975854714344e-28 1.0
11.040333333333335 -2.80255 1905.7300000000002 0.0 -1.0 0.0
11.019966666666667 1.26183 1887.7 0.0 0.0 1.0
5.333333333333333 6.76617 1786.2699999999998 -1.9673199703596145e-28 4.918351414021537e-29 1.0
5.810946666666666 8.676616666666666 1786.2699999999998 -2.6559190319511397e-27 3.237416606948485e-43 1.0
5.810946666666666 8.676616666666666 1786.2699999999998 -2.655919031951139e-27 -2.759057000987983e-43 1.0
0.22284233333333328 13.741866666666667 1666.8499999999997 6.989478171063846e-28 -7.1480655403274345e-28 1.0
-2.0626163333333336 16.1326 1653.04 0.0 0.0 1.0
0.07428033333333335 17.307333333333332 1666.8499999999997 -1.203398823226385e-28 -9.145070767875696e-28 1.0
0.8988746666666666 23.29586666666667 1680.9000000000003 6.24850612225044e-27 -6.1858179724902345e-27 1.0
0.07428033333333334 27.112366666666663 1666.8499999999997 1.2199833863454432e-26 -2.4398682324128658e-26 1.0
0.07428033333333334 27.112366666666663 1666.8499999999997 1.2199833863454432e-26 -2.4398682324128663e-26 1.0
-0.7366483333333335 30.570866666666664 1653.04 0.0 0.0 1.0
-1.38813 49.168933333333335 1639.45 0.0 0.0 1.0
-1.2420099999999998 49.6073 1639.45 0.0 0.0 1.0
5.332963333333333 58.43283333333333 1760.03 0.24223100288741894 -0.9689394994654593 0.0498034899959894
6.1538466666666665 55.9369 1770.41 0.0 0.0 1.0
6.1538466666666665 55.9369 1770.41 0.0 0.0 1.0
-1.5342466666666665 59.543366666666664 1639.45 0.0 0.0 1.0
46.840599999999995 97.27523333333333 2601.74 0.0 0.0 1.0
4.075896666666666 67.87183333333333 1724.58 -0.27253524477241226 0.9510043069716823 -0.14599776874374393
10.3834 80.32093333333334 1864.21 0.687788078033338 0.687788078033334 0.23215322403623853
44.28986666666666 113.04333333333334 2601.74 0.0 0.0 1.0
44.52173333333334 114.66633333333334 2601.74 0.0 0.0 1.0
7.721396666666666 76.01989999999999 1786.2699999999998 -1.0441067171825265e-27 -1.921003885125866e-28 1.0
45.44926666666667 123.94200000000001 2601.74 0.0 0.0 1.0
20.4695 -103.94366666666667 2107.04 0.0 0.0 1.0
21.032866666666667 -101.50233333333334 2107.04 0.0 0.0 1.0
20.4695 -86.85449999999999 2107.04 0.0 0.0 1.0
19.790900000000004 -76.84086666666667 2085.02 0.0 0.0 1.0
19.976733333333332 -68.47853333333333 2085.02 0.0 0.0 1.0
19.976733333333335 -68.47853333333333 2085.02 0.0 0.0 1.0
18.2069 -51.4023 2063.45 0.0 0.0 1.0
20.3484 -48.59466666666666 2085.02 0.0 0.0 1.0
19.976733333333335 -47.479666666666674 2085.02 0.0 0.0 1.0
11.747066666666667 -40.04286666666667 1924.12 0.0 0.0 1.0
11.918533333333334 -33.86926666666667 1924.12 0.0 0.0 1.0
11.747066666666667 -27.867100000000004 1924.12 0.0 0.0 1.0
10.700633333333334 -21.656066666666664 1905.7300000000002 -2.0741956778822257e-27 -1.2962705413613679e-27 1.0
11.380033333333335 -6.878980000000001 1905.7300000000002 0.0 0.9999923706927791 0.0039062201980186685
11.040333333333335 -2.80255 1905.7300000000002 0.0 -1.0 0.0
10.34699 1.093586 1887.7 0.0 0.0 1.0
11.188233333333335 5.299686666666666 1887.7 0.0 0.0 1.0
5.651743333333333 8.039803333333333 1786.2699999999998 -2.213265859959283e-27 8.853063439837146e-28 1.0
5.651743333333333 8.039803333333333 1786.2699999999998 -2.213265859959283e-27 8.853063439837144e-28 1.0
-0.371402 20.130033333333333 1666.8499999999997 0.0 0.0 1.0
-0.371402 20.130033333333333 1666.8499999999997 0.0 0.0 1.0
0.8988746666666666 23.29586666666667 1680.9000000000003 6.24850612225044e-27 -6.1858179724902345e-27 1.0
0.8988746666666666 24.194766666666666 1680.9000000000003 3.2492267427272614e-27 1.5933182334276157e-27 1.0
-0.07428033333333334 26.666666666666668 1666.8499999999997 -4.0666112878181585e-27 4.066447054021475e-27 1.0
0.07428033333333334 27.112366666666663 1666.8499999999997 1.2199833863454426e-26 -2.4398682324128655e-26 1.0
-0.07428033333333334 27.558033333333338 1666.8499999999997 1.807247592404943e-27 3.61516032979456e-27 1.0
-0.7366483333333335 30.570866666666664 1653.04 0.0 0.0 1.0
-0.7366483333333335 30.570866666666664 1653.04 0.0 0.0 1.0
-1.7679526666666667 32.4862 1653.04 0.0 0.0 1.0
-0.7366493333333334 40.147333333333336 1653.04 0.0 0.0 1.0
-0.7366493333333334 47.071799999999996 1653.04 0.0 0.0 1.0
-1.38813 49.168933333333335 1639.45 0.0 0.0 1.0
-1.38813 49.6073 1639.45 0.0 0.0 1.0
-2.7536233333333335 50.94206666666667 1626.09 0.0 0.0 1.0
-2.4637666666666664 52.97103333333333 1626.09 0.0 0.0 1.0
-2.4637666666666664 52.97103333333333 1626.09 0.0 0.0 1.0
-1.8264833333333332 60.71233333333333 1639.45 0.0 0.0 1.0
-1.915286 70.79186666666668 1653.04 0.0 0.0 1.0
0.896373 65.63446666666667 1671.5333333333335 -0.9756011575131206 -0.15404210005362243 0.15643980590031842
44.52173333333334 114.66633333333334 2601.74 0.0 0.0 1.0
2.348393333333333 70.16853333333333 1695.2633333333333 -0.9737075871482636 -0.22254714924479152 0.048644640947625085
9.494323333333334 84.62333333333333 1852.63 0.0 0.0 1.0
44.28983333333334 123.94200000000001 2601.74 0.0 0.0 1.0
51.45836666666667 116.69600000000001 2579.4066666666663 0.6168540613379866 0.7870263600611209 -0.008976390130469216
44.5217 125.79733333333333 2601.74 0.0 0.0 1.0
43.82606666666667 126.95666666666666 2601.74 0.0 0.0 1.0
20.0939 -105.07033333333334 2107.04 0.0 0.0 1.0
20.2817 -104.507 2107.04 0.0 0.0 1.0
20.2817 -103.568 2107.04 0.0 0.0 1.0
19.7183 -100.18766666666666 2107.04 0.0 0.0 1.0
20.2817 -97.93430000000001 2107.04 0.0 0.0 1.0
21.784033333333337 -92.1127 2107.04 0.0 0.0 1.0
20.4695 -86.85449999999999 2107.04 0.0 0.0 1.0
20.4695 -86.85449999999999 2107.04 0.0 0.0 1.0
20.0939 -84.41313333333333 2107.04 0.0 0.0 1.0
20.845066666666668 -83.84976666666667 2107.04 0.0 0.0 1.0
19.7183 -82.5352 2107.04 0.0 0.0 1.0
19.0476 -76.2834 2085.02 0.0 0.0 1.0
18.490133333333333 -74.4251 2085.02 0.0 0.0 1.0
19.233433333333334 -70.8943 2085.02 0.0 0.0 1.0
19.0476 -67.36353333333334 2085.02 0.0 0.0 1.0
19.233433333333334 -66.24853333333334 2085.02 0.0 0.0 1.0
18.023 -52.137933333333336 2063.45 0.0 0.0 1.0
18.023 -52.137933333333336 2063.45 0.0 0.0 1.0
11.2326 -40.728833333333334 1924.12 0.0 0.0 1.0
11.747066666666667 -40.04286666666666 1924.12 0.0 0.0 1.0
6.2422 -28.037833333333335 1802.506666666667 0.972500858577185 -0.06780449173256468 0.2228107514630439
11.575566666666665 -28.724566666666664 1924.12 0.0 0.0 1.0
12.090033333333333 -27.181133333333335 1924.12 0.0 0.0 1.0
12.261533333333333 -25.294766666666664 1924.12 0.0 0.0 1.0
10.021223333333333 -20.976633333333336 1905.7300000000002 3.4571736895632963e-28 2.4193703772765814e-27 1.0
10.360933333333334 -10.445883333333333 1905.7300000000002 -9.54072347472486e-33 -1.9443994441491471e-28 1.0
10.360933333333334 -8.747346666666667 1905.7300000000002 1.7286207896557618e-28 3.4568344937970464e-28 1.0
10.700633333333334 -7.218683333333334 1905.7300000000002 -4.276999637001195e-27 3.499281834199381e-27 1.0
10.191076666666667 -1.78344 1905.7300000000002 -4.3274840451915297e-19 4.3273566528726424e-19 1.0
10.34699 1.093586 1887.7 0.0 0.0 1.0
6.852423333333334 0.9081533333333333 1852.63 0.0 0.0 1.0
6.852423333333334 0.9081533333333333 1852.63 0.0 0.0 1.0
-0.8170843333333333 13.147600000000002 1666.8499999999997 2.299005293032903e-45 0.9999694838187878 0.007812261592334394
-7.086766666666667 11.03194 1639.45 0.0 0.0 1.0
-0.371402 20.130033333333333 1666.8499999999997 0.0 0.0 1.0
-1.3259693333333333 31.012866666666667 1653.04 0.0 0.0 1.0
-1.7679566666666666 36.75876666666667 1653.04 0.0 0.0 1.0
-1.32597 37.20073333333334 1653.04 0.0 0.0 1.0
-0.8839800000000001 37.790033333333334 1653.04 0.0 0.0 1.0
-1.6206300000000002 40.442 1653.04 0.0 0.0 1.0
-1.4733 41.4733 1653.04 0.0 0.0 1.0
-1.7679566666666666 41.91526666666667 1653.04 0.0 0.0 1.0
-1.3259693333333333 47.36646666666667 1653.04 0.0 0.0 1.0
-2.7536233333333335 50.94206666666667 1626.09 0.0 0.0 1.0
-4.384546666666666 56.99913333333333 1612.9399999999998 2.3753683407410048e-27 -1.696698696949294e-27 1.0
-1.5342466666666665 59.543366666666664 1639.45 0.0 0.0 1.0
-1.9726 62.46576666666667 1639.45 0.0 0.0 1.0
-1.9726 62.46576666666667 1639.45 0.0 0.0 1.0
-1.9726 62.46576666666667 1639.45 0.0 0.0 1.0
13.820566666666666 83.6999 1974.9633333333334 -0.9972360136619041 1.409675820730878e-15 0.0742989438398384
13.820566666666666 83.6999 1974.9633333333334 -0.9972360136619041 1.3680808153233385e-15 0.0742989438398384
44.28986666666666 113.04333333333334 2601.74 0.0 0.0 1.0
44.057966666666665 113.73899999999999 2601.74 0.0 0.0 1.0
-1.9726 66.11873333333334 1639.45 0.0 0.0 1.0
-3.8095233333333334 63.32436666666667 1612.9399999999998 -6.259938642585759e-29 1.9738426097069603e-29 1.0
20.0939 -105.07033333333334 2107.04 0.0 0.0 1.0
19.7183 -103.00466666666667 2107.04 0.0 0.0 1.0
19.7183 -100.18766666666666 2107.04 0.0 0.0 1.0
19.154899999999998 -94.9296 2107.04 0.0 0.0 1.0
20.0939 -88.92020000000001 2107.04 0.0 0.0 1.0
19.7183 -85.1643 2107.04 0.0 0.0 1.0
18.304333333333332 -62.53196666666667 2085.02 0.0 0.0 1.0
18.1185 -57.70033333333333 2085.02 0.0 0.0 1.0
17.655166666666666 -51.954 2063.45 0.0 0.0 1.0
10.7181 -33.0118 1924.12 0.0 0.0 1.0
11.061099999999998 -29.582000000000004 1924.12 0.0 0.0 1.0
10.021223333333333 -21.1465 1905.7300000000002 0.0 0.0 1.0
10.1911 -12.823766666666666 1905.7300000000002 1.0 0.0 0.0
10.1911 -12.823766666666666 1905.7300000000002 1.0 0.0 0.0
10.1911 -12.144366666666668 1905.7300000000002 1.0 0.0 0.0
10.360933333333334 -11.295133333333334 1905.7300000000002 -7.780116794443724e-27 3.111802415330745e-27 1.0
10.530766666666667 -9.596616666666668 1905.7300000000002 3.4573320332910657e-28 6.913307185878333e-28 1.0
10.530766666666667 -7.898089999999999 1905.7300000000002 0.0 -2.916685024098649e-28 1.0
10.360943333333333 -2.6326966666666665 1905.7300000000002 -8.795772112013473e-44 -1.1666511140376508e-27 1.0
10.191076666666667 -1.78344 1905.7300000000002 -4.3274837097029367e-19 4.327356317393926e-19 1.0
0.5673766666666668 2.350556666666667 1818.84 0.0 0.0 1.0
5.333333333333333 6.76617 1786.2699999999998 -1.9673199703596145e-28 4.918351414021536e-29 1.0
