ply
format ascii 1.0
comment VCGLIB generated
element vertex 593
property float x
property float y
property float z
property float nx
property float ny
property float nz
element face 0
property list uchar int vertex_indices
end_header
50.6832 -48.4472 1858.39 0.0 0.0 1.0
50.6832 -48.4472 1858.39 0.0 0.0 1.0
50.98506666666666 -43.1911 1860.3166666666668 -0.9879474227943255 6.585162271477167e-17 0.15478982458175503
75.49023333333334 -19.11763333333333 2200.0 0.0 0.0 1.0
74.88316666666667 -14.464933333333335 2208.12 0.0 0.0 1.0
73.1011 11.783093333333333 2149.9466666666667 0.9069121186452791 0.377877860894564 0.1863296307624733
66.0627 19.6051 2085.02 0.0 0.0 1.0
66.6202 21.27756666666667 2085.02 0.0 0.0 1.0
66.6202 21.27756666666667 2085.02 0.0 0.0 1.0
65.89493333333333 28.305266666666665 2082.6066666666666 -0.9576878291179292 4.663595806336878e-17 0.2878090025683491
63.25366666666667 36.67803333333333 2042.32 0.0 0.0 1.0
63.25366666666667 36.67803333333333 2042.32 0.0 0.0 1.0
66.29683333333332 39.15283333333334 2077.796666666667 -0.9810317769210538 -0.1635120400287643 -0.10411755585275637
66.63633333333333 58.374966666666666 2082.6066666666666 -0.9936572104007039 -0.052298241644801555 0.09955019909348835
66.63633333333333 58.374966666666666 2082.6066666666666 -0.9936572104007039 -0.052298241644801555 0.09955019909348835
64.8698 75.37743333333333 2070.606666666667 -0.9838837076838883 -0.1711021296655897 0.05193179159344015
68.0133 82.71249999999999 2102.15 -0.9801735043141866 0.16324069138231564 0.11230484458593502
66.7624 87.5362 2092.3266666666664 -0.993066666682609 -0.11034802457103418 0.04052047627017991
67.27483333333333 105.63766666666668 2099.65 0.0 0.0 1.0
68.3568 109.76533333333333 2107.04 0.0 0.0 1.0
68.3568 114.836 2107.04 0.0 0.0 1.0
67.65163333333334 120.60933333333332 2099.6666666666665 -0.9894279202132618 -5.981249460237289e-05 0.14502547060749357
57.58956666666666 130.90099999999998 1949.1899999999998 -2.9748030352296548e-27 -4.459708372565913e-27 1.0
49.122833333333325 -119.62833333333333 1852.63 0.0 0.0 1.0
49.122833333333325 -119.62833333333333 1852.63 0.0 0.0 1.0
49.485166666666665 -102.18433333333333 1850.7233333333334 -0.9879949032266923 -5.864333738076733e-16 0.1544864757772636
49.485166666666665 -102.18433333333333 1850.7233333333334 -0.9879949032266923 7.970044096742072e-17 0.15448647577726338
49.485166666666665 -88.49060000000001 1850.7233333333334 -0.9879949032266923 -7.927253816116024e-17 0.15448647577726354
50.08326666666667 -82.71956666666667 1854.5500000000002 -0.9880146498962874 -9.96810131950358e-16 0.15436013601418172
49.785133333333334 -64.48233333333333 1852.6433333333334 -0.9879708606936781 0.0007507927251168731 0.15463833525512619
50.08326666666667 -49.33946666666666 1854.5500000000002 -0.9880146498962877 7.123173643392607e-17 0.1543601360141795
50.08326666666667 -48.345666666666666 1854.5500000000002 -0.9880146498962878 1.3758060240386242e-17 0.1543601360141795
49.485166666666665 -34.38623333333334 1850.7233333333334 -0.987994903226684 -3.8560193585916755e-14 0.15448647577731625
49.485166666666665 -34.38623333333334 1850.7233333333334 -0.987994903226684 -3.8560193585916755e-14 0.15448647577731625
73.5915 -8.44592 2178.646666666667 0.9461197891132916 0.31536422888430754 0.07350338623782345
72.77166666666666 -1.0744796666666667 2191.94 0.0 0.0 1.0
63.0717 48.87370000000001 2042.32 0.0 0.0 1.0
63.0717 48.87370000000001 2042.32 0.0 0.0 1.0
63.0717 48.87369999999999 2042.32 0.0 0.0 1.0
65.9271 69.34276666666666 2077.796666666667 -0.9959818291359855 -0.08659745356857992 0.02282711252818344
67.27483333333333 105.63766666666668 2099.65 0.0 0.0 1.0
67.27483333333333 108.63166666666666 2099.65 0.0 0.0 1.0
67.27483333333333 108.63166666666666 2099.65 0.0 0.0 1.0
66.76173333333334 121.67666666666666 2092.3266666666664 -0.9899169441066674 0.08253273220168701 0.11512077087060335
65.35423333333334 122.27266666666667 2080.193333333333 -0.9893985571735971 9.436857667448652e-17 0.1452256694348647
49.79996666666667 112.70633333333335 1852.7366666666667 -0.9879886327686935 -1.630272240376221e-05 0.15452657135285516
55.75756666666667 125.974 1942.86 0.0 0.0 1.0
53.59056666666667 126.81666666666668 1924.12 0.0 0.0 1.0
65.64103333333334 -140.513 2092.31 0.0 0.0 1.0
48.89073333333334 -119.42399999999999 1846.9233333333334 -0.9879858525107859 -0.00030289178806673325 0.15454405033873192
58.67076666666666 -120.53399999999999 1947.0933333333332 -0.30938123476162044 0.6192989687742615 0.7216315118206185
49.18703333333334 -104.54966666666667 1848.8166666666668 -0.9879949032266921 -6.232328064634874e-17 0.15448647577726352
49.18703333333334 -104.54966666666667 1848.8166666666668 -0.9879949032266923 -7.781064933720504e-19 0.15448647577726332
48.89073333333334 -90.28963333333336 1846.9233333333334 -0.9879871429422782 -0.00010819567403605068 0.15453605946331997
48.592600000000004 -68.49206666666667 1845.0166666666667 -0.9879748627441063 4.5528111985922735e-17 0.15461458723472302
48.8889 -67.57203333333334 1846.91 0.0 0.0 1.0
49.18703333333334 -65.16890000000001 1848.8166666666668 -0.9879949032266921 2.071850885104266e-17 0.15448647577726363
48.89073333333334 -52.09656666666666 1846.9233333333334 -0.9879702452016849 -0.0005052713102552785 0.15464326463517686
49.485166666666665 -39.670033333333336 1850.7233333333334 -0.9879949032266923 3.529184769598265e-18 0.1544864757772635
72.77166666666666 -1.0744796666666667 2191.94 0.0 0.0 1.0
65.35486666666667 26.230499999999996 2080.193333333333 -0.972231356689508 -0.19446027135743685 0.13019751124069404
63.25366666666667 36.67803333333333 2042.32 0.0 0.0 1.0
59.2177 47.928666666666665 2010.3033333333333 -0.9556756334556165 -2.0357145840536874e-17 0.294421608614596
66.28256666666667 60.43526666666667 2051.6666666666665 0.3011267204241772 0.9535832137924527 0.0013238654904773922
62.141600000000004 72.42506666666667 2044.6533333333334 -0.9891352422561313 -0.082431710509251 -0.12172298726790975
63.46726666666667 80.92143333333333 2061.0866666666666 0.9999677981302735 -2.3396202730406307e-15 0.008025129437746777
65.86193333333334 96.45100000000001 2087.4500000000003 -0.9877497002011429 -0.04294463439047173 0.15002095896780773
65.35423333333334 122.27266666666667 2080.193333333333 -0.9893985571735971 9.436857667448652e-17 0.1452256694348647
64.83276666666667 122.54166666666667 2075.3833333333337 -0.9975744063163071 1.0361556725037053e-15 0.06960821691917814
63.9477 122.81666666666666 2070.606666666667 -0.929033041921318 0.3483630816096239 0.12466262627535524
62.89653333333333 -142.43666666666664 2063.45 0.0 0.0 1.0
48.00183333333334 -119.87666666666667 1841.24 -0.987984661088353 -0.0002699268108670293 0.15455172788956015
48.00183333333334 -90.99543333333334 1841.24 -0.9879863547620769 -0.00010124663429757638 0.1545411031184345
48.592600000000004 -65.69373333333333 1845.0166666666667 -0.9879748627441066 -3.176118407014126e-18 0.154614587234723
48.2963 -51.1719 1843.1233333333332 -0.9879748627441064 -7.819636021993614e-17 0.15461458723472285
48.2963 -51.1719 1843.1233333333332 -0.9879748627441064 2.4297874234669946e-16 0.15461458723472313
74.26496666666667 -27.391433333333335 2219.0466666666666 -0.7807579341327235 0.6246037122366234 0.01694847925422546
65.67413333333333 17.392366666666664 2087.4500000000003 -0.5124007234655658 0.7686700242139736 0.38287320677589054
66.0627 19.6051 2085.02 0.0 0.0 1.0
65.35486666666667 29.3896 2080.193333333333 -0.9141611739937502 -0.18284539861434507 0.3617691365607759
60.65533333333334 37.33336666666667 2028.47 0.0 0.0 1.0
60.65533333333334 37.33336666666667 2028.47 0.0 0.0 1.0
61.0169 40.406800000000004 2028.47 0.0 0.0 1.0
58.393 48.1345 2003.5766666666666 0.9427687296802809 -0.16636546573109348 0.28898036983349756
66.28256666666667 60.43526666666667 2051.6666666666665 0.30112672042417715 0.9535832137924527 0.001323865490477407
63.46726666666667 80.92143333333333 2061.0866666666666 0.9999677981302735 -2.3396202730406307e-15 0.008025129437746777
63.448299999999996 84.50573333333332 2063.45 0.0 0.0 1.0
63.448299999999996 84.50573333333334 2063.45 0.0 0.0 1.0
63.59526666666667 107.93033333333334 2068.21 -0.9893989916858292 8.16726025464627e-17 0.14522270914379612
65.67543333333333 108.19940000000001 2087.4500000000003 -0.9607812942781412 -0.041772122435043156 0.27414301806263786
64.2964 113.17233333333333 2072.986666666667 -0.9893977842929284 -3.431683239660832e-16 0.1452309348460017
59.475300000000004 127.281 1968.4366666666667 -0.7828712882197413 0.6179511660614424 0.07244930948233222
79.58973333333334 168.92333333333332 2301.54 0.0 0.0 1.0
63.6524 -143.74366666666666 2061.0866666666666 -0.7977235067291388 -0.5982384123187102 0.07581562397127935
45.7363 -117.29166666666667 1839.3466666666666 -0.7024756348507532 -0.6484398918762186 0.29334909078534604
58.67076666666666 -120.53399999999999 1947.0933333333332 -0.30938123476162044 0.6192989687742615 0.7216315118206185
44.6626 -108.05733333333335 1835.58 0.0 0.0 1.0
44.6626 -108.05733333333335 1835.58 0.0 0.0 1.0
46.8239 -92.9123 1833.71 -0.9879706992738888 -1.205674295222125e-16 0.1546411891323373
46.8239 -92.9123 1833.71 -0.9879706992738889 -9.202194941175898e-17 0.1546411891323373
46.53119999999999 -81.8789 1831.8400000000001 -0.9879706992738885 4.721596060545259e-16 0.1546411891323379
47.11836666666667 -68.13499999999999 1835.5933333333335 -0.9879625582967807 -0.000385803367487145 0.15469271010439192
47.11836666666667 -54.558666666666674 1835.5933333333335 -0.9879792884259649 -0.00019278983002111977 0.15458618461364798
46.53119999999999 -38.613166666666665 1831.8400000000001 -0.9879706992738888 2.4200865439824007e-17 0.1546411891323374
46.53119999999999 -33.711666666666666 1831.8400000000001 -0.9879706992738889 2.142653732995038e-15 0.15464118913233615
72.5591 -21.837266666666665 2197.3133333333335 -0.739471989144594 0.6338228716241902 0.226825361625641
73.70233333333333 -13.2841 2208.12 0.0 0.0 1.0
72.9151 -11.512896666666668 2208.12 0.0 0.0 1.0
72.9151 -11.512896666666668 2208.12 0.0 0.0 1.0
72.77166666666666 -1.0744796666666667 2191.94 0.0 0.0 1.0
71.97083333333335 -1.07376 2197.3133333333335 -0.9937619768297793 -0.08280857066354938 0.07469855441726522
59.9107 34.66113333333333 2030.7700000000002 -0.7041418135519502 0.7040769037240073 0.09197836729462712
46.24033333333333 34.33056666666667 1829.9800000000002 -0.9879807799177893 3.256776408250513e-05 0.1545767687991221
60.8199 76.27006666666666 2030.8033333333333 -0.9892147755829664 -8.618493411321575e-05 0.14647225109384482
61.412866666666666 88.4763 2044.6533333333334 -0.9847894980527139 -0.08951439467549814 0.14891882913507853
61.574333333333335 90.76440000000001 2046.9866666666667 -0.9893390208075323 1.776423191797121e-15 0.14563070386286373
61.574333333333335 90.76440000000001 2046.9866666666667 -0.9893390208075323 1.776423191797121e-15 0.14563070386286373
63.0805 96.82766666666667 2063.45 0.0 0.0 1.0
63.24593333333333 102.2822 2065.83 -0.9893989916858298 3.2396702288821044e-16 0.14522270914379565
45.9512 111.03899999999999 1828.13 -0.9879882739505944 0.002144178711941511 0.1545139897671958
53.59056666666667 126.81666666666668 1924.12 0.0 0.0 1.0
46.24033333333333 128.44366666666664 1829.9800000000002 -0.9880053219165603 0.0005422617976696087 0.15441887778603025
79.17946666666667 168.513 2301.54 0.0 0.0 1.0
78.97433333333335 169.12833333333333 2301.54 0.0 0.0 1.0
61.2271 -142.22799999999998 2044.6533333333334 0.7540296298288223 0.6463900259474491 -0.11670154967208263
65.02923333333334 -141.38000000000002 2099.65 0.0 0.0 1.0
49.122833333333325 -119.62833333333333 1852.63 0.0 0.0 1.0
55.426566666666666 -112.11433333333332 1901.6966666666667 -0.7992837049366742 0.5994676961610076 -0.042237901014579964
32.065666666666665 -107.9283 1615.8466666666666 -0.046288972591042615 -0.14617751170871002 0.9881748155499186
46.8239 -92.9123 1833.71 -0.9879706992738888 2.0933985988603607e-16 0.15464118913233776
46.23850000000001 -79.67380000000001 1829.97 0.0 0.0 1.0
46.23850000000001 -79.67380000000001 1829.97 0.0 0.0 1.0
46.23850000000001 -76.9011 1829.97 0.0 0.0 1.0
46.23850000000001 -73.31293333333333 1829.97 0.0 0.0 1.0
46.531200000000005 -70.77366666666667 1831.8400000000001 -0.9879706992738887 -1.9445665861231934e-17 0.15464118913233751
46.531200000000005 -57.06033333333334 1831.8400000000001 -0.9879706992738888 3.3096655853165385e-17 0.15464118913233754
46.531200000000005 -57.06033333333334 1831.8400000000001 -0.9879706992738888 1.1669726286595884e-16 0.15464118913233743
45.947633333333336 -51.73043333333334 1828.11 -0.9879924462898375 -1.6864732731785653e-17 0.15450218792697534
46.23850000000001 -37.2681 1829.97 0.0 0.0 1.0
46.23850000000001 -37.2681 1829.97 0.0 0.0 1.0
46.23850000000001 -35.6371 1829.97 0.0 0.0 1.0
46.23850000000001 -35.6371 1829.97 0.0 0.0 1.0
71.7647 3.431373333333333 2200.0 0.0 0.0 1.0
45.65676666666667 25.961566666666666 1826.25 -0.9879924462898376 -3.297188284777687e-17 0.15450218792697534
59.932199999999995 35.70623333333333 2028.47 0.0 0.0 1.0
60.176733333333324 38.661033333333336 2003.5766666666666 0.2247812070728807 0.97407990220052 0.025332845791270375
57.477399999999996 48.33766666666667 1990.28 -0.9890155934308901 0.0008842649164201034 0.14780857223483995
58.701699999999995 55.04656666666667 2008.0666666666666 0.9928730338198918 0.11026644929705656 -0.04521558218914821
57.728433333333335 72.60796666666667 1999.1166666666668 -0.9956734216563141 -0.0711176314710203 0.05980568452212321
57.423833333333334 69.24733333333334 1994.6833333333334 -0.9888096574499121 0.12351342593086433 0.08366537484890724
58.22366666666667 88.63953333333332 2019.3499999999997 -0.969091479192216 -0.14537089316294952 0.19932136959706254
61.412866666666666 88.4763 2044.6533333333334 -0.984789498052714 -0.08951439467549799 0.14891882913507842
63.5959 119.722 2068.21 -0.9621993448022722 0.050648329424566756 0.2675951561381075
60.66233333333333 119.04033333333335 2046.986666666667 -0.9752555067558315 0.06967018872405126 0.20981601784797463
45.9512 111.03899999999999 1828.13 -0.9879882739505944 0.0021441787119407005 0.1545139897671958
53.59056666666667 126.81666666666666 1924.12 0.0 0.0 1.0
59.84643333333333 132.22733333333335 1966.2700000000002 -0.10392860150086637 -0.7791881579001824 0.6181137924186731
46.24033333333333 128.44366666666667 1829.9800000000002 -0.9880053219165605 0.0005422617976777435 0.15441887778602809
65.21636666666666 -153.16933333333333 2099.65 0.0 0.0 1.0
58.33573333333334 -137.31733333333332 2077.7966666666666 -0.5542805778996838 -0.8313990274879148 -0.03935350118276344
63.216766666666665 -136.7833333333333 2092.31 0.0 0.0 1.0
44.06506666666667 -104.63436666666666 1824.39 0.0 0.0 1.0
45.076766666666664 -101.12 1822.54 -0.9880062631363359 1.274442764644921e-16 0.15441380768368207
45.076766666666664 -87.14456666666666 1822.54 -0.988006263136336 -8.595722144675781e-17 0.15441380768368182
45.65676666666667 -84.55483333333333 1826.25 -0.9879924462898376 1.8692897401393945e-16 0.1545021879269751
45.94763333333333 -51.73043333333334 1828.11 -0.9879924462898376 -5.4549901542635335e-17 0.15450218792697532
45.65676666666667 -36.379 1826.25 -0.9879924462898375 3.705826893172502e-17 0.15450218792697534
45.3659 -34.22763333333333 1824.39 0.0 0.0 1.0
45.3659 -31.3008 1824.39 0.0 0.0 1.0
45.3659 -31.3008 1824.39 0.0 0.0 1.0
73.92160000000001 -21.2745 2200.0 0.0 0.0 1.0
72.30503333333333 -11.939326666666668 2213.5733333333333 0.9946531606096364 -0.07104742505731752 0.07494900587723385
44.2129 4.291203333333333 1817.0166666666667 -0.987993291805054 2.087330294462615e-16 0.15449678102864525
70.9926 8.710036666666667 2197.3133333333335 -0.9895986547889755 -0.09895397736395771 0.1044155773996557
45.3659 24.959333333333333 1824.39 0.0 0.0 1.0
45.3659 24.959333333333333 1824.39 0.0 0.0 1.0
45.3659 24.959333333333333 1824.39 0.0 0.0 1.0
60.176733333333324 38.661033333333336 2003.5766666666666 0.2247812070728807 0.97407990220052 0.02533284579127038
44.50026666666667 41.5808 1818.8533333333332 -0.9879935021551919 6.466867717485796e-05 0.15449542231755994
60.37213333333333 45.7049 1983.6533333333334 -0.5293770647460524 -0.8318853817559944 0.16651316747193662
59.1936 54.975699999999996 2012.5566666666666 -0.9807315628497028 -0.17831708641597233 0.07980362349228445
57.092666666666666 65.79553333333332 1992.46 -0.9944115118721139 0.0662899574101752 0.0821668217881987
56.7631 64.65413333333333 1990.25 -0.997649308924641 4.791231995541139e-16 0.06852631904740171
56.940866666666665 67.3208 1990.25 -0.9890629214309251 1.4966021916011107e-15 0.14749419463329289
57.8573 75.62956666666668 2003.5766666666666 -0.9930661260506302 -0.07093140104246012 0.09374649666492854
57.6538 80.00296666666667 2005.8133333333333 -0.9785574346628109 -0.16308784313843447 0.12580819721541125
60.8219 110.77633333333334 2049.32 0.0 0.0 1.0
60.8219 110.77633333333334 2049.32 0.0 0.0 1.0
60.8219 110.77633333333334 2049.32 0.0 0.0 1.0
51.837066666666665 123.28233333333333 1938.6666666666667 -0.274751761937476 -0.9612598806163823 -0.02215651664027092
51.78496666666667 127.91399999999999 1930.32 0.0 0.0 1.0
56.3735 131.76966666666667 1949.1899999999998 0.0 0.0 1.0
45.36763333333334 128.0476666666667 1824.3999999999999 -0.9879965656426285 0.00017213054317419873 0.15447574777112183
78.97433333333335 169.12833333333333 2301.54 0.0 0.0 1.0
63.216766666666665 -136.7833333333333 2092.31 0.0 0.0 1.0
49.523799999999994 -111.22166666666668 1858.39 0.0 0.0 1.0
41.90476666666667 -98.31813333333332 1818.84 0.0 0.0 1.0
42.752166666666675 -88.17733333333332 1817.0033333333333 0.6643558566066387 0.7474152804990605 -0.0013016408760339027
43.277300000000004 -41.81976666666667 1815.1666666666667 -1.0555175130122467e-16 -0.997885369640562 0.06499837734373813
71.90123333333334 -30.716033333333332 2216.3 0.0 0.0 1.0
74.29276666666665 -17.023366666666664 2208.12 0.0 0.0 1.0
73.48146666666666 -17.086430000000004 2216.3 0.0 0.0 1.0
42.145966666666666 -11.241893333333332 1815.1666666666667 0.08349846145312373 -0.9185864156643788 0.3862991119480215
64.5967 13.469153333333333 2082.6066666666666 0.30452644440558424 -0.4568306379660516 0.835804649947117
70.9926 8.710036666666667 2197.3133333333335 -0.9895986547889755 -0.09895397736395746 0.10441557739965579
59.932199999999995 35.70623333333333 2028.47 0.0 0.0 1.0
44.50026666666667 41.74243333333334 1818.8533333333335 -0.9879930616289414 6.690014344135255e-05 0.15449823849300567
57.60333333333333 83.58843333333334 2010.3033333333333 0.9800897430295658 0.1633432199387171 -0.11288528738631756
59.0049 103.43423333333332 2030.7700000000002 -0.9976665333506483 1.5115175372534058e-16 0.0682750923258243
58.510933333333334 104.83233333333334 2026.1866666666665 -0.9893102858930922 1.4943551935537823e-16 0.1458257803892306
58.510933333333334 104.83233333333334 2026.1866666666665 -0.9893102858930922 1.4943551935537823e-16 0.1458257803892306
60.66233333333333 119.04033333333335 2046.986666666667 -0.9752555067558316 0.06967018872405123 0.2098160178479746
45.0785 110.53899999999999 1822.55 -0.9879993370319301 4.560270345331906e-16 0.1544581173796535
45.0785 110.53899999999999 1822.55 -0.98799933703193 4.3366157238634264e-17 0.15445811737965362
54.0551 123.76299999999999 1940.7633333333333 -0.6402586240809361 0.7681378388752395 0.005758018588292733
49.90483333333333 123.69966666666666 1907.76 -0.5436464308330747 0.8155763481987526 -0.19820135847477457
44.21463333333333 128.338 1817.0266666666666 -0.9879884233622853 0.00031620358683648764 0.15452758756091706
61.50456666666667 -149.17499999999998 2075.3833333333337 -0.9706972461918413 0.07765438190249514 0.22741295742968873
62.0351 -149.05233333333334 2099.65 0.0 0.0 1.0
63.21676666666667 -136.78333333333333 2092.31 0.0 0.0 1.0
49.1327 -117.87 1871.9533333333331 -0.4813622054936912 -0.8022703424894856 0.35306192754820337
43.15153333333333 -94.30303333333332 1813.33 0.0 0.0 1.0
42.828300000000006 -91.71716666666667 1813.33 0.0 0.0 1.0
43.15153333333333 -88.80806666666666 1813.33 0.0 0.0 1.0
42.98993333333334 -87.51516666666667 1813.33 0.0 0.0 1.0
42.828300000000006 -82.50506666666666 1813.33 0.0 0.0 1.0
42.34343333333334 -67.63636666666666 1813.33 0.0 0.0 1.0
42.828300000000006 -63.434333333333335 1813.33 0.0 0.0 1.0
43.6364 -62.78786666666667 1813.33 0.0 0.0 1.0
42.828300000000006 -61.979800000000004 1813.33 0.0 0.0 1.0
42.18183333333334 -58.42423333333334 1813.33 0.0 0.0 1.0
42.6667 -42.9091 1813.33 0.0 0.0 1.0
41.8586 -38.222233333333335 1813.33 0.0 0.0 1.0
42.21993333333333 -29.140733333333333 1811.5033333333333 -0.6798364459865088 -0.6798364459865086 0.2750360220350518
41.411833333333334 -12.189566666666666 1811.5033333333333 0.09036751279584665 -0.9941544817354964 0.05908112284240168
43.350766666666665 4.1175500000000005 1811.5033333333333 -0.9879941527204618 -7.277830154095307e-16 0.15449127545003016
43.350766666666665 4.1175500000000005 1811.5033333333333 -0.9879941527204618 -7.277830154095307e-16 0.15449127545003016
68.54756666666667 16.513033333333333 2142.246666666667 -0.5691413331288283 -0.8220918115091247 -0.015594754694619226
68.55506666666666 16.116733333333332 2139.693333333333 0.6507778184425574 0.7592455334675678 0.005869491689577036
64.15156666666667 21.416933333333333 2116.99 -0.8708111976045867 -0.4354441064169424 0.2282022969060915
66.21323333333333 23.3319 2119.49 0.4424168642642657 -0.8848181334471326 0.1461649374429676
43.350766666666665 38.9915 1811.5033333333333 -0.9879941527204618 -3.060805743901377e-15 0.15449127545003033
43.350766666666665 38.9915 1811.5033333333333 -0.9879941527204618 -3.060805743901377e-15 0.15449127545003033
54.68453333333334 58.964800000000004 1972.7666666666667 -0.9905090988681601 -0.02606524693671553 0.13495305836295024
58.094300000000004 84.84909999999999 2014.8266666666666 -0.9648913420663925 -0.21436747144189372 0.1517606180566118
57.6831 95.30636666666668 2019.3499999999997 -0.9976858614740819 1.660629956736377e-16 0.06799207170486411
58.510933333333334 104.83233333333332 2026.1866666666667 -0.9893102858930923 6.443336952159181e-17 0.1458257803892307
49.360533333333336 126.04533333333335 1909.79 0.8265135133190803 0.5509670933929455 -0.11537189562055154
51.78496666666666 127.91399999999999 1930.32 0.0 0.0 1.0
62.0351 -148.491 2099.65 0.0 0.0 1.0
55.8982 -137.61933333333334 2033.07 -0.4372373483897446 -0.8742872710943344 0.21082046574165317
61.24136666666667 -140.04600000000002 2063.45 0.0 0.0 1.0
61.24136666666667 -140.04600000000002 2063.45 0.0 0.0 1.0
49.43833333333333 -118.16333333333334 1873.9066666666665 -0.7051768301903899 -0.6509690652683927 0.2810069647290417
42.666666666666664 -103.03000000000002 1813.33 0.0 0.0 1.0
42.704299999999996 -101.31323333333334 1811.5033333333333 0.9997882179704283 5.783481095055726e-16 0.02057958229690986
43.15153333333333 -94.30303333333332 1813.33 0.0 0.0 1.0
42.34343333333334 -79.11110000000001 1813.33 0.0 0.0 1.0
41.65156666666667 -43.58509999999999 1807.8499999999997 1.880907289803456e-26 2.876856775481696e-26 1.0
41.97383333333334 -33.43403333333333 1807.8499999999997 1.7326979078210337e-26 6.487148068535892e-27 1.0
42.61836666666667 -31.178233333333335 1807.8499999999997 -1.03692764768825e-26 -6.91380448127581e-27 1.0
42.61836666666667 -31.178233333333335 1807.8499999999997 -1.0369276476882492e-26 -6.913804481275806e-27 1.0
42.296099999999996 -27.4723 1807.8499999999997 -7.121227197450576e-27 -2.0742271617475945e-28 1.0
42.2961 -17.643533333333334 1807.8499999999997 1.5364009958390768e-27 2.5607860474506054e-28 1.0
42.134966666666664 -15.71 1807.8499999999997 -3.0087852835181924e-27 2.1338902719987693e-28 1.0
42.457233333333335 -13.6153 1807.8499999999997 6.912946251407572e-29 1.3828753229589823e-28 1.0
42.457233333333335 -0.24169200000000002 1807.8499999999997 1.0370706721913717e-26 -1.0371049992083077e-26 1.0
42.457233333333335 -0.24169200000000002 1807.8499999999997 1.041121863594529e-26 -1.0425067665383152e-26 1.0
42.779500000000006 0.5639466666666667 1807.8499999999997 0.9995120760870787 -4.3569305816127185e-20 0.031234752377721522
42.779500000000006 1.8529706666666665 1807.8499999999997 0.9995120760870786 2.772274330263875e-20 0.031234752377721307
64.15156666666667 21.416933333333333 2116.99 -0.8708111976045866 -0.4354441064169426 0.2282022969060916
42.21163333333333 23.07723333333333 1804.2233333333334 -0.9879621215156142 -1.3154624860802985e-15 0.15469598071820376
59.352833333333336 37.82149999999999 1996.8933333333334 0.28815350557166436 -0.8644605167149937 0.41191694826458297
42.779500000000006 37.945600000000006 1807.8499999999997 0.9995120760870788 -1.1980202916654465e-18 0.031234752377721
42.779500000000006 37.945600000000006 1807.8499999999997 0.9995120760870788 -1.1980202916654465e-18 0.031234752377721
42.779500000000006 37.945600000000006 1807.8499999999997 0.9995120760870788 -1.1980202916654465e-18 0.031234752377721
52.6935 82.35866666666666 1964.1333333333332 -0.993097623429203 -0.07638989187687825 0.08900390305097607
60.457366666666665 118.65266666666666 2030.7699999999998 -0.6671180597276349 -0.06064607987870057 0.7424793245475473
51.26883333333333 125.33333333333333 1930.32 0.0 0.0 1.0
51.78496666666666 127.91399999999999 1930.32 0.0 0.0 1.0
41.890366666666665 128.72400000000002 1804.2233333333334 -0.8128410902822149 -0.5417816340345775 0.21392059968979954
62.27976666666666 -150.87533333333332 2070.606666666667 0.683730826594439 -0.6836308427045314 -0.2552665815722421
60.641 -141.09633333333332 2049.3333333333335 -0.8044559223039548 -0.5899865766061987 0.06903990508823087
42.666666666666664 -103.03000000000002 1813.33 0.0 0.0 1.0
42.82829999999999 -102.38366666666666 1813.33 0.0 0.0 1.0
43.15153333333333 -93.17173333333334 1813.33 0.0 0.0 1.0
42.2585 -52.8238 1809.6766666666665 -0.9926718640568383 -0.09024629110905717 0.08036278523658293
41.696999999999996 -54.0606 1813.33 0.0 0.0 1.0
41.69696666666667 -49.53536666666667 1813.33 0.0 0.0 1.0
42.6667 -42.9091 1813.33 0.0 0.0 1.0
42.61836666666667 -31.178233333333335 1807.8499999999997 -1.0369276476882492e-26 -6.913804481275806e-27 1.0
42.61836666666667 -14.904333333333334 1807.8499999999997 0.0 0.0 1.0
42.457233333333335 -13.6153 1807.8499999999997 6.91294625140757e-29 1.3828753229589823e-28 1.0
41.168200000000006 -7.492450000000001 1807.8499999999997 1.5168949155719981e-27 1.1680386953376963e-27 1.0
41.285133333333334 5.060239999999999 1802.41 0.0 0.0 1.0
41.445766666666664 21.7671 1802.41 0.0 0.0 1.0
41.445766666666664 21.7671 1802.41 0.0 0.0 1.0
41.606433333333335 30.120500000000003 1802.41 0.0 0.0 1.0
41.606433333333335 30.120500000000003 1802.41 0.0 0.0 1.0
40.082 53.4677 1798.8033333333333 -5.748766489639295e-16 -0.9790988995306141 0.20338472149583953
40.1247 66.70473333333332 1797.01 -0.9007368266212484 -0.2843599818359209 0.3283482448537799
41.082766666666664 86.72773333333333 1797.01 -0.9879799938874569 -2.9983461489878214e-05 0.1545817931683181
55.99703333333334 108.10933333333332 2010.3366666666668 -0.9885703221711658 -0.03737415755953022 0.1460544092765189
41.082766666666664 108.35199999999999 1797.01 -0.9879777925521988 -5.248753650674216e-05 0.1545958559235765
49.90483333333333 123.69966666666666 1907.76 -0.5436464308330747 0.8155763481987526 -0.19820135847477457
41.32423333333333 128.466 1800.6066666666666 -0.8261397431302835 -0.5506455632288851 0.11950978418930029
77.74356666666667 168.718 2301.54 0.0 0.0 1.0
58.330466666666666 -139.85266666666666 2010.32 -0.6643315714643337 -0.747326776720707 -0.01289387265204507
48.133766666666666 -112.61433333333333 1862.2433333333336 -0.38233061719058864 0.9176701928579705 0.10818833716569783
42.666666666666664 -103.03000000000002 1813.33 0.0 0.0 1.0
43.15153333333333 -90.42423333333333 1813.33 0.0 0.0 1.0
42.34343333333334 -67.63636666666666 1813.33 0.0 0.0 1.0
41.8127 -50.51356666666666 1807.8499999999997 -6.798483026945464e-26 -8.066303877407847e-27 1.0
41.60863333333334 -35.4219 1802.42 2.062694453292053e-05 0.999806718217331 0.019660258950980412
41.97383333333333 -32.145 1807.8499999999997 2.074141344382805e-26 -3.4569022406379934e-26 1.0
40.684799999999996 -25.055366666666668 1807.8499999999997 -1.1406990774131716e-26 -2.17773399347878e-26 1.0
42.134966666666664 -9.587116666666667 1807.8499999999997 -2.1847633603176145e-26 -5.531243826426157e-28 1.0
41.8127 -0.8862026666666667 1807.8499999999997 0.0 0.0 1.0
40.803200000000004 2.1686746666666665 1802.41 0.0 0.0 1.0
41.285133333333334 5.060239999999999 1802.41 0.0 0.0 1.0
40.321266666666666 13.413640000000001 1802.41 0.0 0.0 1.0
40.44043333333334 46.046033333333334 1797.0 0.0 0.0 1.0
41.082766666666664 64.14983333333333 1797.01 -0.98799722322531 0.00020971012838693625 0.15447149549589737
51.910599999999995 84.89566666666667 1957.7233333333334 -0.9977279063092223 -0.00039382738581441896 0.06737113530145125
51.910599999999995 84.89566666666667 1957.7233333333334 -0.9977279063092245 -0.0003938273857084085 0.0673711353014183
52.6935 82.35866666666668 1964.1333333333332 -0.9930976234292029 -0.07638989187687822 0.0890039030509763
41.082766666666664 86.72773333333333 1797.01 -0.9879799938874568 -2.998346148988875e-05 0.1545817931683183
41.082766666666664 108.35199999999999 1797.01 -0.9879777925521988 -5.248753650732307e-05 0.1545958559235767
41.3633 127.055 1798.8033333333333 -0.9879761445616798 -6.362331383888064e-17 0.1546063963005375
41.3633 127.055 1798.8033333333333 -0.9879761445616798 -6.362331383888064e-17 0.1546063963005375
70.58696666666667 144.96 2070.606666666667 0.4351373156325369 0.9003340330791834 0.0073583573902108144
61.83860000000001 -146.14566666666667 2058.7233333333334 -0.7705672157593075 0.4402983833773577 0.4608291436012203
55.8982 -137.61933333333334 2033.07 -0.437237348389745 -0.8742872710943341 0.210820465741653
60.046600000000005 -133.61333333333332 2092.31 0.0 0.0 1.0
41.65766666666667 -107.98566666666666 1815.1666666666667 0.9838534613527279 -0.03934764544330991 0.17459704860714054
42.98993333333334 -87.51516666666667 1813.33 0.0 0.0 1.0
42.18183333333334 -58.424233333333326 1813.33 0.0 0.0 1.0
41.696999999999996 -54.0606 1813.33 0.0 0.0 1.0
41.97383333333333 -46.96876666666666 1807.8499999999997 -3.950803797712213e-27 9.877447348833718e-28 1.0
41.65156666666667 -43.585100000000004 1807.8499999999997 -9.404536449017305e-27 -1.4384283877408515e-26 1.0
42.6667 -42.9091 1813.33 0.0 0.0 1.0
40.60229999999999 -35.4752 1797.01 -0.988017363911442 -0.0008519411988729069 0.15434041209507898
41.97383333333333 -32.145 1807.8499999999997 2.074141344382805e-26 -3.4569022406379934e-26 1.0
41.65156666666667 -16.03226666666667 1807.8499999999997 -1.920501244798849e-27 -9.98660647295399e-27 1.0
40.362566666666666 7.331316666666666 1807.8499999999997 -1.0804011473250184e-28 -3.2410805129162342e-28 1.0
38.7602 5.673216666666666 1793.4133333333332 0.9395122929974908 -0.2890702611159271 0.18372543494292462
40.642566666666674 17.751 1802.41 0.0 0.0 1.0
38.481366666666666 27.055000000000003 1791.6299999999999 0.4745992749260691 0.5803766841812363 0.6617540575609967
41.606433333333335 30.120500000000003 1802.41 0.0 0.0 1.0
39.4795 36.2763 1797.0 0.0 0.0 1.0
39.719233333333335 38.76016666666666 1793.4133333333332 0.9604004820232712 -2.8934262572972267e-16 0.27862324764719154
39.4411 40.79836666666666 1791.62 0.0 0.0 1.0
38.8024 48.3034 1791.62 0.0 0.0 1.0
39.92016666666667 58.36326666666667 1791.62 0.0 0.0 1.0
39.760466666666666 59.8004 1791.62 0.0 0.0 1.0
38.4082 83.90503333333334 1788.0533333333333 -0.5263027724296644 0.8421064753670444 0.1177373172691746
39.96066666666667 100.26143333333334 1789.8366666666668 -0.9879961844134966 -2.1306329773932753e-16 0.1544782819181131
58.0511 116.89366666666666 2001.3533333333332 0.062385740191128046 0.434314424243017 0.8985983531674547
40.52003333333334 104.30166666666666 1793.4133333333332 -0.9879847085833255 2.0791725296794702e-17 0.15455165998953696
50.33226666666667 129.389 1924.12 0.0 0.0 1.0
48.37800000000001 131.02700000000002 1917.9633333333331 -0.9688979057632019 0.21532492538501374 0.1219509110897487
41.32423333333333 128.466 1800.6066666666666 -0.8261397431302833 -0.5506455632288852 0.11950978418930028
59.97663333333333 -148.49133333333333 2099.65 0.0 0.0 1.0
59.97663333333333 -148.49133333333336 2099.65 0.0 0.0 1.0
50.282000000000004 -134.46166666666667 1996.8933333333334 -0.6059167628165869 -0.7457766496672126 0.2769152674538112
60.046600000000005 -133.61333333333334 2092.31 0.0 0.0 1.0
60.046600000000005 -133.61333333333334 2092.31 0.0 0.0 1.0
45.15996666666666 -114.67466666666667 1852.63 0.0 0.0 1.0
44.96099999999999 -112.80966666666666 1854.5500000000002 -0.8633872082306566 -2.989102899193044e-17 0.5045418998097907
40.888866666666665 -67.15153333333333 1813.33 0.0 0.0 1.0
40.56563333333333 -63.1111 1813.33 0.0 0.0 1.0
42.020199999999996 -62.141400000000004 1813.33 0.0 0.0 1.0
40.888866666666665 -57.45453333333333 1813.33 0.0 0.0 1.0
40.888866666666665 -57.45453333333333 1813.33 0.0 0.0 1.0
40.888866666666665 -55.67679999999999 1813.33 0.0 0.0 1.0
40.727266666666665 -49.535366666666675 1813.33 0.0 0.0 1.0
40.727266666666665 -49.535366666666675 1813.33 0.0 0.0 1.0
41.00703333333333 -42.61833333333333 1807.8499999999997 -2.3812308507879544e-26 -3.840684657368483e-27 1.0
41.00703333333333 -42.61833333333333 1807.8499999999997 -2.3812308507879544e-26 -3.840684657368483e-27 1.0
39.19943333333333 -32.55686666666667 1795.2066666666667 -0.9187162687204644 -0.3572844504560746 0.16825052466678356
41.490433333333335 -15.548866666666667 1807.8499999999997 0.0 0.0 1.0
40.845933333333335 -1.3695853333333332 1807.8499999999997 3.133464941800598e-27 -4.5381560165608926e-27 1.0
40.803200000000004 2.1686746666666665 1802.41 0.0 0.0 1.0
40.803200000000004 3.7751 1802.41 0.0 0.0 1.0
40.642566666666674 17.751 1802.41 0.0 0.0 1.0
40.48193333333333 18.39356666666667 1802.41 0.0 0.0 1.0
40.64256666666667 20.963866666666664 1802.41 0.0 0.0 1.0
39.40463333333333 40.20016666666666 1786.28 -0.9879972837664147 -0.00010857953562603844 0.15447121246585246
40.44043333333334 46.046033333333334 1797.0 0.0 0.0 1.0
40.120133333333335 46.846833333333336 1797.0 0.0 0.0 1.0
39.47946666666667 52.45246666666666 1797.0 0.0 0.0 1.0
39.92016666666667 58.36326666666667 1791.62 0.0 0.0 1.0
39.92016666666667 58.36326666666667 1791.62 0.0 0.0 1.0
38.12936666666666 73.79103333333335 1786.2699999999998 -2.2574352555199664e-27 3.718130018970598e-27 1.0
38.606966666666665 75.38306666666666 1786.2699999999998 0.0 0.0 1.0
36.69653333333333 84.61693333333334 1786.2699999999998 -2.7951763782210564e-28 3.3685684647267727e-28 1.0
53.97466666666666 105.93329999999999 1972.7666666666667 0.9789500037758672 -0.11517107138481533 0.16850078463705628
39.40463333333333 96.71843333333334 1786.28 -0.987997757115034 -4.825572943282991e-05 0.15446821552360443
51.207 122.846 1934.4866666666667 -0.2627327258960905 -0.9192094964121299 0.2933008974568068
49.98930000000001 126.64533333333334 1924.12 0.0 0.0 1.0
48.78886666666667 128.53166666666667 1924.12 0.0 0.0 1.0
39.68516666666667 128.68333333333334 1788.0733333333335 -0.9879727767743345 0.0017057812642536886 0.15461850685829906
59.04096666666666 -146.05866666666665 2099.65 0.0 0.0 1.0
50.282000000000004 -134.46166666666667 1996.8933333333334 -0.6059167628165869 -0.7457766496672125 0.2769152674538113
40.0 -107.56099999999999 1824.39 0.0 0.0 1.0
39.311033333333334 -104.478 1818.84 0.0 0.0 1.0
40.121566666666666 -98.96656666666667 1818.84 0.0 0.0 1.0
41.050533333333334 -92.04039999999999 1813.33 0.0 0.0 1.0
40.6079 -80.1621 1818.84 0.0 0.0 1.0
40.40403333333334 -54.060633333333335 1813.33 0.0 0.0 1.0
68.7568 -32.457 2213.5733333333333 -0.7454007151018929 0.4743417513713526 0.46837770744511803
41.212133333333334 -27.232333333333333 1813.33 0.0 0.0 1.0
69.9529 -27.097800000000003 2210.846666666667 -0.7919341708421034 0.3695651066785886 0.48606779463185323
40.0 19.3574 1802.41 0.0 0.0 1.0
38.054966666666665 41.389700000000005 1782.7233333333334 -0.863484200167383 -0.43173303349052206 0.2607712097881338
38.83883333333333 53.0931 1797.0 0.0 0.0 1.0
39.6008 58.682633333333335 1791.62 0.0 0.0 1.0
37.3016 84.04763333333334 1780.95 0.0 0.0 1.0
37.77776666666666 90.55556666666666 1780.95 0.0 0.0 1.0
37.777766666666665 93.88889999999999 1780.95 0.0 0.0 1.0
37.545566666666666 101.94266666666668 1777.43 0.5260124993666169 -0.7886311608925046 0.31838929407162125
48.784533333333336 129.04433333333336 1913.8633333333335 -0.7547347737964579 -0.5031182405370809 0.42100766888654356
38.57306666666667 127.702 1780.9633333333334 -0.9879978219065468 0.00026067223029055576 0.154467588697136
59.04096666666666 -154.292 2099.65 0.0 0.0 1.0
59.04096666666667 -154.292 2099.65 0.0 0.0 1.0
59.41523333333333 -147.55566666666667 2099.65 0.0 0.0 1.0
39.87943333333334 -110.95333333333333 1837.4633333333331 -0.7016407285170218 -0.7013549278129423 0.12570422951756857
40.6079 -80.1621 1818.84 0.0 0.0 1.0
39.75756666666667 -76.36363333333334 1813.33 0.0 0.0 1.0
40.40403333333333 -57.616133333333345 1813.33 0.0 0.0 1.0
40.40403333333334 -54.06063333333333 1813.33 0.0 0.0 1.0
40.40403333333334 -54.060633333333335 1813.33 0.0 0.0 1.0
39.59596666666667 -47.434333333333335 1813.33 0.0 0.0 1.0
39.3958 -37.62336666666667 1807.8499999999997 6.050115346228487e-27 2.5932131055905952e-27 1.0
39.75756666666667 -20.606066666666667 1813.33 0.0 0.0 1.0
35.635666666666665 -15.295296666666667 1797.0 0.0 0.0 1.0
39.87916666666666 -1.69184 1807.8499999999997 0.0 -1.0 0.0
40.362566666666666 7.331316666666666 1807.8499999999997 -1.0804011473250182e-28 -3.2410805129162342e-28 1.0
39.8792 7.975830000000001 1807.8499999999997 1.0 0.0 0.0
40.362566666666666 8.136956666666668 1807.8499999999997 8.066732989602411e-27 6.914090539158434e-27 1.0
40.0 20.160633333333333 1802.41 0.0 0.0 1.0
39.363433333333326 37.371199999999995 1788.0533333333333 -0.9693164389612221 0.12116138377028414 0.2138821176311973
38.6787 37.877900000000004 1797.0 0.0 0.0 1.0
39.31933333333333 47.64763333333334 1797.0 0.0 0.0 1.0
38.163666666666664 51.81636666666666 1791.62 0.0 0.0 1.0
38.4478 67.90050000000001 1786.2699999999998 1.0 0.0 0.0
38.4478 67.90050000000001 1786.2699999999998 1.0 0.0 0.0
38.4478 67.90050000000001 1786.2699999999998 1.0 0.0 0.0
37.777766666666665 90.55556666666666 1780.95 0.0 0.0 1.0
36.32046666666667 101.04833333333333 1775.67 0.0 0.0 1.0
36.47873333333334 109.59433333333334 1775.67 0.0 0.0 1.0
37.746433333333336 126.05900000000001 1775.6766666666665 -0.9880402718702592 0.0006134383177427801 0.15419482759150724
59.04096666666667 -154.292 2099.65 0.0 0.0 1.0
59.228100000000005 -146.99433333333334 2099.65 0.0 0.0 1.0
59.04096666666666 -146.05866666666668 2099.65 0.0 0.0 1.0
57.356766666666665 -142.316 2099.65 0.0 0.0 1.0
59.300666666666665 -133.61333333333332 2092.31 0.0 0.0 1.0
40.121566666666666 -98.96656666666667 1818.84 0.0 0.0 1.0
40.8889 -91.2323 1813.33 0.0 0.0 1.0
39.14893333333333 -85.18746666666667 1818.84 0.0 0.0 1.0
40.6079 -80.1621 1818.84 0.0 0.0 1.0
39.75756666666667 -76.36363333333334 1813.33 0.0 0.0 1.0
37.90993333333333 -64.18096666666666 1802.42 -0.26091891051853455 0.9122439494952799 0.3158042095081605
40.40403333333333 -57.93936666666667 1813.33 0.0 0.0 1.0
39.59596666666667 -48.72726666666667 1813.33 0.0 0.0 1.0
39.3958 -37.62336666666667 1807.8499999999997 6.050115346228487e-27 2.5932131055905952e-27 1.0
39.75756666666667 -20.606066666666667 1813.33 0.0 0.0 1.0
39.87916666666666 -7.009066666666667 1807.8499999999997 -3.4143813947967996e-28 -1.7071318348428915e-28 1.0
38.7602 5.673216666666666 1793.4133333333332 0.9395122929974907 -0.2890702611159273 0.1837254349429244
37.751 10.200803333333333 1802.41 0.0 0.0 1.0
36.14873333333333 14.698866666666666 1782.7233333333334 -0.08718362018356998 -0.8718178936416275 0.48200889690747717
36.420233333333336 15.031266666666667 1784.4966666666667 0.28313325248757004 -0.8494195182983125 0.4453336314154505
38.6787 37.877900000000004 1797.0 0.0 0.0 1.0
36.493 40.74916666666666 1768.67 -0.8844869107203588 -0.44229016957327144 0.1485338704242342
38.6787 48.6086 1797.0 0.0 0.0 1.0
38.83883333333333 53.0931 1797.0 0.0 0.0 1.0
37.81093333333333 66.78606666666666 1786.2699999999998 -4.106937749264745e-27 -4.532089406387788e-27 1.0
36.9247 124.419 1770.4233333333334 -0.9879877689990636 -0.0007588966036967814 0.1545302312953614
57.46253333333333 -135.13199999999998 2089.8799999999997 -0.8236192421229586 0.5491940226527906 -0.14155306244391044
38.694966666666666 -110.12366666666667 1831.8400000000001 -0.48301284398945843 -0.8692454683597829 -0.10540829320882011
38.18293333333333 -79.19096666666667 1811.5033333333333 0.5347885163822951 -0.7130513551763946 0.45338615729500475
39.75756666666667 -76.36363333333334 1813.33 0.0 0.0 1.0
38.98683333333333 -69.1388 1818.84 0.0 0.0 1.0
38.949466666666666 -64.56566666666667 1813.33 0.0 0.0 1.0
38.949466666666666 -64.56566666666667 1813.33 0.0 0.0 1.0
36.0259 -61.3833 1800.6066666666666 0.5696783727765269 0.807041898747427 0.1554024621968276
38.1763 -61.19553333333334 1818.84 0.0 0.0 1.0
39.434333333333335 -51.798 1813.33 0.0 0.0 1.0
39.3958 -37.62336666666667 1807.8499999999997 6.0501153462284894e-27 2.5932131055905974e-27 1.0
39.27273333333333 -24.484866666666665 1813.33 0.0 0.0 1.0
39.75756666666667 -20.606066666666667 1813.33 0.0 0.0 1.0
34.786033333333336 -17.273633333333333 1786.2699999999998 -7.965196126191754e-29 2.4737472524022635e-28 1.0
34.786033333333336 -17.273633333333333 1786.2699999999998 -7.965196126191736e-29 2.4737472524022604e-28 1.0
38.590133333333334 -1.85297 1807.8499999999997 0.0 0.0 1.0
37.82723333333333 15.692733333333331 1806.0366666666666 -0.22562250838900666 0.9024433594748518 0.3670019981525931
34.257200000000005 29.828266666666668 1775.6766666666665 0.44661395969457046 -0.8931006443605922 -0.05391855013472961
38.6787 37.877900000000004 1797.0 0.0 0.0 1.0
36.493 40.74916666666667 1768.67 -0.8844869107203589 -0.44229016957327116 0.1485338704242342
35.345166666666664 42.209066666666665 1770.41 0.0 0.0 1.0
38.48303333333333 43.033899999999996 1791.62 0.0 0.0 1.0
37.877900000000004 49.409400000000005 1797.0 0.0 0.0 1.0
38.83883333333333 53.0931 1797.0 0.0 0.0 1.0
37.0149 78.08953333333334 1786.2699999999998 -8.263370002071039e-27 2.360874585913259e-27 1.0
37.3016 84.04763333333334 1780.95 0.0 0.0 1.0
36.82543333333333 87.06349999999999 1780.95 0.0 0.0 1.0
36.98416666666666 88.49206666666664 1780.95 0.0 0.0 1.0
36.13413333333333 112.74133333333333 1770.41 0.0 0.0 1.0
36.13413333333333 112.74133333333333 1770.41 0.0 0.0 1.0
35.818533333333335 114.95066666666668 1770.41 0.0 0.0 1.0
36.107800000000005 123.26666666666667 1765.2 -0.9879757325495865 -3.153812564987399e-05 0.15460902592816067
59.04096666666666 -149.2396666666667 2099.65 0.0 0.0 1.0
53.3333 -135.238 2035.37 0.0 0.0 1.0
58.36826666666667 -134.17266666666666 2092.31 0.0 0.0 1.0
55.3846 -129.32399999999998 2092.31 0.0 0.0 1.0
40.0 -107.56099999999999 1824.39 0.0 0.0 1.0
38.986799999999995 -101.7224 1818.84 0.0 0.0 1.0
39.14893333333333 -98.96656666666667 1818.84 0.0 0.0 1.0
38.50046666666666 -94.91386666666666 1818.84 0.0 0.0 1.0
38.6626 -94.26543333333332 1818.84 0.0 0.0 1.0
39.14893333333333 -85.18746666666667 1818.84 0.0 0.0 1.0
38.8247 -69.78723333333333 1818.84 0.0 0.0 1.0
38.98683333333333 -69.1388 1818.84 0.0 0.0 1.0
38.1763 -61.19553333333334 1818.84 0.0 0.0 1.0
39.27273333333333 -50.18183333333334 1813.33 0.0 0.0 1.0
39.27273333333334 -45.97976666666667 1813.33 0.0 0.0 1.0
38.30303333333333 -45.171699999999994 1813.33 0.0 0.0 1.0
40.523666666666664 -31.661633333333338 1807.8499999999997 -9.684953118949746e-27 -1.388481124409694e-26 1.0
38.590133333333334 -1.85297 1807.8499999999997 0.0 0.0 1.0
38.590133333333334 -1.85297 1807.8499999999997 0.0 0.0 1.0
36.7985 2.4793633333333336 1795.2066666666667 0.795358169949212 -0.5567407869193691 0.23967702784255795
37.751 10.200803333333333 1802.41 0.0 0.0 1.0
35.59886666666667 14.9828 1779.1899999999998 0.08214090416134336 0.8213917923685473 0.5644186347855131
37.91166666666667 22.409666666666666 1802.41 0.0 0.0 1.0
37.91166666666667 23.212866666666667 1802.41 0.0 0.0 1.0
37.91166666666667 23.212866666666667 1802.41 0.0 0.0 1.0
34.04023333333333 29.143066666666666 1772.1633333333332 -0.6482859736908251 0.7563279297322129 0.08771179523144913
38.48303333333333 45.7485 1791.62 0.0 0.0 1.0
37.55753333333333 46.52653333333333 1797.0 0.0 0.0 1.0
37.55753333333333 46.52653333333333 1797.0 0.0 0.0 1.0
36.39256666666666 57.64166666666667 1779.1899999999998 -0.9992334812887036 0.0356877130035085 0.016088412359126707
37.6112 59.521566666666665 1788.0533333333333 -0.6843906552337244 -0.6843906552337045 0.2514336136190505
37.21723333333333 65.92583333333333 1784.4966666666667 -0.852960670464317 -0.42645801226250724 0.30098448202220307
37.01493333333333 67.5821 1786.2699999999998 -5.8163231820025475e-18 -1.744957846464623e-17 1.0
36.247499999999995 69.22156666666666 1791.62 0.0 0.0 1.0
37.014900000000004 78.08953333333334 1786.2699999999998 1.6526740004142078e-26 -4.721749171826518e-27 1.0
36.8254 89.76190000000001 1780.95 0.0 0.0 1.0
34.737899999999996 94.08506666666666 1775.67 0.0 0.0 1.0
36.32046666666667 101.04833333333333 1775.67 0.0 0.0 1.0
35.345166666666664 104.37866666666667 1770.41 0.0 0.0 1.0
36.47873333333333 109.59433333333332 1775.67 0.0 0.0 1.0
35.818533333333335 114.95066666666668 1770.41 0.0 0.0 1.0
35.976333333333336 116.52866666666667 1770.41 0.0 0.0 1.0
34.35293333333334 120.86266666666667 1760.0 0.0 0.0 1.0
42.60176666666667 -134.12733333333333 1915.9066666666668 0.8467478186669153 0.5210413868428104 0.10739648401945638
57.356766666666665 -142.316 2099.65 0.0 0.0 1.0
52.5366 -132.99699999999999 2068.21 -0.5543509946598478 -0.831351302059179 -0.03936987787820949
38.2822 -109.85666666666667 1835.58 0.0 0.0 1.0
40.0 -107.56099999999999 1824.39 0.0 0.0 1.0
38.6626 -103.34333333333335 1818.84 0.0 0.0 1.0
38.3384 -90.53696666666667 1818.84 0.0 0.0 1.0
37.852066666666666 -83.40426666666667 1818.84 0.0 0.0 1.0
38.1414 -64.0808 1813.33 0.0 0.0 1.0
37.65653333333333 -35.1515 1813.33 0.0 0.0 1.0
37.3333 -32.0808 1813.33 0.0 0.0 1.0
36.42413333333334 -28.8657 1804.2233333333334 -0.5546989546246472 -0.832048431936971 -0.002115809431702684
35.75333333333334 -26.696366666666666 1798.8033333333333 0.4713684162069602 0.7856085768466482 0.4007879491545697
38.46463333333333 -13.0101 1813.33 0.0 0.0 1.0
39.71803333333333 -7.492450000000001 1807.8499999999997 -4.142719691536441e-28 -4.4125594442143195e-28 1.0
37.14000000000001 3.6253766666666665 1807.8499999999997 4.485798232513863e-27 -1.8918984228628213e-28 1.0
81.0095 9.543503333333334 2261.0066666666667 -4.745204883093451e-05 0.87187547096628 0.48972763948508213
36.30526666666667 16.465866666666667 1802.41 0.0 0.0 1.0
37.59036666666667 23.052233333333334 1802.41 0.0 0.0 1.0
36.3492 43.25396666666666 1780.95 0.0 0.0 1.0
36.916900000000005 47.167166666666674 1797.0 0.0 0.0 1.0
35.55556666666667 47.22223333333333 1780.95 0.0 0.0 1.0
36.8128 60.47963333333333 1788.0533333333333 -0.6728597397065565 -0.672859739706545 0.3074403053668558
38.802366666666664 60.91816666666667 1791.62 0.0 0.0 1.0
37.014900000000004 78.08953333333334 1786.2699999999998 1.6526740004142078e-26 -4.721749171826518e-27 1.0
36.82543333333333 85.79366666666665 1780.95 0.0 0.0 1.0
36.3492 94.84126666666667 1780.95 0.0 0.0 1.0
35.502966666666666 114.47733333333333 1770.41 0.0 0.0 1.0
35.976333333333336 116.52866666666667 1770.41 0.0 0.0 1.0
34.35293333333334 120.86266666666667 1760.0 0.0 0.0 1.0
57.356766666666665 -143.626 2099.65 0.0 0.0 1.0
38.6626 -103.34333333333332 1818.84 0.0 0.0 1.0
39.14893333333333 -98.96656666666667 1818.84 0.0 0.0 1.0
38.3384 -90.53696666666667 1818.84 0.0 0.0 1.0
38.3384 -90.53696666666667 1818.84 0.0 0.0 1.0
37.852066666666666 -83.40426666666667 1818.84 0.0 0.0 1.0
37.52786666666666 -78.05473333333333 1818.84 0.0 0.0 1.0
38.98683333333333 -69.1388 1818.84 0.0 0.0 1.0
36.3204 -48.40026666666666 1795.2066666666667 -0.7013911623178385 0.7013911623178406 0.12688922272935596
37.979800000000004 -43.87876666666667 1813.33 0.0 0.0 1.0
