ply
format ascii 1.0
comment VCGLIB generated
element vertex 816
property float x
property float y
property float z
property float nx
property float ny
property float nz
element face 0
property list uchar int vertex_indices
end_header
-101.74233333333332 -99.32646666666666 2085.02 0.0 0.0 1.0
-101.18466666666667 -96.16723333333334 2085.02 0.0 0.0 1.0
-101.37033333333333 -95.23809999999999 2085.02 0.0 0.0 1.0
-101.18466666666667 -88.91986666666666 2085.02 0.0 0.0 1.0
-101.74233333333332 -82.04416666666667 2085.02 0.0 0.0 1.0
-100.721 -60.270266666666664 2021.62 0.0 0.0 1.0
-107.36200000000001 -73.39133333333332 2601.74 0.0 0.0 1.0
-100.30963333333334 -50.443733333333334 1852.63 0.0 0.0 1.0
-100.93299999999999 -50.876 2042.32 0.0 0.0 1.0
-101.479 -46.50736666666666 2042.32 0.0 0.0 1.0
-101.66099999999999 -45.233200000000004 2042.32 0.0 0.0 1.0
-100.569 -39.59043333333334 2042.32 0.0 0.0 1.0
-102.62066666666668 -36.13796666666667 2063.45 0.0 0.0 1.0
-100.569 -36.314 2042.32 0.0 0.0 1.0
-106.66633333333334 -37.21736666666666 2601.74 0.0 0.0 1.0
-99.48403333333333 -17.42 1852.63 0.0 0.0 1.0
-99.48413333333333 -12.796700000000001 1852.63 0.0 0.0 1.0
-99.31903333333332 -10.8153 1852.63 0.0 0.0 1.0
-98.80446666666667 6.403243333333333 1818.84 0.0 0.0 1.0
-98.80446666666667 6.403243333333333 1818.84 0.0 0.0 1.0
-98.96656666666667 9.48328 1818.84 0.0 0.0 1.0
-107.82600000000001 18.898533333333333 2601.74 0.0 0.0 1.0
-98.79519999999998 12.931733333333332 1802.41 0.0 0.0 1.0
-98.63453333333332 14.538166666666667 1802.41 0.0 0.0 1.0
-98.63456666666666 15.662666666666667 1802.41 0.0 0.0 1.0
-98.94530000000002 19.980100000000004 1786.2699999999998 -7.791022074016138e-26 -2.8330989360058554e-26 1.0
-98.94530000000002 22.3682 1786.2699999999998 -7.791022074016138e-26 -2.8330989360058554e-26 1.0
-98.62690000000002 23.164199999999997 1786.2699999999998 -3.541373670007202e-26 1.4165494680028623e-26 1.0
-99.1046 24.596999999999998 1786.2699999999998 -7.868071847954197e-28 -1.5739438533365612e-27 1.0
-106.43466666666666 41.15946666666667 2601.74 0.0 0.0 1.0
-96.41023333333334 25.817866666666664 1587.2699999999998 -7.624275152373394e-26 -2.466677255179569e-26 1.0
-96.41023333333334 25.817866666666664 1587.2699999999998 -7.624275152373394e-26 -2.466677255179569e-26 1.0
-106.43466666666666 44.637699999999995 2601.74 0.0 0.0 1.0
-96.96969999999999 31.586433333333332 1600.0 0.0 0.0 1.0
-96.6845 31.871666666666666 1600.0 0.0 0.0 1.0
-96.6845 31.871666666666666 1600.0 0.0 0.0 1.0
-94.36959999999999 32.81523333333333 1550.26 0.0 0.0 1.0
-96.26876666666668 35.15476666666667 1587.2699999999998 -7.534577797639259e-27 -4.305473027222488e-27 1.0
-96.69316666666667 36.7109 1587.2699999999998 -1.0090952407552955e-26 1.4575820144242944e-26 1.0
-96.83463333333333 46.896566666666665 1587.2699999999998 1.076317545317269e-27 -1.075979459434978e-27 1.0
-95.04596666666667 41.53906666666666 1329.79 -0.8125710034306011 0.40634250824002704 0.41786855634396525
-93.27013333333333 46.44546666666667 1418.01 0.0 0.0 1.0
-97.3975 51.2656 1600.0 0.0 0.0 1.0
-107.594 85.44926666666667 2601.74 0.0 0.0 1.0
-96.9697 64.0998 1600.0 0.0 0.0 1.0
-96.6845 66.09626666666666 1600.0 0.0 0.0 1.0
-96.6845 66.09626666666668 1600.0 0.0 0.0 1.0
-96.5419 66.5241 1600.0 0.0 0.0 1.0
-99.01153333333333 89.2534 1887.7 0.0 0.0 1.0
-99.01153333333333 89.2534 1887.7 0.0 0.0 1.0
-102.29966666666667 -102.48566666666666 2085.02 0.0 0.0 1.0
-102.11399999999999 -101.92833333333334 2085.02 0.0 0.0 1.0
-93.70913333333334 -61.606966666666665 1507.3266666666666 -0.44476496683205674 0.822825145816245 0.3537554292040688
-101.74233333333332 -82.04416666666667 2085.02 0.0 0.0 1.0
-99.49426666666666 -79.17243333333334 2063.45 0.0 0.0 1.0
-100.23006666666667 -74.02296666666666 2063.45 0.0 0.0 1.0
-102.02499999999999 -67.25826666666666 2042.32 0.0 0.0 1.0
-102.02499999999999 -67.25826666666666 2042.32 0.0 0.0 1.0
-102.38900000000001 -63.61773333333333 2042.32 0.0 0.0 1.0
-102.38900000000001 -62.16153333333333 2042.32 0.0 0.0 1.0
-108.05799999999999 -65.97103333333332 2601.74 0.0 0.0 1.0
-102.62066666666665 -36.137966666666664 2063.45 0.0 0.0 1.0
-104.62033333333333 -38.1975 2192.0 0.44700442092047943 -0.8939480497260505 -0.032309937612717964
-108.57766666666667 -39.449666666666666 2122.04 0.6245438012137275 -0.7806854642957004 -0.02180014226822299
-106.66633333333334 -37.21736666666666 2601.74 0.0 0.0 1.0
-99.81436666666667 -18.740966666666665 1852.63 0.0 0.0 1.0
-99.63173333333333 -9.079753333333334 1835.58 0.0 0.0 1.0
-99.79540000000001 -5.1533766666666665 1835.58 0.0 0.0 1.0
-100.10163333333333 1.0537003333333332 1818.84 0.0 0.0 1.0
-99.29076666666667 4.13374 1818.84 0.0 0.0 1.0
-98.96656666666667 9.48328 1818.84 0.0 0.0 1.0
-99.2771 12.289166666666667 1802.41 0.0 0.0 1.0
-98.79519999999998 14.216866666666666 1802.41 0.0 0.0 1.0
-98.94530000000002 19.980100000000004 1786.2699999999998 -7.791022074016138e-26 -2.8330989360058554e-26 1.0
-98.94530000000002 19.9801 1786.2699999999998 -8.853434175018329e-26 -4.957923138010224e-26 1.0
-98.94530000000002 22.3682 1786.2699999999998 -7.791022074016138e-26 -2.8330989360058554e-26 1.0
-98.94530000000002 22.3682 1786.2699999999998 -7.791022074016138e-26 -2.8330989360058554e-26 1.0
-107.36200000000001 42.31886666666667 2601.74 0.0 0.0 1.0
-96.96969999999999 30.445600000000002 1600.0 0.0 0.0 1.0
-96.83463333333333 36.2865 1587.2699999999998 1.0090952407552955e-26 -1.4575820144242944e-26 1.0
-108.98566666666666 61.33336666666667 2601.74 0.0 0.0 1.0
-95.98583333333333 42.79396666666667 1587.2699999999998 5.60608467086248e-28 3.643955036060637e-27 1.0
-109.21733333333333 105.15933333333334 2601.74 0.0 0.0 1.0
-95.97149999999999 69.6613 1600.0 0.0 0.0 1.0
-97.5401 72.9412 1600.0 0.0 0.0 1.0
-106.66666666666667 120.69566666666667 2601.74 0.0 0.0 1.0
-106.66666666666667 120.69566666666667 2601.74 0.0 0.0 1.0
-96.8421 76.8421 1574.74 0.0 0.0 1.0
-107.82600000000001 128.81133333333335 2601.74 0.0 0.0 1.0
-102.67133333333334 -102.85733333333333 2085.02 0.0 0.0 1.0
-102.67133333333334 -102.85733333333333 2085.02 0.0 0.0 1.0
-97.27113333333334 -69.43006666666666 1550.26 0.0 0.0 1.0
-102.753 -86.91696666666667 2042.32 0.0 0.0 1.0
-91.48563333333334 -66.85176666666668 1781.1733333333332 -0.7017312415085858 0.6949243762203933 0.15701393576850384
-102.753 -86.91696666666667 2042.32 0.0 0.0 1.0
-88.09203333333333 -77.03383333333333 1719.57 4.116127135061172e-14 0.785172263359192 0.6192774150987616
-107.59433333333334 -100.52159999999999 2601.74 0.0 0.0 1.0
-103.663 -77.45163333333333 2042.32 0.0 0.0 1.0
-103.29899999999999 -71.08076666666666 2042.32 0.0 0.0 1.0
-102.02499999999999 -67.25826666666666 2042.32 0.0 0.0 1.0
-102.38900000000001 -63.61773333333334 2042.32 0.0 0.0 1.0
-102.38900000000001 -62.16153333333333 2042.32 0.0 0.0 1.0
-106.79200000000002 -75.22226666666666 2546.4733333333334 0.9225612454985417 0.3798979359619687 0.06751523202963548
-100.30963333333334 -50.443733333333334 1852.63 0.0 0.0 1.0
-99.95586666666668 -53.42159999999999 1981.46 0.0 0.0 1.0
-102.57099999999998 -44.32306666666667 2042.32 0.0 0.0 1.0
-103.47433333333333 -34.83566666666667 2107.04 0.0 0.0 1.0
-103.47433333333333 -34.83566666666667 2107.04 0.0 0.0 1.0
-103.22866666666665 -32.98486666666666 2085.02 0.0 0.0 1.0
-103.043 -32.6132 2085.02 0.0 0.0 1.0
-101.0 -24.75 1870.0 0.0 0.0 1.0
-100.64006666666667 -20.5573 1852.63 0.0 0.0 1.0
-99.81436666666667 -18.740966666666665 1852.63 0.0 0.0 1.0
-100.805 -16.429333333333332 1852.63 0.0 0.0 1.0
-100.47496666666666 -13.292066666666665 1852.63 0.0 0.0 1.0
-100.30963333333334 -10.8153 1852.63 0.0 0.0 1.0
-100.10136666666666 4.13374 1818.84 0.0 0.0 1.0
-100.241 9.718876666666667 1802.41 0.0 0.0 1.0
-99.759 10.200803333333333 1802.41 0.0 0.0 1.0
-99.59836666666666 11.807233333333334 1802.41 0.0 0.0 1.0
-99.59836666666666 11.807233333333334 1802.41 0.0 0.0 1.0
-99.88166666666666 29.7436 1770.41 0.0 0.0 1.0
-97.2549 31.301199999999998 1600.0 0.0 0.0 1.0
-97.2549 31.301199999999998 1600.0 0.0 0.0 1.0
-108.98566666666666 56.927533333333336 2601.74 0.0 0.0 1.0
-108.98566666666666 56.927533333333336 2601.74 0.0 0.0 1.0
-96.97609999999999 36.42796666666666 1587.2699999999998 3.4757724959348955e-26 -1.6818254012588247e-26 1.0
-97.82530000000001 40.998200000000004 1600.0 0.0 0.0 1.0
-97.82530000000001 40.998200000000004 1600.0 0.0 0.0 1.0
-97.82529999999998 43.42250000000001 1600.0 0.0 0.0 1.0
-98.2531 48.69876666666667 1600.0 0.0 0.0 1.0
-97.3975 51.2656 1600.0 0.0 0.0 1.0
-97.82529999999998 57.96790000000001 1600.0 0.0 0.0 1.0
-108.05799999999999 97.73913333333333 2601.74 0.0 0.0 1.0
-97.3975 62.531200000000005 1600.0 0.0 0.0 1.0
-108.75366666666667 107.01433333333334 2601.74 0.0 0.0 1.0
-97.6827 72.3708 1600.0 0.0 0.0 1.0
-97.5401 72.9412 1600.0 0.0 0.0 1.0
-83.1008 82.55816666666668 1739.53 0.0 0.0 1.0
-97.8249 74.76573333333333 1587.2699999999998 1.0017579398167438e-43 -2.6909206420139664e-26 1.0
-100.278 85.5105 1791.6500000000003 -3.4410624067256044e-16 -0.9988627546994004 0.047678058625800684
-97.27113333333334 -69.43006666666666 1550.26 0.0 0.0 1.0
-97.27113333333334 -69.43006666666666 1550.26 0.0 0.0 1.0
-103.29899999999999 -84.18656666666668 2042.32 0.0 0.0 1.0
-110.84066666666666 -104.92766666666667 2601.74 0.0 0.0 1.0
-102.38900000000001 -67.07623333333333 2042.32 0.0 0.0 1.0
-102.57100000000001 -66.53013333333332 2042.32 0.0 0.0 1.0
-103.90800000000002 -64.27586666666666 2063.45 0.0 0.0 1.0
-102.753 -62.889633333333336 2042.32 0.0 0.0 1.0
-103.117 -61.9795 2042.32 0.0 0.0 1.0
-101.26166666666666 -59.54953333333333 2021.62 0.0 0.0 1.0
-109.913 -73.62323333333335 2601.74 0.0 0.0 1.0
-103.29899999999999 -46.32533333333333 2042.32 0.0 0.0 1.0
-101.479 -39.4084 2042.32 0.0 0.0 1.0
-110.15366666666667 -47.4872 2301.54 0.0 0.0 1.0
-103.41466666666666 -32.6132 2085.02 0.0 0.0 1.0
-107.99016666666665 -22.545366666666666 1312.33 -0.03327148682190785 0.865149146669573 0.5004097942502419
-101.0 -24.75 1870.0 0.0 0.0 1.0
-101.16666666666667 -23.75 1870.0 0.0 0.0 1.0
-100.805 -16.429333333333336 1852.63 0.0 0.0 1.0
-100.28596666666665 -8.916153333333334 1835.58 0.0 0.0 1.0
-100.44963333333332 -8.425356666666667 1835.58 0.0 0.0 1.0
-100.10163333333333 0.24316266666666667 1818.84 0.0 0.0 1.0
-100.10163333333333 0.24316266666666667 1818.84 0.0 0.0 1.0
-100.10163333333333 1.8642366666666668 1818.84 0.0 0.0 1.0
-100.426 2.5126633333333337 1818.84 0.0 0.0 1.0
-100.75 2.9989833333333333 1818.84 0.0 0.0 1.0
-100.58800000000001 5.592706666666666 1818.84 0.0 0.0 1.0
-100.426 6.403243333333333 1818.84 0.0 0.0 1.0
-100.426 7.21378 1818.84 0.0 0.0 1.0
-100.426 7.21378 1818.84 0.0 0.0 1.0
-105.971 26.782633333333333 2601.74 0.0 0.0 1.0
-100.37833333333333 18.228866666666665 1786.2699999999998 6.73194779705622e-26 -4.958961446520782e-26 1.0
-100.21900000000001 19.0249 1786.2699999999998 -2.342744320858772e-25 -8.508205924168376e-26 1.0
-99.90050000000001 22.209 1786.2699999999998 0.0 -1.0 0.0
-99.74130000000001 25.0746 1786.2699999999998 0.0 -1.0 0.0
-100.5129 27.534499999999998 1770.41 0.0 0.0 1.0
-99.88166666666666 29.7436 1770.41 0.0 0.0 1.0
-108.28966666666668 53.21736666666667 2601.74 0.0 0.0 1.0
-98.39569999999999 35.436699999999995 1600.0 0.0 0.0 1.0
-97.82530000000001 43.42249999999999 1600.0 0.0 0.0 1.0
-97.82530000000001 43.42249999999999 1600.0 0.0 0.0 1.0
-98.39569999999999 45.704100000000004 1600.0 0.0 0.0 1.0
-98.2531 50.6952 1600.0 0.0 0.0 1.0
-97.82530000000001 51.123 1600.0 0.0 0.0 1.0
-109.217 88.23186666666668 2601.74 0.0 0.0 1.0
-109.217 88.23186666666668 2601.74 0.0 0.0 1.0
-109.217 88.23186666666668 2601.74 0.0 0.0 1.0
-97.82530000000001 57.96789999999999 1600.0 0.0 0.0 1.0
-97.82530000000001 57.96789999999999 1600.0 0.0 0.0 1.0
-98.1105 59.1087 1600.0 0.0 0.0 1.0
-97.82530000000001 61.10516666666666 1600.0 0.0 0.0 1.0
-98.10783333333335 68.5411 1587.2699999999998 -2.260373339291814e-26 3.2291047704169023e-27 1.0
-98.2493 69.3899 1587.2699999999998 -2.092938277122016e-26 5.9798236489199914e-27 1.0
-97.6827 72.3708 1600.0 0.0 0.0 1.0
-97.8249 74.76573333333333 1587.2699999999998 0.0 -2.6909206420139664e-26 1.0
-96.39813333333332 85.73133333333332 1786.2699999999998 8.26648530352267e-26 -7.187681593490374e-25 1.0
-109.681 128.116 2601.74 0.0 0.0 1.0
-104.092 -97.56323333333334 2063.45 0.0 0.0 1.0
-111.07233333333333 -113.971 2601.74 0.0 0.0 1.0
-103.29899999999999 -86.37086666666666 2042.32 0.0 0.0 1.0
-103.29899999999999 -84.18656666666668 2042.32 0.0 0.0 1.0
-103.29899999999999 -84.18656666666668 2042.32 0.0 0.0 1.0
-94.32860000000001 -75.5929 1755.2033333333331 0.7009306140349695 0.700953974330897 0.13175659443944676
-104.391 -78.90786666666666 2042.32 0.0 0.0 1.0
-103.663 -71.62683333333332 2042.32 0.0 0.0 1.0
-103.29899999999999 -71.08076666666666 2042.32 0.0 0.0 1.0
-103.84499999999998 -68.53243333333334 2042.32 0.0 0.0 1.0
-103.90800000000002 -64.27586666666666 2063.45 0.0 0.0 1.0
-109.913 -73.62323333333335 2601.74 0.0 0.0 1.0
-110.21466666666667 -71.7597 2568.24 0.0 0.0 1.0
-100.30963333333334 -50.44373333333334 1852.63 0.0 0.0 1.0
-110.60866666666665 -65.50723333333333 2601.74 0.0 0.0 1.0
-103.29899999999999 -46.32533333333333 2042.32 0.0 0.0 1.0
-103.29899999999999 -46.32533333333333 2042.32 0.0 0.0 1.0
-104.02699999999999 -43.23093333333333 2042.32 0.0 0.0 1.0
-103.47433333333333 -34.83566666666667 2107.04 0.0 0.0 1.0
-103.41466666666668 -32.799033333333334 2085.02 0.0 0.0 1.0
-101.5 -24.916666666666668 1870.0 0.0 0.0 1.0
-101.33333333333333 -24.416666666666668 1870.0 0.0 0.0 1.0
-101.30033333333334 -16.0991 1852.63 0.0 0.0 1.0
-100.30963333333334 -10.8153 1852.63 0.0 0.0 1.0
-100.77666666666666 -8.588956666666666 1835.58 0.0 0.0 1.0
-100.77696666666668 -4.989776666666667 1835.58 0.0 0.0 1.0
-101.074 4.295846666666667 1818.84 0.0 0.0 1.0
-101.074 4.295846666666667 1818.84 0.0 0.0 1.0
-100.723 12.771066666666668 1802.41 0.0 0.0 1.0
-100.69666666666667 19.6617 1786.2699999999998 -2.706751053979557e-26 -2.589379234505508e-26 1.0
-99.90050000000001 22.209 1786.2699999999998 0.0 -1.0 0.0
-99.74130000000001 25.0746 1786.2699999999998 0.0 -1.0 0.0
-100.5129 27.534499999999998 1770.41 0.0 0.0 1.0
-100.3549 29.743599999999997 1770.41 0.0 0.0 1.0
-109.913 56.23186666666667 2601.74 0.0 0.0 1.0
-98.39569999999999 35.4367 1600.0 0.0 0.0 1.0
-98.82350000000001 37.29056666666667 1600.0 0.0 0.0 1.0
-97.9679 42.852066666666666 1600.0 0.0 0.0 1.0
-98.6809 45.1337 1600.0 0.0 0.0 1.0
-98.2493 47.60393333333334 1587.2699999999998 1.0 0.0 0.0
-98.2493 47.60393333333334 1587.2699999999998 1.0 0.0 0.0
-98.2493 47.60393333333334 1587.2699999999998 1.0 0.0 0.0
-98.2531 48.69876666666667 1600.0 0.0 0.0 1.0
-98.1105 59.1087 1600.0 0.0 0.0 1.0
-110.60866666666668 104.69566666666667 2601.74 0.0 0.0 1.0
-110.60866666666668 104.69566666666667 2601.74 0.0 0.0 1.0
-98.67373333333335 70.2387 1587.2699999999998 -5.381136858229818e-26 -1.4350449662853558e-25 1.0
-97.8249 74.76573333333333 1587.2699999999998 -1.0017579398167438e-43 -2.6909206420139664e-26 1.0
-109.913 127.42033333333335 2601.74 0.0 0.0 1.0
-109.681 128.116 2601.74 0.0 0.0 1.0
-109.913 128.348 2601.74 0.0 0.0 1.0
-104.82766666666667 -100.32173333333333 2063.45 0.0 0.0 1.0
-104.092 -97.56323333333334 2063.45 0.0 0.0 1.0
-104.027 -86.37086666666666 2042.32 0.0 0.0 1.0
-110.84066666666666 -104.92766666666667 2601.74 0.0 0.0 1.0
-104.391 -77.8157 2042.32 0.0 0.0 1.0
-103.84499999999998 -72.719 2042.32 0.0 0.0 1.0
-108.52199999999999 -94.26086666666667 2601.74 0.0 0.0 1.0
-103.663 -71.62683333333332 2042.32 0.0 0.0 1.0
-103.84499999999998 -68.53243333333334 2042.32 0.0 0.0 1.0
-104.027 -67.98636666666665 2042.32 0.0 0.0 1.0
-104.209 -67.4403 2042.32 0.0 0.0 1.0
-117.168 -64.03593333333333 2241.2599999999998 0.45554051148685176 0.8318505733228533 0.3170291249345049
-106.01633333333332 -67.36353333333334 2085.02 0.0 0.0 1.0
-103.66300000000001 -61.79746666666667 2042.32 0.0 0.0 1.0
-104.027 -61.43343333333333 2042.32 0.0 0.0 1.0
-104.027 -61.43343333333333 2042.32 0.0 0.0 1.0
-109.913 -73.62323333333335 2601.74 0.0 0.0 1.0
-110.21466666666667 -71.7597 2568.24 0.0 0.0 1.0
-111.30433333333333 -64.3478 2601.74 0.0 0.0 1.0
-111.07266666666665 -63.1884 2601.74 0.0 0.0 1.0
-104.573 -43.95903333333333 2042.32 0.0 0.0 1.0
-104.71566666666666 -36.144 2085.02 0.0 0.0 1.0
-103.908 -38.712666666666664 2063.45 0.0 0.0 1.0
-110.15366666666667 -47.4872 2301.54 0.0 0.0 1.0
-101.83333333333333 -25.25 1870.0 0.0 0.0 1.0
-101.83333333333333 -25.25 1870.0 0.0 0.0 1.0
-102.45633333333332 -20.722400000000004 1852.63 0.0 0.0 1.0
-101.961 -13.7874 1852.63 0.0 0.0 1.0
-101.92200000000001 -5.8077700000000005 1835.58 0.0 0.0 1.0
-101.074 3.4853066666666668 1818.84 0.0 0.0 1.0
-101.074 4.295846666666667 1818.84 0.0 0.0 1.0
-101.84766666666667 7.148593333333333 1802.41 0.0 0.0 1.0
-101.687 9.718876666666667 1802.41 0.0 0.0 1.0
-101.17433333333332 16.4776 1786.2699999999998 5.774665669426349e-26 -1.0222732399725394e-26 1.0
-101.015 17.751233333333335 1786.2699999999998 -2.656308399969692e-27 5.310948439173136e-27 1.0
-100.3549 29.743599999999997 1770.41 0.0 0.0 1.0
-101.271 32.61 1754.84 0.0 0.0 1.0
-98.39569999999999 35.4367 1600.0 0.0 0.0 1.0
-98.82350000000001 37.29056666666667 1600.0 0.0 0.0 1.0
-110.84066666666666 65.0435 2601.74 0.0 0.0 1.0
-110.84066666666666 66.4348 2601.74 0.0 0.0 1.0
-111.07266666666665 67.8261 2601.74 0.0 0.0 1.0
-98.6809 45.1337 1600.0 0.0 0.0 1.0
-98.6809 45.1337 1600.0 0.0 0.0 1.0
-98.6809 49.4118 1600.0 0.0 0.0 1.0
-98.2531 50.6952 1600.0 0.0 0.0 1.0
-98.6809 57.3975 1600.0 0.0 0.0 1.0
-110.609 98.2029 2601.74 0.0 0.0 1.0
-98.10783333333335 68.5411 1587.2699999999998 -2.260373339291814e-26 3.2291047704169023e-27 1.0
-96.39813333333332 85.73133333333332 1786.2699999999998 8.26648530352267e-26 -7.187681593490374e-25 1.0
-110.377 128.57966666666667 2601.74 0.0 0.0 1.0
-110.377 128.57966666666667 2601.74 0.0 0.0 1.0
-105.37933333333335 -100.68966666666665 2063.45 0.0 0.0 1.0
-111.07233333333333 -113.971 2601.74 0.0 0.0 1.0
-104.20899999999999 -86.91696666666667 2042.32 0.0 0.0 1.0
-104.027 -86.37086666666666 2042.32 0.0 0.0 1.0
-104.573 -78.3618 2042.32 0.0 0.0 1.0
-104.391 -77.08760000000001 2042.32 0.0 0.0 1.0
-105.11933333333333 -76.54153333333333 2042.32 0.0 0.0 1.0
-104.209 -67.4403 2042.32 0.0 0.0 1.0
-103.90800000000002 -64.27586666666666 2063.45 0.0 0.0 1.0
-110.21466666666667 -71.7597 2568.24 0.0 0.0 1.0
-111.07233333333333 -70.3768 2601.74 0.0 0.0 1.0
-110.84033333333333 -68.28983333333333 2601.74 0.0 0.0 1.0
-110.60866666666668 -65.50723333333333 2601.74 0.0 0.0 1.0
-104.573 -43.95903333333333 2042.32 0.0 0.0 1.0
-104.391 -43.04893333333333 2042.32 0.0 0.0 1.0
-102.83333333333333 -27.75 1870.0 0.0 0.0 1.0
-102.45633333333332 -20.722400000000004 1852.63 0.0 0.0 1.0
-102.12566666666667 -16.0991 1852.63 0.0 0.0 1.0
-101.687 9.718876666666667 1802.41 0.0 0.0 1.0
-101.84766666666667 10.843373333333332 1802.41 0.0 0.0 1.0
-101.52633333333334 13.253 1802.41 0.0 0.0 1.0
-101.84766666666667 14.056199999999999 1802.41 0.0 0.0 1.0
-101.65199999999999 16.3184 1786.2699999999998 5.656718663513134e-26 7.070898329391381e-26 1.0
-101.49266666666666 19.820899999999998 1786.2699999999998 1.1790583769383766e-27 -4.7201851754261716e-27 1.0
-101.45966666666668 26.42996666666667 1770.41 0.0 0.0 1.0
-101.144 27.061133333333334 1770.41 0.0 0.0 1.0
-101.896 36.676433333333335 1754.84 0.0 0.0 1.0
-101.73966666666666 37.14566666666666 1754.84 0.0 0.0 1.0
-109.913 56.23186666666667 2601.74 0.0 0.0 1.0
-98.82350000000001 37.29056666666667 1600.0 0.0 0.0 1.0
-110.84066666666666 65.0435 2601.74 0.0 0.0 1.0
-98.6809 57.3975 1600.0 0.0 0.0 1.0
-97.68343333333333 65.99470000000001 1587.2699999999998 1.3680180657075182e-27 4.268992545470257e-28 1.0
-96.98246666666667 65.61403333333334 1574.74 0.0 0.0 1.0
-98.2531 73.0838 1600.0 0.0 0.0 1.0
-96.8421 76.8421 1574.74 0.0 0.0 1.0
-105.37933333333335 -100.68966666666667 2063.45 0.0 0.0 1.0
-112.92766666666667 -122.78266666666667 2601.74 0.0 0.0 1.0
-106.75766666666668 -95.65416666666665 2042.32 0.0 0.0 1.0
-112.92766666666667 -112.34766666666667 2601.74 0.0 0.0 1.0
-112.23200000000001 -109.33333333333333 2601.74 0.0 0.0 1.0
-112.23200000000001 -109.33333333333333 2601.74 0.0 0.0 1.0
-105.66566666666667 -80.54606666666666 2042.32 0.0 0.0 1.0
-104.573 -78.3618 2042.32 0.0 0.0 1.0
-104.93733333333334 -69.26053333333333 2042.32 0.0 0.0 1.0
-104.391 -68.1684 2042.32 0.0 0.0 1.0
-105.84766666666667 -59.0671 2042.32 0.0 0.0 1.0
-111.76833333333333 -62.49276666666666 2601.74 0.0 0.0 1.0
-105.11933333333333 -43.41296666666667 2042.32 0.0 0.0 1.0
-104.93700000000001 -42.684866666666665 2042.32 0.0 0.0 1.0
-103.908 -38.712666666666664 2063.45 0.0 0.0 1.0
-104.158 -33.542366666666666 2085.02 0.0 0.0 1.0
-103.0 -28.25 1870.0 0.0 0.0 1.0
-102.83333333333333 -27.75 1870.0 0.0 0.0 1.0
-102.78633333333333 -16.0991 1852.63 0.0 0.0 1.0
-103.231 -11.533700000000001 1835.58 0.0 0.0 1.0
-102.24933333333333 -3.5173833333333335 1835.58 0.0 0.0 1.0
-102.371 1.2158076666666666 1818.84 0.0 0.0 1.0
-102.371 1.2158076666666666 1818.84 0.0 0.0 1.0
-102.533 1.5400233333333333 1818.84 0.0 0.0 1.0
-102.533 2.026343333333333 1818.84 0.0 0.0 1.0
-101.84766666666667 7.148593333333333 1802.41 0.0 0.0 1.0
-101.84766666666667 7.148593333333333 1802.41 0.0 0.0 1.0
-102.32966666666665 9.718876666666667 1802.41 0.0 0.0 1.0
-101.52633333333334 13.253 1802.41 0.0 0.0 1.0
-102.28866666666666 17.273600000000002 1786.2699999999998 2.4745183140169263e-26 -7.070893369571155e-27 1.0
-101.45966666666668 26.42996666666667 1770.41 0.0 0.0 1.0
-101.61733333333332 28.954633333333334 1770.41 0.0 0.0 1.0
-101.89666666666666 32.4536 1754.84 0.0 0.0 1.0
-101.74033333333334 32.9228 1754.84 0.0 0.0 1.0
-111.07266666666665 67.8261 2601.74 0.0 0.0 1.0
-100.26976666666667 44.06113333333334 1612.9399999999998 -6.067860081535719e-26 1.0403138185396037e-25 1.0
-98.6737 44.06716666666667 1587.2699999999998 2.0929382771219784e-26 3.587894189351954e-26 1.0
-99.0981 45.340399999999995 1587.2699999999998 -5.781247686230746e-26 2.990193625763041e-26 1.0
-113.15933333333334 80.11596666666667 2601.74 0.0 0.0 1.0
-98.6737 48.5942 1587.2699999999998 8.371753108488115e-26 5.381841284028009e-26 1.0
-111.30433333333333 86.60866666666668 2601.74 0.0 0.0 1.0
-97.25903333333333 54.67726666666667 1587.2699999999998 0.0 0.0 1.0
-110.60866666666668 104.69566666666667 2601.74 0.0 0.0 1.0
-96.98246666666667 65.61403333333334 1574.74 0.0 0.0 1.0
-100.95 85.00146666666666 1780.9833333333336 0.0 -0.9988637590933778 0.04765701175951821
-105.37933333333335 -100.68966666666667 2063.45 0.0 0.0 1.0
-112.92766666666667 -122.78266666666667 2601.74 0.0 0.0 1.0
-112.69566666666667 -111.42033333333332 2601.74 0.0 0.0 1.0
-112.69566666666667 -109.33333333333333 2601.74 0.0 0.0 1.0
-113.39133333333335 -107.24666666666667 2601.74 0.0 0.0 1.0
-105.66566666666665 -80.54606666666666 2042.32 0.0 0.0 1.0
-105.84766666666667 -69.8066 2042.32 0.0 0.0 1.0
-106.01633333333332 -67.36353333333334 2085.02 0.0 0.0 1.0
-107.12819999999999 -69.16263333333335 2442.693333333333 -0.4005076019180196 -0.915404644688412 -0.04034844840585014
-104.867 -44.09 1835.58 0.0 0.0 1.0
-111.76833333333333 -62.49276666666666 2601.74 0.0 0.0 1.0
-105.11933333333333 -43.95903333333333 2042.32 0.0 0.0 1.0
-104.56366666666668 -31.04103333333333 1887.7 0.0 0.0 1.0
-103.0 -28.25 1870.0 0.0 0.0 1.0
-103.447 -23.5294 1852.63 0.0 0.0 1.0
-103.447 -23.5294 1852.63 0.0 0.0 1.0
-103.11666666666667 -21.052633333333333 1852.63 0.0 0.0 1.0
-102.78633333333333 -16.0991 1852.63 0.0 0.0 1.0
-103.231 -12.1881 1835.58 0.0 0.0 1.0
-103.231 -11.533700000000001 1835.58 0.0 0.0 1.0
-102.74000000000001 -6.789363333333333 1835.58 0.0 0.0 1.0
-102.24933333333333 -3.5173833333333335 1835.58 0.0 0.0 1.0
-103.18133333333333 -1.3779143333333332 1818.84 0.0 0.0 1.0
-102.85700000000001 -0.8915913333333333 1818.84 0.0 0.0 1.0
-103.18133333333333 -0.40526833333333334 1818.84 0.0 0.0 1.0
-102.533 1.5400233333333333 1818.84 0.0 0.0 1.0
-107.59433333333334 10.550733333333334 2601.74 0.0 0.0 1.0
-102.65066666666667 11.3253 1802.41 0.0 0.0 1.0
-109.681 19.8261 2601.74 0.0 0.0 1.0
-102.28866666666666 17.273600000000002 1786.2699999999998 2.4745183140169263e-26 -7.070893369571155e-27 1.0
-102.448 17.4328 1786.2699999999998 1.0 0.0 0.0
-102.448 17.910433333333334 1786.2699999999998 1.0 0.0 0.0
-102.448 18.54726666666667 1786.2699999999998 1.0 0.0 0.0
-102.76633333333332 19.0249 1786.2699999999998 1.3285899663058464e-26 5.313543802883066e-27 1.0
-109.21733333333333 40.000033333333334 2601.74 0.0 0.0 1.0
-102.40633333333334 28.796833333333336 1770.41 0.0 0.0 1.0
-102.20933333333333 33.5484 1754.84 0.0 0.0 1.0
-102.79066666666667 38.68216666666667 1739.53 0.0 0.0 1.0
-100.26976666666667 44.06113333333334 1612.9399999999998 -6.067860081535722e-26 1.0403138185396041e-25 1.0
-100.70100000000001 45.78616666666667 1612.9399999999998 -1.7394255348459636e-26 -1.3033592563225615e-26 1.0
-113.15966666666667 83.5942 2601.74 0.0 0.0 1.0
-112.464 85.44926666666667 2601.74 0.0 0.0 1.0
-94.41876666666667 50.82343333333333 1511.1333333333332 0.5273617800265458 0.494406754426985 0.6909786640296559
-110.609 98.2029 2601.74 0.0 0.0 1.0
-100.22966666666666 70.6631 1587.2699999999998 2.696000245682444e-26 0.0 1.0
-100.23 73.06803333333333 1587.2699999999998 0.0 0.0 1.0
-99.947 73.63393333333333 1587.2699999999998 1.0 0.0 0.0
-100.37133333333334 74.19983333333333 1587.2699999999998 -3.9878018446881045e-27 -2.9900293016185303e-27 1.0
-111.30466666666666 128.57966666666667 2601.74 0.0 0.0 1.0
-113.15933333333334 -109.56533333333334 2601.74 0.0 0.0 1.0
-113.15933333333334 -108.86966666666667 2601.74 0.0 0.0 1.0
-113.623 -108.406 2601.74 0.0 0.0 1.0
-106.394 -80.18203333333334 2042.32 0.0 0.0 1.0
-105.84766666666667 -75.6314 2042.32 0.0 0.0 1.0
-107.31733333333334 -62.53196666666667 2085.02 0.0 0.0 1.0
-105.84766666666667 -59.0671 2042.32 0.0 0.0 1.0
-106.57600000000001 -58.8851 2042.32 0.0 0.0 1.0
-114.087 -64.11593333333333 2601.74 0.0 0.0 1.0
-115.31533333333334 -45.3153 2021.62 0.0 0.0 1.0
-106.57766666666667 -38.8687 2208.18 0.4462891240979674 -0.8925175533606162 0.06510326147781476
-113.855 -47.4203 2601.74 0.0 0.0 1.0
-103.94200000000001 -22.208466666666666 1852.63 0.0 0.0 1.0
-103.61200000000001 -21.713099999999997 1852.63 0.0 0.0 1.0
-104.43733333333334 -19.5666 1852.63 0.0 0.0 1.0
-102.95166666666667 -14.613 1852.63 0.0 0.0 1.0
-102.57633333333332 -7.60736 1835.58 0.0 0.0 1.0
-103.82966666666668 -5.592706666666667 1818.84 0.0 0.0 1.0
-103.13266666666665 7.791163333333333 1802.41 0.0 0.0 1.0
-103.13266666666665 9.87952 1802.41 0.0 0.0 1.0
-103.35333333333334 24.06313333333333 1770.41 0.0 0.0 1.0
-103.03733333333332 30.532533333333333 1770.41 0.0 0.0 1.0
-102.991 31.202299999999997 1754.84 0.0 0.0 1.0
-102.20933333333333 31.82796666666667 1754.84 0.0 0.0 1.0
-100.26976666666667 44.06113333333334 1612.9399999999998 -6.067860081535727e-26 1.0403138185396048e-25 1.0
-100.70100000000001 45.78616666666667 1612.9399999999998 -1.7394255348459636e-26 -1.3033592563225613e-26 1.0
-95.29226666666666 45.05526666666666 1418.01 0.0 0.0 1.0
-113.855 81.27536666666667 2601.74 0.0 0.0 1.0
-101.10533333333332 53.8324 1600.0 0.0 0.0 1.0
-101.248 61.390366666666665 1600.0 0.0 0.0 1.0
-100.65433333333333 69.53136666666667 1587.2699999999998 3.285851961399126e-27 -1.091838833486772e-27 1.0
-100.67766666666667 71.51513333333334 1600.0 0.0 0.0 1.0
-100.82 71.94296666666666 1600.0 0.0 0.0 1.0
-100.37133333333334 72.3607 1587.2699999999998 -5.977944974307683e-27 -5.983580113923941e-27 1.0
-100.79566666666666 76.60480000000001 1587.2699999999998 -3.585641194570534e-26 7.175788378703904e-26 1.0
-100.79566666666666 76.60480000000001 1587.2699999999998 -3.585641194570534e-26 7.175788378703904e-26 1.0
-112.92766666666667 -122.78266666666667 2601.74 0.0 0.0 1.0
-108.432 -92.8223 2085.02 0.0 0.0 1.0
-106.29866666666668 -93.88506666666666 2063.45 0.0 0.0 1.0
-114.551 -112.57933333333334 2601.74 0.0 0.0 1.0
-113.623 -108.406 2601.74 0.0 0.0 1.0
-113.62333333333333 -107.24666666666667 2601.74 0.0 0.0 1.0
-106.94 -81.6382 2042.32 0.0 0.0 1.0
-106.394 -81.09213333333334 2042.32 0.0 0.0 1.0
-115.24633333333334 -100.05806666666666 2601.74 0.0 0.0 1.0
-106.94 -74.72126666666666 2042.32 0.0 0.0 1.0
-107.30399999999999 -70.89873333333333 2042.32 0.0 0.0 1.0
-106.394 -69.62456666666667 2042.32 0.0 0.0 1.0
-106.394 -69.62456666666667 2042.32 0.0 0.0 1.0
-107.68866666666666 -68.47853333333335 2085.02 0.0 0.0 1.0
-107.31700000000001 -67.7352 2085.02 0.0 0.0 1.0
-107.503 -63.64693333333333 2085.02 0.0 0.0 1.0
-107.503 -63.64693333333333 2085.02 0.0 0.0 1.0
-115.01466666666666 -67.5942 2601.74 0.0 0.0 1.0
-114.087 -64.11593333333333 2601.74 0.0 0.0 1.0
-115.01433333333334 -57.6232 2601.74 0.0 0.0 1.0
-105.84766666666667 -42.68483333333334 2042.32 0.0 0.0 1.0
-107.122 -40.500566666666664 2042.32 0.0 0.0 1.0
-114.78266666666667 -47.88406666666666 2601.74 0.0 0.0 1.0
-113.855 -47.4203 2601.74 0.0 0.0 1.0
-110.22966666666667 -46.343399999999995 2216.36 0.9794941443414436 -0.1959185901093663 0.04698007290736412
-104.56366666666668 -31.04103333333333 1887.7 0.0 0.0 1.0
-103.16666666666667 -26.25 1870.0 0.0 0.0 1.0
-103.94200000000001 -22.208466666666666 1852.63 0.0 0.0 1.0
-104.43733333333334 -19.5666 1852.63 0.0 0.0 1.0
-103.88533333333334 -11.370099999999999 1835.58 0.0 0.0 1.0
-103.82966666666668 -5.592706666666667 1818.84 0.0 0.0 1.0
-103.18133333333333 -1.3779143333333332 1818.84 0.0 0.0 1.0
-103.82966666666668 -0.243161 1818.84 0.0 0.0 1.0
-103.992 3.971633333333333 1818.84 0.0 0.0 1.0
-103.992 3.971633333333333 1818.84 0.0 0.0 1.0
-103.13266666666665 10.843373333333332 1802.41 0.0 0.0 1.0
-103.24399999999999 19.6617 1786.2699999999998 2.1257142739191452e-26 2.1263818977488916e-26 1.0
-102.87966666666667 28.954633333333334 1770.41 0.0 0.0 1.0
-103.195 29.901366666666664 1770.41 0.0 0.0 1.0
-103.03733333333332 30.532533333333333 1770.41 0.0 0.0 1.0
-102.991 31.202299999999997 1754.84 0.0 0.0 1.0
-103.14733333333334 33.5484 1754.84 0.0 0.0 1.0
-103.14733333333334 33.5484 1754.84 0.0 0.0 1.0
-102.52166666666666 37.14566666666666 1754.84 0.0 0.0 1.0
-103.411 39.92246666666667 1739.53 0.0 0.0 1.0
-103.101 40.3876 1739.53 0.0 0.0 1.0
-103.20866666666667 44.64939999999999 1724.5 0.0 0.0 1.0
-101.13199999999999 45.64243333333334 1612.9399999999998 1.7394255348459636e-26 1.3033592563225613e-26 1.0
-114.087 80.34783333333333 2601.74 0.0 0.0 1.0
-114.087 80.34783333333333 2601.74 0.0 0.0 1.0
-114.087 81.04346666666667 2601.74 0.0 0.0 1.0
-113.855 81.27536666666667 2601.74 0.0 0.0 1.0
-101.10533333333332 53.8324 1600.0 0.0 0.0 1.0
-101.533 59.67913333333333 1600.0 0.0 0.0 1.0
-101.24799999999999 63.52943333333334 1600.0 0.0 0.0 1.0
-101.027 69.6954 1562.4000000000003 0.0 0.0 1.0
-101.10533333333332 71.0873 1600.0 0.0 0.0 1.0
-100.65433333333334 72.36070000000001 1587.2699999999998 1.5174334279180904e-28 1.8015449882536203e-26 1.0
-100.51299999999999 72.64363333333334 1587.2699999999998 8.961284919114522e-27 4.485501640256943e-26 1.0
-107.85000000000001 -96.5643 2042.32 0.0 0.0 1.0
-106.29866666666668 -93.88506666666666 2063.45 0.0 0.0 1.0
-110.13533333333334 -102.2246 2579.4066666666663 0.9145122341734842 -0.4040761414262108 0.019744504985619755
-114.551 -112.57933333333334 2601.74 0.0 0.0 1.0
-115.01466666666666 -111.18866666666666 2601.74 0.0 0.0 1.0
-115.01466666666666 -111.18866666666666 2601.74 0.0 0.0 1.0
-107.30399999999999 -82.00226666666667 2042.32 0.0 0.0 1.0
-107.30400000000002 -80.18203333333334 2042.32 0.0 0.0 1.0
-107.68900000000001 -62.90363333333334 2085.02 0.0 0.0 1.0
-107.50333333333333 -62.53196666666667 2085.02 0.0 0.0 1.0
-107.48599999999999 -58.339033333333326 2042.32 0.0 0.0 1.0
-107.48599999999999 -58.33903333333333 2042.32 0.0 0.0 1.0
-107.84999999999998 -57.06483333333333 2042.32 0.0 0.0 1.0
-115.01466666666666 -67.5942 2601.74 0.0 0.0 1.0
-114.087 -64.11593333333333 2601.74 0.0 0.0 1.0
-102.31763333333333 -23.1644 1354.11 0.11121378402182648 -0.9771173689142816 0.18130951880576468
-104.56366666666666 -31.04103333333333 1887.7 0.0 0.0 1.0
-104.83333333333333 -28.75 1870.0 0.0 0.0 1.0
-103.61200000000001 -16.0991 1852.63 0.0 0.0 1.0
-104.70333333333333 -11.533700000000001 1835.58 0.0 0.0 1.0
-103.82966666666668 -5.592706666666667 1818.84 0.0 0.0 1.0
-103.99166666666667 -4.944276666666667 1818.84 0.0 0.0 1.0
-104.31600000000002 0.24316266666666672 1818.84 0.0 0.0 1.0
-103.992 3.971633333333333 1818.84 0.0 0.0 1.0
-104.09633333333333 8.112446666666667 1802.41 0.0 0.0 1.0
-104.09633333333333 10.200813333333334 1802.41 0.0 0.0 1.0
-103.88066666666667 20.457700000000003 1786.2699999999998 1.0515209013946952e-25 4.205498049279579e-26 1.0
-103.98433333333332 23.747566666666668 1770.41 0.0 0.0 1.0
-103.98433333333332 24.06313333333333 1770.41 0.0 0.0 1.0
-103.30366666666667 31.358733333333333 1754.84 0.0 0.0 1.0
-103.30366666666667 31.358733333333333 1754.84 0.0 0.0 1.0
-103.14733333333334 33.5484 1754.84 0.0 0.0 1.0
-103.61666666666666 36.52003333333333 1754.84 0.0 0.0 1.0
-103.56599999999999 41.937966666666675 1739.53 0.0 0.0 1.0
-103.36233333333335 46.80116666666667 1724.5 0.0 0.0 1.0
-101.13199999999999 45.64243333333334 1612.9399999999998 1.7394255348459636e-26 1.3033592563225615e-26 1.0
-101.851 47.9425 1612.9399999999998 2.596939076173008e-26 2.680980107120702e-30 1.0
-95.04596666666667 41.53906666666666 1329.79 -0.8125710034306042 0.40634250824002055 0.4178685563439656
-113.85533333333335 88.69566666666667 2601.74 0.0 0.0 1.0
-115.24666666666667 90.78263333333332 2601.74 0.0 0.0 1.0
-97.8247 58.0351 1574.74 0.0 0.0 1.0
-101.533 59.67913333333333 1600.0 0.0 0.0 1.0
-115.01466666666666 103.30433333333333 2601.74 0.0 0.0 1.0
-115.01466666666666 103.30433333333333 2601.74 0.0 0.0 1.0
-101.67533333333334 72.656 1600.0 0.0 0.0 1.0
-101.67533333333334 72.656 1600.0 0.0 0.0 1.0
-102.55866666666667 72.34116666666667 1562.4000000000003 4.341291756502369e-27 1.215431451020521e-26 1.0
-100.79566666666666 74.76573333333333 1587.2699999999998 3.9878018446881045e-27 2.990381567087629e-27 1.0
-101.36166666666666 75.3316 1587.2699999999998 -2.687121695225374e-26 -8.969735473380196e-27 1.0
-108.396 -99.29463333333332 2042.32 0.0 0.0 1.0
-107.84999999999998 -96.5643 2042.32 0.0 0.0 1.0
-108.432 -92.8223 2085.02 0.0 0.0 1.0
-109.12400000000001 -87.09896666666667 2042.32 0.0 0.0 1.0
-115.01466666666666 -111.18866666666666 2601.74 0.0 0.0 1.0
-107.30399999999999 -82.00226666666667 2042.32 0.0 0.0 1.0
-115.24633333333333 -100.05806666666666 2601.74 0.0 0.0 1.0
-107.122 -73.26506666666667 2042.32 0.0 0.0 1.0
-108.87366666666667 -69.7931 2063.45 0.0 0.0 1.0
-107.68866666666666 -68.47853333333333 2085.02 0.0 0.0 1.0
-112.0 -74.55076666666668 2601.74 0.0 0.0 1.0
-107.668 -57.97496666666666 2042.32 0.0 0.0 1.0
-108.032 -57.79293333333334 2042.32 0.0 0.0 1.0
-104.867 -44.09 1835.58 0.0 0.0 1.0
-115.01433333333334 -57.6232 2601.74 0.0 0.0 1.0
-115.478 -56.463766666666665 2601.74 0.0 0.0 1.0
-115.478 -56.463766666666665 2601.74 0.0 0.0 1.0
-107.122 -40.500566666666664 2042.32 0.0 0.0 1.0
-105.26300000000002 -19.23636666666667 1852.63 0.0 0.0 1.0
-105.75866666666667 -18.245633333333334 1852.63 0.0 0.0 1.0
-105.28866666666666 -8.51064 1818.84 0.0 0.0 1.0
-104.80233333333335 -0.243161 1818.84 0.0 0.0 1.0
-104.51733333333334 21.0945 1786.2699999999998 -4.0501912038568344e-27 -2.0231572476791484e-27 1.0
-104.142 24.694266666666664 1770.41 0.0 0.0 1.0
-103.46033333333332 30.889499999999998 1754.84 0.0 0.0 1.0
-104.496 37.75196666666666 1739.53 0.0 0.0 1.0
-104.031 39.92246666666667 1739.53 0.0 0.0 1.0
-104.031 39.92246666666667 1739.53 0.0 0.0 1.0
-103.82333333333334 44.64939999999999 1724.5 0.0 0.0 1.0
-103.82333333333334 44.64939999999999 1724.5 0.0 0.0 1.0
-103.36233333333332 46.80116666666667 1724.5 0.0 0.0 1.0
-103.36233333333332 46.80116666666667 1724.5 0.0 0.0 1.0
-101.851 47.942499999999995 1612.9399999999998 2.8860827807265014e-26 -5.788236051284107e-27 1.0
-101.99466666666666 48.661300000000004 1612.9399999999998 6.373376051734262e-25 4.135995074210805e-25 1.0
-102.13866666666667 49.523833333333336 1612.9399999999998 2.609154431956289e-26 -3.2244411933261534e-31 1.0
-101.10533333333335 53.8324 1600.0 0.0 0.0 1.0
-115.01466666666666 103.30433333333333 2601.74 0.0 0.0 1.0
-100.65433333333333 69.53136666666666 1587.2699999999998 3.5075255957644187e-26 -2.960572632927154e-26 1.0
-101.10533333333335 71.08729999999998 1600.0 0.0 0.0 1.0
-105.08999999999999 70.67693333333334 1538.3 0.0 0.0 1.0
-101.64466666666665 76.03893333333333 1587.2699999999998 7.584534605735166e-25 4.877559365913896e-25 1.0
-115.24633333333334 128.81166666666667 2601.74 0.0 0.0 1.0
-108.396 -99.29463333333332 2042.32 0.0 0.0 1.0
-108.396 -96.20026666666666 2042.32 0.0 0.0 1.0
-109.36166666666666 -94.86646666666667 2085.02 0.0 0.0 1.0
-109.17566666666666 -94.4948 2085.02 0.0 0.0 1.0
-117.10166666666667 -105.623 2601.74 0.0 0.0 1.0
-107.48599999999999 -80.54606666666666 2042.32 0.0 0.0 1.0
-115.24633333333333 -100.05806666666666 2601.74 0.0 0.0 1.0
-108.032 -70.7167 2042.32 0.0 0.0 1.0
-108.87366666666667 -69.7931 2063.45 0.0 0.0 1.0
-108.13833333333332 -62.43676666666667 2063.45 0.0 0.0 1.0
-108.214 -59.24913333333333 2042.32 0.0 0.0 1.0
-108.214 -57.428866666666664 2042.32 0.0 0.0 1.0
-108.57799999999999 -57.06483333333333 2042.32 0.0 0.0 1.0
-108.214 -55.426633333333335 2042.32 0.0 0.0 1.0
-116.17399999999999 -67.36229999999999 2601.74 0.0 0.0 1.0
-116.86966666666667 -53.2174 2601.74 0.0 0.0 1.0
-116.17399999999999 -47.4203 2601.74 0.0 0.0 1.0
-106.16666666666667 -29.75 1870.0 0.0 0.0 1.0
-106.16666666666667 -29.75 1870.0 0.0 0.0 1.0
-105.75866666666667 -18.245633333333334 1852.63 0.0 0.0 1.0
-107.59433333333334 -26.550699999999996 2601.74 0.0 0.0 1.0
-106.17566666666666 -14.478500000000002 1835.58 0.0 0.0 1.0
-105.35766666666666 -11.697299999999998 1835.58 0.0 0.0 1.0
-105.28866666666669 -8.51064 1818.84 0.0 0.0 1.0
-105.45100000000001 -7.21378 1818.84 0.0 0.0 1.0
-104.96466666666667 -6.403243333333333 1818.84 0.0 0.0 1.0
-105.77500000000002 2.9989833333333333 1818.84 0.0 0.0 1.0
-104.89933333333333 7.791163333333333 1802.41 0.0 0.0 1.0
-104.25666666666666 10.68274 1802.41 0.0 0.0 1.0
-104.57833333333333 13.413666666666666 1802.41 0.0 0.0 1.0
-104.51733333333334 18.8657 1786.2699999999998 -2.1212694988174315e-26 4.2416506938246414e-26 1.0
-104.93066666666665 22.8008 1770.41 0.0 0.0 1.0
-104.29966666666667 23.747566666666668 1770.41 0.0 0.0 1.0
-104.29966666666667 24.06313333333333 1770.41 0.0 0.0 1.0
-104.77300000000001 25.7988 1770.41 0.0 0.0 1.0
-104.615 29.112399999999997 1770.41 0.0 0.0 1.0
-104.14166666666665 30.216933333333333 1770.41 0.0 0.0 1.0
-104.24233333333332 35.4252 1754.84 0.0 0.0 1.0
-102.13866666666667 49.523833333333336 1612.9399999999998 2.609154431956289e-26 -3.224441193340637e-31 1.0
-103.52533333333334 57.78993333333333 1639.45 0.0 0.0 1.0
-115.94233333333334 92.86956666666667 2601.74 0.0 0.0 1.0
-102.10333333333334 59.67913333333333 1600.0 0.0 0.0 1.0
-101.67566666666666 61.532999999999994 1600.0 0.0 0.0 1.0
-102.10333333333334 72.37079999999999 1600.0 0.0 0.0 1.0
-102.55866666666667 72.34116666666667 1562.4000000000003 4.341291756502369e-27 1.215431451020521e-26 1.0
-104.08133333333335 71.76870000000001 1526.53 0.0 0.0 1.0
-102.35199999999999 76.32186666666666 1587.2699999999998 6.732588275474358e-27 -3.3643381073626125e-26 1.0
-108.87333333333333 -100.13793333333332 2063.45 0.0 0.0 1.0
-109.12400000000001 -99.47666666666667 2042.32 0.0 0.0 1.0
-109.488 -98.02050000000001 2042.32 0.0 0.0 1.0
-108.94200000000001 -96.20026666666666 2042.32 0.0 0.0 1.0
-108.75999999999999 -95.65416666666665 2042.32 0.0 0.0 1.0
-109.54733333333333 -94.12313333333333 2085.02 0.0 0.0 1.0
-109.17533333333331 -93.19396666666667 2085.02 0.0 0.0 1.0
-105.4458 -61.675000000000004 1385.2 0.5502130430669185 -0.8341956650379277 0.037191392431190996
-105.4458 -61.675000000000004 1385.2 0.5502130430669185 -0.8341956650379277 0.03719139243119122
-117.10166666666667 -105.623 2601.74 0.0 0.0 1.0
-108.032 -71.2628 2042.32 0.0 0.0 1.0
-110.10466666666666 -64.3902 2085.02 0.0 0.0 1.0
-109.12400000000001 -59.24913333333333 2042.32 0.0 0.0 1.0
-108.57799999999999 -57.06483333333333 2042.32 0.0 0.0 1.0
-115.94200000000001 -57.6232 2601.74 0.0 0.0 1.0
-116.86966666666667 -53.2174 2601.74 0.0 0.0 1.0
-106.5 -30.416666666666668 1870.0 0.0 0.0 1.0
-106.58399999999999 -18.741 1852.63 0.0 0.0 1.0
-106.17566666666666 -12.1881 1835.58 0.0 0.0 1.0
-105.45100000000001 -7.86221 1818.84 0.0 0.0 1.0
-106.58566666666667 -3.16109 1818.84 0.0 0.0 1.0
-105.61266666666667 -0.243161 1818.84 0.0 0.0 1.0
-106.099 2.836876666666667 1818.84 0.0 0.0 1.0
-105.54199999999999 7.469876666666667 1802.41 0.0 0.0 1.0
-105.47266666666667 18.5473 1786.2699999999998 3.534708911520446e-27 -1.2379998131690258e-26 1.0
-104.51733333333334 21.0945 1786.2699999999998 -4.0501912038568344e-27 -2.0231572476791484e-27 1.0
-105.33699999999999 31.984399999999997 1754.84 0.0 0.0 1.0
-105.02433333333333 33.0792 1754.84 0.0 0.0 1.0
-105.18066666666665 34.174 1754.84 0.0 0.0 1.0
-105.18066666666665 34.174 1754.84 0.0 0.0 1.0
-104.496 37.75196666666666 1739.53 0.0 0.0 1.0
-104.496 39.7674 1739.53 0.0 0.0 1.0
-104.34100000000001 42.24803333333333 1739.53 0.0 0.0 1.0
-104.438 44.034600000000005 1724.5 0.0 0.0 1.0
-104.438 44.034600000000005 1724.5 0.0 0.0 1.0
-104.13066666666667 44.342000000000006 1724.5 0.0 0.0 1.0
-104.28433333333334 48.184400000000004 1724.5 0.0 0.0 1.0
-104.74533333333333 51.2584 1724.5 0.0 0.0 1.0
-104.74533333333333 51.2584 1724.5 0.0 0.0 1.0
-105.507 55.0 1626.09 0.0 0.0 1.0
-117.10166666666667 95.88403333333333 2601.74 0.0 0.0 1.0
-102.10333333333334 59.67913333333333 1600.0 0.0 0.0 1.0
-116.86966666666666 102.37666666666667 2601.74 0.0 0.0 1.0
-102.67399999999999 72.0856 1600.0 0.0 0.0 1.0
-102.21033333333332 74.90719999999999 1587.2699999999998 1.617854247338261e-25 -3.4158656236763465e-25 1.0
-108.39833333333333 -96.70996666666667 1942.86 0.0 0.0 1.0
-108.39833333333333 -96.01733333333334 1942.86 0.0 0.0 1.0
-109.488 -98.02050000000001 2042.32 0.0 0.0 1.0
-108.94200000000001 -96.20026666666666 2042.32 0.0 0.0 1.0
-109.73333333333333 -94.68063333333333 2085.02 0.0 0.0 1.0
-110.29066666666665 -93.9373 2085.02 0.0 0.0 1.0
-110.66233333333332 -91.89313333333332 2085.02 0.0 0.0 1.0
-109.12399999999998 -87.09896666666667 2042.32 0.0 0.0 1.0
-108.87366666666667 -69.79310000000001 2063.45 0.0 0.0 1.0
-108.618 -67.92103333333334 2085.02 0.0 0.0 1.0
-110.10466666666666 -64.3902 2085.02 0.0 0.0 1.0
-117.10133333333333 -66.43476666666666 2601.74 0.0 0.0 1.0
-117.79699999999998 -65.73913333333333 2601.74 0.0 0.0 1.0
-106.99399999999999 -41.9632 1835.58 0.0 0.0 1.0
-117.56533333333334 -53.2174 2601.74 0.0 0.0 1.0
-107.0 -31.083333333333332 1870.0 0.0 0.0 1.0
-107.24433333333333 -26.831766666666667 1852.63 0.0 0.0 1.0
-107.24433333333333 -25.675933333333333 1852.63 0.0 0.0 1.0
-106.91433333333333 -24.520133333333334 1852.63 0.0 0.0 1.0
-107.07966666666668 -22.538699999999995 1852.63 0.0 0.0 1.0
-106.584 -18.741 1852.63 0.0 0.0 1.0
-106.58399999999999 -18.741 1852.63 0.0 0.0 1.0
-106.419 -18.0805 1852.63 0.0 0.0 1.0
-106.66666666666667 -14.478500000000002 1835.58 0.0 0.0 1.0
-106.66666666666667 -14.478500000000002 1835.58 0.0 0.0 1.0
-106.503 -10.715699999999998 1835.58 0.0 0.0 1.0
-106.42333333333333 -0.5673773333333333 1818.84 0.0 0.0 1.0
-106.099 2.836876666666667 1818.84 0.0 0.0 1.0
-106.099 2.836876666666667 1818.84 0.0 0.0 1.0
-106.50600000000001 6.9879500000000005 1802.41 0.0 0.0 1.0
-106.19299999999998 20.9073 1770.41 0.0 0.0 1.0
-105.24633333333333 22.8008 1770.41 0.0 0.0 1.0
-105.71966666666667 23.1164 1770.41 0.0 0.0 1.0
-104.77299999999998 25.009833333333333 1770.41 0.0 0.0 1.0
-105.33733333333333 29.3255 1754.84 0.0 0.0 1.0
-105.33699999999999 31.984399999999997 1754.84 0.0 0.0 1.0
-104.496 37.75196666666666 1739.53 0.0 0.0 1.0
-105.116 39.61236666666667 1739.53 0.0 0.0 1.0
-105.42633333333333 41.78293333333334 1739.53 0.0 0.0 1.0
-105.05266666666667 45.1105 1724.5 0.0 0.0 1.0
-105.20633333333332 48.6455 1724.5 0.0 0.0 1.0
-103.52533333333334 57.78993333333333 1639.45 0.0 0.0 1.0
-117.56533333333334 100.28983333333333 2601.74 0.0 0.0 1.0
-104.89833333333333 62.246766666666666 1653.04 0.0 0.0 1.0
-117.33333333333333 104.0 2601.74 0.0 0.0 1.0
-104.45633333333335 64.4567 1653.04 0.0 0.0 1.0
-117.79699999999998 108.40599999999999 2601.74 0.0 0.0 1.0
-102.67399999999999 72.0856 1600.0 0.0 0.0 1.0
-102.21033333333332 74.62426666666666 1587.2699999999998 4.225028250547384e-30 -5.381419179414778e-26 1.0
-117.79700000000001 128.57966666666667 2601.74 0.0 0.0 1.0
-110.034 -99.6587 2042.32 0.0 0.0 1.0
-110.03399999999999 -98.02050000000001 2042.32 0.0 0.0 1.0
-110.66233333333334 -91.89313333333332 2085.02 0.0 0.0 1.0
-113.615 -94.3662 2107.04 0.0 0.0 1.0
-110.39799999999998 -86.91696666666667 2042.32 0.0 0.0 1.0
-118.02933333333333 -105.623 2601.74 0.0 0.0 1.0
-118.02933333333333 -104.69533333333334 2601.74 0.0 0.0 1.0
-121.27533333333332 -87.7681 2601.74 0.0 0.0 1.0
-110.66233333333332 -64.3902 2085.02 0.0 0.0 1.0
-109.12400000000001 -59.24913333333333 2042.32 0.0 0.0 1.0
-107.50150000000001 -78.86713333333334 2432.6 -0.9273459685586066 -0.3579296050221572 0.10915975653500705
-118.49266666666666 -65.27536666666667 2601.74 0.0 0.0 1.0
-118.02933333333333 -60.63766666666667 2601.74 0.0 0.0 1.0
-107.02 -44.7682 1981.46 0.0 0.0 1.0
-105.76636666666667 -47.57373333333334 1994.7133333333331 -0.8402702599718659 -0.5420884399643678 -0.009274344387112578
-117.56533333333334 -53.2174 2601.74 0.0 0.0 1.0
-117.79733333333333 -48.347833333333334 2601.74 0.0 0.0 1.0
-105.90966666666668 -31.882233333333332 1887.7 0.0 0.0 1.0
-107.0 -31.083333333333332 1870.0 0.0 0.0 1.0
-107.07966666666668 -22.538700000000002 1852.63 0.0 0.0 1.0
-107.24466666666667 -22.043333333333333 1852.63 0.0 0.0 1.0
-106.91433333333333 -17.585133333333335 1852.63 0.0 0.0 1.0
-106.66666666666667 -14.478500000000002 1835.58 0.0 0.0 1.0
-106.99366666666667 -12.3517 1835.58 0.0 0.0 1.0
-107.072 -4.944276666666666 1818.84 0.0 0.0 1.0
-107.234 -3.16109 1818.84 0.0 0.0 1.0
-106.024 11.164666666666667 1802.41 0.0 0.0 1.0
-106.024 11.164666666666667 1802.41 0.0 0.0 1.0
-106.74633333333334 14.407966666666667 1786.2699999999998 -4.5523973128822886e-27 2.624925077191629e-27 1.0
-106.74633333333333 15.681599999999998 1786.2699999999998 1.417421025875206e-26 -7.982929754856167e-27 1.0
-106.10933333333332 18.5473 1786.2699999999998 1.0607087747262033e-26 1.5897673160473102e-26 1.0
-106.19299999999998 20.9073 1770.41 0.0 0.0 1.0
-105.71966666666667 23.1164 1770.41 0.0 0.0 1.0
-105.08833333333332 29.585766666666668 1770.41 0.0 0.0 1.0
-105.80633333333333 31.984399999999997 1754.84 0.0 0.0 1.0
-105.49333333333333 34.330400000000004 1754.84 0.0 0.0 1.0
-105.806 34.799600000000005 1754.84 0.0 0.0 1.0
-105.49333333333334 34.956 1754.84 0.0 0.0 1.0
-105.73633333333333 36.8217 1739.53 0.0 0.0 1.0
-105.116 39.612366666666674 1739.53 0.0 0.0 1.0
-105.20633333333332 43.4198 1724.5 0.0 0.0 1.0
-105.36000000000001 45.879 1724.5 0.0 0.0 1.0
-105.20633333333332 50.3362 1724.5 0.0 0.0 1.0
-105.36 51.5658 1724.5 0.0 0.0 1.0
-105.66733333333332 54.4861 1724.5 0.0 0.0 1.0
-105.507 55.0 1626.09 0.0 0.0 1.0
-106.44766666666668 62.75796666666667 1639.45 0.0 0.0 1.0
-118.72466666666666 99.3623 2601.74 0.0 0.0 1.0
-117.56533333333334 101.21736666666668 2601.74 0.0 0.0 1.0
-118.72466666666666 112.81166666666667 2601.74 0.0 0.0 1.0
-103.81466666666667 70.94473333333333 1600.0 0.0 0.0 1.0
-102.35199999999999 73.06806666666667 1587.2699999999998 3.389706735071166e-27 2.4324050832964714e-27 1.0
-104.08133333333335 71.76870000000001 1526.53 0.0 0.0 1.0
-103.625 76.32186666666668 1587.2699999999998 -1.793524492298024e-26 1.7939470946760384e-26 1.0
-102.91766666666666 76.60480000000001 1587.2699999999998 2.990851383516178e-27 1.793947094676043e-26 1.0
-108.91766666666666 -96.70996666666667 1942.86 0.0 0.0 1.0
-109.437 -95.49786666666667 1942.86 0.0 0.0 1.0
