ply
format ascii 1.0
comment VCGLIB generated
element vertex 861
property float x
property float y
property float z
property float nx
property float ny
property float nz
element face 0
property list uchar int vertex_indices
end_header
-9.42029 53.9855 1626.09 0.0 0.0 1.0
-9.847266666666668 55.56153333333333 1612.9399999999998 -5.790021972829488e-27 -1.4478411466535798e-27 1.0
-11.246699999999999 61.18483333333334 1587.2699999999998 8.297005312876448e-26 4.036380963020966e-26 1.0
-11.789466666666668 62.94736666666666 1574.74 0.0 0.0 1.0
-12.070166666666665 64.21050000000001 1574.74 0.0 0.0 1.0
-12.323766666666666 67.1889 1562.4000000000003 8.742449189951092e-27 -2.661343400495452e-26 1.0
-12.849733333333333 69.4301 1550.26 0.0 0.0 1.0
-13.2305 71.3625 1538.3 0.0 0.0 1.0
-13.2305 71.3625 1538.3 0.0 0.0 1.0
32.2319 127.884 2601.74 0.0 0.0 1.0
33.15946666666667 128.116 2601.74 0.0 0.0 1.0
10.3286 -102.81700000000001 2107.04 0.0 0.0 1.0
10.140823333333332 -100.93900000000001 2107.04 0.0 0.0 1.0
9.756103333333334 -89.1057 2085.02 0.0 0.0 1.0
9.941936666666665 -82.23 2085.02 0.0 0.0 1.0
9.012776666666666 -79.25666666666666 2085.02 0.0 0.0 1.0
9.941933333333333 -74.98259999999999 2085.02 0.0 0.0 1.0
10.127766666666666 -74.61093333333334 2085.02 0.0 0.0 1.0
9.941933333333333 -70.70846666666667 2085.02 0.0 0.0 1.0
9.756106666666668 -69.22186666666667 2085.02 0.0 0.0 1.0
8.643680000000002 -54.52873333333333 2063.45 0.0 0.0 1.0
8.643680000000002 -54.52873333333333 2063.45 0.0 0.0 1.0
8.091956666666666 -52.8736 2063.45 0.0 0.0 1.0
8.643680000000002 -50.29886666666667 2063.45 0.0 0.0 1.0
8.643680000000002 -50.29886666666667 2063.45 0.0 0.0 1.0
8.275863333333334 -43.310300000000005 2063.45 0.0 0.0 1.0
8.827586666666667 -40.7356 2063.45 0.0 0.0 1.0
8.459773333333333 -38.344833333333334 2063.45 0.0 0.0 1.0
9.011496666666668 -37.6092 2063.45 0.0 0.0 1.0
7.554036666666668 -33.94766666666666 2042.32 0.0 0.0 1.0
3.1788066666666666 -23.39956666666667 1981.46 0.0 0.0 1.0
3.1788066666666666 -23.39956666666667 1981.46 0.0 0.0 1.0
33.15943333333333 -8.695666666666666 2601.74 0.0 0.0 1.0
6.7444999999999995 -15.252919999999998 2328.4 0.0 0.0 1.0
32.69566666666667 -7.072463333333334 2601.74 0.0 0.0 1.0
24.946266666666663 -0.9677433333333334 2412.9 0.0 0.0 1.0
31.304333333333332 -1.04348 2601.74 0.0 0.0 1.0
24.946266666666663 0.3225806666666666 2412.9 0.0 0.0 1.0
-8.98711 9.06077 1653.04 0.0 0.0 1.0
-8.98711 9.06077 1653.04 0.0 0.0 1.0
-8.83978 11.860033333333334 1653.04 0.0 0.0 1.0
-9.13444 18.047900000000002 1653.04 0.0 0.0 1.0
-8.98711 18.342533333333336 1653.04 0.0 0.0 1.0
-8.98711 22.90973333333333 1653.04 0.0 0.0 1.0
-8.83978 23.204400000000003 1653.04 0.0 0.0 1.0
-8.83978 23.204400000000003 1653.04 0.0 0.0 1.0
-8.397789999999999 26.740333333333336 1653.04 0.0 0.0 1.0
-8.545119999999999 29.097633333333334 1653.04 0.0 0.0 1.0
-9.13444 29.244966666666667 1653.04 0.0 0.0 1.0
-8.69245 31.896866666666664 1653.04 0.0 0.0 1.0
-8.69245 32.633533333333325 1653.04 0.0 0.0 1.0
-8.98711 35.580099999999995 1653.04 0.0 0.0 1.0
-8.98711 35.58010000000001 1653.04 0.0 0.0 1.0
-8.839763333333332 39.558 1653.04 0.0 0.0 1.0
-9.13444 44.125233333333334 1653.04 0.0 0.0 1.0
-8.98711 48.54513333333333 1653.04 0.0 0.0 1.0
-8.69245 48.69246666666666 1653.04 0.0 0.0 1.0
-8.83978 50.01840000000001 1653.04 0.0 0.0 1.0
-8.840186666666666 50.04566666666667 1639.45 0.0 0.0 1.0
-9.710143333333333 52.536233333333335 1626.09 0.0 0.0 1.0
-9.710143333333333 52.536233333333335 1626.09 0.0 0.0 1.0
-11.835999999999999 56.8271 1600.0 0.0 0.0 1.0
-11.529633333333331 62.45803333333333 1587.2699999999998 1.4949559122300247e-27 2.6161728464025534e-27 1.0
-12.210533333333336 63.22806666666667 1574.74 0.0 0.0 1.0
-11.9298 65.19296666666666 1574.74 0.0 0.0 1.0
-11.9298 65.19296666666666 1574.74 0.0 0.0 1.0
-13.641800000000002 73.14479999999999 1538.3 0.0 0.0 1.0
9.953023333333334 -105.258 2107.04 0.0 0.0 1.0
9.953023333333334 -105.258 2107.04 0.0 0.0 1.0
9.953023333333334 -104.69466666666666 2107.04 0.0 0.0 1.0
9.953026666666666 -101.50233333333334 2107.04 0.0 0.0 1.0
10.516399999999999 -96.8075 2107.04 0.0 0.0 1.0
10.516399999999999 -96.8075 2107.04 0.0 0.0 1.0
9.19861 -94.4948 2085.02 0.0 0.0 1.0
9.19861 -89.2915 2085.02 0.0 0.0 1.0
9.01278 -87.61906666666668 2085.02 0.0 0.0 1.0
9.19861 -82.78746666666666 2085.02 0.0 0.0 1.0
9.38444 -78.69916666666666 2085.02 0.0 0.0 1.0
9.012780000000001 -77.39833333333334 2085.02 0.0 0.0 1.0
9.012780000000001 -77.39833333333333 2085.02 0.0 0.0 1.0
8.826946666666666 -65.69103333333334 2085.02 0.0 0.0 1.0
9.570273333333333 -64.94773333333333 2085.02 0.0 0.0 1.0
9.570273333333333 -59.93030000000001 2085.02 0.0 0.0 1.0
9.570273333333333 -59.93030000000001 2085.02 0.0 0.0 1.0
8.275863333333334 -56.0 2063.45 0.0 0.0 1.0
8.643680000000002 -54.52873333333333 2063.45 0.0 0.0 1.0
8.275863333333334 -50.85060000000001 2063.45 0.0 0.0 1.0
8.275863333333334 -43.310300000000005 2063.45 0.0 0.0 1.0
7.554036666666668 -33.94766666666666 2042.32 0.0 0.0 1.0
7.554036666666668 -33.94766666666667 2042.32 0.0 0.0 1.0
4.284156666666667 -25.442633333333333 1961.97 0.0 0.0 1.0
4.284156666666667 -25.442633333333333 1961.97 0.0 0.0 1.0
-1.0779166666666666 -19.355533333333334 1864.21 -0.9684375341196296 -0.24210938352990752 0.05926034859042982
-2.1267893333333334 -15.460099999999999 1835.58 0.0 0.0 1.0
-13.261099999999999 -6.27912 1583.0933333333332 -0.2425352340920104 -0.970140936368043 -0.0017954962740921565
30.37676666666667 3.594203333333333 2601.74 0.0 0.0 1.0
5.892673333333334 3.7383900000000003 1864.21 0.28709016982639535 0.9569672327546512 0.04234323822001394
-9.723746666666665 8.176796666666666 1653.04 0.0 0.0 1.0
-9.13444 8.471453333333333 1653.04 0.0 0.0 1.0
-9.28177 12.007366666666668 1653.04 0.0 0.0 1.0
-9.57643 13.775366666666669 1653.04 0.0 0.0 1.0
-9.13444 18.0479 1653.04 0.0 0.0 1.0
-9.13444 18.0479 1653.04 0.0 0.0 1.0
-9.28177 22.32043333333333 1653.04 0.0 0.0 1.0
-9.28177 22.32043333333333 1653.04 0.0 0.0 1.0
-9.13444 22.615066666666667 1653.04 0.0 0.0 1.0
-8.692450000000001 30.86553333333333 1653.04 0.0 0.0 1.0
-8.98711 35.58010000000001 1653.04 0.0 0.0 1.0
-9.13444 44.125233333333334 1653.04 0.0 0.0 1.0
-9.13444 44.125233333333334 1653.04 0.0 0.0 1.0
-10.593603333333332 46.5388 1639.45 0.0 0.0 1.0
-9.4291 48.10313333333334 1653.04 0.0 0.0 1.0
-9.13444 48.25046666666666 1653.04 0.0 0.0 1.0
-8.83978 50.01840000000001 1653.04 0.0 0.0 1.0
-12.491233333333334 63.22806666666667 1574.74 0.0 0.0 1.0
-12.491233333333334 63.22806666666667 1574.74 0.0 0.0 1.0
-13.5406 69.70643333333334 1550.26 0.0 0.0 1.0
-13.641799999999998 71.3625 1538.3 0.0 0.0 1.0
-14.327333333333334 73.0077 1538.3 0.0 0.0 1.0
-13.333333333333334 73.40136666666668 1526.53 0.0 0.0 1.0
32.2319 127.88400000000001 2601.74 0.0 0.0 1.0
9.953023333333334 -105.258 2107.04 0.0 0.0 1.0
10.140823333333332 -100.93900000000001 2107.04 0.0 0.0 1.0
8.641116666666667 -89.66313333333333 2085.02 0.0 0.0 1.0
8.455286666666668 -84.83156666666666 2085.02 0.0 0.0 1.0
8.826950000000002 -83.90243333333333 2085.02 0.0 0.0 1.0
8.826950000000002 -77.0267 2085.02 0.0 0.0 1.0
8.826950000000002 -77.0267 2085.02 0.0 0.0 1.0
8.455286666666668 -69.22186666666667 2085.02 0.0 0.0 1.0
7.897793333333335 -62.71779999999999 2085.02 0.0 0.0 1.0
9.384443333333335 -59.18696666666667 2085.02 0.0 0.0 1.0
8.275863333333334 -56.0 2063.45 0.0 0.0 1.0
7.724140000000001 -52.689666666666675 2063.45 0.0 0.0 1.0
7.724140000000001 -52.689666666666675 2063.45 0.0 0.0 1.0
7.724140000000001 -51.954033333333335 2063.45 0.0 0.0 1.0
7.9080466666666664 -51.402300000000004 2063.45 0.0 0.0 1.0
8.275863333333334 -43.310300000000005 2063.45 0.0 0.0 1.0
7.356323333333333 -41.10343333333333 2063.45 0.0 0.0 1.0
8.091956666666666 -40.919533333333334 2063.45 0.0 0.0 1.0
8.459773333333333 -38.344833333333334 2063.45 0.0 0.0 1.0
29.449266666666663 -40.2319 2601.74 0.0 0.0 1.0
-1.9277093333333333 -6.024086666666666 1802.41 0.0 0.0 1.0
28.9855 -14.956533333333335 2601.74 0.0 0.0 1.0
-13.7888 -5.526820000000001 1570.6266666666668 0.9996687481734949 -2.1963359844462812e-16 0.025737014691630786
-9.136483333333333 4.828226666666667 1666.8499999999997 3.470124867384098e-26 -2.5167792814937786e-26 1.0
-9.28177 12.007366666666668 1653.04 0.0 0.0 1.0
-9.871073333333333 13.775366666666669 1653.04 0.0 0.0 1.0
-9.723743333333333 13.9227 1653.04 0.0 0.0 1.0
-9.723743333333333 17.4586 1653.04 0.0 0.0 1.0
-9.28177 23.057066666666667 1653.04 0.0 0.0 1.0
-9.13444 29.244966666666667 1653.04 0.0 0.0 1.0
-10.460386666666666 37.937400000000004 1653.04 0.0 0.0 1.0
-9.863033333333332 44.63923333333333 1639.45 0.0 0.0 1.0
-9.863033333333332 44.78536666666667 1639.45 0.0 0.0 1.0
-10.15527 45.95433333333333 1639.45 0.0 0.0 1.0
-9.723743333333333 47.9558 1653.04 0.0 0.0 1.0
-9.28177 48.69246666666666 1653.04 0.0 0.0 1.0
-10.869566666666666 51.81156666666667 1626.09 0.0 0.0 1.0
-11.835999999999999 56.8271 1600.0 0.0 0.0 1.0
-12.661366666666666 62.5995 1587.2699999999998 2.1022817515734637e-28 2.1022817515734723e-28 1.0
-12.912266666666667 65.19296666666666 1574.74 0.0 0.0 1.0
-13.8555 66.4926 1562.4000000000003 7.230545590422643e-27 8.098443705534859e-27 1.0
-13.8555 66.4926 1562.4000000000003 7.230545590422643e-27 8.098443705534859e-27 1.0
-14.231466666666668 69.01553333333334 1550.26 0.0 0.0 1.0
-14.369633333333335 69.8446 1550.26 0.0 0.0 1.0
-13.333333333333334 73.40136666666668 1526.53 0.0 0.0 1.0
9.014066666666666 -102.06566666666667 2107.04 0.0 0.0 1.0
8.083623333333334 -94.12313333333333 2085.02 0.0 0.0 1.0
7.71196 -93.56563333333334 2085.02 0.0 0.0 1.0
7.8977900000000005 -90.59230000000001 2085.02 0.0 0.0 1.0
8.083623333333334 -90.0348 2085.02 0.0 0.0 1.0
8.083623333333334 -85.94656666666667 2085.02 0.0 0.0 1.0
7.3403 -81.48666666666666 2085.02 0.0 0.0 1.0
8.269453333333333 -79.07083333333333 2085.02 0.0 0.0 1.0
7.15447 -73.31009999999999 2085.02 0.0 0.0 1.0
8.269453333333333 -66.24853333333334 2085.02 0.0 0.0 1.0
6.2528733333333335 -48.82756666666666 2063.45 0.0 0.0 1.0
-0.5841219999999999 -21.329666666666668 1875.8999999999999 -0.9685027721298163 -0.24212569303245465 -0.05811651357759512
-2.394223333333333 -17.254900000000003 1852.63 0.0 0.0 1.0
-2.394223333333333 -17.2549 1852.63 0.0 0.0 1.0
29.913033333333335 -16.811600000000002 2601.74 0.0 0.0 1.0
-16.0 -3.172993333333333 1514.9399999999998 1.0 0.0 0.0
-16.0 -3.1729933333333338 1514.9399999999998 1.0 0.0 0.0
-16.0 -3.1729933333333338 1514.9399999999998 1.0 0.0 0.0
-16.9482 -1.1446186666666665 1492.493333333333 -0.9991082303157949 0.000257699471776841 0.042221768156040014
-25.53356666666667 -3.3238920000000003 1474.0166666666667 -0.39028318015220115 0.9183024953956237 0.06632922614093288
30.37676666666667 3.594203333333333 2601.74 0.0 0.0 1.0
30.37676666666667 3.594203333333333 2601.74 0.0 0.0 1.0
-10.313033333333331 9.944740000000001 1653.04 0.0 0.0 1.0
-10.1657 10.681383333333335 1653.04 0.0 0.0 1.0
-10.313033333333331 11.2707 1653.04 0.0 0.0 1.0
-9.871073333333333 13.775366666666669 1653.04 0.0 0.0 1.0
-9.723743333333333 17.4586 1653.04 0.0 0.0 1.0
-10.6077 20.69983333333333 1653.04 0.0 0.0 1.0
-9.87106 32.63353333333333 1653.04 0.0 0.0 1.0
-9.87106 39.410666666666664 1653.04 0.0 0.0 1.0
-10.155233333333333 41.5708 1639.45 0.0 0.0 1.0
-10.7397 42.15526666666667 1639.45 0.0 0.0 1.0
-10.5936 43.3242 1639.45 0.0 0.0 1.0
-9.723743333333333 47.9558 1653.04 0.0 0.0 1.0
-10.434766666666667 52.68116666666666 1626.09 0.0 0.0 1.0
-10.566033333333332 54.84276666666667 1612.9399999999998 -1.8609757315892053e-27 4.6527270438400325e-27 1.0
-12.4064 56.68449999999999 1600.0 0.0 0.0 1.0
-12.519900000000002 60.90189999999999 1587.2699999999998 -1.6610621247000552e-27 -1.8770002009110125e-26 1.0
-12.912266666666667 65.33333333333333 1574.74 0.0 0.0 1.0
-14.875766666666669 72.87060000000001 1538.3 0.0 0.0 1.0
7.88732 -104.507 2107.04 0.0 0.0 1.0
7.8977900000000005 -90.59229999999998 2085.02 0.0 0.0 1.0
8.269453333333333 -86.68990000000001 2085.02 0.0 0.0 1.0
8.269453333333333 -79.07083333333333 2085.02 0.0 0.0 1.0
6.96864 -75.72593333333333 2085.02 0.0 0.0 1.0
6.7828100000000004 -70.52266666666667 2085.02 0.0 0.0 1.0
7.71196 -65.87686666666667 2085.02 0.0 0.0 1.0
7.71196 -64.76190000000001 2085.02 0.0 0.0 1.0
7.897793333333333 -62.71779999999999 2085.02 0.0 0.0 1.0
7.897793333333333 -62.71779999999999 2085.02 0.0 0.0 1.0
7.8977933333333326 -60.301966666666665 2085.02 0.0 0.0 1.0
6.988506666666666 -52.505766666666666 2063.45 0.0 0.0 1.0
6.988506666666666 -52.32183333333334 2063.45 0.0 0.0 1.0
6.804600000000001 -50.85060000000001 2063.45 0.0 0.0 1.0
6.068966666666667 -40.9195 2063.45 0.0 0.0 1.0
29.44926666666667 -40.2319 2601.74 0.0 0.0 1.0
-27.813766666666666 -14.227516666666666 1421.3933333333334 0.14973619552175974 -0.5157482556806219 0.8435536785012945
27.826066666666666 -29.565233333333335 2601.74 0.0 0.0 1.0
27.124499999999998 -27.8112 2568.24 0.0 0.0 1.0
-1.0779166666666666 -18.3648 1864.21 -0.9699877376447619 -0.2424969344111906 0.017861288306601907
28.521733333333334 -17.507233333333335 2601.74 0.0 0.0 1.0
-13.8947 -6.526313333333333 1574.74 0.0 0.0 1.0
-13.8947 -6.526313333333334 1574.74 0.0 0.0 1.0
-13.8947 -6.526313333333334 1574.74 0.0 0.0 1.0
-11.0497 7.29282 1653.04 0.0 0.0 1.0
-10.6077 8.618783333333333 1653.04 0.0 0.0 1.0
-10.6077 8.618783333333333 1653.04 0.0 0.0 1.0
-10.6077 8.618783333333333 1653.04 0.0 0.0 1.0
-10.755033333333332 11.565366666666668 1653.04 0.0 0.0 1.0
-10.313053333333334 12.1547 1653.04 0.0 0.0 1.0
-10.6077 20.69983333333333 1653.04 0.0 0.0 1.0
-10.460393333333334 25.709033333333334 1653.04 0.0 0.0 1.0
-10.755033333333332 32.33886666666667 1653.04 0.0 0.0 1.0
-11.0497 38.232033333333334 1653.04 0.0 0.0 1.0
-9.871076666666667 49.2818 1653.04 0.0 0.0 1.0
-11.304333333333332 51.956500000000005 1626.09 0.0 0.0 1.0
-13.4046 55.40109999999999 1600.0 0.0 0.0 1.0
-13.547199999999998 58.966100000000004 1600.0 0.0 0.0 1.0
-13.368700000000002 61.46776666666667 1587.2699999999998 -1.2109142889063535e-25 -4.709111123524714e-26 1.0
-13.052633333333333 63.368433333333336 1574.74 0.0 0.0 1.0
-14.4125 66.91036666666666 1562.4000000000003 2.7776064167631593e-26 1.111175561984984e-25 1.0
-14.784133333333335 69.01553333333334 1550.26 0.0 0.0 1.0
-15.336800000000002 71.5026 1550.26 0.0 0.0 1.0
-15.561300000000001 72.4593 1538.3 0.0 0.0 1.0
-15.561300000000001 72.4593 1538.3 0.0 0.0 1.0
7.88732 -104.507 2107.04 0.0 0.0 1.0
7.699526666666666 -103.19266666666665 2107.04 0.0 0.0 1.0
6.411149999999999 -96.35306666666666 2085.02 0.0 0.0 1.0
7.340299999999999 -95.60976666666666 2085.02 0.0 0.0 1.0
6.411149999999999 -93.56563333333334 2085.02 0.0 0.0 1.0
7.526129999999999 -89.849 2085.02 0.0 0.0 1.0
7.15447 -82.23 2085.02 0.0 0.0 1.0
7.71196 -80.5575 2085.02 0.0 0.0 1.0
6.96864 -75.72593333333333 2085.02 0.0 0.0 1.0
7.15447 -73.31009999999999 2085.02 0.0 0.0 1.0
6.411149999999999 -69.22186666666666 2085.02 0.0 0.0 1.0
7.8977933333333326 -60.116133333333345 2085.02 0.0 0.0 1.0
6.4367833333333335 -51.2184 2063.45 0.0 0.0 1.0
6.068966666666667 -49.74713333333333 2063.45 0.0 0.0 1.0
5.88506 -43.67816666666666 2063.45 0.0 0.0 1.0
6.06897 -43.310333333333325 2063.45 0.0 0.0 1.0
6.06897 -43.310333333333325 2063.45 0.0 0.0 1.0
6.068966666666667 -40.9195 2063.45 0.0 0.0 1.0
28.289833333333334 -42.78263333333334 2601.74 0.0 0.0 1.0
28.753600000000002 -41.15943333333333 2601.74 0.0 0.0 1.0
29.44926666666667 -38.6087 2601.74 0.0 0.0 1.0
-21.5385 -17.9219 1401.5133333333333 -0.89228429381308 -0.4467004049626861 0.06547890668501892
27.826066666666666 -29.565233333333335 2601.74 0.0 0.0 1.0
27.1245 -27.8112 2568.24 0.0 0.0 1.0
2.6393633333333333 -17.019333333333332 2042.32 0.0 0.0 1.0
-13.261099999999999 -6.27912 1583.0933333333332 -0.2425352340920104 -0.9701409363680432 -0.0017954962740921905
-11.197033333333332 5.37753 1653.04 0.0 0.0 1.0
-10.902366666666666 21.289166666666663 1653.04 0.0 0.0 1.0
-11.0497 21.731133333333332 1653.04 0.0 0.0 1.0
-11.0497 21.731133333333332 1653.04 0.0 0.0 1.0
-10.607723333333333 35.28543333333334 1653.04 0.0 0.0 1.0
-11.4917 37.9374 1653.04 0.0 0.0 1.0
-11.908666666666667 47.123266666666666 1639.45 0.0 0.0 1.0
-11.762533333333332 48.73063333333334 1639.45 0.0 0.0 1.0
-11.762533333333332 49.16896666666667 1639.45 0.0 0.0 1.0
-11.762533333333332 50.3379 1639.45 0.0 0.0 1.0
-11.762533333333332 50.3379 1639.45 0.0 0.0 1.0
-13.934566666666669 62.033633333333334 1587.2699999999998 -1.922086172867175e-27 -9.61043086433591e-28 1.0
-15.198633333333333 68.87736666666666 1550.26 0.0 0.0 1.0
-15.474966666666667 69.70643333333334 1550.26 0.0 0.0 1.0
-15.474966666666667 69.70643333333334 1550.26 0.0 0.0 1.0
-15.336800000000002 71.5026 1550.26 0.0 0.0 1.0
-15.835500000000001 72.048 1538.3 0.0 0.0 1.0
-15.561300000000001 72.4593 1538.3 0.0 0.0 1.0
27.130433333333333 127.42066666666666 2601.74 0.0 0.0 1.0
7.88732 -104.507 2107.04 0.0 0.0 1.0
6.411149999999999 -93.56563333333334 2085.02 0.0 0.0 1.0
6.039490000000001 -83.7166 2085.02 0.0 0.0 1.0
6.596979999999999 -82.9733 2085.02 0.0 0.0 1.0
6.968640000000001 -75.72593333333333 2085.02 0.0 0.0 1.0
6.22532 -73.8676 2085.02 0.0 0.0 1.0
6.039490000000001 -70.33686666666667 2085.02 0.0 0.0 1.0
6.039490000000001 -70.33686666666667 2085.02 0.0 0.0 1.0
5.333333333333333 -64.27586666666666 2063.45 0.0 0.0 1.0
5.149426666666666 -63.72413333333333 2063.45 0.0 0.0 1.0
5.149426666666666 -62.8046 2063.45 0.0 0.0 1.0
5.333333333333333 -62.25286666666667 2063.45 0.0 0.0 1.0
5.333333333333333 -60.4138 2063.45 0.0 0.0 1.0
5.51724 -58.574733333333334 2063.45 0.0 0.0 1.0
5.149423333333334 -57.47126666666666 2063.45 0.0 0.0 1.0
6.068966666666667 -49.74713333333333 2063.45 0.0 0.0 1.0
5.88506 -43.67816666666666 2063.45 0.0 0.0 1.0
6.068966666666667 -40.9195 2063.45 0.0 0.0 1.0
5.333333333333333 -38.71266666666667 2063.45 0.0 0.0 1.0
5.333333333333333 -38.71266666666667 2063.45 0.0 0.0 1.0
28.289833333333334 -42.78263333333333 2601.74 0.0 0.0 1.0
4.965516666666667 -31.17243333333333 2063.45 0.0 0.0 1.0
4.965516666666667 -31.172433333333334 2063.45 0.0 0.0 1.0
-20.4896 -19.725633333333334 1388.4433333333334 0.6578850141845334 0.7519013860831072 -0.042797356433764346
27.1245 -27.8112 2568.24 0.0 0.0 1.0
-10.473530000000002 3.0454966666666667 1666.8499999999997 -4.0391003898686724e-25 3.3227095683232806e-25 1.0
-11.639033333333332 11.860033333333334 1653.04 0.0 0.0 1.0
-11.639033333333332 11.860033333333334 1653.04 0.0 0.0 1.0
-11.4917 14.217333333333334 1653.04 0.0 0.0 1.0
-11.4917 19.52116666666667 1653.04 0.0 0.0 1.0
-12.081033333333332 31.896866666666664 1653.04 0.0 0.0 1.0
-10.902366666666666 34.401466666666664 1653.04 0.0 0.0 1.0
-11.4917 37.9374 1653.04 0.0 0.0 1.0
-11.9337 39.410666666666664 1653.04 0.0 0.0 1.0
-12.228366666666666 40.88399999999999 1653.04 0.0 0.0 1.0
-12.200933333333333 44.9315 1639.45 0.0 0.0 1.0
-12.347033333333334 45.22376666666667 1639.45 0.0 0.0 1.0
-11.908666666666667 47.123266666666666 1639.45 0.0 0.0 1.0
-12.0548 47.707766666666664 1639.45 0.0 0.0 1.0
-11.908666666666667 48.14613333333333 1639.45 0.0 0.0 1.0
-12.0548 49.6073 1639.45 0.0 0.0 1.0
26.4348 80.8116 2601.74 0.0 0.0 1.0
-13.975033333333334 54.688066666666664 1600.0 0.0 0.0 1.0
-13.6898 54.83066666666667 1600.0 0.0 0.0 1.0
-13.4046 55.40110000000001 1600.0 0.0 0.0 1.0
-13.547199999999998 58.966100000000004 1600.0 0.0 0.0 1.0
-15.387266666666667 67.04963333333333 1562.4000000000003 1.3879723724599572e-26 -6.940415545220665e-27 1.0
-15.387266666666667 67.04963333333333 1562.4000000000003 1.3879723724599587e-26 -6.940415545220675e-27 1.0
-15.474966666666667 69.70643333333334 1550.26 0.0 0.0 1.0
-15.7513 71.36443333333334 1550.26 0.0 0.0 1.0
-15.9726 72.18509999999999 1538.3 0.0 0.0 1.0
6.572766666666666 -105.25833333333333 2107.04 0.0 0.0 1.0
6.948353333333333 -103.00466666666667 2107.04 0.0 0.0 1.0
6.41115 -93.56563333333332 2085.02 0.0 0.0 1.0
5.8536600000000005 -92.63646666666666 2085.02 0.0 0.0 1.0
5.29617 -85.38906666666666 2085.02 0.0 0.0 1.0
5.8536600000000005 -70.89433333333334 2085.02 0.0 0.0 1.0
6.03949 -68.66436666666667 2085.02 0.0 0.0 1.0
5.333333333333333 -64.27586666666666 2063.45 0.0 0.0 1.0
4.78161 -62.98850000000001 2063.45 0.0 0.0 1.0
5.149426666666667 -62.8046 2063.45 0.0 0.0 1.0
4.78161 -59.49426666666667 2063.45 0.0 0.0 1.0
5.333333333333333 -38.71266666666667 2063.45 0.0 0.0 1.0
4.4596100000000005 -32.49143333333333 2042.32 0.0 0.0 1.0
3.5494866666666667 -27.758799999999997 2042.32 0.0 0.0 1.0
3.5494866666666667 -27.758799999999997 2042.32 0.0 0.0 1.0
-0.32719666666666664 -19.8773 1835.58 0.0 0.0 1.0
18.078143333333333 -31.417299999999997 2546.4733333333334 -0.5216392791779434 0.8511002058258451 0.059337189535062174
-2.394223333333333 -17.2549 1852.63 0.0 0.0 1.0
-12.18999 -7.758813333333333 1341.8633333333335 -0.21427399615940204 0.9373026116249334 0.27486445534291937
28.057933333333335 1.0434766666666666 2601.74 0.0 0.0 1.0
28.057933333333335 1.0434766666666666 2601.74 0.0 0.0 1.0
-11.513466666666668 1.2627653333333335 1666.8499999999997 -2.2937203689928228e-26 9.086292538302632e-27 1.0
-12.228366666666666 2.5782700000000003 1653.04 0.0 0.0 1.0
-12.228366666666666 4.93554 1653.04 0.0 0.0 1.0
-11.0497 7.29282 1653.04 0.0 0.0 1.0
-11.639033333333332 11.860033333333334 1653.04 0.0 0.0 1.0
-12.228366666666666 16.869266666666665 1653.04 0.0 0.0 1.0
-11.197033333333332 24.235733333333332 1653.04 0.0 0.0 1.0
-11.4917 37.9374 1653.04 0.0 0.0 1.0
-11.9337 39.410666666666664 1653.04 0.0 0.0 1.0
-11.3242 41.7169 1639.45 0.0 0.0 1.0
-12.785400000000001 44.347 1639.45 0.0 0.0 1.0
-12.493166666666667 49.461166666666664 1639.45 0.0 0.0 1.0
-13.547199999999998 58.966100000000004 1600.0 0.0 0.0 1.0
-15.207766666666666 58.49686666666667 1587.2699999999998 1.3703762528775043e-27 2.1178542089925188e-27 1.0
-14.924833333333334 59.062733333333334 1587.2699999999998 -8.72057615467511e-28 -1.2457965935250215e-28 1.0
-13.934566666666669 62.033633333333334 1587.2699999999998 -1.922086172867175e-27 -9.610430864335907e-28 1.0
-15.805066666666667 66.63186666666667 1562.4000000000003 -1.3879723724599693e-26 -6.9404155452207e-27 1.0
-15.805066666666667 66.63186666666667 1562.4000000000003 -1.3879723724599696e-26 -6.9404155452207e-27 1.0
-16.303966666666668 71.22626666666666 1550.26 0.0 0.0 1.0
-16.521 73.14479999999999 1538.3 0.0 0.0 1.0
6.760560000000001 -103.568 2107.04 0.0 0.0 1.0
5.8536600000000005 -96.91053333333333 2085.02 0.0 0.0 1.0
5.8536600000000005 -96.91053333333333 2085.02 0.0 0.0 1.0
5.8536600000000005 -92.63646666666666 2085.02 0.0 0.0 1.0
5.110336666666667 -89.66316666666667 2085.02 0.0 0.0 1.0
5.296166666666667 -84.4599 2085.02 0.0 0.0 1.0
5.11034 -78.51333333333334 2085.02 0.0 0.0 1.0
5.11034 -78.51333333333334 2085.02 0.0 0.0 1.0
5.11034 -77.58416666666666 2085.02 0.0 0.0 1.0
6.03949 -74.98259999999999 2085.02 0.0 0.0 1.0
-17.011066666666668 -58.18013333333334 1671.5333333333335 0.6768884598375615 -0.3384442299187828 0.6536646817546561
4.924509999999999 -70.7085 2085.02 0.0 0.0 1.0
5.29617 -68.10686666666668 2085.02 0.0 0.0 1.0
3.8620666666666668 -65.56323333333334 2063.45 0.0 0.0 1.0
4.78161 -62.98850000000001 2063.45 0.0 0.0 1.0
4.781606666666666 -56.36783333333333 2063.45 0.0 0.0 1.0
3.8620666666666668 -55.63219999999999 2063.45 0.0 0.0 1.0
4.045973333333333 -51.770100000000006 2063.45 0.0 0.0 1.0
4.045973333333333 -51.402300000000004 2063.45 0.0 0.0 1.0
4.41379 -42.02296666666667 2063.45 0.0 0.0 1.0
4.5977 -29.149433333333334 2063.45 0.0 0.0 1.0
-3.1941473333333334 -18.423266666666667 1791.6499999999999 -0.6512413825264629 -0.6512403598751781 0.38957753445837917
4.2644899999999994 -18.050233333333335 2077.83 -0.6993333097761746 -0.6993207656809503 0.14793035024940082
26.2029 -14.260866666666667 2601.74 0.0 0.0 1.0
25.73913333333333 -12.6377 2601.74 0.0 0.0 1.0
26.2029 -10.086966666666667 2601.74 0.0 0.0 1.0
26.2029 -10.086966666666667 2601.74 0.0 0.0 1.0
26.2029 -7.536233333333333 2601.74 0.0 0.0 1.0
-4.819276666666666 -2.3293166666666667 1802.41 0.0 0.0 1.0
-4.819276666666666 -2.3293166666666667 1802.41 0.0 0.0 1.0
-12.670366666666666 1.84162 1653.04 0.0 0.0 1.0
-12.523033333333332 2.87293 1653.04 0.0 0.0 1.0
-12.8177 9.50276 1653.04 0.0 0.0 1.0
-12.228366666666666 16.869266666666665 1653.04 0.0 0.0 1.0
-12.523033333333332 17.458566666666666 1653.04 0.0 0.0 1.0
-13.6621 26.9589 1639.45 0.0 0.0 1.0
-12.523033333333332 30.71823333333333 1653.04 0.0 0.0 1.0
-12.523033333333332 31.749533333333332 1653.04 0.0 0.0 1.0
-12.670366666666666 32.0442 1653.04 0.0 0.0 1.0
-11.9337 38.232033333333334 1653.04 0.0 0.0 1.0
-12.785400000000001 44.347 1639.45 0.0 0.0 1.0
-12.785400000000001 44.347 1639.45 0.0 0.0 1.0
-13.077633333333333 45.36986666666667 1639.45 0.0 0.0 1.0
-12.639266666666666 45.516 1639.45 0.0 0.0 1.0
-12.493166666666667 49.02283333333333 1639.45 0.0 0.0 1.0
26.4348 80.8116 2601.74 0.0 0.0 1.0
-15.2585 51.83599999999999 1600.0 0.0 0.0 1.0
-14.8307 54.8307 1600.0 0.0 0.0 1.0
-15.665799999999999 66.91036666666666 1562.4000000000003 -2.3138410587242543e-27 2.7779389049624627e-26 1.0
-16.7952 72.5964 1538.3 0.0 0.0 1.0
-16.9323 73.0077 1538.3 0.0 0.0 1.0
27.130433333333333 127.42066666666666 2601.74 0.0 0.0 1.0
27.130433333333333 127.42066666666666 2601.74 0.0 0.0 1.0
6.572766666666666 -105.25833333333333 2107.04 0.0 0.0 1.0
4.924506666666667 -85.5749 2085.02 0.0 0.0 1.0
4.924506666666666 -82.41583333333332 2085.02 0.0 0.0 1.0
5.11034 -78.51333333333334 2085.02 0.0 0.0 1.0
4.924509999999999 -77.58416666666666 2085.02 0.0 0.0 1.0
-17.011066666666668 -58.18013333333334 1671.5333333333335 0.6768884598375615 -0.3384442299187822 0.6536646817546563
4.5528466666666665 -70.8943 2085.02 0.0 0.0 1.0
4.92451 -70.7085 2085.02 0.0 0.0 1.0
5.296169999999999 -68.10686666666666 2085.02 0.0 0.0 1.0
3.67816 -64.8276 2063.45 0.0 0.0 1.0
3.67816 -64.8276 2063.45 0.0 0.0 1.0
3.8620666666666668 -62.436800000000005 2063.45 0.0 0.0 1.0
3.8620700000000006 -59.49426666666667 2063.45 0.0 0.0 1.0
4.045976666666667 -50.11493333333333 2063.45 0.0 0.0 1.0
3.8620700000000006 -49.1954 2063.45 0.0 0.0 1.0
3.67816 -48.6437 2063.45 0.0 0.0 1.0
3.3103466666666663 -46.6207 2063.45 0.0 0.0 1.0
4.781610000000001 -38.344833333333334 2063.45 0.0 0.0 1.0
4.965516666666667 -31.172433333333334 2063.45 0.0 0.0 1.0
25.04346666666667 -27.710166666666666 2601.74 0.0 0.0 1.0
4.2644899999999994 -18.050233333333335 2077.83 -0.6993333097761746 -0.6993207656809503 0.14793035024940082
25.73913333333333 -12.6377 2601.74 0.0 0.0 1.0
26.2029 -10.086966666666667 2601.74 0.0 0.0 1.0
26.2029 -7.536233333333333 2601.74 0.0 0.0 1.0
-11.513466666666668 1.2627653333333333 1666.8499999999997 -2.1857017195056513e-26 8.641491958972437e-27 1.0
-12.670366666666666 1.84162 1653.04 0.0 0.0 1.0
-12.670366666666666 1.84162 1653.04 0.0 0.0 1.0
-12.8177 9.50276 1653.04 0.0 0.0 1.0
-12.523033333333332 10.681386666666667 1653.04 0.0 0.0 1.0
-13.407000000000002 14.364633333333336 1653.04 0.0 0.0 1.0
-12.670366666666666 18.342533333333336 1653.04 0.0 0.0 1.0
-12.3757 18.931833333333334 1653.04 0.0 0.0 1.0
-13.808233333333334 21.5525 1639.45 0.0 0.0 1.0
-13.6621 24.328766666666667 1639.45 0.0 0.0 1.0
-12.8177 31.6022 1653.04 0.0 0.0 1.0
-13.077633333333333 44.9315 1639.45 0.0 0.0 1.0
-12.173900000000001 50.797066666666666 1626.09 0.0 0.0 1.0
-15.2585 53.68983333333333 1600.0 0.0 0.0 1.0
-14.8307 54.8307 1600.0 0.0 0.0 1.0
-14.8307 54.8307 1600.0 0.0 0.0 1.0
26.666666666666668 84.28986666666667 2601.74 0.0 0.0 1.0
-15.490699999999999 58.21393333333333 1587.2699999999998 8.409127006293857e-28 0.0 1.0
-15.490699999999999 59.062733333333334 1587.2699999999998 2.3545555617622724e-26 -3.0272857222657913e-26 1.0
31.7681 97.971 2601.74 0.0 0.0 1.0
-16.56143333333333 65.05263333333333 1574.74 0.0 0.0 1.0
-15.889466666666669 68.60103333333332 1550.26 0.0 0.0 1.0
-16.9948 70.94993333333333 1550.26 0.0 0.0 1.0
4.181183333333333 -98.02553333333333 2085.02 0.0 0.0 1.0
4.181183333333333 -95.7956 2085.02 0.0 0.0 1.0
4.738676666666667 -85.20323333333334 2085.02 0.0 0.0 1.0
3.43786 -74.23926666666667 2085.02 0.0 0.0 1.0
4.367013333333333 -71.45176666666667 2085.02 0.0 0.0 1.0
4.5528466666666665 -70.8943 2085.02 0.0 0.0 1.0
3.67816 -64.8276 2063.45 0.0 0.0 1.0
3.3103433333333334 -62.436800000000005 2063.45 0.0 0.0 1.0
2.942526666666667 -51.954 2063.45 0.0 0.0 1.0
3.1264333333333334 -51.5862 2063.45 0.0 0.0 1.0
3.1264366666666668 -48.2759 2063.45 0.0 0.0 1.0
2.9425266666666663 -42.94253333333333 2063.45 0.0 0.0 1.0
2.0932866666666663 -28.122866666666667 2042.32 0.0 0.0 1.0
25.04346666666667 -27.710166666666666 2601.74 0.0 0.0 1.0
-11.2968 -10.989399999999998 1724.5 0.0 0.0 1.0
24.579700000000003 -11.710166666666666 2601.74 0.0 0.0 1.0
-13.2597 2.43094 1653.04 0.0 0.0 1.0
-12.8177 9.50276 1653.04 0.0 0.0 1.0
-14.100466666666668 11.616433333333333 1639.45 0.0 0.0 1.0
-13.407033333333333 13.0387 1653.04 0.0 0.0 1.0
-13.407000000000002 14.364633333333336 1653.04 0.0 0.0 1.0
-14.5388 18.483999999999998 1639.45 0.0 0.0 1.0
-13.808233333333334 21.5525 1639.45 0.0 0.0 1.0
-13.6621 24.328766666666667 1639.45 0.0 0.0 1.0
-13.954333333333333 25.205466666666666 1639.45 0.0 0.0 1.0
-13.6621 26.9589 1639.45 0.0 0.0 1.0
-13.701666666666668 31.896866666666664 1653.04 0.0 0.0 1.0
-13.2597 36.61143333333333 1653.04 0.0 0.0 1.0
-13.2597 36.61143333333333 1653.04 0.0 0.0 1.0
-13.554333333333332 37.34806666666667 1653.04 0.0 0.0 1.0
-13.848966666666668 41.4733 1653.04 0.0 0.0 1.0
-24.489766666666668 44.69386666666666 1526.53 0.0 0.0 1.0
26.4348 80.8116 2601.74 0.0 0.0 1.0
-15.543700000000001 50.55259999999999 1600.0 0.0 0.0 1.0
-15.686299999999997 51.2656 1600.0 0.0 0.0 1.0
-15.349233333333332 59.770100000000006 1587.2699999999998 5.1256062416260195e-27 8.328004995588105e-27 1.0
-16.842133333333333 61.964933333333335 1574.74 0.0 0.0 1.0
-16.701766666666668 65.89473333333332 1574.74 0.0 0.0 1.0
-19.197240999999998 62.83983333333334 1452.4433333333334 0.19420443090847675 0.6433067438594127 0.7405680740624151
3.0662000000000003 -92.07896666666666 2085.02 0.0 0.0 1.0
3.0662000000000003 -81.30083333333333 2085.02 0.0 0.0 1.0
2.8803700000000005 -80.18583333333333 2085.02 0.0 0.0 1.0
2.2068966666666667 -69.24136666666668 2063.45 0.0 0.0 1.0
2.7586200000000005 -63.17243333333332 2063.45 0.0 0.0 1.0
3.8620699999999997 -59.49426666666667 2063.45 0.0 0.0 1.0
2.2068966666666667 -56.0 2063.45 0.0 0.0 1.0
2.942526666666667 -51.954 2063.45 0.0 0.0 1.0
2.942526666666667 -51.5862 2063.45 0.0 0.0 1.0
1.7292366666666663 -30.307133333333336 2042.32 0.0 0.0 1.0
1.9112599999999997 -29.215000000000003 2042.32 0.0 0.0 1.0
2.0932866666666663 -28.122866666666667 2042.32 0.0 0.0 1.0
24.115933333333334 -27.94203333333333 2601.74 0.0 0.0 1.0
3.6781599999999997 -25.47126666666667 2063.45 0.0 0.0 1.0
-11.7579 -13.448599999999999 1724.5 0.0 0.0 1.0
-10.232560000000001 -5.348836666666667 1739.53 0.0 0.0 1.0
24.579700000000003 -11.710166666666666 2601.74 0.0 0.0 1.0
24.347799999999996 -11.478266666666668 2601.74 0.0 0.0 1.0
24.115933333333334 -11.0145 2601.74 0.0 0.0 1.0
-14.143633333333334 -0.22099433333333332 1653.04 0.0 0.0 1.0
-13.701666666666668 2.28361 1653.04 0.0 0.0 1.0
-13.112366666666667 5.81952 1653.04 0.0 0.0 1.0
-13.554333333333332 7.734806666666667 1653.04 0.0 0.0 1.0
-14.100466666666668 11.616433333333333 1639.45 0.0 0.0 1.0
-14.246566666666666 12.0548 1639.45 0.0 0.0 1.0
-13.848999999999998 12.449366666666668 1653.04 0.0 0.0 1.0
-14.246566666666666 20.8219 1639.45 0.0 0.0 1.0
-14.5388 26.812766666666665 1639.45 0.0 0.0 1.0
-13.701666666666668 31.896866666666664 1653.04 0.0 0.0 1.0
-13.848999999999998 44.125233333333334 1653.04 0.0 0.0 1.0
-13.848999999999998 44.125233333333334 1653.04 0.0 0.0 1.0
-13.516 45.515966666666664 1639.45 0.0 0.0 1.0
-15.543700000000001 50.55259999999999 1600.0 0.0 0.0 1.0
-15.9715 52.4064 1600.0 0.0 0.0 1.0
-15.9715 52.4064 1600.0 0.0 0.0 1.0
-16.19803333333333 57.931000000000004 1587.2699999999998 4.789137287090172e-41 8.969735473380015e-27 1.0
-16.842133333333333 61.96493333333333 1574.74 0.0 0.0 1.0
-17.68563333333333 70.94993333333333 1550.26 0.0 0.0 1.0
3.43786 -97.46806666666667 2085.02 0.0 0.0 1.0
3.0662 -95.23813333333334 2085.02 0.0 0.0 1.0
3.0662 -92.07896666666666 2085.02 0.0 0.0 1.0
2.50871 -90.22063333333334 2085.02 0.0 0.0 1.0
2.50871 -87.06156666666668 2085.02 0.0 0.0 1.0
3.0662000000000003 -81.30083333333333 2085.02 0.0 0.0 1.0
2.69454 -74.79676666666667 2085.02 0.0 0.0 1.0
3.25203 -74.05343333333333 2085.02 0.0 0.0 1.0
1.6551733333333332 -69.977 2063.45 0.0 0.0 1.0
2.3908033333333334 -64.8276 2063.45 0.0 0.0 1.0
2.2068966666666667 -56.0 2063.45 0.0 0.0 1.0
2.2068966666666667 -51.0345 2063.45 0.0 0.0 1.0
2.3908033333333334 -48.2759 2063.45 0.0 0.0 1.0
1.287358 -45.51723333333334 2063.45 0.0 0.0 1.0
1.36519 -37.0421 2042.32 0.0 0.0 1.0
1.36519 -37.042100000000005 2042.32 0.0 0.0 1.0
1.1831643333333333 -36.314 2042.32 0.0 0.0 1.0
1.001137333333333 -30.8532 2042.32 0.0 0.0 1.0
3.1788066666666666 -23.39956666666667 1981.46 0.0 0.0 1.0
2.6393633333333333 -17.019333333333332 2042.32 0.0 0.0 1.0
2.6393633333333333 -17.019333333333332 2042.32 0.0 0.0 1.0
-11.2968 -10.989399999999998 1724.5 0.0 0.0 1.0
24.115933333333334 -11.0145 2601.74 0.0 0.0 1.0
23.420299999999997 -9.159416666666667 2601.74 0.0 0.0 1.0
-14.143633333333334 -0.22099433333333332 1653.04 0.0 0.0 1.0
-14.143633333333334 1.6942899999999999 1653.04 0.0 0.0 1.0
-15.561633333333333 5.47945 1639.45 0.0 0.0 1.0
-14.246566666666666 12.0548 1639.45 0.0 0.0 1.0
-14.143633333333334 14.07 1653.04 0.0 0.0 1.0
-14.438266666666665 15.101266666666666 1653.04 0.0 0.0 1.0
-14.977166666666667 18.191766666666666 1639.45 0.0 0.0 1.0
-14.684933333333333 20.0913 1639.45 0.0 0.0 1.0
-18.53833333333333 27.30836666666666 1600.0 0.0 0.0 1.0
-22.70556666666667 29.496 1587.2699999999998 -1.4208113994944994e-27 -2.4524718194117533e-27 1.0
-13.701666666666668 31.896866666666664 1653.04 0.0 0.0 1.0
-13.848966666666668 38.084700000000005 1653.04 0.0 0.0 1.0
-13.848966666666668 38.084700000000005 1653.04 0.0 0.0 1.0
-15.123266666666666 38.5023 1639.45 0.0 0.0 1.0
-13.848966666666668 41.4733 1653.04 0.0 0.0 1.0
-13.848966666666668 41.4733 1653.04 0.0 0.0 1.0
-16.8271 46.7023 1600.0 0.0 0.0 1.0
-15.9715 52.4064 1600.0 0.0 0.0 1.0
-17.188299999999998 54.25286666666667 1587.2699999999998 -4.983186374100085e-28 7.474779561150117e-28 1.0
-16.7639 55.66753333333333 1587.2699999999998 1.0 0.0 0.0
-16.622433333333333 57.648066666666665 1587.2699999999998 4.484867736690103e-26 -1.7939470946760295e-26 1.0
-16.622433333333333 57.648066666666665 1587.2699999999998 4.484867736690103e-26 -1.7939470946760295e-26 1.0
-17.2632 58.736833333333344 1574.74 0.0 0.0 1.0
-17.2632 58.736833333333344 1574.74 0.0 0.0 1.0
-17.2632 58.73683333333333 1574.74 0.0 0.0 1.0
-17.403533333333332 61.96493333333333 1574.74 0.0 0.0 1.0
-17.403533333333332 63.78946666666667 1574.74 0.0 0.0 1.0
-17.68563333333333 70.94993333333333 1550.26 0.0 0.0 1.0
22.95653333333333 128.57966666666667 2601.74 0.0 0.0 1.0
1.5795586666666666 -104.15833333333335 2085.02 0.0 0.0 1.0
2.69454 -91.33563333333332 2085.02 0.0 0.0 1.0
2.50871 -90.22063333333334 2085.02 0.0 0.0 1.0
1.95122 -88.9199 2085.02 0.0 0.0 1.0
2.32288 -86.31823333333334 2085.02 0.0 0.0 1.0
2.32288 -86.31823333333334 2085.02 0.0 0.0 1.0
2.8803700000000005 -80.18583333333333 2085.02 0.0 0.0 1.0
2.32288 -80.0 2085.02 0.0 0.0 1.0
1.9512200000000002 -76.84086666666667 2085.02 0.0 0.0 1.0
2.69454 -74.79676666666667 2085.02 0.0 0.0 1.0
2.69454 -74.79676666666667 2085.02 0.0 0.0 1.0
1.6551733333333332 -69.97700000000002 2063.45 0.0 0.0 1.0
1.4712646666666667 -65.0115 2063.45 0.0 0.0 1.0
1.8390800000000003 -55.080466666666666 2063.45 0.0 0.0 1.0
2.2068966666666667 -51.0345 2063.45 0.0 0.0 1.0
1.4712646666666667 -48.4598 2063.45 0.0 0.0 1.0
0.8191136666666665 -35.7679 2042.32 0.0 0.0 1.0
-0.802676 -19.175033333333335 2001.34 0.0 0.0 1.0
24.115933333333334 -27.94203333333333 2601.74 0.0 0.0 1.0
-0.802676 -19.175033333333335 2001.34 0.0 0.0 1.0
-0.802676 -19.175033333333335 2001.34 0.0 0.0 1.0
23.420299999999997 -9.159416666666667 2601.74 0.0 0.0 1.0
-14.5856 0.6629823333333333 1653.04 0.0 0.0 1.0
-14.5856 0.6629823333333332 1653.04 0.0 0.0 1.0
-14.438266666666665 1.104971 1653.04 0.0 0.0 1.0
-14.4383 12.007366666666668 1653.04 0.0 0.0 1.0
-14.977166666666667 18.191766666666666 1639.45 0.0 0.0 1.0
-15.123266666666666 18.483999999999998 1639.45 0.0 0.0 1.0
-14.977166666666667 19.360699999999998 1639.45 0.0 0.0 1.0
-14.4383 21.1418 1653.04 0.0 0.0 1.0
-14.100466666666668 22.136966666666666 1639.45 0.0 0.0 1.0
-15.2694 37.041133333333335 1639.45 0.0 0.0 1.0
-15.561633333333333 37.6256 1639.45 0.0 0.0 1.0
-23.6427 38.16693333333333 1473.9099999999999 -0.8676185404014399 0.4957790203488282 -0.037963552700333705
-17.403533333333332 65.89473333333332 1574.74 0.0 0.0 1.0
-18.2383 71.36443333333332 1550.26 0.0 0.0 1.0
22.95653333333333 128.57966666666667 2601.74 0.0 0.0 1.0
2.13705 -103.415 2085.02 0.0 0.0 1.0
2.13705 -103.415 2085.02 0.0 0.0 1.0
2.13705 -95.0523 2085.02 0.0 0.0 1.0
2.13705 -89.84899999999999 2085.02 0.0 0.0 1.0
1.95122 -88.9199 2085.02 0.0 0.0 1.0
2.50871 -87.06156666666668 2085.02 0.0 0.0 1.0
2.32288 -86.31823333333334 2085.02 0.0 0.0 1.0
2.32288 -80.0 2085.02 0.0 0.0 1.0
2.50871 -75.16843333333333 2085.02 0.0 0.0 1.0
2.50871 -73.8676 2085.02 0.0 0.0 1.0
1.287358 -70.3448 2063.45 0.0 0.0 1.0
1.83908 -55.080466666666666 2063.45 0.0 0.0 1.0
1.287358 -45.51723333333334 2063.45 0.0 0.0 1.0
0.5517246666666668 -44.229899999999994 2063.45 0.0 0.0 1.0
0.7356333333333334 -43.126466666666666 2063.45 0.0 0.0 1.0
-0.6370883333333333 -39.772466666666666 2042.32 0.0 0.0 1.0
0.09101266666666663 -35.0398 2042.32 0.0 0.0 1.0
-0.4550633333333334 -31.945400000000003 2042.32 0.0 0.0 1.0
-12.680099999999998 -15.7541 1724.5 0.0 0.0 1.0
-12.219 -14.063400000000001 1724.5 0.0 0.0 1.0
-12.219 -12.987499999999999 1724.5 0.0 0.0 1.0
-11.9116 -12.065299999999999 1724.5 0.0 0.0 1.0
-12.219 -10.835700000000001 1724.5 0.0 0.0 1.0
21.565233333333335 -12.637666666666666 2601.74 0.0 0.0 1.0
-15.322266666666666 -1.2523009999999999 1653.04 0.0 0.0 1.0
-14.290966666666668 2.1362799999999997 1653.04 0.0 0.0 1.0
-15.561633333333333 5.47945 1639.45 0.0 0.0 1.0
-14.8803 7.734806666666667 1653.04 0.0 0.0 1.0
-14.4383 12.007366666666668 1653.04 0.0 0.0 1.0
-14.880266666666666 14.364633333333336 1653.04 0.0 0.0 1.0
-14.880266666666666 15.248600000000001 1653.04 0.0 0.0 1.0
-15.707766666666666 16.7306 1639.45 0.0 0.0 1.0
-15.123266666666666 18.483999999999998 1639.45 0.0 0.0 1.0
-15.2694 26.5205 1639.45 0.0 0.0 1.0
-19.8475 28.3355 1704.8666666666668 0.6549176652097661 -0.6549176652097569 0.3770486753621996
-15.0276 32.4862 1653.04 0.0 0.0 1.0
-15.4155 36.0183 1639.45 0.0 0.0 1.0
-15.561633333333333 37.6256 1639.45 0.0 0.0 1.0
-15.4155 38.6484 1639.45 0.0 0.0 1.0
-24.88003333333333 36.842666666666666 1438.51 0.7025561716621144 -0.702580901746667 -0.11311455326488107
-25.001833333333334 37.11546666666666 1428.21 -0.9002723549620728 0.4264869071595841 0.0872846201372029
-17.1123 46.1319 1600.0 0.0 0.0 1.0
-17.9679 47.5579 1600.0 0.0 0.0 1.0
-17.1123 51.123 1600.0 0.0 0.0 1.0
-18.245633333333334 56.912266666666675 1574.74 0.0 0.0 1.0
-18.245633333333334 57.75436666666667 1574.74 0.0 0.0 1.0
-18.245633333333334 57.75436666666667 1574.74 0.0 0.0 1.0
-18.52633333333333 61.122833333333325 1574.74 0.0 0.0 1.0
-17.684233333333335 65.05263333333333 1574.74 0.0 0.0 1.0
-18.590100000000003 68.02436666666667 1562.4000000000003 2.5067073065270483e-27 6.941523176172998e-27 1.0
22.028999999999996 127.65233333333333 2601.74 0.0 0.0 1.0
0.278746 -99.14053333333334 2085.02 0.0 0.0 1.0
1.5795599999999999 -94.12313333333333 2085.02 0.0 0.0 1.0
1.76539 -93.00813333333333 2085.02 0.0 0.0 1.0
1.95122 -88.9199 2085.02 0.0 0.0 1.0
1.579559 -77.77 2085.02 0.0 0.0 1.0
1.103448 -69.977 2063.45 0.0 0.0 1.0
0.9195393333333334 -69.42530000000001 2063.45 0.0 0.0 1.0
0.183908 -66.66666666666667 2063.45 0.0 0.0 1.0
0.551724 -66.11493333333333 2063.45 0.0 0.0 1.0
0.9195393333333334 -65.5632 2063.45 0.0 0.0 1.0
-0.5517253333333333 -60.4138 2063.45 0.0 0.0 1.0
0.7356333333333334 -57.28733333333333 2063.45 0.0 0.0 1.0
0.0 -51.77013333333334 2063.45 0.0 0.0 1.0
0.5517233333333333 -48.643699999999995 2063.45 0.0 0.0 1.0
0.5517246666666668 -44.229899999999994 2063.45 0.0 0.0 1.0
-0.09101266666666663 -31.035233333333334 2042.32 0.0 0.0 1.0
-0.637088 -27.394766666666666 2042.32 0.0 0.0 1.0
-12.680099999999998 -15.7541 1724.5 0.0 0.0 1.0
21.565233333333328 -12.637666666666666 2601.74 0.0 0.0 1.0
-16.7306 -4.0182633333333335 1639.45 0.0 0.0 1.0
-15.322266666666666 -1.2523009999999999 1653.04 0.0 0.0 1.0
-15.764266666666666 -0.6629823333333332 1653.04 0.0 0.0 1.0
-16.584466666666668 10.593603333333332 1639.45 0.0 0.0 1.0
-15.853866666666667 12.054833333333335 1639.45 0.0 0.0 1.0
-15.174933333333334 14.6593 1653.04 0.0 0.0 1.0
-18.53833333333333 27.30836666666666 1600.0 0.0 0.0 1.0
-16.1461 26.228266666666666 1639.45 0.0 0.0 1.0
-16.3536 30.7182 1653.04 0.0 0.0 1.0
-16.058933333333332 36.61143333333334 1653.04 0.0 0.0 1.0
-16.0 37.7717 1639.45 0.0 0.0 1.0
-15.0276 41.178666666666665 1653.04 0.0 0.0 1.0
-15.0276 41.62063333333333 1653.04 0.0 0.0 1.0
-18.178566666666665 52.4138 1587.2699999999998 6.72730160503503e-27 -4.655537221409406e-44 1.0
-18.32003333333333 52.8382 1587.2699999999998 1.3454603210070056e-26 0.0 1.0
-18.385966666666665 57.47366666666667 1574.74 0.0 0.0 1.0
-18.245633333333334 57.75436666666667 1574.74 0.0 0.0 1.0
-18.666666666666668 61.543866666666666 1574.74 0.0 0.0 1.0
-19.758233333333333 69.8446 1550.26 0.0 0.0 1.0
-19.758233333333333 69.98276666666668 1550.26 0.0 0.0 1.0
-19.674366666666668 73.69319999999999 1538.3 0.0 0.0 1.0
0.4645763333333333 -85.01740000000001 2085.02 0.0 0.0 1.0
1.3937289999999998 -78.51333333333334 2085.02 0.0 0.0 1.0
-0.5517246666666668 -71.8161 2063.45 0.0 0.0 1.0
-0.7356313333333334 -63.72413333333333 2063.45 0.0 0.0 1.0
-0.5517246666666668 -50.6667 2063.45 0.0 0.0 1.0
0.5517246666666668 -44.229899999999994 2063.45 0.0 0.0 1.0
-1.1831643333333333 -39.04436666666667 2042.32 0.0 0.0 1.0
-0.6370883333333333 -35.403866666666666 2042.32 0.0 0.0 1.0
-0.6370883333333333 -34.67576666666667 2042.32 0.0 0.0 1.0
-0.8191136666666665 -27.576800000000002 2042.32 0.0 0.0 1.0
-0.637088 -27.39476666666667 2042.32 0.0 0.0 1.0
-13.448599999999999 -18.981733333333334 1724.5 0.0 0.0 1.0
-13.756 -18.366966666666666 1724.5 0.0 0.0 1.0
-12.680100000000001 -15.7541 1724.5 0.0 0.0 1.0
-12.833799999999998 -10.374613333333333 1724.5 0.0 0.0 1.0
-12.833799999999998 -10.374613333333333 1724.5 0.0 0.0 1.0
21.565233333333335 -12.637666666666666 2601.74 0.0 0.0 1.0
-16.584500000000002 -0.07305933333333332 1639.45 0.0 0.0 1.0
-16.584500000000002 -0.07305933333333331 1639.45 0.0 0.0 1.0
-16.876733333333334 2.9954366666666665 1639.45 0.0 0.0 1.0
-16.7306 3.57991 1639.45 0.0 0.0 1.0
-16.584500000000002 4.018266666666666 1639.45 0.0 0.0 1.0
-15.764266666666666 7.440146666666666 1653.04 0.0 0.0 1.0
-16.292233333333332 16.0 1639.45 0.0 0.0 1.0
-15.4696 22.909766666666666 1653.04 0.0 0.0 1.0
-16.79556666666667 23.6464 1653.04 0.0 0.0 1.0
-16.058933333333332 29.686899999999998 1653.04 0.0 0.0 1.0
-15.764266666666666 32.4862 1653.04 0.0 0.0 1.0
-16.058933333333332 36.61143333333334 1653.04 0.0 0.0 1.0
-16.584500000000002 37.9178 1639.45 0.0 0.0 1.0
-23.750866666666667 37.3385 1488.5766666666666 0.8495382402362072 -0.5191740866361375 -0.09350425734639445
-22.58626666666667 39.436299999999996 1477.55 0.9788735624009667 -0.195754939254006 0.059047037098412324
-17.6827 45.5615 1600.0 0.0 0.0 1.0
-17.825300000000002 46.274499999999996 1600.0 0.0 0.0 1.0
21.101466666666667 78.95653333333333 2601.74 0.0 0.0 1.0
-16.969700000000003 50.41 1600.0 0.0 0.0 1.0
-18.178566666666665 52.4138 1587.2699999999998 6.72730160503503e-27 0.0 1.0
-18.32003333333333 52.8382 1587.2699999999998 1.3454603210070056e-26 9.017244658749693e-44 1.0
-19.368433333333332 54.6667 1574.74 0.0 0.0 1.0
-18.807033333333333 60.42106666666666 1574.74 0.0 0.0 1.0
-19.368433333333332 62.666666666666664 1574.74 0.0 0.0 1.0
-19.508766666666666 67.29823333333333 1574.74 0.0 0.0 1.0
1.5795586666666666 -104.15833333333335 2085.02 0.0 0.0 1.0
0.2787456666666667 -85.20323333333333 2085.02 0.0 0.0 1.0
0.2787456666666667 -84.83156666666667 2085.02 0.0 0.0 1.0
-0.09291499999999998 -83.53076666666666 2085.02 0.0 0.0 1.0
0.4645763333333333 -80.18583333333333 2085.02 0.0 0.0 1.0
-0.5517246666666668 -71.8161 2063.45 0.0 0.0 1.0
-0.7356326666666666 -67.0345 2063.45 0.0 0.0 1.0
-0.7356326666666666 -67.0345 2063.45 0.0 0.0 1.0
-0.9195413333333334 -64.8276 2063.45 0.0 0.0 1.0
-0.7356326666666666 -56.367799999999995 2063.45 0.0 0.0 1.0
-0.7356326666666666 -56.367799999999995 2063.45 0.0 0.0 1.0
-0.5517233333333333 -52.32183333333334 2063.45 0.0 0.0 1.0
-0.5517246666666668 -50.6667 2063.45 0.0 0.0 1.0
-0.183908 -49.37933333333333 2063.45 0.0 0.0 1.0
-1.2873546666666666 -46.06896666666666 2063.45 0.0 0.0 1.0
-0.8191139999999999 -41.956766666666674 2042.32 0.0 0.0 1.0
-0.8191139999999999 -41.956766666666674 2042.32 0.0 0.0 1.0
-1.1831643333333333 -39.04436666666667 2042.32 0.0 0.0 1.0
-1.1831643333333333 -39.04436666666667 2042.32 0.0 0.0 1.0
-1.5472143333333335 -34.12969999999999 2042.32 0.0 0.0 1.0
-1.7292399999999999 -31.945399999999996 2042.32 0.0 0.0 1.0
-1.5472133333333333 -31.399333333333335 2042.32 0.0 0.0 1.0
-1.5472133333333333 -29.033 2042.32 0.0 0.0 1.0
-1.1831643333333333 -27.75883333333333 2042.32 0.0 0.0 1.0
-1.1831643333333333 -27.75883333333333 2042.32 0.0 0.0 1.0
19.246399999999998 -33.739133333333335 2601.74 0.0 0.0 1.0
-16.7306 -4.0182633333333335 1639.45 0.0 0.0 1.0
-16.206266666666668 -0.22099433333333332 1653.04 0.0 0.0 1.0
-16.584500000000002 -0.07305933333333331 1639.45 0.0 0.0 1.0
-16.7306 3.2876733333333337 1639.45 0.0 0.0 1.0
-16.7306 3.57991 1639.45 0.0 0.0 1.0
-16.648266666666668 5.96685 1653.04 0.0 0.0 1.0
-17.315066666666667 10.009123333333333 1639.45 0.0 0.0 1.0
-16.7306 10.885833333333332 1639.45 0.0 0.0 1.0
-16.876733333333334 15.2694 1639.45 0.0 0.0 1.0
-17.022833333333335 25.05933333333333 1639.45 0.0 0.0 1.0
-16.7306 25.93603333333333 1639.45 0.0 0.0 1.0
-16.3536 32.19153333333333 1653.04 0.0 0.0 1.0
-16.942933333333333 34.40143333333334 1653.04 0.0 0.0 1.0
-15.764266666666666 40.73666666666667 1653.04 0.0 0.0 1.0
-18.8235 46.8449 1600.0 0.0 0.0 1.0
-18.538300000000003 47.4153 1600.0 0.0 0.0 1.0
-19.78946666666667 52.0 1574.74 0.0 0.0 1.0
-19.368433333333332 54.6667 1574.74 0.0 0.0 1.0
-19.789466666666666 59.7193 1574.74 0.0 0.0 1.0
-19.3684 61.6842 1574.74 0.0 0.0 1.0
-19.368433333333332 62.666666666666664 1574.74 0.0 0.0 1.0
-19.789466666666666 66.03506666666667 1574.74 0.0 0.0 1.0
-20.587233333333334 69.98276666666668 1550.26 0.0 0.0 1.0
-20.034566666666667 70.12093333333333 1550.26 0.0 0.0 1.0
19.710166666666666 126.72499999999998 2601.74 0.0 0.0 1.0
-0.8362373333333334 -100.62706666666668 2085.02 0.0 0.0 1.0
0.278746 -99.14053333333334 2085.02 0.0 0.0 1.0
-0.278746 -98.58303333333333 2085.02 0.0 0.0 1.0
-0.8362373333333334 -98.02553333333333 2085.02 0.0 0.0 1.0
-0.6504066666666667 -87.06156666666668 2085.02 0.0 0.0 1.0
0.09291533333333334 -85.01740000000001 2085.02 0.0 0.0 1.0
-0.9195413333333334 -71.4483 2063.45 0.0 0.0 1.0
-0.9195413333333334 -71.4483 2063.45 0.0 0.0 1.0
-1.103448 -67.21839999999999 2063.45 0.0 0.0 1.0
-0.9195413333333334 -64.8276 2063.45 0.0 0.0 1.0
-0.9195413333333334 -64.8276 2063.45 0.0 0.0 1.0
-1.2873566666666667 -60.229899999999994 2063.45 0.0 0.0 1.0
-1.2873566666666667 -60.229899999999994 2063.45 0.0 0.0 1.0
-0.7356326666666667 -56.367799999999995 2063.45 0.0 0.0 1.0
-1.103448 -51.2184 2063.45 0.0 0.0 1.0
-1.7292366666666668 -30.4892 2042.32 0.0 0.0 1.0
-1.7292366666666668 -29.7611 2042.32 0.0 0.0 1.0
19.246399999999998 -36.7536 2601.74 0.0 0.0 1.0
18.782633333333333 -34.66663333333333 2601.74 0.0 0.0 1.0
-13.448599999999999 -18.981733333333334 1724.5 0.0 0.0 1.0
-13.756 -18.366966666666666 1724.5 0.0 0.0 1.0
-13.756 -12.680100000000001 1724.5 0.0 0.0 1.0
