ply
format ascii 1.0
comment VCGLIB generated
element vertex 570
property float x
property float y
property float z
property float nx
property float ny
property float nz
element face 0
property list uchar int vertex_indices
end_header
-134.81500000000003 -69.82716666666666 2216.3 0.0 0.0 1.0
-115.96766666666667 -43.96863333333334 1448.9166666666667 0.41406946792284754 0.8972938231687017 -0.15300415235340828
-133.43233333333333 -55.407399999999996 2216.3 0.0 0.0 1.0
-135.01266666666666 -51.851866666666666 2216.3 0.0 0.0 1.0
-110.30033333333334 -17.87333333333333 1212.1866666666667 -0.9299589023736637 -0.32940104687906013 0.163313778386731
-134.81466666666665 -28.7407 2216.3 0.0 0.0 1.0
-109.38933333333334 -15.9809 1223.7233333333334 0.4628591003495655 0.8761156475102885 0.13484370734750195
-115.35633333333332 12.460699999999997 1511.1166666666668 -0.305371643795883 -0.9163605591268834 0.2589043932459736
-119.88466666666666 20.127866666666666 1642.4566666666667 -0.37745609238337446 0.49066887612125754 0.7853476633495357
-133.62966666666668 38.41973333333333 2216.3 0.0 0.0 1.0
-123.15066666666667 33.041066666666666 1744.6166666666668 0.3163681019674195 -0.9486311605380191 -0.003185170925329355
-121.33166666666666 36.437033333333325 1569.2300000000002 -4.1103884698627976e-17 -0.5674102993960751 0.8234352142939093
-113.39466666666665 36.385866666666665 1340.71 -0.6467588272644363 -0.7231653569066597 0.24235281291042338
-125.86666666666666 55.5487 1841.2300000000002 -4.278066681074546e-27 -2.851786823940774e-27 1.0
-134.42 80.49383333333334 2216.3 0.0 0.0 1.0
-134.42 80.49383333333334 2216.3 0.0 0.0 1.0
-123.71999999999998 70.32593333333334 1854.5500000000002 -0.8448950470038089 0.4224262032022806 0.3281896744209624
-124.67999999999999 67.66313333333333 1924.1299999999999 0.7061729711283388 -0.3291567374836335 0.62687764118439
-122.161 78.2059 1829.97 0.0 0.0 1.0
-105.33666666666666 69.71553333333334 1260.6766666666665 -0.20911709736972686 0.30320411570714934 0.9296974259434657
-115.36366666666667 68.95186666666666 1277.73 0.35404870016484574 -0.9347382044140501 -0.03023255067605837
-132.642 127.50600000000001 2216.3 0.0 0.0 1.0
-119.96366666666665 99.25043333333332 1727.82 0.825039907543121 0.09171955977940983 0.5575810912460265
-124.87333333333333 127.68799999999999 1854.5500000000002 -0.8239510970421988 0.29079475839085933 0.48635686298782577
-105.6871 93.597 1343.7166666666665 -0.4464329219142287 -0.6793288052257219 0.5824173938179709
-134.81466666666668 -158.519 2216.3 0.0 0.0 1.0
-121.73366666666668 -111.657 1804.2466666666667 0.7119203227785917 -0.46577367295971217 0.5255704896514308
-135.40733333333333 -137.77766666666668 2216.3 0.0 0.0 1.0
-116.532 -55.2919 1482.4133333333332 0.6624704535926371 -0.6624704535926367 0.3496652631210766
-116.69500000000001 -54.412200000000006 1483.6366666666665 -1.6411950209589652e-16 -0.8932460740695153 0.4495680717748961
-124.43299999999999 -48.5018 1632.0033333333333 0.16742418458748784 -0.40460737933703006 0.8990339320633207
-120.58933333333334 -44.042300000000004 1754.8500000000001 0.14300375870100365 0.5362555433299566 0.8318533027194628
-133.03666666666666 -42.567933333333336 2216.3 0.0 0.0 1.0
-137.941 -36.244499999999995 1979.28 -0.23057830523763015 -0.345873675251291 0.9095081340603319
-120.51566666666668 -26.210333333333335 1559.7033333333331 0.38865883910716853 0.8876702546952062 0.24695308403260743
-135.98433333333332 -25.90973333333333 2097.2366666666667 -0.690088894976499 0.6571922429577529 0.3031100011980341
-121.71033333333334 -13.755333333333333 1668.4033333333334 -0.23611460894363312 0.9445643880334291 0.22814032590146954
-121.61599999999999 -4.999859999999999 1726.1599999999999 0.9787245889283113 -2.417295001382514e-17 0.2051784077994278
-117.972 -0.6354366666666668 1598.5766666666666 0.28399192494002984 -0.2841180521126877 0.9157649911590574
-114.18566666666668 12.459766666666667 1433.8666666666668 0.5993206765098246 -0.7991983654266243 -0.04578973036847905
-115.868 12.741266666666666 1394.8933333333334 0.4469933874628109 -0.8939784030225252 -0.0316152889250865
-122.198 27.855566666666665 1731.1499999999999 -0.9948263630682682 0.09960526049361353 0.019982477983508478
-134.81466666666668 36.444433333333336 2216.3 0.0 0.0 1.0
-134.81466666666668 36.444433333333336 2216.3 0.0 0.0 1.0
-122.09366666666666 33.5652 1739.5433333333333 0.5548062331268189 -0.8317025155875495 -0.021470194432556586
-117.32733333333333 33.3573 1536.9966666666667 -0.9713484750999813 -0.16218737487958307 0.17371642222487313
-120.59166666666665 37.528933333333335 1634.9799999999998 0.7507868431087391 0.4279571876336571 0.5031617650095289
-126.93333333333334 45.11526666666666 1701.6133333333335 -0.345608560288455 0.30921649591830935 0.8859683299685963
-121.92266666666666 39.80246666666667 1486.0933333333332 0.07584188178809793 -0.8342606996690721 0.5461291916337289
-124.31433333333332 52.611766666666675 1791.6299999999999 0.0793007849173596 0.9528165153234115 0.2930052450698482
-121.19999999999999 62.78093333333334 1922.0633333333333 0.1558171987114309 0.8180819393907568 0.5535909509993641
-112.42766666666667 42.173633333333335 1208.1466666666668 -0.6139275942362978 0.7854227844885779 0.07876521212718461
-115.84933333333333 68.63873333333333 1526.5366666666669 -0.6965838927271032 0.6966732337389675 0.1715146809601021
-112.24333333333334 80.57809999999999 1604.2966666666664 0.01602385781958732 -0.7808277161637568 0.6245408822895978
-119.99866666666667 89.944 1653.0466666666664 -0.828661321026818 -0.55243923959718 0.0901737300291959
-109.916 78.4732 1419.1433333333334 -0.03939011212960347 0.8128217655694655 0.5811791431933481
-124.943 123.872 1864.1866666666667 -0.004275843360038459 -0.7987356854362074 0.6016668696000408
-135.40733333333333 152.79 2216.3 0.0 0.0 1.0
-117.72433333333333 114.18033333333334 1656.1233333333332 0.8104266236452834 0.5764650509160467 0.10438741667110056
-135.01233333333334 -163.654 2216.3 0.0 0.0 1.0
-135.605 -146.86433333333335 2216.3 0.0 0.0 1.0
-113.50433333333332 -99.70646666666669 1556.993333333333 -0.5849823103226688 0.5399820052528691 0.6051571123374847
-124.69033333333334 -94.24036666666666 1955.6133333333335 -0.039493989330616944 0.8359302052667208 0.5474129307291629
-117.92466666666667 -56.4424 1550.2666666666667 -0.8090060401422747 0.48542448723474874 0.33146989939690924
-122.38499999999999 -53.972366666666666 1732.8633333333335 -0.931022084095703 -0.2864294065584155 0.22617708545448947
-124.78399999999999 -31.11496666666667 1666.86 -0.42319570816802576 -0.44188280858303347 0.7909772285388077
-121.97566666666667 -18.861500000000003 1673.07 -0.9890257398880002 0.08601562459480888 0.12012242989782751
-124.89866666666667 -8.974236666666666 2035.42 0.14737022981111061 -0.9824078190462574 0.1147034979510046
-117.972 -0.6354366666666668 1598.5766666666666 0.2839919249400298 -0.28411805211268776 0.9157649911590575
-135.605 5.432099999999999 2216.3 0.0 0.0 1.0
-135.605 5.432099999999999 2216.3 0.0 0.0 1.0
-113.76466666666666 12.982700000000001 1421.4266666666665 0.41388425915026184 -0.9102769831413848 -0.009779263298320616
-118.61266666666666 24.894000000000002 1729.4800000000002 -1.02924663394706e-28 -2.985000672282032e-29 1.0
-132.7566666666667 42.356433333333335 2080.193333333333 0.66247179730056 -0.48580576161949285 0.5701963519338492
-125.60533333333332 42.01226666666667 1837.4633333333331 0.4887993686753606 -0.6516660966515405 0.5800055824365088
-117.98166666666667 35.3847 1535.6733333333332 0.979667741893353 0.16357645416135466 -0.1161630713160466
-124.605 52.1089 1829.9800000000002 -0.5989063513733054 -0.7985289719485633 0.06051994087476861
-125.86666666666667 55.5487 1841.2300000000002 1.5686566352785285e-26 1.1409079157331546e-26 1.0
-118.649 50.87343333333333 1424.8100000000002 -0.5956025361063227 -0.6702933653481525 0.4426786908740522
-126.56766666666665 75.82693333333333 1990.25 -0.0857513608007465 0.7717703133680281 0.6300930784611395
-125.12 77.6413 1824.3999999999999 -0.9888491619645351 0.00017678550827937692 0.1489204607464023
-135.605 106.173 2216.3 0.0 0.0 1.0
-119.60133333333333 96.4612 1766.93 -5.689157549810937e-16 -0.6030066250539972 0.7977361782826377
-125.396 112.11366666666667 1862.2433333333336 0.8480286754023068 0.1411963491642775 0.5107944368120003
-128.72733333333335 116.18366666666667 1901.6966666666667 0.5111690512442926 0.8178704819908724 0.26418568420341676
-127.51033333333334 121.43466666666666 1893.67 0.0 0.0 1.0
-125.02833333333335 136.258 1895.6733333333334 -0.5870311053550301 0.733716408717817 0.3421325955296882
-126.28233333333333 128.56466666666665 1831.8400000000001 0.7329407806173278 0.5757827005229099 0.36231490983205134
-124.00133333333333 129.085 1811.5033333333333 1.9998063577680367e-16 -0.7559166047879966 0.6546679208620106
-135.20966666666666 -136.98766666666666 2216.3 0.0 0.0 1.0
-136.19766666666666 -133.037 2216.3 0.0 0.0 1.0
-122.492 -105.07133333333333 1815.2366666666667 0.4313377472793002 -0.878764828025871 0.20425504839949452
-135.60500000000002 -128.296 2216.3 0.0 0.0 1.0
-136.19766666666666 -115.45633333333335 2216.3 0.0 0.0 1.0
-118.01499999999999 -71.16609999999999 1536.9866666666667 0.8862392038810996 0.031627489888173994 0.4621469196993184
-123.85866666666668 -80.54899999999999 1766.9300000000003 0.9946891057957025 0.08120332392472328 0.06324241452476678
-124.76433333333334 -75.0578 1753.17 -0.8980964144135308 0.4105854046754932 -0.15761489740827478
-119.65166666666669 -61.767566666666674 1460.7066666666667 0.024605646156108264 -0.7627624512656493 0.6462104959813469
-116.92900000000002 -55.2919 1482.4133333333332 0.6056170783400541 -0.6056170783400547 0.5161936737753695
-118.96900000000001 -43.97453333333333 1604.2966666666664 0.7852360373736184 -0.6186572113256965 0.02583835297557294
-114.82099999999998 -44.90403333333333 1529.13 -0.3782489210383915 -0.6430629123589566 0.6658812540398698
-123.40533333333333 -43.37856666666667 1636.4833333333333 0.6921162986191769 -0.2466255419775142 0.6783442129405894
-118.30233333333335 -35.3265 1588.6766666666665 5.213173175750616e-17 -0.9345480630248907 0.3558369259877689
-118.33366666666667 -34.36536666666667 1590.0833333333333 0.2693496272034206 -0.897761760732071 0.3485320635072613
-121.34433333333334 -28.83893333333333 1574.7666666666667 0.7160131774520117 0.6686032953965416 0.20073555514646352
-118.88499999999999 -28.837833333333332 1566.5199999999998 0.43239040798590406 0.866940382575921 0.24789697081832027
-125.19599999999998 -34.03576666666667 1868.0833333333333 0.5758816200195567 -0.7938051785133969 0.1955343915759198
-119.67733333333335 -22.57146666666667 1639.46 0.6686852416736003 -0.33474345366169955 0.663932878985938
-121.71033333333332 -13.755333333333335 1668.403333333333 -0.23611460894363306 0.9445643880334291 0.22814032590146954
-121.21100000000001 -9.11238 1690.4033333333334 0.6771546508911278 -0.47194199815166255 0.5645638397534251
-122.24433333333333 -5.21894 1862.2433333333336 0.37150433852991216 -0.23217041374294425 0.8989334933330065
-115.72966666666666 7.600446333333333 1509.84 0.7662721843414743 -0.09287199603279478 0.635768615030209
-137.38233333333335 11.753099999999998 2216.3 0.0 0.0 1.0
-129.73533333333333 49.12593333333333 2124.523333333333 0.4783020568989504 0.37584475944791845 0.7937051462361634
-117.634 36.1266 1538.3100000000002 -0.9647902319829279 -0.19950534851984916 0.17139843693074297
-122.19533333333334 51.4634 1824.39 0.0 0.0 1.0
-136.19733333333335 110.12366666666667 2216.3 0.0 0.0 1.0
-132.502 97.52736666666665 1928.2533333333333 0.06005307238475865 0.900854265457868 0.429947928130275
-118.84666666666668 77.8017 1501.0166666666667 -0.44647268854837646 0.8929259657832824 -0.057839069930080554
-125.396 112.11366666666667 1862.2433333333336 0.8480286754023068 0.1411963491642772 0.5107944368120003
-127.79766666666667 115.91266666666665 1891.68 0.9257769743410239 0.3700182851631642 -0.07761096845736305
-128.79666666666665 116.61866666666667 1897.676666666667 0.5268240869855838 0.8429185391769384 -0.10929189212206834
-136.21733333333333 123.531 1961.9833333333336 0.28978588190683696 0.7922394374694417 0.5370110020898822
-127.51033333333334 121.43466666666666 1893.67 0.0 0.0 1.0
-135.40733333333333 152.79 2216.3 0.0 0.0 1.0
-136.395 -146.86433333333332 2216.3 0.0 0.0 1.0
-136.395 -146.86433333333332 2216.3 0.0 0.0 1.0
-136.395 -137.975 2216.3 0.0 0.0 1.0
-135.80233333333334 -137.185 2216.3 0.0 0.0 1.0
-125.21133333333334 -104.67533333333334 1828.1766666666665 -0.6569623724276665 -0.7447224042789573 0.11742649521799219
-136.19766666666666 -123.95033333333333 2216.3 0.0 0.0 1.0
-136.59266666666667 -122.96266666666668 2216.3 0.0 0.0 1.0
-113.327 -88.5374 1561.0600000000002 0.06763684669488634 -0.6411139639468857 0.764459379039517
-136.59266666666664 -112.69133333333333 2216.3 0.0 0.0 1.0
-136.395 -111.90133333333334 2216.3 0.0 0.0 1.0
-119.04566666666666 -65.09883333333333 1539.6366666666665 0.448922635534386 -0.6035630850939645 0.6589234171106052
-122.60000000000001 -70.79483333333333 1766.93 -0.4891913772701639 0.4515833500428983 0.7461663851772963
-116.69500000000001 -54.412200000000006 1483.6366666666665 -4.923585062876896e-16 -0.8932460740695153 0.449568071774896
-114.03133333333334 -50.79753333333334 1567.86 0.3214558978583709 0.22253753537196697 0.9204037978423595
-122.26066666666667 -47.66603333333333 1841.24 0.7122432675763437 -0.4871890254905311 0.5053279937167139
-121.793 -15.7293 1739.5433333333333 -0.25450624633598223 -0.8884861204162641 0.3818625202918248
-122.95866666666666 -2.68972 1724.5 0.0 0.0 1.0
-126.63466666666666 6.638685333333332 1746.3266666666666 0.25151110207556454 -0.5598067980778004 0.7895305658165589
-136.19766666666666 36.8395 2216.3 0.0 0.0 1.0
-136.19766666666666 36.8395 2216.3 0.0 0.0 1.0
-125.43400000000001 57.5582 1679.3366666666668 0.7136493923524171 -0.2196202324782254 0.6651853112338215
-134.42 80.49383333333334 2216.3 0.0 0.0 1.0
-131.59766666666667 69.491 1951.3266666666666 0.19717486433829204 -0.6079343584433434 0.7691150035575022
-124.57833333333333 82.81126666666667 1802.41 0.0 0.0 1.0
-123.57133333333333 76.67163333333333 1820.6899999999998 0.4429492725226467 0.7197669513412229 0.5345385652397959
-137.97533333333334 101.03713333333333 2216.3 0.0 0.0 1.0
-136.395 106.173 2216.3 0.0 0.0 1.0
-136.395 106.173 2216.3 0.0 0.0 1.0
-135.80233333333334 108.54333333333334 2216.3 0.0 0.0 1.0
-136.19733333333332 111.50633333333333 2216.3 0.0 0.0 1.0
-116.38600000000001 69.40536666666667 1336.7366666666667 -0.33412555764942153 0.9291796872294519 -0.1580671394238577
-128.69233333333332 106.03866666666666 1848.8166666666666 0.752957932843445 -0.46334068152852476 0.46730050739198675
-140.54333333333332 135.80233333333334 2216.3 0.0 0.0 1.0
-128.42 116.46166666666666 1889.6899999999998 -0.8712529536942619 -0.4840507275202103 0.0813214846530692
-131.67133333333334 131.19033333333334 1940.8466666666666 -0.05851467492035307 0.9946155992963664 0.08553269816447301
-137.58033333333333 -149.8273333333333 2216.3 0.0 0.0 1.0
-136.19766666666666 -134.41966666666667 2216.3 0.0 0.0 1.0
-136.19766666666666 -133.037 2216.3 0.0 0.0 1.0
-136.98766666666666 -125.53066666666666 2216.3 0.0 0.0 1.0
-137.38266666666667 -120.19766666666668 2216.3 0.0 0.0 1.0
-136.19766666666666 -115.45633333333335 2216.3 0.0 0.0 1.0
-136.59266666666664 -112.69133333333333 2216.3 0.0 0.0 1.0
-127.92666666666666 -77.56296666666667 1826.25 -0.1625354188354752 0.44697760792884583 0.8796551913302073
-121.97566666666667 -18.8615 1673.07 -0.9890257398880001 0.08601562459480892 0.12012242989782733
-122.46533333333333 -17.296 1651.5199999999998 -0.9938688484721867 -0.11043264813713607 -0.00541684982156855
-121.71033333333334 -13.755333333333333 1668.4033333333334 -0.23611460894363312 0.9445643880334291 0.22814032590146954
-122.95866666666666 -2.68972 1724.5 0.0 0.0 1.0
-137.18533333333335 3.25926 2216.3 0.0 0.0 1.0
-111.84033333333333 12.21868 1312.3066666666666 -0.5274300162530386 0.5783920751424044 0.6223183954920363
-138.37066666666666 16.49383333333333 2216.3 0.0 0.0 1.0
-109.83433333333335 11.317006666666666 1251.0200000000002 0.6764080892481018 -0.2951060954776847 0.6748218203434501
-136.19766666666666 36.83950000000001 2216.3 0.0 0.0 1.0
-125.88466666666666 33.1059 1748.01 0.1479979919599633 0.9619790393293766 0.2295493896022125
-129.22433333333333 34.07853333333333 1807.8499999999997 7.20163124811597e-29 -1.3204944310222797e-27 1.0
-140.14833333333334 75.1605 2216.3 0.0 0.0 1.0
-125.79199999999999 71.69633333333333 2003.5900000000001 -0.2547229332240235 0.9551887610735768 0.15076689957837108
-130.45899999999997 72.86856666666667 1996.92 0.9425318998281224 -0.33270367518402744 -0.03069010142426842
-118.82933333333334 56.82443333333333 1454.8066666666666 0.841295596229678 0.3928143408965626 0.37137395351660013
-118.67533333333334 56.45723333333333 1433.8999999999999 -0.4918944882178089 -0.717216783578006 0.4935989240415334
-137.77800000000002 90.17286666666666 2216.3 0.0 0.0 1.0
-124.80233333333332 98.63259999999998 1858.3966666666668 0.1840523038487207 0.9808813909588155 0.06321745264305877
-119.99866666666667 89.944 1653.0466666666664 -0.8286613210268179 -0.55243923959718 0.09017373002919603
-122.587 107.86066666666666 1786.2699999999998 -7.826702819363762e-29 -6.270034509746995e-29 1.0
-111.79466666666667 70.33756666666666 1211.3400000000001 -0.24188095776726315 -0.9668521468296778 0.08179565049826767
-127.67933333333333 118.05933333333333 1893.67 0.0 0.0 1.0
-136.59266666666667 153.185 2216.3 0.0 0.0 1.0
-114.57566666666666 83.03786666666666 1213.7966666666669 0.14959947555474642 -0.16919684148427153 0.9741624226716462
-134.42 159.30833333333334 2216.3 0.0 0.0 1.0
-136.98766666666668 -164.444 2216.3 0.0 0.0 1.0
-138.1726666666667 -160.69133333333335 2216.3 0.0 0.0 1.0
-137.58 -159.50633333333334 2216.3 0.0 0.0 1.0
-136.98766666666666 -147.852 2216.3 0.0 0.0 1.0
-137.38266666666667 -138.963 2216.3 0.0 0.0 1.0
-137.58 -138.56766666666667 2216.3 0.0 0.0 1.0
-137.38266666666667 -120.19766666666668 2216.3 0.0 0.0 1.0
-136.395 -111.90133333333334 2216.3 0.0 0.0 1.0
-138.76533333333336 -95.50616666666667 2216.3 0.0 0.0 1.0
-116.72466666666666 -50.35566666666667 1484.86 0.0 0.0 1.0
-118.76833333333333 -36.827666666666666 1452.4333333333334 -0.9399536317460675 -0.022761352541030715 0.34054234831791624
-120.25866666666667 -18.696466666666666 1645.4666666666665 -0.1712979871353003 -0.8565548852431737 0.4867963929297832
-122.53466666666668 -17.113466666666664 1648.493333333333 0.9996625945462013 -0.0005477327686119552 0.02596915581938069
-122.46533333333333 -17.296 1651.5199999999998 -0.9938688484721868 -0.11043264813713598 -0.005416849821568525
-125.21033333333334 -10.188266666666665 1693.5866666666668 0.565444175592866 -0.565511349858079 0.6003913702492713
-137.18533333333335 3.25926 2216.3 0.0 0.0 1.0
-116.32266666666665 15.859666666666664 1374.5900000000001 -0.7843122168662267 0.4834867512713892 0.3887092844523051
-117.13966666666666 37.94943333333334 1529.14 -0.4647541383972233 0.755209462633041 0.4622361500274162
-125.70266666666667 57.353833333333334 1841.2300000000002 1.3218809078445786e-27 -6.605426752941021e-28 1.0
-126.10199999999999 57.56373333333334 1837.4633333333331 0.24006173966024918 0.9601491339712052 0.14312233119132492
-126.367 56.91133333333334 1692.0100000000002 0.24768529737017375 0.79517205033456 0.5534920088252229
-137.77800000000002 90.17286666666666 2216.3 0.0 0.0 1.0
-136.395 106.173 2216.3 0.0 0.0 1.0
-136.19733333333332 111.50633333333333 2216.3 0.0 0.0 1.0
-110.581 72.2847 1343.74 0.24872613355958276 -0.9564610284423803 0.15270105289566416
-115.879 69.28846666666668 1232.9866666666667 0.24818387930264266 -0.9615425944166943 0.11764608440871917
-127.09066666666666 120.49433333333333 1850.7233333333334 -0.7784111815318485 -0.544919252634731 0.3116713663046348
-136.39499999999998 151.605 2216.3 0.0 0.0 1.0
-121.18399999999998 116.863 1671.5166666666664 0.595918901123098 0.7696009330981514 0.22933614424833643
-137.77766666666668 -148.83966666666666 2216.3 0.0 0.0 1.0
-137.77766666666665 -138.963 2216.3 0.0 0.0 1.0
-137.77766666666668 -137.77766666666665 2216.3 0.0 0.0 1.0
-137.97533333333334 -128.09866666666667 2216.3 0.0 0.0 1.0
-137.97533333333334 -128.09866666666667 2216.3 0.0 0.0 1.0
-137.38266666666667 -121.77766666666668 2216.3 0.0 0.0 1.0
-133.37566666666666 -103.38233333333334 2026.1866666666665 0.15708946247043556 -0.5760751553963445 0.802159782160529
-118.906 -69.30123333333334 1529.14 -0.8783785679132327 -0.2926732998845128 0.3778801806993967
-138.963 -89.9753 2216.3 0.0 0.0 1.0
-138.37066666666666 -80.49383333333333 2216.3 0.0 0.0 1.0
-137.778 -77.13576666666667 2216.3 0.0 0.0 1.0
-137.778 -77.13576666666667 2216.3 0.0 0.0 1.0
-137.778 -77.13576666666667 2216.3 0.0 0.0 1.0
-138.76566666666668 -70.2222 2216.3 0.0 0.0 1.0
-124.76333333333334 -48.88453333333333 1928.253333333333 -0.3411623762746054 -0.22744158418307045 0.9120737682879384
-124.18866666666668 -47.12206666666666 1724.506666666667 0.9738614431504138 0.11884157922424433 0.19357316082680676
-138.76566666666668 -49.87656666666666 2216.3 0.0 0.0 1.0
-125.41333333333334 -30.506200000000003 1724.506666666667 -0.45232800248610666 -0.7673437381890355 0.45451398837550194
-137.18533333333335 -42.567933333333336 2216.3 0.0 0.0 1.0
-126.59266666666666 -26.738633333333336 1780.9633333333334 0.8460128167396428 0.5288006507146206 0.06806016247445666
-121.972 -19.711266666666667 1551.61 -0.6806114281512108 0.6807570056985396 0.2708098651495692
-124.259 -10.51132 1604.2966666666664 0.16286952990246806 0.9237902357886189 0.34653299480851296
-137.18533333333332 3.25926 2216.3 0.0 0.0 1.0
-113.14366666666668 8.314359999999999 1250.1533333333334 -0.9630670414109157 -0.0171697107307285 0.2687137413335022
-115.87666666666667 14.313400000000001 1390.5566666666666 -0.9062462828989234 -0.27194956203685183 0.3236682104251958
-115.878 14.0876 1380.9433333333334 0.9931344745990662 -0.11479158207506315 0.022512397640867866
-120.57733333333333 14.121536666666666 1358.0033333333333 0.10196049475865368 -0.9463420201361749 0.30666078724407286
-120.70800000000001 31.26193333333333 1766.9300000000003 -0.3922754551518857 -0.748918354225027 0.5340798311022967
-127.90499999999999 48.703633333333336 1800.6066666666666 0.4475511450293775 0.671431193352159 0.5906590600139718
-126.37399999999998 50.68666666666667 1797.01 0.5650395735528237 0.5640178793775535 0.602174486392184
-123.03133333333334 48.061366666666665 1765.2 0.4317019233392126 0.8634188715522423 0.2610388891193743
-128.80666666666664 55.22636666666667 1846.91 0.0 0.0 1.0
-119.70933333333333 44.4101 1463.0866666666668 0.5979861154727073 -0.2987615070227495 0.7437433479523412
-136.59266666666667 153.185 2216.3 0.0 0.0 1.0
-137.58 -159.50633333333334 2216.3 0.0 0.0 1.0
-138.37033333333332 -149.037 2216.3 0.0 0.0 1.0
-137.58 -138.56766666666667 2216.3 0.0 0.0 1.0
-137.77766666666665 -131.45666666666668 2216.3 0.0 0.0 1.0
-138.37 -129.87633333333332 2216.3 0.0 0.0 1.0
-137.97533333333334 -128.09866666666667 2216.3 0.0 0.0 1.0
-138.1726666666667 -127.70366666666666 2216.3 0.0 0.0 1.0
-138.17266666666666 -120.0 2216.3 0.0 0.0 1.0
-130.46399999999997 -82.1153 1749.72 0.6764896895317031 -0.5703701295031656 0.4658751070059893
-118.906 -69.30123333333334 1529.14 -0.8783785679132325 -0.292673299884513 0.3778801806993968
-138.37 -92.7407 2216.3 0.0 0.0 1.0
-138.37 -92.7407 2216.3 0.0 0.0 1.0
-138.37 -92.7407 2216.3 0.0 0.0 1.0
-112.79633333333334 -52.43886666666666 1244.9433333333334 0.4652099730273156 0.2667138661263926 0.8440636200025665
-124.14933333333333 -75.43253333333334 1938.6666666666667 -0.1526779377275025 0.3944229201110257 0.906156723432745
-139.75300000000001 -59.160533333333326 2216.3 0.0 0.0 1.0
-138.173 -29.72836666666667 2216.3 0.0 0.0 1.0
-124.43900000000001 -12.86812 1595.74 -0.6598731800187104 -0.40097775058188506 0.6354401858792741
-123.843 -9.391824666666666 1741.2233333333334 0.8920912783394983 -0.14384950564216983 0.4283462044154276
-126.18433333333333 -11.649686666666666 1777.43 0.7062056220448525 -0.7062413208479279 -0.04996815104861225
-121.15666666666665 -12.131333333333336 1573.36 -0.3345134310873937 0.7719164638297437 0.5405975742553081
-139.16033333333334 -11.950633333333334 2216.3 0.0 0.0 1.0
-139.358 0.4938283333333333 2216.3 0.0 0.0 1.0
-115.629 9.982393333333333 1390.5566666666666 -0.9531591177937946 0.038102866232523395 0.30005977363089137
-139.16033333333334 11.950633333333334 2216.3 0.0 0.0 1.0
-138.96266666666668 13.333333333333334 2216.3 0.0 0.0 1.0
-134.20533333333333 26.4378 2023.9166666666667 0.9928998751850714 0.10637395693056947 -0.05323926318426543
-121.57266666666668 26.122433333333333 1633.4966666666667 0.8473600083159057 -0.5214937158041622 0.10012652337735435
-136.75133333333335 34.02 1932.4033333333334 0.3447001384218693 -0.5457543484887143 0.7637630559784908
-128.13233333333332 37.06916666666667 1852.63 0.0 0.0 1.0
-125.01866666666668 41.1572 1732.82 -0.8943490490917259 -0.44719174277098106 -0.012622344717931618
-125.43400000000001 57.5582 1679.3366666666668 0.7136493923524171 -0.2196202324782254 0.6651853112338215
-129.07933333333332 77.4911 1875.8733333333332 0.397764578028695 -0.8903038068346399 0.22168101407518437
-111.79466666666667 70.33756666666666 1211.3400000000001 -0.2418809577672633 -0.9668521468296779 0.08179565049826776
-129.405 107.794 1850.7233333333334 0.5772097218865029 -0.6596206859285605 0.4813828909037393
-140.74066666666667 140.74066666666667 2216.3 0.0 0.0 1.0
-125.01733333333334 114.99000000000001 1788.0533333333333 -0.6936067515085773 -0.07175932964492057 0.7167707254559371
-138.37033333333332 -163.654 2216.3 0.0 0.0 1.0
-138.37033333333332 -162.46900000000002 2216.3 0.0 0.0 1.0
-129.19633333333334 -116.78899999999999 1679.3666666666668 0.7282385798462628 0.6853236246028124 -0.0003168355439169342
-138.37033333333332 -149.037 2216.3 0.0 0.0 1.0
-139.16066666666666 -122.96266666666668 2216.3 0.0 0.0 1.0
-138.17266666666666 -120.0 2216.3 0.0 0.0 1.0
-138.76533333333333 -112.09866666666666 2216.3 0.0 0.0 1.0
-140.148 -106.76533333333334 2216.3 0.0 0.0 1.0
-129.66333333333333 -84.0704 1795.2166666666665 0.41644436813767205 -0.90229009396446 0.11156466546367251
-115.84766666666667 -48.741800000000005 1338.7033333333331 -0.45857392410914793 -0.8501174456324825 0.25886344809269723
-130.61866666666666 -59.41746666666666 1784.54 -0.2953656415290926 -0.9541642887227524 -0.04826642653347466
-140.148 -72.5926 2216.3 0.0 0.0 1.0
-126.099 -45.97096666666667 1604.2966666666664 -0.4485090670894324 -0.5662708129612204 0.6915034223536465
-117.67466666666667 -40.51826666666667 1450.0833333333333 0.7092267095095393 0.4091570690043311 0.5740975242953558
-138.76566666666668 -49.87656666666667 2216.3 0.0 0.0 1.0
-122.98133333333334 -37.68116666666666 1858.39 0.0 0.0 1.0
-110.30033333333334 -17.87333333333333 1212.1866666666667 -0.9299589023736634 -0.32940104687905997 0.16331377838673125
-123.73 -18.586 1550.2666666666667 -0.17767547157484956 0.9329536140679521 0.3130958013104003
-139.75300000000001 -16.691366666666667 2216.3 0.0 0.0 1.0
-122.139 -12.32982 1600.006666666667 -0.9841114299002399 -0.13423701084935127 0.11621152463476363
-139.16033333333334 -11.950633333333334 2216.3 0.0 0.0 1.0
-114.41566666666665 5.931763333333333 1204.0366666666666 0.5660800610184912 -0.21362502779843642 0.7961894950421152
-139.55566666666667 16.2963 2216.3 0.0 0.0 1.0
-118.44466666666666 13.643466666666667 1398.1366666666665 0.29764884863218216 0.8734322495901814 0.38538457193272707
-119.31400000000001 39.2048 1458.3400000000001 -0.9476458136032234 -0.04646321398822568 0.3159249621447615
-129.30066666666664 55.061733333333336 1846.91 0.0 0.0 1.0
-129.30066666666664 55.061733333333336 1846.91 0.0 0.0 1.0
-119.14466666666668 48.08453333333333 1374.58 0.6175790007972543 0.016260218379723503 0.7863407550626565
-124.617 58.73043333333333 1617.3066666666666 0.8762124295911511 -0.4818877351397667 -0.005999079249195253
-120.33066666666666 60.16586666666666 1612.9466666666667 0.5535606198566203 0.8302505083813448 0.06522831805644652
-127.68566666666668 87.23913333333333 1804.2233333333334 0.4732367831496619 0.8413365077045725 0.26115096759850176
-129.851 117.283 1905.7433333333336 -0.7781525574706792 -0.6225282598841702 0.08328963289286713
-128.75733333333335 117.30566666666665 1889.6899999999998 -0.86577790387942 -0.4810088992717708 0.13805455434543648
-131.76933333333332 121.56400000000001 1846.91 0.0 0.0 1.0
-113.01266666666668 -86.84566666666666 1258.0333333333335 -0.8051957125896636 -0.2664789221991421 0.529763011591794
-118.47933333333333 -121.85666666666667 1668.4399999999998 0.1102085613220418 0.991815207181107 0.06447222514869125
-140.346 -153.97533333333334 2216.3 0.0 0.0 1.0
-138.568 -139.55566666666667 2216.3 0.0 0.0 1.0
-139.358 -137.38266666666667 2216.3 0.0 0.0 1.0
-139.55566666666667 -112.88866666666667 2216.3 0.0 0.0 1.0
-119.62033333333333 -62.07339999999999 1546.28 -0.7446982882594936 -0.6128710826431542 0.2642224356923316
-139.55566666666667 -81.28396666666667 2216.3 0.0 0.0 1.0
-139.55566666666667 -69.6296 2216.3 0.0 0.0 1.0
-125.76766666666667 -38.836800000000004 1469.08 0.18887190478248178 0.6121673425137645 0.7678401841161171
-139.75300000000001 -59.160533333333326 2216.3 0.0 0.0 1.0
-140.741 -53.4321 2216.3 0.0 0.0 1.0
-138.76566666666668 -49.87656666666666 2216.3 0.0 0.0 1.0
-137.18533333333335 -42.567933333333336 2216.3 0.0 0.0 1.0
-126.96766666666666 -28.651466666666664 1512.4133333333332 -0.7806373636604865 0.507815288137997 0.36431983145380464
-118.188 -20.750866666666667 1389.4866666666667 -0.07031218907786013 0.7785740965755834 0.6236012926610989
-125.06866666666666 -12.529433333333332 1862.2433333333336 0.4804498775552729 -0.12010902688303167 0.8687587333767266
-139.55566666666667 16.2963 2216.3 0.0 0.0 1.0
-129.05366666666666 19.35223333333333 2019.3633333333335 0.37714607479596207 0.9256816837508041 -0.029567864892061868
-115.87666666666667 14.313400000000001 1390.5566666666666 -0.9062462828989234 -0.27194956203685183 0.3236682104251958
-140.3456666666667 35.851866666666666 2216.3 0.0 0.0 1.0
-138.53133333333335 28.2088 1889.6899999999998 0.41189042822512767 -0.9061540457297608 0.09607872055823756
-126.17999999999999 32.43246666666667 1815.1766666666665 -0.5336758225163258 -0.8449707157509294 0.03485119775395341
-128.45533333333333 37.021433333333334 1833.71 0.5359473013328591 -0.7145236026327079 0.4496849024314712
-129.30066666666664 55.061733333333336 1846.91 0.0 0.0 1.0
-125.372 46.88816666666667 1700.006666666667 -0.8251549505693766 -0.05933120922861478 0.5617820886805843
-124.25066666666665 52.14023333333333 1475.1299999999999 -0.15128754271919195 -0.9185367594032093 0.365242797386943
-140.14833333333334 81.08643333333335 2216.3 0.0 0.0 1.0
-123.79133333333334 63.79116666666667 1547.5866666666668 -0.8504555614095175 -0.392418142835061 0.350333183186384
-138.76566666666668 89.7778 2216.3 0.0 0.0 1.0
-138.76566666666668 89.7778 2216.3 0.0 0.0 1.0
-130.02200000000002 74.0339 1784.4966666666667 0.7588739302400123 0.25298740072907544 0.6000897708463488
-111.79466666666667 70.33756666666666 1211.34 -0.24188095776726326 -0.9668521468296777 0.08179565049826787
-130.66633333333334 129.374 1813.33 0.0 0.0 1.0
-127.58566666666667 -98.28320000000001 1380.9633333333334 0.46877437239846204 0.8250477894269641 0.3155102739121308
-140.3456666666667 -147.45666666666668 2216.3 0.0 0.0 1.0
-140.3456666666667 -147.45666666666668 2216.3 0.0 0.0 1.0
-130.03866666666667 -105.38976666666667 1763.4800000000002 -0.6778641902006148 0.3144935184205757 0.6645253693540313
-140.3456666666667 -137.38266666666667 2216.3 0.0 0.0 1.0
-140.741 -115.654 2216.3 0.0 0.0 1.0
-140.148 -111.90100000000001 2216.3 0.0 0.0 1.0
-140.54333333333332 -109.72833333333334 2216.3 0.0 0.0 1.0
-140.148 -104.19766666666668 2216.3 0.0 0.0 1.0
-138.963 -74.37036666666667 2216.3 0.0 0.0 1.0
-122.08333333333333 -26.023600000000002 1441.9333333333334 -0.2500918434429797 0.9581099541521798 0.1395685695197882
-140.14833333333334 -36.64196666666667 2216.3 0.0 0.0 1.0
-123.99333333333334 -25.26176666666667 1479.97 -0.45637181689686157 0.8712600484634897 0.18063967641040374
-128.71366666666665 -16.869143333333334 2089.896666666667 -0.5664039563110465 0.7787976612643064 0.2695566008919851
-140.74066666666667 -18.27163333333333 2216.3 0.0 0.0 1.0
-139.35799999999998 -14.123466666666666 2216.3 0.0 0.0 1.0
-129.08733333333336 -6.167540666666667 1837.5100000000002 0.8074196855664126 -0.41941276538829053 0.41492937180824185
-124.93833333333333 -6.017133333333334 1666.86 -0.9446743472371073 -0.29636650967116945 0.14056055498422648
-140.14833333333334 15.7037 2216.3 0.0 0.0 1.0
-136.46033333333335 31.98606666666667 2080.193333333333 0.620054889424173 -0.13610947708386512 0.7726617269860941
-140.3456666666667 35.851866666666666 2216.3 0.0 0.0 1.0
-134.20533333333333 26.4378 2023.9166666666667 0.9928998751850714 0.10637395693056967 -0.05323926318426553
-128.65066666666667 44.84126666666666 1780.95 0.0 0.0 1.0
-123.545 60.4084 1659.1599999999999 -0.6703396051597852 0.7312322024007718 0.12627066138394993
-121.58966666666667 57.87460000000001 1601.4433333333334 -0.15786154839625258 0.9520823525174629 0.26195214364984926
-123.72500000000001 59.59633333333333 1535.6866666666667 -0.8505101990209571 -0.5177267503069631 -0.09268987742965015
-140.74066666666667 110.51866666666666 2216.3 0.0 0.0 1.0
-129.13400000000001 117.46266666666666 1897.676666666667 0.5234995935100867 0.837599349616143 0.15612656762187624
-132.918 118.71233333333333 1864.17 0.0 0.0 1.0
-132.091 125.466 1858.39 0.0 0.0 1.0
-130.25 125.41666666666667 1870.0 0.0 0.0 1.0
-139.95066666666668 -157.92600000000002 2216.3 0.0 0.0 1.0
-141.33366666666666 -156.54333333333332 2216.3 0.0 0.0 1.0
-141.3336666666667 -152.79033333333334 2216.3 0.0 0.0 1.0
-121.56533333333334 -90.06400000000001 1289.6666666666667 0.5993554253557137 0.17120901154229035 0.7819594289113619
-139.95066666666665 -148.04899999999998 2216.3 0.0 0.0 1.0
-141.531 -133.037 2216.3 0.0 0.0 1.0
-140.54333333333332 -124.74066666666666 2216.3 0.0 0.0 1.0
-141.72866666666667 -123.358 2216.3 0.0 0.0 1.0
-119.23733333333332 -64.15283333333333 1242.3733333333332 -0.3427909662084186 -0.6910332408911736 0.6363705001564263
-140.93833333333336 -110.32099999999998 2216.3 0.0 0.0 1.0
-140.54333333333332 -109.72833333333334 2216.3 0.0 0.0 1.0
-141.136 -95.70369999999998 2216.3 0.0 0.0 1.0
-141.136 -95.70369999999998 2216.3 0.0 0.0 1.0
-140.54333333333332 -92.14813333333332 2216.3 0.0 0.0 1.0
-139.75333333333333 -89.7778 2216.3 0.0 0.0 1.0
-123.95800000000001 -49.2908 1758.28 -0.03176833748524308 0.5082528961461904 0.8606217324077016
-141.72866666666667 8.592593333333333 2216.3 0.0 0.0 1.0
-140.741 9.777793333333333 2216.3 0.0 0.0 1.0
-139.95066666666668 10.76546 2216.3 0.0 0.0 1.0
-140.74066666666667 15.308633333333333 2216.3 0.0 0.0 1.0
-132.76166666666666 19.013099999999998 1829.9800000000002 -0.5548842337655013 -0.5544913462687235 0.6201958029780362
-122.81966666666666 21.1494 1688.8266666666666 -0.32948093574832776 -0.9375609119378343 0.1114533507109714
-116.32266666666665 15.859666666666667 1374.5900000000001 -0.7843122168662264 0.4834867512713894 0.38870928445230524
-119.71433333333333 22.33366666666667 1611.493333333333 0.32128044732170163 0.9103525428051913 0.26083926463799445
-134.82333333333335 36.950266666666664 1988.0566666666666 -0.6329845117492612 -0.14164808439299412 0.7610955446416334
-124.286 51.09053333333333 1907.76 -0.2688050694573008 0.4398637128797642 0.8568919119268684
-130.6183333333333 50.598166666666664 1858.3966666666668 0.5458899732308963 0.09690411467870012 0.8322341795938861
-140.74066666666667 110.51866666666666 2216.3 0.0 0.0 1.0
-115.36366666666667 68.95186666666666 1277.73 0.35404870016484574 -0.9347382044140502 -0.03023255067605848
-130.782 103.95066666666666 1846.91 0.0 0.0 1.0
-133.14566666666667 120.86033333333334 1826.25 0.41763865784990406 -0.37121322162421877 0.8293242403069497
-121.18399999999998 116.863 1671.5166666666664 0.5959189011230982 0.7696009330981514 0.22933614424833623
-140.3456666666667 -137.38266666666667 2216.3 0.0 0.0 1.0
-140.74066666666667 -111.30866666666667 2216.3 0.0 0.0 1.0
-140.148 -104.19766666666668 2216.3 0.0 0.0 1.0
-141.33333333333334 -82.8642 2216.3 0.0 0.0 1.0
-141.92566666666667 -79.30863333333333 2216.3 0.0 0.0 1.0
-141.92566666666667 -79.30863333333333 2216.3 0.0 0.0 1.0
-139.95066666666665 -70.61726666666668 2216.3 0.0 0.0 1.0
-141.136 -60.14816666666667 2216.3 0.0 0.0 1.0
-121.836 -35.13256666666666 1446.5766666666668 -0.13544461579552886 -0.948112310568698 0.2876417956418822
-121.836 -35.13256666666666 1446.5766666666668 -0.13544461579552886 -0.948112310568698 0.2876417956418822
-125.907 -44.34810000000001 1932.4033333333334 0.4711612092302961 0.31410747282019774 0.8242230343997635
-140.74066666666667 15.308633333333333 2216.3 0.0 0.0 1.0
-118.05333333333333 15.368466666666668 1454.7833333333335 0.09979387276882215 -0.4823498688072624 0.8702756959834147
-120.46866666666666 11.879566666666667 1506.04 -0.20093682261935114 -0.9472776622846204 0.24957849236707863
-144.09866666666667 23.20986666666667 2216.3 0.0 0.0 1.0
-147.35433333333333 26.183900000000005 2200.02 0.31989708378559434 -0.8797467617801994 0.35172644330889563
-124.50933333333334 24.4121 1695.1933333333334 0.19072309809687737 -0.43949085569142926 0.8777656222568437
-140.3456666666667 35.851866666666666 2216.3 0.0 0.0 1.0
-133.74099999999999 33.6799 1829.97 0.0 0.0 1.0
-129.22433333333333 34.07853333333333 1807.8499999999997 7.201631248115961e-29 -1.3204944310222797e-27 1.0
-121.76166666666667 32.44446666666666 1413.55 0.34133562570880516 -0.877664800232521 0.3364438869333004
-129.28833333333333 48.323299999999996 1804.2233333333334 0.5499903263500749 0.8251138786141066 -0.12921968982985269
-125.01866666666668 41.1572 1732.82 -0.8943490490917259 -0.44719174277098106 -0.012622344717931618
-127.73633333333333 48.03256666666666 1770.4533333333331 0.7105707127391743 0.6321221820328161 0.30904823115399543
-139.11466666666666 67.93723333333332 2102.15 0.8444490894900823 0.5069986663118825 -0.17279492937393534
-127.44966666666666 60.14443333333333 1656.1000000000001 -0.4731375088493049 -0.8787123455341473 -0.06328911064117537
-124.91733333333333 56.75446666666667 1543.5966666666666 0.44054814263327585 -0.47450473354061623 0.7620778122146844
-118.46766666666667 53.07339999999999 1376.7 -0.5704067597430494 -0.7512511585854084 0.33205093760373117
-140.74066666666667 110.51866666666666 2216.3 0.0 0.0 1.0
-132.50199999999998 97.52736666666668 1928.253333333333 0.060053072384758655 0.9008542654578681 0.429947928130275
-132.43366666666665 98.5684 1835.58 0.0 0.0 1.0
-137.083 92.06726666666667 1691.993333333333 0.2485124883282373 -0.4577785473082559 0.8536277553882903
-136.06499999999997 103.26933333333334 1820.7133333333334 0.293763908277668 0.8075385250098984 0.5114531227964764
-140.74066666666667 140.74066666666667 2216.3 0.0 0.0 1.0
-130.479 130.07133333333334 1829.97 0.0 0.0 1.0
-141.33333333333334 -145.284 2216.3 0.0 0.0 1.0
-141.33333333333334 -145.284 2216.3 0.0 0.0 1.0
-141.53099999999998 -133.037 2216.3 0.0 0.0 1.0
-141.53099999999998 -133.037 2216.3 0.0 0.0 1.0
-142.71599999999998 -131.06166666666667 2216.3 0.0 0.0 1.0
-141.72866666666667 -123.358 2216.3 0.0 0.0 1.0
-141.136 -95.70369999999998 2216.3 0.0 0.0 1.0
-120.681 -25.3334 1446.5900000000001 0.9429684332988967 -0.11816100538369015 0.31120493345790623
-121.097 -3.67139 1312.2833333333335 -0.15906445616015935 -0.14373543091842597 0.9767490080287603
-132.891 -20.084933333333336 2003.6066666666666 -0.5343189168027181 0.03248559346914965 0.8446584998469661
-143.70366666666666 -1.0864193333333334 2216.3 0.0 0.0 1.0
-141.72866666666667 5.432096666666666 2216.3 0.0 0.0 1.0
-116.75533333333333 1.71703 1244.0766666666666 -0.6312996215845352 0.5987241785474982 0.4929403065380698
-130.02866666666668 7.915456666666667 1724.5 0.0 0.0 1.0
-122.84366666666666 20.50336666666667 1637.9766666666667 0.13598043688962003 0.9272179067242902 0.3489645744672855
-122.36533333333334 23.011233333333337 1608.61 -0.09922816195556329 -0.992543067186452 0.07079570364811079
-119.54533333333335 30.409333333333336 1576.1499999999999 0.6848813934710699 -0.7276475946483438 -0.03829431915578537
-129.73533333333333 49.12593333333333 2124.523333333333 0.4783020568989503 0.37584475944791845 0.7937051462361635
-121.01766666666667 39.272400000000005 1640.9666666666665 -0.4688061958528844 -0.8294993980357364 0.30356465437909264
-130.12366666666665 54.73250000000001 1846.91 0.0 0.0 1.0
-138.407 66.17183333333334 2070.6066666666666 -0.9716428599489035 -0.13876523785823522 0.19145328796461877
-134.55833333333334 65.54506666666667 2092.3266666666664 0.4543013772973512 -0.8673521208107198 0.2032499867426231
-142.12366666666665 75.9506 2216.3 0.0 0.0 1.0
-142.12366666666665 75.9506 2216.3 0.0 0.0 1.0
-134.33966666666666 67.87666666666667 2077.796666666667 -0.6463797969596167 -0.4170444313079877 0.6389578236452245
-142.71599999999998 93.1358 2216.3 0.0 0.0 1.0
-142.71599999999998 94.71603333333333 2216.3 0.0 0.0 1.0
-142.71599999999998 96.49383333333333 2216.3 0.0 0.0 1.0
-121.53533333333333 70.28003333333334 1535.6733333333332 -0.3818740766540034 0.1636242256851978 0.909614919814188
-132.091 125.466 1858.39 0.0 0.0 1.0
-143.11133333333333 -154.76533333333333 2216.3 0.0 0.0 1.0
-141.72866666666667 -123.358 2216.3 0.0 0.0 1.0
-123.24833333333333 -97.31766666666665 1928.3099999999997 0.3075244739579488 -0.7159473511041166 0.626775947499492
-142.91400000000002 -118.222 2216.3 0.0 0.0 1.0
-141.72866666666667 -117.23433333333334 2216.3 0.0 0.0 1.0
-141.33366666666666 -93.1358 2216.3 0.0 0.0 1.0
-143.70366666666666 -66.27163333333334 2216.3 0.0 0.0 1.0
-141.136 -60.14816666666667 2216.3 0.0 0.0 1.0
-123.99333333333334 -25.26176666666667 1479.97 -0.4563718168968615 0.8712600484634896 0.18063967641040365
-143.50633333333334 -29.1358 2216.3 0.0 0.0 1.0
-127.58633333333334 -5.994856666666666 1660.6866666666667 0.9438612615984564 -0.2483610112348733 0.21781351416328854
-127.58633333333334 -5.994856666666666 1660.6866666666667 0.9438612615984564 -0.2483610112348733 0.21781351416328854
-143.11133333333333 3.061726333333334 2216.3 0.0 0.0 1.0
-139.0136666666667 14.283866666666666 1791.6299999999999 0.543243688305371 -0.8395463154873979 0.006948328425707262
-139.95433333333332 23.929533333333335 1897.676666666667 -0.08418989545045164 0.7997998631679386 0.5943334420849873
-134.35966666666667 35.885266666666666 1868.0566666666666 -0.7293946240288827 -0.36469731201444133 0.5787740086140756
-122.50966666666666 35.27753333333333 1452.45 -0.7280601340931574 -0.4591418626837934 0.5090355499132749
-129.28833333333333 48.323299999999996 1804.2233333333334 0.5499903263500749 0.8251138786141066 -0.12921968982985269
-142.12366666666665 75.9506 2216.3 0.0 0.0 1.0
-130.02200000000002 74.0339 1784.4966666666667 0.7588739302400123 0.25298740072907544 0.6000897708463488
-123.79133333333334 63.79116666666667 1547.5866666666668 -0.8504555614095174 -0.39241814283506127 0.3503331831863837
-133.58433333333335 107.082 1858.3966666666668 0.3865869475191479 -0.9034424405196813 0.185316725299337
-142.321 138.37033333333332 2216.3 0.0 0.0 1.0
-143.11133333333333 -154.76533333333333 2216.3 0.0 0.0 1.0
-143.111 -129.679 2216.3 0.0 0.0 1.0
-142.716 -110.51866666666666 2216.3 0.0 0.0 1.0
-144.49366666666666 -82.46916666666665 2216.3 0.0 0.0 1.0
-142.91333333333333 -78.91356666666667 2216.3 0.0 0.0 1.0
-143.70366666666666 -66.27163333333334 2216.3 0.0 0.0 1.0
-144.09866666666667 -50.07406666666666 2216.3 0.0 0.0 1.0
-140.6063333333333 -45.521899999999995 2014.8100000000002 -5.579352859168212e-29 -8.284933241224297e-29 1.0
-133.3096666666667 -33.631166666666665 2102.1133333333332 0.5838959427343549 0.074857770395497 0.8083698672450464
-124.771 -20.83106666666667 1552.9466666666667 -0.4023580522988251 0.40244411359015647 0.8222814197018739
-143.70366666666666 -18.27163333333333 2216.3 0.0 0.0 1.0
-120.83999999999999 -8.547936666666667 1639.45 0.0 0.0 1.0
-124.74166666666667 -1.09758 1897.676666666667 0.39598236754574767 -0.5147634739587671 0.7604055039719045
-129.958 23.439233333333334 1660.7033333333331 -0.4334905861119313 0.6721751864372958 0.6002219843443931
-132.28566666666666 33.917399999999994 1807.8499999999997 5.224593025377602e-28 -4.594533834954468e-27 1.0
-128.37233333333333 33.88333333333333 1748.01 0.13786324789996188 0.8961037444988454 0.42189074885996447
-121.76166666666667 32.44446666666666 1413.55 0.3413356257088051 -0.877664800232521 0.3364438869333005
-142.51866666666666 74.17283333333333 2216.3 0.0 0.0 1.0
-133.63500000000002 69.07426666666667 1843.1233333333332 0.8789037944960699 0.3905754200963169 0.27382286470818146
-121.075 42.830066666666674 1307.5033333333333 -0.22755319825305081 -0.17065675666895386 0.9586948489316303
-133.03566666666669 69.6554 1828.11 0.9317796976321483 -0.14326508368196594 0.33355915648973256
-132.19066666666666 69.25713333333333 1709.71 0.0 0.0 1.0
-133.25300000000001 74.68146666666667 1835.5933333333335 0.9619288747596327 -0.2623225902098035 0.07667919254456676
-124.54533333333332 66.33456666666666 1446.5833333333333 0.2647978366300117 -0.9532448708420549 0.145623905761999
-132.98166666666665 95.88369999999999 1837.4633333333331 0.7850058472262732 -0.47087555302244355 0.40254444895734076
-130.17933333333335 101.59906666666667 1885.72 0.3726551442684775 0.16302710839665377 0.9135372490369869
-131.32333333333335 107.851 1854.5500000000002 0.6526190996703952 -0.7457966175062303 0.13370009746319597
-144.494 136.0 2216.3 0.0 0.0 1.0
-130.09333333333333 115.22333333333334 1864.17 0.0 0.0 1.0
-144.69133333333332 155.35799999999998 2216.3 0.0 0.0 1.0
-143.11133333333333 -155.35799999999998 2216.3 0.0 0.0 1.0
-143.11133333333333 -154.7653333333333 2216.3 0.0 0.0 1.0
-143.50633333333334 -153.9753333333333 2216.3 0.0 0.0 1.0
-143.50633333333334 -119.80233333333332 2216.3 0.0 0.0 1.0
-142.716 -110.51866666666666 2216.3 0.0 0.0 1.0
-144.494 -107.95066666666666 2216.3 0.0 0.0 1.0
-120.51066666666667 -60.64006666666666 1392.72 0.16118504392744093 0.9824165100986647 0.09421880013919036
-116.51133333333333 -58.27923333333334 1395.9800000000002 -0.5814493032879411 -0.6814960605489023 0.44438702407056724
-144.09900000000002 -55.01233333333332 2216.3 0.0 0.0 1.0
-143.50633333333334 -52.444433333333336 2216.3 0.0 0.0 1.0
-125.19566666666667 -25.712 1581.6933333333334 0.8307915191592974 0.3192412907282093 0.45592811932054983
-128.29666666666665 -23.3125 1761.74 0.7070489168435661 0.16835347260766018 0.6868325395984686
-143.50633333333334 -29.1358 2216.3 0.0 0.0 1.0
-114.47300000000001 -10.729866666666666 1222.0533333333333 0.520433087283703 0.4047876850928445 0.7518619099658724
-143.70366666666666 -18.27163333333333 2216.3 0.0 0.0 1.0
-144.49366666666666 8.987656666666666 2216.3 0.0 0.0 1.0
-122.10466666666667 31.39573333333333 1400.36 -0.42571526675354227 0.9047236548802905 0.015544129213610817
-119.04166666666667 40.1347 1523.9466666666667 -0.4534360676938168 0.7368179876836413 0.5014927572160915
-129.47266666666667 47.37296666666666 1695.1933333333334 0.49842856499522026 -0.8284128293657189 0.25554089641208005
-138.407 66.17183333333334 2070.6066666666666 -0.9716428599489036 -0.13876523785823458 0.19145328796461847
-120.00099999999999 49.4359 1469.0933333333332 0.07685545552167874 -0.9433868296579949 0.3226678301045715
-122.23266666666666 60.6901 1726.1666666666667 0.09776934551176215 0.9777639347496242 0.18552316022840468
-134.47366666666665 73.34383333333334 2112.043333333333 -3.624633457741157e-05 -0.8420011907964857 0.5394756652375556
-132.455 74.45013333333334 1679.3466666666666 -0.6641467507582808 0.562780448915688 0.4921252480573157
-145.4813333333333 107.753 2216.3 0.0 0.0 1.0
-138.40666666666667 109.604 1994.71 0.7072403586859585 0.7059109595154991 0.038740060424118455
-134.568 119.25966666666666 1846.91 0.0 0.0 1.0
-145.87666666666667 144.09866666666667 2216.3 0.0 0.0 1.0
