ply
format ascii 1.0
comment VCGLIB generated
element vertex 563
property float x
property float y
property float z
property float nx
property float ny
property float nz
element face 0
property list uchar int vertex_indices
end_header
-133.60233333333335 12.534633333333332 1296.1766666666665 -0.7985691972733043 0.5989413094398148 0.05963677567399603
-133.41 18.439766666666667 1297.1133333333335 -0.8283921159322286 0.5521553289060509 0.09429207295407302
-131.26633333333334 20.429066666666667 1242.3500000000001 -0.7999283393745702 0.600036621491984 0.008408610701430083
-131.23066666666668 20.746866666666666 1241.49 0.0 0.0 1.0
-132.84666666666666 36.97136666666667 1258.9066666666668 -0.6892272255615058 0.6890226160244578 -0.2240840604585742
-132.99800000000002 36.95316666666667 1254.51 0.0 0.0 1.0
-130.38233333333335 39.39326666666667 1290.5933333333332 0.0492204392656566 0.9527087613802532 0.29987224671149476
-132.10333333333335 56.967166666666664 1254.51 0.0 0.0 1.0
-174.97433333333333 111.077 2301.54 0.0 0.0 1.0
-145.18133333333333 99.14670000000001 1539.6333333333332 0.8912835634146127 0.44567960611616647 -0.083566131172196
-143.571 101.18560000000001 1595.74 -0.10511488539865177 0.78394368036115 0.6118685862907518
-144.93200000000002 102.49633333333334 1587.2766666666666 -0.8940939553136152 0.44720459088112796 0.024577489019376668
-150.47966666666665 -119.69333333333334 1722.8466666666666 -0.9471364091748342 -0.31580343544782824 0.056575724252989464
-176.0 -150.05166666666665 2301.54 0.0 0.0 1.0
-174.76933333333332 -140.615 2301.54 0.0 0.0 1.0
-174.97433333333333 -128.30766666666668 2301.54 0.0 0.0 1.0
-135.70466666666667 -66.25443333333332 1352.83 -0.9861486765956106 0.12327284123334113 0.1109711415773738
-136.06 -60.93166666666667 1349.7766666666666 -0.997050625684738 -5.635070144683258e-16 0.07674666000336859
-136.06 -60.93166666666667 1349.7766666666666 -0.997050625684738 -8.965739218558728e-16 0.07674666000336881
-136.3853333333333 -55.72276666666667 1351.81 -0.9821593594272607 -0.12271184991632804 0.1424948931700559
-149.67466666666667 -59.647466666666666 1666.86 -0.9910775834976815 -0.12387612000967096 0.04919278788345077
-151.162 -36.977833333333336 1739.5433333333333 -0.9800034163341071 0.16341779665741804 0.11352500917909379
-154.07399999999998 -21.75436666666667 1749.71 0.0 0.0 1.0
-150.28866666666667 -17.649333333333335 1729.4800000000002 2.0366802267592447e-27 2.066784440998552e-27 1.0
-152.14766666666665 -10.184633333333332 1744.61 0.0 0.0 1.0
-151.697 -6.283813333333334 1741.2233333333334 -0.9871767010407626 -0.08972088431124917 0.13203152593484757
-134.25266666666667 13.965533333333333 1289.66 0.0 0.0 1.0
-134.25266666666667 13.965533333333333 1289.66 0.0 0.0 1.0
-131.06766666666667 23.507099999999998 1229.5933333333332 -0.44167298980951075 -0.736271025017277 0.5126694332537645
-131.59399999999997 31.901033333333334 1244.9366666666667 -0.8383175312684131 0.4792134659501149 0.2599580174184117
-131.90066666666667 32.341566666666665 1236.36 0.0 0.0 1.0
-133.2193333333333 40.76756666666667 1275.91 0.0 0.0 1.0
-133.2193333333333 40.76756666666667 1275.91 0.0 0.0 1.0
-132.13233333333332 50.725433333333335 1263.34 0.08906041544114293 -0.8908680371238528 0.4454462737890452
-132.02566666666667 52.97783333333333 1258.0233333333333 0.7068725728966154 -0.7066622567487737 -0.030977743191679622
-132.626 55.02886666666666 1253.6333333333334 0.6606586049401281 -0.44052660629516055 0.6078375744100002
-132.11133333333336 55.05553333333334 1246.67 0.0 0.0 1.0
-132.10333333333335 56.967166666666664 1254.51 0.0 0.0 1.0
-142.43166666666664 87.7057 1465.4733333333334 -0.8529247898704776 -0.4652460835397089 0.23678130115227394
-145.608 101.37633333333333 1583.0766666666666 -0.22941876850428009 0.9721134282383553 -0.04860567144532864
-146.62133333333333 105.707 1580.2833333333335 0.7856931854001231 -0.05623489296518689 0.6160550748342245
-146.70366666666666 118.05366666666667 1648.4800000000002 -5.131308918579774e-28 -3.439322159309682e-27 1.0
-149.2603333333333 120.18233333333335 1639.45 0.0 0.0 1.0
-151.26466666666667 -117.77666666666669 1719.55 -0.9571004814185045 -0.2871738107078073 0.03859884599340884
-176.0 -150.05166666666665 2301.54 0.0 0.0 1.0
-154.18633333333332 -100.38066666666667 1786.28 -0.9752333911903965 -0.09751243192362499 0.19852243784423845
-136.05999999999997 -60.931666666666665 1349.7766666666666 -0.997050625684738 4.650926822714885e-16 0.07674666000336818
-149.65666666666667 -58.85996666666667 1669.9566666666667 0.9804235241092862 0.1634282947780617 -0.10982215550180704
-133.98233333333334 -37.421600000000005 1285.96 -0.9817688914970791 -0.1635885195810077 0.09679173492551223
-134.021 -33.31936666666667 1286.8866666666665 -0.9966307612712706 -0.0001644077014882567 0.08201889207953932
-152.84 -28.8747 1746.3100000000002 -0.9795548347024082 -0.19592356652675175 0.04567583486455971
-150.92366666666666 -18.384066666666666 1726.1599999999999 0.7065708838725957 0.7066985850986769 0.03653348988293842
-153.97833333333332 -16.5005 1754.84 0.0 0.0 1.0
-153.97833333333332 -16.5005 1754.84 0.0 0.0 1.0
-153.307 -14.707733333333332 1746.3099999999997 -0.947399550242495 0.31616091893901505 0.049763094115576674
-151.54 -9.46243 1726.1599999999999 0.8328501833214816 0.2975151499679097 0.4667390145262624
-134.854 4.619883333333333 1312.28 0.0 0.0 1.0
-134.15200000000002 6.02339 1312.28 0.0 0.0 1.0
-133.41 18.439766666666667 1297.1133333333335 -0.8283921159322282 0.5521553289060512 0.09429207295407269
-134.82766666666666 16.8391 1289.66 0.0 0.0 1.0
-131.23066666666668 20.746866666666666 1241.49 0.0 0.0 1.0
-130.799 26.3912 1236.36 0.0 0.0 1.0
-131.24933333333334 29.422366666666665 1252.756666666667 -0.7856331145354548 -0.3929339093561341 0.47789491755345764
-132.41366666666667 31.944633333333332 1238.0666666666666 0.7065145125873177 -0.7063865440105077 -0.04307312322546438
-131.92566666666664 40.56943333333333 1280.4566666666667 0.36359657822803115 0.7273629523013642 0.5820143159066714
-133.446 43.2203 1267.8 0.0 0.0 1.0
-132.51066666666665 52.341800000000006 1258.9066666666668 0.8929429443739328 -0.4467365977642594 0.05549153368601375
-132.11133333333336 55.05553333333334 1246.67 0.0 0.0 1.0
-132.36366666666666 56.559266666666666 1255.3866666666665 0.8314884990855183 -0.5536095541958744 -0.04629619197685086
-174.97433333333333 111.077 2301.54 0.0 0.0 1.0
-138.85999999999999 72.21333333333332 1420.26 -0.9919627354652967 5.258593467110285e-16 0.12653035781268335
-139.52599999999998 75.38703333333333 1418.01 0.0 0.0 1.0
-143.621 94.68703333333333 1518.78 0.0 0.0 1.0
-145.63366666666667 103.16733333333333 1580.2833333333335 -0.9959388766422077 0.0712829348256607 0.05499542885820187
-145.49433333333334 110.84233333333333 1643.96 0.0 0.0 1.0
-146.60633333333334 110.08 1607.1633333333332 -0.8651091921006198 -0.49447124530227987 0.08416812527450943
-149.2603333333333 120.18233333333335 1639.45 0.0 0.0 1.0
-180.30766666666668 -167.69233333333332 2301.54 0.0 0.0 1.0
-176.61533333333333 -150.87199999999999 2301.54 0.0 0.0 1.0
-177.02566666666667 -115.38466666666666 2301.54 0.0 0.0 1.0
-133.4463333333333 -54.53333333333333 1278.6466666666668 -0.9934132254331417 -0.08274601477141146 0.07926702072092352
-150.6146666666667 -53.25886666666667 1671.51 0.0 0.0 1.0
-133.98233333333334 -37.421600000000005 1285.96 -0.9817688914970792 -0.1635885195810078 0.09679173492551207
-134.48266666666666 -24.079800000000002 1289.66 -0.9966662074180684 -0.00015217207271020695 0.08158705678319562
-152.14766666666665 -14.849366666666667 1744.61 0.0 0.0 1.0
-153.762 -1.9493153333333335 1749.71 0.0 0.0 1.0
-134.854 4.619883333333333 1312.28 0.0 0.0 1.0
-134.81366666666668 5.784736666666667 1311.3233333333335 -0.9968042254626599 4.594931262011513e-17 0.07988326545520516
-134.25866666666664 11.279846666666666 1298.05 0.0 0.0 1.0
-134.372 11.370836666666667 1295.24 0.0 0.0 1.0
-130.57866666666666 17.251 1252.756666666667 -0.7370294572940462 0.6632010053982814 0.13019986758653962
-132.95566666666664 42.037366666666664 1269.5933333333332 -0.9079328926586372 0.403288152366608 0.11409000214412822
-132.77133333333333 45.49743333333333 1265.1233333333332 0.8911083424002945 0.22279606434172025 0.39533256356950863
-133.74133333333336 48.6798 1248.4033333333334 -0.4545376872080692 -0.6363146594170793 0.6232969959164458
-132.51066666666665 52.341800000000006 1258.9066666666668 0.8929429443739324 -0.4467365977642599 0.05549153368601354
-132.66233333333332 56.18450000000001 1254.51 0.0 0.0 1.0
-177.23066666666668 116.41000000000001 2301.54 0.0 0.0 1.0
-141.06266666666667 83.92916666666667 1445.41 0.0 0.0 1.0
-141.06266666666667 83.92916666666667 1445.41 0.0 0.0 1.0
-143.01366666666664 88.49126666666666 1454.7833333333335 -0.784407725412452 -0.610072509561013 -0.11187516878731867
-142.44233333333332 89.43896666666666 1481.1899999999998 7.586411783210551e-27 4.753026295513108e-27 1.0
-145.41766666666663 99.15203333333334 1535.6866666666667 -0.9093213890148154 -0.40684750016920357 0.0872337267703065
-147.3456666666667 111.028 1604.2966666666664 -0.9983338170865845 -0.0003629260822818442 0.057701455319507544
-152.907 -115.69433333333332 1693.5866666666668 -0.6264887341395625 -0.6264887341395349 0.4637065149342326
-177.436 -152.10233333333335 2301.54 0.0 0.0 1.0
-177.436 -152.10233333333335 2301.54 0.0 0.0 1.0
-154.18633333333332 -100.38066666666667 1786.28 -0.9752333911903964 -0.09751243192362516 0.19852243784423834
-177.02566666666667 -115.38466666666666 2301.54 0.0 0.0 1.0
-177.02566666666667 -115.38466666666666 2301.54 0.0 0.0 1.0
-134.013 -52.37456666666666 1273.2066666666667 -0.9946322822880578 -0.08284755569510965 0.061991173128071946
-137.38 -54.07463333333334 1349.7866666666666 -0.9543601713092393 0.0003720486696392822 0.2986578728217064
-149.92466666666667 -59.6361 1662.2300000000002 -0.9913239676316437 -0.11649302047992577 0.0608782997341407
-134.24699999999999 -38.65603333333333 1281.3733333333332 -0.9732190582118987 -0.1943166338493619 0.12282390053486436
-133.98233333333334 -37.421600000000005 1285.96 -0.9817688914970791 -0.1635885195810077 0.09679173492551223
-134.514 -32.5135 1282.2866666666666 -0.9327964233790874 -0.23347137567063808 0.2745577339534296
-135.093 -22.09456666666667 1287.8066666666666 -0.9498723968143526 6.32488897611123e-17 0.31263785722486814
-153.85833333333335 -25.111766666666664 1744.61 0.0 0.0 1.0
-154.07399999999998 -21.75436666666667 1749.71 0.0 0.0 1.0
-154.63566666666665 -15.315833333333332 1744.61 0.0 0.0 1.0
-153.21766666666667 -11.329466666666667 1729.4800000000002 2.682710002662582e-28 5.365975994544972e-28 1.0
-154.99866666666668 -2.10938 1753.1299999999999 -0.8498079151115346 -0.42471378720330794 0.3121613466994434
-153.58466666666666 -1.7777766666666668 1734.49 0.0 0.0 1.0
-154.57333333333335 2.0930233333333335 1739.53 0.0 0.0 1.0
-132.33533333333332 30.54746666666667 1244.07 0.0 0.0 1.0
-131.90066666666667 32.341566666666665 1236.36 0.0 0.0 1.0
-131.90066666666667 32.341566666666665 1236.36 0.0 0.0 1.0
-132.84666666666666 36.97136666666667 1258.9066666666668 -0.6892272255615061 0.6890226160244577 -0.22408406045857399
-133.2193333333333 40.76756666666667 1275.91 0.0 0.0 1.0
-133.25766666666667 41.780300000000004 1268.6966666666667 0.9430568932278243 -0.31436775338436557 -0.10870423987844575
-133.44400000000002 54.827133333333336 1241.49 0.0 0.0 1.0
-132.928 54.41933333333333 1239.7766666666666 0.6133392694657109 0.7665583624416746 0.19027143112408262
-132.11133333333333 55.05553333333334 1246.67 0.0 0.0 1.0
-177.23066666666668 116.41000000000001 2301.54 0.0 0.0 1.0
-146.45566666666664 110.02033333333334 1600.006666666667 0.6583393487142102 0.7525702479442907 -0.015077262470959427
-152.50933333333333 -117.22833333333334 1680.9000000000003 -9.131463613908637e-24 -2.7909105572222313e-24 1.0
-152.658 -115.57366666666667 1698.3933333333334 -0.9724696535152128 1.5498252246278748e-15 0.23302955390250846
-152.658 -115.57366666666667 1698.3933333333334 -0.9724696535152128 1.5498252246278748e-15 0.23302955390250846
-177.84633333333332 -154.15366666666668 2301.54 0.0 0.0 1.0
-177.436 -152.10233333333335 2301.54 0.0 0.0 1.0
-178.87199999999999 -147.795 2301.54 0.0 0.0 1.0
-177.23066666666668 -131.17933333333335 2301.54 0.0 0.0 1.0
-178.25666666666666 -110.87166666666667 2301.54 0.0 0.0 1.0
-138.47466666666665 -54.70976666666667 1341.7066666666667 0.43739997776068545 0.874180183898758 0.2109271569373786
-149.70533333333333 -60.11653333333334 1615.8533333333335 0.9843345699364662 0.12310779732115593 0.12621380537296847
-150.20066666666665 -59.01246666666666 1640.9533333333331 -0.9468718582103652 0.3153599527763125 0.06310138123822746
-150.69933333333333 -55.72646666666666 1656.1066666666666 -0.9948364706349224 -0.08260201761658853 0.05896866439321892
-134.35866666666666 -39.7145 1278.6366666666665 -0.9965795215058961 -0.0019074071605528797 0.08261730516667272
-134.58933333333334 -33.63313333333334 1281.37 0.0 0.0 1.0
-134.58933333333334 -33.63313333333334 1281.37 0.0 0.0 1.0
-151.26266666666666 -45.660266666666665 1704.8500000000001 -0.9649304489135376 -0.2589101563358313 0.043298495420435686
-135.16866666666667 -23.340500000000002 1286.88 0.0 0.0 1.0
-152.74099999999999 -9.960946666666667 1732.82 -0.8137122543359779 0.5812660080228763 0.0014815736939550158
-154.99866666666668 -2.10938 1753.1299999999999 -0.8498079151115346 -0.42471378720330794 0.3121613466994434
-154.57333333333335 2.0930233333333335 1739.53 0.0 0.0 1.0
-134.45266666666666 8.978340000000001 1299.93 0.2585494669306862 0.9046220891086005 0.3388377916446888
-135.41566666666665 9.544483333333334 1298.05 0.0 0.0 1.0
-134.82766666666666 16.8391 1289.66 0.0 0.0 1.0
-132.33533333333332 30.54746666666667 1244.07 0.0 0.0 1.0
-133.59433333333334 36.0837 1255.3866666666665 -0.996392556426644 -3.2298045596104364e-16 0.0848638527146679
-133.408 42.173633333333335 1266.9066666666668 -0.9321538934990474 0.3107332414535381 0.1858331818872613
-133.29566666666668 45.108133333333335 1266.9066666666665 0.7903037026147026 0.3951712795905162 0.46825176712991257
-133.82000000000002 50.2808 1260.6766666666665 -0.7943727491202698 0.59575008385486 0.11854861046015001
-132.66233333333332 56.18449999999999 1254.51 0.0 0.0 1.0
-132.93133333333333 58.68423333333334 1229.5966666666666 -0.9314998704860017 0.349073723202095 0.1022522716343731
-178.25666666666666 114.359 2301.54 0.0 0.0 1.0
-177.84633333333332 116.205 2301.54 0.0 0.0 1.0
-140.66333333333333 79.3049 1418.01 0.0 0.0 1.0
-145.852 95.6922 1504.78 0.7831410116241508 0.6090928406374533 0.1252839470822168
-145.64533333333333 100.83646666666668 1563.7633333333335 0.8356269388483035 0.49689111414895476 0.23415131806339307
-177.84633333333332 -152.71766666666667 2301.54 0.0 0.0 1.0
-179.69266666666667 -149.02566666666667 2301.54 0.0 0.0 1.0
-156.65033333333335 -98.85176666666666 1748.01 -0.7053389495718944 -0.7053174131623253 -0.0708823878465067
-178.667 -117.84633333333333 2301.54 0.0 0.0 1.0
-178.05166666666665 -116.82066666666667 2301.54 0.0 0.0 1.0
-178.25666666666666 -110.87166666666667 2301.54 0.0 0.0 1.0
-178.25666666666666 -110.87166666666667 2301.54 0.0 0.0 1.0
-150.20066666666665 -59.01246666666666 1640.9533333333336 -0.9468718582103652 0.3153599527763122 0.06310138123822769
-134.509 -38.86273333333333 1276.8166666666666 -0.9965961110460577 -7.133204743859886e-17 0.0824390165387337
-134.69766666666666 -36.787499999999994 1275.91 0.0 0.0 1.0
-152.104 -45.065200000000004 1671.51 0.0 0.0 1.0
-134.58933333333334 -33.63313333333333 1281.37 0.0 0.0 1.0
-152.13833333333335 -16.4162 1729.4800000000002 4.476797718981859e-27 3.730395850315761e-27 1.0
-152.61433333333332 -3.4985433333333336 1744.61 0.0 0.0 1.0
-135.95899999999997 5.153763333333333 1299.93 -0.9505871858862006 3.023212392451271e-15 0.3104577298585969
-135.53599999999997 5.507249999999999 1300.87 0.0 0.0 1.0
-135.06466666666668 10.100999999999999 1295.24 0.0 0.0 1.0
-135.06466666666668 10.100999999999999 1295.24 0.0 0.0 1.0
-134.02266666666665 12.701166666666666 1289.66 0.0 0.0 1.0
-131.98333333333332 23.802366666666668 1227.91 0.4870152245387473 0.8118567511334863 0.32203227587689626
-132.71466666666666 24.502233333333333 1224.5566666666666 -0.8923904077662579 0.44592246842843064 0.06922797322952043
-132.67933333333335 31.443333333333328 1231.28 0.6321662914050671 -0.008398734581763498 0.7747872232223431
-133.59433333333334 36.0837 1255.3866666666665 -0.996392556426644 -2.397137291141569e-16 0.0848638527146679
-133.63133333333334 36.480066666666666 1253.6333333333334 0.999078246908612 -9.962222634637772e-16 0.04292617562763381
-133.77933333333334 36.652566666666665 1251.8866666666668 -0.8277700396909511 0.5539011397661491 0.08938841510957768
-178.667 114.359 2301.54 0.0 0.0 1.0
-178.667 114.56400000000001 2301.54 0.0 0.0 1.0
-178.25666666666666 115.58966666666667 2301.54 0.0 0.0 1.0
-140.72 83.2033 1437.3100000000002 -0.7558804974811706 -0.5039421686021619 0.4179556964944588
-141.06266666666667 83.92916666666666 1445.41 0.0 0.0 1.0
-151.93933333333334 -119.47966666666666 1674.64 -0.9486131967073854 -0.3162043989024447 0.012156526943962104
-178.46166666666667 -140.41 2301.54 0.0 0.0 1.0
-177.23066666666668 -131.17933333333335 2301.54 0.0 0.0 1.0
-180.10233333333335 -124.82033333333334 2301.54 0.0 0.0 1.0
-178.667 -117.84633333333333 2301.54 0.0 0.0 1.0
-138.49633333333335 -53.908866666666675 1336.7066666666667 0.8507888014582748 0.425215738654071 0.3087879384206338
-134.013 -52.37456666666666 1273.2066666666667 -0.994632282288058 -0.08284755569510921 0.06199117312807222
-149.70533333333333 -60.11653333333334 1615.8533333333335 0.9843345699364662 0.12310779732115593 0.12621380537296847
-150.20066666666665 -59.01246666666666 1640.9533333333336 -0.9468718582103652 0.3153599527763125 0.06310138123822746
-152.104 -45.065200000000004 1671.51 0.0 0.0 1.0
-134.66133333333335 -34.67483333333333 1277.73 -0.9908018968405995 -0.11003890269106716 0.07875938745074293
-151.67366666666666 -45.04409999999999 1700.0366666666669 0.9661658876162016 0.25423187949793546 -0.04346986374196076
-135.34533333333334 -26.819733333333335 1277.7233333333334 -0.935684213361758 -0.3120163816007269 -0.1647447434013532
-135.16866666666667 -23.340500000000002 1286.88 0.0 0.0 1.0
-135.35833333333332 -21.605433333333337 1285.96 0.9990718017008404 -5.149457871206288e-16 0.0430759218849237
-135.58233333333334 -19.7279 1283.2033333333331 -0.9671226797994538 -0.1610228043159213 0.19683845840627623
-154.79133333333334 -21.690966666666668 1744.61 0.0 0.0 1.0
-153.97833333333335 -16.5005 1754.84 0.0 0.0 1.0
-156.87566666666666 6.015333333333333 1753.1299999999999 0.48948937263171505 0.8564883871861318 0.1637919311074527
-132.12866666666667 22.0671 1228.75 0.0 0.0 1.0
-135.54333333333332 21.8849 1282.2866666666666 0.8074930672422354 0.4030394468722034 0.4307135366118356
-132.71466666666666 24.502233333333333 1224.5566666666666 -0.8923904077662579 0.44592246842843086 0.06922797322952051
-132.78099999999998 31.304366666666663 1238.92 0.0 0.0 1.0
-132.78099999999998 31.304366666666663 1238.92 0.0 0.0 1.0
-178.87199999999999 113.94866666666667 2301.54 0.0 0.0 1.0
-178.87199999999999 114.359 2301.54 0.0 0.0 1.0
-178.87199999999999 114.56400000000001 2301.54 0.0 0.0 1.0
-180.51266666666666 122.35866666666668 2301.54 0.0 0.0 1.0
-140.578 78.62606666666666 1401.41 0.0 0.0 1.0
-140.5476666666667 77.99803333333334 1403.6066666666666 0.9860883456409693 0.1644723255861596 0.024054702395510563
-141.94366666666667 85.65433333333333 1441.9333333333334 -0.8941287424993506 0.446504671314368 0.03416680159128794
-141.79533333333333 84.55376666666668 1438.466666666667 0.9942470143112337 0.09043957121145599 0.0573895329505805
-142.43166666666664 87.7057 1465.4733333333334 -0.8529247898704775 -0.4652460835397089 0.23678130115227394
-149.35466666666665 117.35533333333335 1624.62 0.0 0.8133843823182441 0.5817266081251301
-148.90733333333333 119.52266666666667 1648.4800000000002 0.0 0.0 1.0
-152.38866666666664 -117.98166666666667 1674.64 0.9483296600763328 0.3161098866920958 -0.027301929510890294
-152.50933333333333 -117.22833333333335 1680.9000000000003 -4.9450977780811664e-24 -1.5108855996459815e-24 1.0
-153.194 -114.557 1696.7866666666669 -0.699808828901777 -0.6998088289017825 -0.14330110251578274
-180.10233333333335 -124.82033333333334 2301.54 0.0 0.0 1.0
-180.71766666666667 -114.359 2301.54 0.0 0.0 1.0
-150.80533333333332 -54.8054 1624.62 -0.9752021628278468 -0.19513912361659505 0.10441007638172392
-151.33966666666666 -51.01063333333334 1646.9733333333334 0.9990611562051069 -1.0616427925617606e-15 0.043322120932786874
-151.8456666666667 -50.027566666666665 1648.4800000000002 1.4420638657131032e-25 3.327048388426682e-26 1.0
-151.33966666666666 -51.01063333333334 1646.9733333333334 0.9990611562051069 -1.0616427925617606e-15 0.043322120932786874
-135.34533333333334 -26.819733333333335 1277.7233333333334 -0.9356842133617573 -0.3120163816007282 -0.16474474340135456
-135.58233333333334 -19.7279 1283.2033333333331 -0.9671226797994539 -0.16102280431592136 0.19683845840627623
-155.16533333333334 -21.1306 1749.71 0.0 0.0 1.0
-155.16533333333334 -21.1306 1749.71 0.0 0.0 1.0
-155.87966666666668 -18.736633333333334 1744.61 0.0 0.0 1.0
-158.92733333333334 0.07662999999999998 1719.54 0.0 0.0 1.0
-134.71266666666668 15.2299 1289.66 0.0 0.0 1.0
-136.28366666666668 18.212766666666667 1273.19 0.0 0.0 1.0
-135.54333333333332 21.8849 1282.2866666666666 0.8074930672422366 0.40303944687220183 0.43071353661183487
-132.71466666666666 24.502233333333333 1224.5566666666666 -0.8923904077662579 0.44592246842843064 0.06922797322952043
-133.03933333333333 30.048433333333335 1237.2133333333331 0.9073231762065743 -0.36312689055912684 0.2119044956372407
-134.18633333333332 35.5501 1248.4033333333334 -0.9964392276907483 -2.9885286638102244e-16 0.08431408849691208
-133.92733333333334 36.37923333333333 1250.14 -0.977977542355759 7.373664734330615e-16 0.20871014984372363
-134.82233333333332 47.73183333333333 1252.756666666667 0.9284807107392627 0.20618522056847158 0.30888707419418526
-135.11133333333336 46.72223333333333 1246.67 0.0 0.0 1.0
-132.77866666666668 53.0563 1244.0766666666666 -0.7676198891557197 0.6397291566944111 0.03881123352353324
-133.25933333333333 54.08689999999999 1237.2133333333334 -0.8754257683375685 -0.0873889840738653 0.4753870944747194
-133.444 54.827133333333336 1241.49 0.0 0.0 1.0
-133.70066666666665 57.3767 1232.1233333333332 0.8323759809957095 -0.31192766848005277 0.45809535677414215
-133.95266666666666 58.047066666666666 1225.3933333333332 0.8184681557206559 -0.5729052421322152 -0.043467937708802924
-140.578 78.62606666666666 1401.41 0.0 0.0 1.0
-140.578 78.62606666666666 1401.41 0.0 0.0 1.0
-142.43166666666664 87.7057 1465.4733333333334 -0.8529247898704775 -0.46524608353970914 0.2367813011522739
-147.05133333333333 107.44066666666667 1587.2766666666666 -0.6392524915688463 -0.7671997277184445 -0.0525435991512476
-147.58633333333333 108.29066666666665 1583.0766666666668 0.5807831765531267 0.8124292444918098 0.051474503662751116
-153.47766666666666 -114.63733333333334 1682.4766666666667 0.9447120143775123 0.3144371345111297 0.0929973028168716
-153.194 -114.557 1696.7866666666669 -0.6998088289017788 -0.6998088289017813 -0.14330110251578165
-180.92333333333332 -149.02566666666667 2301.54 0.0 0.0 1.0
-179.69266666666667 -149.02566666666667 2301.54 0.0 0.0 1.0
-157.45566666666664 -96.81766666666665 1731.1500000000003 0.8933453869640087 0.2679446953018436 0.36074874892330233
-180.718 -106.76933333333334 2301.54 0.0 0.0 1.0
-180.718 -105.94866666666667 2301.54 0.0 0.0 1.0
-150.80533333333332 -54.8054 1624.62 -0.9752021628278468 -0.19513912361659505 0.10441007638172392
-134.921 -35.57263333333333 1273.2066666666667 -0.9908072004841608 -0.11003949171609805 0.07869181489585002
-152.47 -42.420566666666666 1673.07 0.974247938263878 0.2248651437541896 -0.016631954575173902
-152.47 -42.420566666666666 1673.07 0.9742479382638781 0.2248651437541895 -0.016631954575173996
-135.60766666666666 -25.985400000000002 1275.91 -0.9966789360354816 -0.0003647631884208534 0.081430739963462
-135.657 -20.514233333333333 1282.2866666666666 -0.9793990738436316 2.890176784451741e-16 0.2019342817706713
-135.657 -20.514233333333333 1282.2866666666666 -0.9793990738436316 2.890176784451741e-16 0.2019342817706713
-155.47733333333335 -2.5730986666666666 1749.71 0.0 0.0 1.0
-156.87566666666666 6.015333333333333 1753.13 0.48948937263171505 0.8564883871861318 0.16379193110745266
-136.18466666666666 8.035860000000001 1297.1133333333335 -0.8140658846617667 0.5429894468458487 -0.2060562933857991
-136.00033333333332 20.742866666666668 1282.2866666666666 -0.8479843113224165 0.5299708582200353 0.007314177230987568
-181.74366666666666 52.41026666666667 2301.54 0.0 0.0 1.0
-134.18633333333335 35.5501 1248.4033333333334 -0.9964392276907481 1.4323922515684663e-16 0.08431408849691195
-134.49366666666666 49.15796666666666 1260.6766666666665 -0.9071391812685738 1.7076389277236861e-15 0.42083073296443263
-134.49366666666666 49.15796666666666 1260.6766666666665 -0.9071391812685738 1.3745720203361392e-15 0.42083073296443274
-134.74566666666666 50.0068 1251.01 -0.9467517409395457 0.3148925328358994 0.0671106086407481
-133.444 54.827133333333336 1241.49 0.0 0.0 1.0
-133.40666666666667 55.11683333333334 1238.0666666666666 -0.6220558682566592 -0.7774524662890787 -0.09281249607936971
-134.43433333333334 55.48223333333333 1236.3633333333332 -0.37054649231180037 0.9267434693078855 0.06198257118420439
-134.024 58.00896666666667 1224.5566666666666 -0.8183875405790901 0.5730213494702607 0.04345533886865763
-140.96366666666665 79.31463333333333 1395.97 -0.9819109181870456 -0.1839464947557984 0.044884694631108335
-148.72533333333334 106.04599999999999 1542.2733333333333 -0.7916209816799846 -0.5752102031616104 0.20608115766075355
-149.26033333333334 120.18233333333332 1639.45 0.0 0.0 1.0
-182.56433333333334 -168.718 2301.54 0.0 0.0 1.0
-153.506 -116.38166666666666 1656.0933333333332 0.9471173115257613 0.31565828881652414 -0.0576943923586867
-181.33333333333334 -146.97433333333333 2301.54 0.0 0.0 1.0
-180.718 -141.23066666666668 2301.54 0.0 0.0 1.0
-181.333 -123.38433333333334 2301.54 0.0 0.0 1.0
-180.71766666666667 -114.359 2301.54 0.0 0.0 1.0
-181.53833333333333 -110.46166666666666 2301.54 0.0 0.0 1.0
-138.47466666666665 -54.70976666666667 1341.7066666666667 0.43739997776068545 0.8741801838987582 0.21092715693737843
-138.28933333333336 -53.59183333333334 1334.72 -0.8944972710643307 -0.44706079486205336 -0.0033582370038740743
-138.60299999999998 -52.48183333333333 1333.73 -0.8860017346404945 0.4426278663093048 0.13813579615909488
-139.135 -45.36633333333333 1337.7033333333334 -0.9485632080903436 -0.316246627394625 -0.0146939075429518
-150.80533333333332 -54.8054 1624.62 -0.9752021628278468 -0.19513912361659505 0.10441007638172392
-152.63333333333333 -44.1218 1653.0466666666664 -0.9885207575914009 0.14134275912268116 -0.05337542744100831
-152.62 -41.400666666666666 1656.0933333333332 0.9990383780436253 1.1857298204067578e-16 0.0438442606958065
-152.62 -41.400666666666666 1656.0933333333332 0.9990383780436253 1.1857298204067578e-16 0.0438442606958065
-135.60766666666666 -25.985400000000002 1275.91 -0.9966789360354814 -0.0003647631884196311 0.08143073996346244
-154.85366666666667 -4.288496666666666 1749.71 0.0 0.0 1.0
-155.65866666666668 3.7984500000000003 1739.53 0.0 0.0 1.0
-136.2603333333333 7.797843333333334 1296.1766666666665 0.8841839315345871 -0.44232174329627694 0.15023398624606565
-137.45266666666666 12.645933333333332 1284.1233333333332 -0.8329803972731085 0.48989188393659466 0.2571956450093755
-135.428 43.47776666666667 1258.9066666666668 0.92839649031887 -0.3715349925631888 0.0064580232792722445
-135.126 44.31316666666667 1257.1466666666668 0.9990503583165279 -0.0026012381445024743 0.04349270177550263
-135.16066666666666 45.48163333333333 1255.3866666666665 -0.9897545688676542 -0.12393140610402643 -0.07090063460000068
-135.11133333333336 46.72223333333333 1246.67 0.0 0.0 1.0
-134.74566666666666 50.0068 1251.01 -0.9467517409395461 0.3148925328358987 0.0671106086407479
-135.04166666666666 50.75183333333334 1250.14 -0.7966849475321477 -0.5974689899163204 0.09123541233573143
-180.51266666666666 112.718 2301.54 0.0 0.0 1.0
-181.94866666666667 118.872 2301.54 0.0 0.0 1.0
-180.51266666666666 122.35866666666668 2301.54 0.0 0.0 1.0
-181.74366666666666 127.89733333333334 2301.54 0.0 0.0 1.0
-181.74366666666666 130.154 2301.54 0.0 0.0 1.0
-143.0136666666667 88.49126666666668 1454.7833333333335 -0.7844077254124517 -0.610072509561013 -0.11187516878731865
-145.58766666666665 93.81896666666667 1483.6366666666665 0.9414324047489789 0.3137976278790514 0.12343450095510156
-144.08033333333333 91.495 1482.4133333333332 0.737102147643664 0.6451359579004121 0.20119647055307838
-148.0103333333333 103.70966666666668 1520.0833333333333 0.8085728229653913 0.5880738755935044 -0.019470665274034245
-148.72533333333334 106.04599999999999 1542.2733333333333 -0.7916209816799847 -0.5752102031616103 0.20608115766075352
-152.92766666666668 -118.23333333333333 1653.0466666666664 -0.9986183790800128 -3.9598381342740727e-05 0.052548371959332374
-153.47766666666666 -114.63733333333334 1682.4766666666667 0.9447120143775124 0.3144371345111291 0.09299730281687198
-156.794 -101.42296666666668 1709.75 -0.8835956193296762 -0.46765554324651604 -0.023602423015703495
-156.94366666666667 -101.18003333333333 1716.2633333333333 0.9045183155998726 0.42564750889549896 0.02590009489220631
-156.65033333333335 -98.85176666666666 1748.01 -0.7053389495718944 -0.7053174131623253 -0.0708823878465067
-156.80066666666667 -98.26173333333334 1751.42 -0.6856057343486532 -0.6855848004616097 0.24478206307705458
-180.9226666666667 -123.99966666666667 2301.54 0.0 0.0 1.0
-181.333 -123.38433333333334 2301.54 0.0 0.0 1.0
-181.333 -113.94866666666667 2301.54 0.0 0.0 1.0
-181.94833333333335 -113.33333333333333 2301.54 0.0 0.0 1.0
-181.74333333333334 -110.05166666666666 2301.54 0.0 0.0 1.0
-181.53833333333333 -106.97466666666666 2301.54 0.0 0.0 1.0
-181.53833333333333 -105.53833333333334 2301.54 0.0 0.0 1.0
-182.97433333333333 -101.02586666666666 2301.54 0.0 0.0 1.0
-138.60299999999998 -52.48183333333333 1333.73 -0.8860017346404943 0.44262786630930495 0.13813579615909535
-139.135 -45.36633333333333 1337.7033333333334 -0.9485632080903428 -0.3162466273946269 -0.014693907542953457
-151.78033333333335 -48.9537 1646.9733333333334 0.9493299459495002 0.2847322160186129 0.13304216957284276
-152.58166666666668 -41.0923 1632.0033333333333 -0.988657594478506 2.275203836759196e-16 0.15018708626234847
-155.80499999999998 -20.271433333333334 1742.9166666666667 -0.9078549542450369 -0.3029643158728158 0.2898482453982752
-155.41333333333333 -17.026233333333334 1744.61 0.0 0.0 1.0
-159.14466666666667 1.6326533333333335 1744.61 0.0 0.0 1.0
-157.36433333333335 5.968990000000001 1739.53 0.0 0.0 1.0
-136.71933333333334 19.4573 1280.4566666666667 0.9859626640086205 -8.9221204042627e-17 0.16696594018249428
-181.74366666666666 52.410266666666665 2301.54 0.0 0.0 1.0
-136.862 33.27 1263.34 0.5921843500469828 0.23683163661672682 0.7702132636204568
-134.62533333333332 33.338433333333334 1240.6333333333334 0.3548623288689513 -0.4730428694818824 0.8064137716966713
-135.548 39.04396666666666 1264.2299999999998 -0.8744943287980018 0.47708236696047973 0.08747619124949463
-134.86066666666667 46.201 1253.6333333333334 0.9304661408323482 0.11650764825209843 0.34735965318862544
-182.15366666666668 112.308 2301.54 0.0 0.0 1.0
-181.94866666666667 123.17933333333333 2301.54 0.0 0.0 1.0
-140.96366666666665 79.43953333333333 1395.97 -0.9834200972233268 -0.17341066331292654 0.053043889625792706
-141.7023333333333 82.71096666666666 1415.78 -0.7981657192598097 -0.5986506037571133 -0.06744582433119484
-141.81166666666664 81.76846666666667 1412.4433333333334 0.9719433977193319 0.22865171904540957 0.05517629026474667
-143.0136666666667 88.49126666666668 1454.7833333333335 -0.7844077254124519 -0.6100725095610132 -0.11187516878731882
-153.382 -117.13400000000001 1650.0 -0.9272804718253412 -0.3710804791968962 -0.04949954070872107
-182.76933333333332 -148.41033333333334 2301.54 0.0 0.0 1.0
-181.33333333333334 -143.487 2301.54 0.0 0.0 1.0
-182.564 -111.282 2301.54 0.0 0.0 1.0
-138.49633333333335 -53.908866666666675 1336.7066666666667 0.8507888014582747 0.4252157386540709 0.30878793842063396
-138.947 -50.112500000000004 1330.7666666666667 -0.9694763103153358 -0.24265876852440035 0.035105637660982326
-136.891 -16.5214 1274.0966666666668 -0.813234646968603 -0.40613951229336925 0.41677344627981755
-156.67633333333333 -2.5507233333333335 1734.49 0.0 0.0 1.0
-136.21066666666664 16.748333333333335 1274.0966666666666 0.8250434185484941 -0.5501366572324707 -0.12904656476984444
-136.71933333333334 19.4573 1280.4566666666667 0.9859626640086205 -1.5888015159676898e-15 0.16696594018249372
-136.71933333333334 19.4573 1280.4566666666667 0.9859626640086204 -1.5601459577197732e-15 0.1669659401824939
-132.24266666666668 27.648300000000003 1223.72 0.0 0.0 1.0
-135.428 43.47776666666667 1258.9066666666668 0.92839649031887 -0.3715349925631888 0.0064580232792722445
-135.367 46.324666666666666 1244.9366666666667 -0.7966020662997589 -0.4779995563775692 0.3700561742084592
-181.94866666666667 118.872 2301.54 0.0 0.0 1.0
-181.94866666666667 127.282 2301.54 0.0 0.0 1.0
-182.154 129.33333333333334 2301.54 0.0 0.0 1.0
-181.74366666666666 130.154 2301.54 0.0 0.0 1.0
-145.85199999999998 95.6922 1504.78 0.7831410116241508 0.6090928406374531 0.125283947082217
-145.85199999999998 95.6922 1504.78 0.7831410116241508 0.6090928406374533 0.12528394708221674
-182.76933333333332 -148.41033333333334 2301.54 0.0 0.0 1.0
-156.65033333333335 -98.85176666666666 1748.01 -0.7053389495718941 -0.7053174131623253 -0.07088238784650656
-157.96866666666668 -94.1373 1753.1299999999999 -0.9802039768804043 -0.11538895447818567 0.16088987815357092
-182.35866666666666 -112.51266666666668 2301.54 0.0 0.0 1.0
-182.564 -111.282 2301.54 0.0 0.0 1.0
-182.564 -111.282 2301.54 0.0 0.0 1.0
-183.58966666666666 -105.74366666666667 2301.54 0.0 0.0 1.0
-138.947 -50.112500000000004 1330.7666666666667 -0.969476310315336 -0.24265876852439977 0.035105637660983166
-139.493 -43.815266666666666 1337.7033333333331 -0.9783568429674461 -0.19570416817474998 0.06721433163992024
-139.493 -43.815266666666666 1337.7033333333331 -0.978356842967446 -0.19570416817474995 0.06721433163992033
-151.898 -47.961800000000004 1623.1499999999999 -0.9439584252768812 -1.0402744258609349e-14 0.3300643745525873
-152.54366666666667 -43.7962 1624.6266666666668 0.999003195642641 1.2499152230584584e-14 0.04463871745235076
-152.58166666666668 -41.092299999999994 1632.0033333333333 -0.988657594478506 5.475778750888258e-18 0.15018708626234836
-152.58166666666668 -41.092299999999994 1632.0033333333333 -0.9886575944785058 1.0046765009135292e-15 0.15018708626234903
-136.96433333333334 -17.6454 1273.19 0.0 0.0 1.0
-136.96433333333334 -17.6454 1273.19 0.0 0.0 1.0
-154.759 -12.254333333333333 1729.4800000000002 -6.866924614130016e-28 -7.365968000624083e-29 1.0
-158.75300000000001 -7.8584233333333335 1746.3100000000002 0.2325781280453079 -0.9303723432000872 0.2833985133399948
-136.81333333333336 10.27303 1287.8066666666666 -0.7610865642655509 0.10869911613227821 0.6394777117668144
-137.15966666666668 15.851766666666668 1275.0033333333333 0.49581344619687573 0.7441198430391341 0.4477216610415362
-137.06966666666665 27.0064 1270.49 0.0 0.0 1.0
-137.06966666666665 27.0064 1270.49 0.0 0.0 1.0
-135.04166666666666 50.75183333333334 1250.14 -0.7966849475321476 -0.5974689899163204 0.09123541233573142
-135.53266666666664 54.48793333333333 1233.81 0.0 0.0 1.0
-183.58966666666666 116.41033333333333 2301.54 0.0 0.0 1.0
-182.97433333333333 118.25666666666666 2301.54 0.0 0.0 1.0
-181.94866666666667 127.282 2301.54 0.0 0.0 1.0
-147.01966666666667 97.9461 1486.0933333333332 -0.9456616855458859 -0.3152117398016147 0.07978430661322504
-149.446 106.27933333333334 1527.83 -0.863237847250032 -0.5037022800001218 0.03323299862801069
-150.60233333333335 110.08166666666666 1562.4066666666668 0.8944059678644125 0.44716757264830903 0.008895314516233403
-149.44000000000003 117.25033333333333 1623.1499999999999 0.44084064652508315 0.8265285572208572 0.3500143832326821
-184.00033333333332 -169.74366666666666 2301.54 0.0 0.0 1.0
-184.00033333333332 -169.74366666666666 2301.54 0.0 0.0 1.0
-153.382 -117.13400000000001 1650.0 -0.9272804718253412 -0.3710804791968962 -0.04949954070872107
-182.76933333333332 -148.41033333333334 2301.54 0.0 0.0 1.0
-182.97433333333333 -102.872 2301.54 0.0 0.0 1.0
-183.59 -97.12819999999999 2301.54 0.0 0.0 1.0
-184.00033333333332 -95.6923 2301.54 0.0 0.0 1.0
-184.00033333333332 -94.25639999999999 2301.54 0.0 0.0 1.0
-140.26966666666667 -38.44076666666667 1341.7066666666667 0.9868716569292111 0.00043992214834687995 0.16150584886714522
-136.96433333333334 -17.6454 1273.19 0.0 0.0 1.0
-137.183 -15.005533333333332 1270.4933333333333 -0.9890025616020227 0.12340263682178061 0.08152130010045619
-156.87566666666666 6.015333333333333 1753.1299999999999 0.489489372631715 0.8564883871861318 0.16379193110745258
-136.81333333333336 10.27303 1287.8066666666666 -0.7610865642655509 0.10869911613227834 0.6394777117668144
-137.665 13.274166666666668 1278.6366666666665 0.8819109334491796 0.2505073290753271 0.3993484487791867
-136.96433333333334 19.461 1273.19 0.0 0.0 1.0
-137.28900000000002 22.20413333333333 1267.8033333333333 0.9371476740697627 0.31257031679940644 0.155093629919325
-137.43266666666668 22.171333333333337 1266.0133333333333 0.48815662805122695 0.813434034326594 0.3162723166652713
-137.33666666666667 24.645933333333332 1271.39 -0.8925987613269122 0.44634864651848305 0.06356364549630573
-181.74366666666666 52.41026666666667 2301.54 0.0 0.0 1.0
-134.56333333333336 36.95316666666667 1254.51 0.0 0.0 1.0
-136.67366666666666 38.469033333333336 1249.27 0.0 0.0 1.0
-136.189 39.110066666666675 1248.4033333333334 -0.9965668732419043 -3.3423436386133743e-16 0.08279170946933359
-136.49666666666667 46.40113333333333 1238.0666666666666 -0.8131081688801115 -0.48797290337911603 0.3173917945823236
-135.53266666666664 54.48793333333333 1233.81 0.0 0.0 1.0
-183.17933333333335 123.58966666666667 2301.54 0.0 0.0 1.0
-182.76933333333332 128.30766666666668 2301.54 0.0 0.0 1.0
-147.01966666666667 97.9461 1486.0933333333332 -0.945661685545886 -0.3152117398016145 0.07978430661322526
-149.446 106.27933333333334 1527.83 -0.8632378472500319 -0.5037022800001218 0.03323299862801083
-150.83066666666664 109.78833333333334 1558.3400000000001 -0.7062330471817647 -0.705856803123694 -0.05478189986079279
-154.02533333333335 -117.22933333333333 1634.9799999999998 -0.9686496933035954 -0.24175984616400992 0.05718346304312648
-154.38433333333333 -115.58800000000001 1636.4633333333334 -0.9626828581100016 -0.26244067934751925 0.06608028847372623
-153.506 -116.38166666666666 1656.0933333333332 0.9471173115257613 0.31565828881652414 -0.0576943923586867
-183.17966666666666 -149.436 2301.54 0.0 0.0 1.0
-158.68866666666668 -92.65576666666668 1731.1499999999999 0.8999390230520029 0.2571651517834688 0.3521020299521037
-183.17933333333335 -111.077 2301.54 0.0 0.0 1.0
-183.58966666666666 -105.74366666666667 2301.54 0.0 0.0 1.0
-183.58966666666666 -105.74366666666667 2301.54 0.0 0.0 1.0
-184.61566666666667 -98.56410000000001 2301.54 0.0 0.0 1.0
-185.436 -89.7436 2301.54 0.0 0.0 1.0
-140.71400000000003 -38.273833333333336 1335.71 0.0 0.0 1.0
-154.638 -35.67473333333333 1604.29 0.0 0.0 1.0
-141.07833333333335 -34.189166666666665 1343.7133333333334 0.9755281390750864 0.21675388432917095 0.03691345961726521
-141.33466666666666 -32.227133333333335 1346.7433333333336 -0.970852666806701 -0.21571503497705838 0.10446110778257735
-137.183 -15.005533333333332 1270.4933333333333 -0.9890025616020227 0.12340263682178061 0.08152130010045619
-159.14733333333334 -11.694899999999999 1737.8500000000001 -0.9516427498174334 -1.26336353701124e-15 0.30720689562559195
-159.14733333333334 -11.694899999999999 1737.8500000000001 -0.9516427498174336 -1.577636769785096e-15 0.3072068956255919
-135.64666666666668 32.495133333333335 1233.8166666666666 0.6580163867739849 0.07576930171648816 0.7491818521923134
-136.18533333333335 36.08886666666666 1263.34 -0.7697941294873458 -0.30786292060905096 0.5591398933369758
-136.189 39.110066666666675 1248.4033333333334 -0.9965668732419043 -3.3423436386133743e-16 0.08279170946933359
-136.641 42.20206666666667 1251.01 -0.9965929962951465 -4.77555761727073e-16 0.08247666176235598
-136.641 42.20206666666667 1251.01 -0.9965929962951465 -4.77555761727073e-16 0.08247666176235598
-135.9283333333333 46.421 1247.5366666666666 -3.893078123554265e-17 0.9958712001453612 0.09077749016710022
-135.88333333333333 46.95773333333333 1244.07 0.0 0.0 1.0
-136.50900000000001 48.47543333333334 1243.21 -0.9465712909188717 -2.104120935274509e-15 0.3224946374874797
-135.77066666666667 55.38913333333333 1224.5566666666666 -0.8931415585302519 0.446297814241121 0.055824881815821716
-184.41033333333334 111.48733333333332 2301.54 0.0 0.0 1.0
-184.41033333333334 113.33333333333333 2301.54 0.0 0.0 1.0
-184.205 115.17933333333333 2301.54 0.0 0.0 1.0
-183.58966666666666 115.58966666666667 2301.54 0.0 0.0 1.0
-183.58966666666666 116.41033333333333 2301.54 0.0 0.0 1.0
-154.395 -116.24933333333333 1633.4866666666667 0.9631989667072366 0.26258137769873063 -0.057434925088731596
-185.436 -146.564 2301.54 0.0 0.0 1.0
-157.45566666666664 -96.81766666666665 1731.1500000000003 0.8933453869640088 0.2679446953018437 0.3607487489233022
-185.23066666666668 -81.33333333333334 2301.54 0.0 0.0 1.0
-140.71400000000003 -38.273833333333336 1335.71 0.0 0.0 1.0
-153.17566666666667 -38.986066666666666 1629.043333333333 -0.970219748955454 -1.4835266552815895e-15 0.24222642039384507
-159.46500000000003 -3.8968500000000006 1714.61 0.0 0.0 1.0
-159.45566666666667 1.1661833333333333 1744.61 0.0 0.0 1.0
-159.535 8.294566666666666 1739.53 0.0 0.0 1.0
-138.22266666666667 14.949533333333333 1266.0133333333333 0.3490163478022711 0.6979295278990191 0.6253654635918238
-137.99566666666666 16.432100000000002 1275.91 0.0 0.0 1.0
-137.1663333333333 27.075999999999997 1252.756666666667 -0.9966752016975454 -5.941003336129951e-16 0.08147725032889158
-137.36866666666666 28.117966666666664 1269.5933333333332 -0.911248971688413 -0.3904969519956681 -0.13091005339126138
-137.627 30.113 1267.8 0.0 0.0 1.0
-137.627 30.113 1267.8 0.0 0.0 1.0
-137.627 30.113 1267.8 0.0 0.0 1.0
-136.641 42.20206666666667 1251.01 -0.9965929962951465 -4.3939184525558323e-16 0.08247666176235598
-136.78733333333335 44.273799999999994 1237.2133333333331 -0.705943668167739 0.7059131619809622 -0.05770740954086272
-135.9283333333333 46.421 1247.5366666666666 -3.2442317696285546e-17 0.9958712001453612 0.09077749016710022
-135.53266666666664 54.48793333333333 1233.81 0.0 0.0 1.0
-135.77066666666667 55.38913333333333 1224.5566666666666 -0.8931415585302519 0.446297814241121 0.055824881815821945
-184.205 115.17933333333333 2301.54 0.0 0.0 1.0
-184.61533333333333 124.0 2301.54 0.0 0.0 1.0
-186.25633333333334 136.9226666666667 2301.54 0.0 0.0 1.0
-148.37800000000001 100.89513333333333 1498.506666666667 -0.907764776293813 -0.41896835828945317 -0.02070327685377267
-149.03799999999998 104.70633333333335 1518.7900000000002 0.7734455221125648 0.6328398370700424 0.03599673514617702
-184.00033333333332 -169.74366666666666 2301.54 0.0 0.0 1.0
-185.436 -146.564 2301.54 0.0 0.0 1.0
-185.641 -143.077 2301.54 0.0 0.0 1.0
-159.005 -92.55653333333333 1717.8966666666665 0.9831293089148256 -0.17864475232678304 -0.03927867638757673
-158.68866666666668 -92.65576666666668 1731.1499999999999 0.8999390230520032 0.25716515178346855 0.3521020299521028
-185.23066666666668 -113.33333333333333 2301.54 0.0 0.0 1.0
-185.231 -95.07689999999998 2301.54 0.0 0.0 1.0
-185.23066666666668 -82.56410000000001 2301.54 0.0 0.0 1.0
-141.1903333333333 -36.7262 1335.71 0.0 0.0 1.0
-160.15366666666665 7.0416766666666675 1736.17 -0.6394963270676107 0.767503699362247 -0.044525488568920815
-162.17700000000002 12.063036666666667 1746.3099999999997 -0.7978686979889594 -0.21753595335322906 0.5622131711087035
-137.444 13.077866666666667 1281.3733333333332 -0.6156264891775023 0.7695072416471513 -0.1698900552580273
-137.33666666666667 24.645933333333335 1271.39 -0.8925987613269122 0.44634864651848305 0.0635636454963057
-138.49766666666667 25.317000000000004 1259.7933333333333 -0.3764258272428296 0.75256095437522 0.5403291649859459
-137.573 26.72243333333333 1251.88 0.0 0.0 1.0
-137.573 26.72243333333333 1251.88 0.0 0.0 1.0
-137.69933333333333 29.865866666666665 1266.9066666666668 -0.9967379486405514 6.4088200202641915e-18 0.08070602046827575
-137.08766666666665 50.0759 1238.92 0.0 0.0 1.0
-184.61533333333333 113.33333333333333 2301.54 0.0 0.0 1.0
-147.57 98.97429999999999 1483.6366666666665 -0.9456416090788499 -0.3152050478332285 0.08004826668464333
-187.487 -163.58966666666666 2301.54 0.0 0.0 1.0
-154.38433333333333 -115.58800000000001 1636.4633333333334 -0.9626828581100016 -0.26244067934751925 0.06608028847372623
-185.84633333333332 -143.282 2301.54 0.0 0.0 1.0
-185.84633333333332 -142.667 2301.54 0.0 0.0 1.0
-185.02533333333335 -123.99966666666667 2301.54 0.0 0.0 1.0
-159.005 -92.55653333333333 1717.8966666666665 0.9831293089148254 -0.17864475232678328 -0.039278676387576934
-185.436 -89.74360000000001 2301.54 0.0 0.0 1.0
-185.23066666666668 -82.56410000000001 2301.54 0.0 0.0 1.0
-185.846 -79.28206666666667 2301.54 0.0 0.0 1.0
-142.11633333333336 -32.36826666666667 1337.7033333333334 -0.7788909210137945 -0.46741288996412866 0.4181556211001645
-153.56766666666667 -39.096799999999995 1621.6899999999998 -0.9794793768955883 -0.19588080311788125 0.047443241943651696
-160.38666666666668 -4.251206666666667 1734.49 0.0 0.0 1.0
-158.675 -0.8565619999999999 1748.01 -0.546098360909537 -0.8192407297541273 0.17498916230395997
-161.61700000000002 -0.07817999999999999 1727.82 -0.640412574662856 0.7203174344011071 0.2664855116352458
-160.92499999999998 10.096323333333332 1729.4800000000002 -2.1201189900079223e-27 -3.352758080497001e-27 1.0
-138.306 14.0664 1267.8033333333333 0.9582175765420475 7.020067125103418e-06 0.286040339736555
-138.25433333333334 19.360466666666667 1274.0966666666666 0.3601741402779605 0.7205598987346972 0.5925099332589074
-138.02133333333333 41.688633333333335 1242.3500000000001 0.7556848827163842 -0.3778708954918817 0.5349335887510599
-137.3 49.09093333333334 1236.36 0.0 0.0 1.0
-137.23733333333334 49.6687 1239.7766666666666 -0.8942912903816806 0.4474831136022925 -0.0013967778157317945
-137.08766666666665 50.0759 1238.92 0.0 0.0 1.0
-135.77066666666667 55.38913333333333 1224.5566666666666 -0.8931415585302519 0.446297814241121 0.055824881815821716
-185.43566666666666 115.58966666666667 2301.54 0.0 0.0 1.0
-185.23066666666668 116.0 2301.54 0.0 0.0 1.0
-185.846 123.795 2301.54 0.0 0.0 1.0
-147.57 98.97429999999999 1483.6366666666665 -0.9456416090788499 -0.3152050478332285 0.08004826668464315
-151.283 111.94733333333333 1565.1266666666668 0.8737236334982241 -1.4146546964468785e-15 0.4864226683314223
-151.283 111.94733333333333 1565.1266666666668 0.8737236334982248 -2.939479120417411e-16 0.4864226683314211
-186.25666666666666 -146.97433333333333 2301.54 0.0 0.0 1.0
-186.25666666666666 -142.667 2301.54 0.0 0.0 1.0
-186.25666666666666 -142.667 2301.54 0.0 0.0 1.0
-157.98300000000003 -98.37533333333333 1676.1899999999998 -7.99735816743904e-25 -2.1461450861609896e-25 1.0
-158.12933333333334 -97.36150000000002 1679.33 0.9281943270641289 0.3713438209383882 -0.02364440434537323
-159.005 -92.55653333333333 1717.8966666666665 0.9831293089148251 -0.17864475232678345 -0.039278676387576886
-187.077 -108.61533333333334 2301.54 0.0 0.0 1.0
-185.64133333333334 -99.79473333333333 2301.54 0.0 0.0 1.0
-185.64133333333334 -99.79473333333333 2301.54 0.0 0.0 1.0
-185.436 -89.74360000000001 2301.54 0.0 0.0 1.0
