ply
format ascii 1.0
comment VCGLIB generated
element vertex 618
property float x
property float y
property float z
property float nx
property float ny
property float nz
element face 0
property list uchar int vertex_indices
end_header
-170.8983333333333 127.53599999999999 2601.74 0.0 0.0 1.0
-173.44933333333333 179.01433333333333 2601.74 0.0 0.0 1.0
-172.52200000000002 179.47833333333332 2601.74 0.0 0.0 1.0
-172.75366666666665 181.33366666666666 2601.74 0.0 0.0 1.0
-134.21133333333333 112.88533333333332 1352.8566666666666 -0.44805126476142115 -0.1599810548955842 0.8795772428958055
-130.7703333333333 121.06866666666667 1413.5466666666669 -0.8758797424119589 -0.1458834732900289 0.4599485721830188
-127.66633333333334 120.95799999999998 1381.9933333333336 -0.3080115114294318 -0.7409430185923008 0.5967682565504691
-128.48666666666668 126.43299999999999 1394.8766666666668 0.5534090906200105 -0.8305504120893115 0.06264496306494159
-128.77033333333335 129.64433333333332 1395.9566666666667 -0.7934104600902551 2.2539063797278308e-17 0.6086869818054018
-128.43966666666665 131.71766666666667 1362.0666666666666 0.8273695731012806 0.5517058484251859 0.10526274896491376
-128.399 152.84033333333335 1361.0333333333333 -0.9255638787420404 -0.30846473539010266 0.21950173891954286
-173.44933333333336 -281.27500000000003 2601.74 0.0 0.0 1.0
-175.304 -251.13033333333337 2601.74 0.0 0.0 1.0
-171.13033333333337 -168.34766666666667 2601.74 0.0 0.0 1.0
-170.89866666666663 33.6232 2601.74 0.0 0.0 1.0
-171.59399999999997 65.8551 2601.74 0.0 0.0 1.0
-173.9126666666667 76.05796666666667 2601.74 0.0 0.0 1.0
-173.9126666666667 76.05796666666667 2601.74 0.0 0.0 1.0
-172.058 182.49300000000002 2601.74 0.0 0.0 1.0
-170.203 189.21733333333336 2601.74 0.0 0.0 1.0
-131.73433333333332 117.72733333333333 1415.7766666666666 0.40020654723834276 0.8005642869765875 0.44601742338750866
-131.39933333333332 160.37 1379.8733333333332 -0.1737003958082062 0.9847087112420384 0.013301372114055061
-171.82600000000002 340.6376666666667 2601.74 0.0 0.0 1.0
-172.7536666666667 355.942 2601.74 0.0 0.0 1.0
-171.82600000000002 -346.20266666666663 2601.74 0.0 0.0 1.0
-175.53633333333335 -337.62333333333333 2601.74 0.0 0.0 1.0
-172.29000000000005 -285.681 2601.74 0.0 0.0 1.0
-172.52166666666668 -200.34799999999998 2601.74 0.0 0.0 1.0
-173.68133333333336 -175.53599999999997 2601.74 0.0 0.0 1.0
-142.322 -69.2135 1680.9000000000003 3.45582936969544e-27 -3.43020127227556e-27 1.0
-172.058 58.89856666666666 2601.74 0.0 0.0 1.0
-172.28966666666665 105.04366666666665 2601.74 0.0 0.0 1.0
-172.52166666666668 132.63766666666666 2601.74 0.0 0.0 1.0
-174.37666666666667 134.261 2601.74 0.0 0.0 1.0
-174.84033333333332 138.435 2601.74 0.0 0.0 1.0
-172.98533333333333 150.95633333333333 2601.74 0.0 0.0 1.0
-172.75366666666665 162.55066666666667 2601.74 0.0 0.0 1.0
-172.75366666666665 162.55066666666667 2601.74 0.0 0.0 1.0
-181.79700000000003 208.69566666666665 2601.74 0.0 0.0 1.0
-128.88666666666668 129.57133333333334 1399.2233333333334 0.7442598489863462 -0.23257342547324694 0.626088555198433
-130.15233333333333 128.29666666666665 1389.4766666666667 -0.3917797363856881 0.4407192253416083 0.8076355629687523
-127.37233333333334 144.25099999999998 1402.5033333333333 -0.48539084595105486 -0.2911826957030709 0.8243836269541094
-176.46366666666668 378.89866666666666 2601.74 0.0 0.0 1.0
-176.46366666666668 378.89866666666666 2601.74 0.0 0.0 1.0
-151.92166666666665 -213.907 1604.2966666666664 0.7162305926041107 0.6804227460378498 0.15504394503583946
-173.44933333333333 -281.275 2601.74 0.0 0.0 1.0
-174.145 -276.17366666666663 2601.74 0.0 0.0 1.0
-173.44933333333336 -272.46366666666665 2601.74 0.0 0.0 1.0
-176.46400000000003 -264.57966666666664 2601.74 0.0 0.0 1.0
-175.30433333333335 -218.20299999999997 2601.74 0.0 0.0 1.0
-175.30466666666666 -145.39133333333334 2601.74 0.0 0.0 1.0
-175.30466666666666 -145.39133333333334 2601.74 0.0 0.0 1.0
-145.21866666666668 -77.73166666666667 1754.8500000000001 -0.42063543476923376 -0.9013241746859425 0.10334681002915373
-176.69566666666665 -67.24636666666667 2601.74 0.0 0.0 1.0
-176.696 10.66664 2601.74 0.0 0.0 1.0
-178.087 89.27536666666667 2601.74 0.0 0.0 1.0
-174.8406666666667 144.69566666666665 2601.74 0.0 0.0 1.0
-128.15599999999998 136.95066666666665 1361.04 -0.13690262784252097 0.9578178368433811 0.25267105476187474
-130.20199999999997 149.64233333333334 1350.7966666666666 -0.21853086296934587 0.7198411846839443 0.6588421136833077
-174.60866666666666 -313.507 2601.74 0.0 0.0 1.0
-173.9126666666667 -243.942 2601.74 0.0 0.0 1.0
-176.23166666666665 -242.78233333333333 2601.74 0.0 0.0 1.0
-175.53599999999997 -214.029 2601.74 0.0 0.0 1.0
-175.53599999999997 -214.029 2601.74 0.0 0.0 1.0
-174.8406666666667 -181.56499999999997 2601.74 0.0 0.0 1.0
-174.84033333333335 -156.28966666666668 2601.74 0.0 0.0 1.0
-142.322 -69.2135 1680.9000000000003 3.455829369695427e-27 -3.430201272275548e-27 1.0
-175.53599999999997 72.5797 2601.74 0.0 0.0 1.0
-173.9126666666667 76.05796666666667 2601.74 0.0 0.0 1.0
-174.84033333333332 103.6522 2601.74 0.0 0.0 1.0
-174.84033333333332 103.6522 2601.74 0.0 0.0 1.0
-174.84033333333332 136.34799999999998 2601.74 0.0 0.0 1.0
-174.84033333333332 138.435 2601.74 0.0 0.0 1.0
-173.44933333333333 180.174 2601.74 0.0 0.0 1.0
-176.69533333333334 341.5653333333333 2601.74 0.0 0.0 1.0
-176.46366666666665 -314.8983333333333 2601.74 0.0 0.0 1.0
-176.46400000000003 -264.57966666666664 2601.74 0.0 0.0 1.0
-175.53599999999997 -214.029 2601.74 0.0 0.0 1.0
-176.232 -82.08696666666667 2601.74 0.0 0.0 1.0
-174.8406666666667 148.63766666666666 2601.74 0.0 0.0 1.0
-136.06133333333335 148.59333333333333 1391.6333333333332 -0.02018723968534419 -0.7581926938855157 0.6517179714358897
-132.58399999999997 159.37533333333334 1401.41 0.0 0.0 1.0
-130.38466666666667 156.364 1358.9733333333334 -0.8405774345921132 -0.28014111385672663 0.46362757983283764
-132.87199999999999 181.35166666666666 1409.1066666666666 -0.05784108516591426 -0.7228983432887508 0.6885291527141091
-176.46400000000003 -381.449 2601.74 0.0 0.0 1.0
-146.51433333333333 -179.97566666666663 1636.4633333333334 0.29810506161033906 -0.1490525308051698 0.9428237986510893
-174.37700000000004 -178.31866666666664 2601.74 0.0 0.0 1.0
-175.30466666666666 -145.39133333333334 2601.74 0.0 0.0 1.0
-143.99666666666664 -69.48306666666667 1709.72 -0.38156002592923527 -0.8393382783690718 0.3871991749440122
-179.24633333333335 -4.4058 2601.74 0.0 0.0 1.0
-172.49033333333333 14.440315999999997 2526.02 0.9999735319535864 0.007042803407099626 0.0018260099777072964
-176.696 10.66664 2601.74 0.0 0.0 1.0
-192.271 47.66653333333333 2503.97 0.47240311902439236 -0.16858009623876016 0.8651104231762302
-149.78133333333332 70.27156666666667 1804.2333333333333 -0.8692198029764163 -0.20056790488793647 0.45191752526595347
-132.073 122.26499999999999 1411.3266666666666 -0.8798889947594937 -0.17572350332884754 0.4414936095562023
-135.508 167.139 1380.9266666666665 0.3862977594858693 -0.8884325737783274 0.2479145071709485
-127.80233333333335 190.54933333333335 1433.8999999999999 0.09898510199777685 -0.9746656553056723 0.20057120917533022
-172.75366666666665 355.942 2601.74 0.0 0.0 1.0
-178.087 -260.638 2601.74 0.0 0.0 1.0
-178.31866666666664 -256.46366666666665 2601.74 0.0 0.0 1.0
-176.92733333333334 -203.36233333333334 2601.74 0.0 0.0 1.0
-176.69566666666665 -67.24636666666667 2601.74 0.0 0.0 1.0
-176.92766666666662 -17.159433333333336 2601.74 0.0 0.0 1.0
-152.182 50.037200000000006 1804.2333333333333 -0.6186252754212093 0.014404976223996302 0.7855541135211622
-139.13166666666666 37.04036666666667 2165.773333333333 -0.7817517139160413 -0.5390103199709779 0.31357954772930585
-124.12 47.11259999999999 1401.4399999999998 -0.20204673545184998 -0.8792260105799308 0.4314379897655624
-148.45566666666664 82.1884 1811.5033333333333 0.5122369493200871 -0.3412565169413384 0.7881353293669283
-149.03099999999998 125.80533333333334 1809.6766666666665 -0.9537088330230207 -3.540608437263784e-16 0.30073154442769745
-130.53933333333336 133.85733333333334 1403.596666666667 0.44712512597673487 -0.4471251259767349 0.7746988082090859
-132.58399999999997 159.37533333333334 1401.41 0.0 0.0 1.0
-133.79033333333334 169.259 1403.5966666666666 9.321552412410356e-16 -0.6562777824203873 0.7545193650936859
-178.087 -315.826 2601.74 0.0 0.0 1.0
-177.62299999999996 -258.319 2601.74 0.0 0.0 1.0
-177.855 -241.391 2601.74 0.0 0.0 1.0
-176.232 -175.07233333333332 2601.74 0.0 0.0 1.0
-155.15666666666667 -114.83963333333334 2287.02 0.7715759541833765 0.41443612018766174 0.4826108672728061
-176.69566666666665 -67.24636666666667 2601.74 0.0 0.0 1.0
-173.681 -25.73913333333333 2601.74 0.0 0.0 1.0
-178.319 62.3768 2601.74 0.0 0.0 1.0
-178.319 62.3768 2601.74 0.0 0.0 1.0
-175.53599999999997 72.5797 2601.74 0.0 0.0 1.0
-178.087 89.27536666666667 2601.74 0.0 0.0 1.0
-119.358 101.51646666666666 1467.88 -0.42573378602104 0.4528331884624297 0.7833855033552389
-148.61666666666667 122.055 1811.5033333333333 -0.9493683262283247 0.05276081565495017 0.3097032087109425
-129.73533333333333 135.12833333333333 1361.04 0.7591804369756612 0.5062360288637159 0.4091089673836775
-133.79033333333334 169.259 1403.5966666666666 9.321552412410356e-16 -0.6562777824203873 0.7545193650936859
-135.44466666666665 188.989 1420.256666666667 0.5719880876917027 -0.2859940438458513 0.7687893303262514
-140.58966666666666 -240.655 1654.6166666666668 -0.7237447654240025 0.6753440703732233 0.14178822635565547
-179.24666666666667 -363.3623333333333 2601.74 0.0 0.0 1.0
-177.39133333333334 -262.95666666666665 2601.74 0.0 0.0 1.0
-146.423 -82.53026666666666 1721.1933333333334 -0.5801442541024555 0.8123735661892297 -0.05900706219512007
-146.423 -82.53026666666666 1721.1933333333334 -0.5801442541024554 0.8123735661892296 -0.05900706219511999
-178.78300000000002 6.492743333333333 2601.74 0.0 0.0 1.0
-178.319 62.3768 2601.74 0.0 0.0 1.0
-149.78133333333332 70.27156666666667 1804.2333333333333 -0.8692198029764163 -0.2005679048879365 0.45191752526595347
-148.45566666666664 82.1884 1811.5033333333333 0.512236949320087 -0.3412565169413385 0.7881353293669284
-178.319 175.30433333333335 2601.74 0.0 0.0 1.0
-134.37866666666667 123.20333333333333 1409.1066666666666 -0.5209107415476814 -0.5209107415476795 0.6762425590573928
-135.25333333333333 152.40166666666667 1374.58 -0.058948537649002444 0.5604522191717517 0.8260861819050739
-176.0 -284.2896666666667 2601.74 0.0 0.0 1.0
-178.31866666666667 -256.46366666666665 2601.74 0.0 0.0 1.0
-176.46366666666668 -152.11599999999999 2601.74 0.0 0.0 1.0
-144.11766666666665 -62.438199999999995 1712.9766666666667 -0.15662175806220935 -0.4437654436298033 0.8823501889508194
-180.86933333333332 -62.14490000000001 2601.74 0.0 0.0 1.0
-181.10133333333337 -51.942033333333335 2601.74 0.0 0.0 1.0
-179.24633333333335 -4.4058 2601.74 0.0 0.0 1.0
-154.59166666666667 35.5315 1788.0966666666666 0.38643140183730057 0.8984792631713404 0.20834055132197293
-149.285 132.28600000000003 1807.8499999999997 -5.096899284518178e-26 4.428498568847452e-27 1.0
-149.85766666666666 133.76333333333335 1806.0366666666666 -0.9270004234845537 2.539048286160527e-16 0.37506028163411037
-136.04633333333334 111.22166666666668 1432.7266666666667 -0.2343061531669927 0.9372246126679722 0.25828405292904827
-131.108 155.78333333333333 1388.4066666666668 0.4199133744987161 0.35420471304879575 0.8355906768095974
-135.20666666666668 165.62066666666666 1401.41 0.0 0.0 1.0
-133.125 172.15566666666666 1405.7933333333333 -2.251145121687235e-15 -0.5582759133899671 0.8296553528596063
-176.46400000000003 -381.449 2601.74 0.0 0.0 1.0
-140.43066666666667 -238.62033333333332 1645.4833333333333 0.7175663138498483 -0.681784040558145 -0.14236961497507467
-178.78266666666664 -335.76800000000003 2601.74 0.0 0.0 1.0
-178.087 -315.82599999999996 2601.74 0.0 0.0 1.0
-181.10133333333332 -241.391 2601.74 0.0 0.0 1.0
-143.67033333333333 -71.31086666666666 1680.9000000000003 3.99938154579566e-27 -3.9993179838442124e-27 1.0
-143.67033333333333 -71.31086666666666 1680.9000000000003 3.999381545795658e-27 -3.999317983844211e-27 1.0
-181.10133333333337 -51.942033333333335 2601.74 0.0 0.0 1.0
-136.501 -16.692733333333333 1440.7833333333335 0.8318297570073537 0.554571424599869 -0.022578537914555784
-176.0 159.768 2601.74 0.0 0.0 1.0
-149.607 127.13 1807.8499999999997 1.0 0.0 0.0
-149.607 127.13 1807.8499999999997 1.0 0.0 0.0
-149.607 127.13 1807.8499999999997 1.0 0.0 0.0
-133.70466666666667 128.94066666666666 1388.4000000000003 0.0 0.0 1.0
-134.972 132.08466666666666 1379.8633333333335 -0.7039017106460354 0.7039017106460413 -0.09510396153243023
-184.11599999999999 -292.1743333333333 2601.74 0.0 0.0 1.0
-179.94233333333332 -273.85499999999996 2601.74 0.0 0.0 1.0
-148.01766666666666 -107.447 1620.2366666666667 -0.25307200969457533 0.8640892838913935 0.4350911023834064
-180.17399999999998 -71.88406666666667 2601.74 0.0 0.0 1.0
-181.797 -16.695666666666668 2601.74 0.0 0.0 1.0
-150.38066666666666 104.37 1798.8033333333333 -0.9905019725365973 1.6492055715139992e-16 0.13749851781422864
-178.319 175.30433333333335 2601.74 0.0 0.0 1.0
-132.53533333333334 121.95100000000001 1413.5466666666669 -0.28630014501314444 0.6868479694580707 0.668035997395932
-130.38466666666667 156.364 1358.9733333333334 -0.8405774345921131 -0.28014111385672646 0.46362757983283787
-182.26066666666668 -237.681 2601.74 0.0 0.0 1.0
-147.253 -135.53133333333332 1643.96 0.0 0.0 1.0
-181.10133333333337 -204.98533333333333 2601.74 0.0 0.0 1.0
-148.72966666666665 -69.96730000000001 1732.83 0.8102344505557164 0.4056428964179209 0.42305315944731575
-179.24633333333335 -4.4058 2601.74 0.0 0.0 1.0
-181.56499999999997 89.04346666666667 2601.74 0.0 0.0 1.0
-132.42933333333335 121.969 1380.9266666666665 -0.15130591519768288 -0.98359082085205 0.09826299996327312
-131.91333333333333 137.23 1403.596666666667 -0.33698404049688196 0.33698404049688196 0.879137937357268
-134.96333333333334 141.3083333333333 1370.39 -0.832137779813047 0.5201746979924831 0.19226283826117327
-176.69533333333334 341.5653333333333 2601.74 0.0 0.0 1.0
-137.56133333333335 189.79366666666667 1422.506666666667 0.6980394162898539 -0.34901970814492683 0.6252409268691151
-183.65199999999996 376.81166666666667 2601.74 0.0 0.0 1.0
-183.65233333333336 -350.3766666666667 2601.74 0.0 0.0 1.0
-183.88400000000001 -334.6086666666667 2601.74 0.0 0.0 1.0
-184.11599999999999 -292.1743333333333 2601.74 0.0 0.0 1.0
-148.72966666666665 -69.96730000000001 1732.83 0.8102344505557169 0.40564289641792045 0.42305315944731564
-151.24699999999999 -60.521866666666675 1693.5866666666668 -0.07272956768943176 -0.43637740613659026 0.8968194742517637
-182.95666666666668 -75.36233333333332 2601.74 0.0 0.0 1.0
-185.50699999999998 -41.739133333333335 2601.74 0.0 0.0 1.0
-136.55500000000004 -18.166500000000003 1445.4166666666667 0.9336885359143896 0.22242303197919192 0.28063091908631
-184.11566666666667 127.76799999999999 2601.74 0.0 0.0 1.0
-152.07233333333332 103.14333333333332 1797.0 0.0 0.0 1.0
-150.38066666666666 104.37 1798.8033333333333 -0.9905019725365971 8.34499718544398e-17 0.13749851781422873
-151.16433333333333 131.40533333333335 1802.41 0.0 0.0 1.0
-137.29999999999998 120.182 1391.6333333333332 0.34828063836971057 0.8135558119666612 0.4656474393272804
-132.42933333333335 121.969 1380.9266666666665 -0.1513059151976829 -0.9835908208520499 0.09826299996327312
-136.92933333333335 125.516 1406.8966666666668 0.23936132445391678 0.7187205726289171 0.6527992760685541
-134.972 132.08466666666666 1379.8633333333335 -0.7039017106460354 0.7039017106460413 -0.0951039615324301
-180.40599999999998 -313.7393333333334 2601.74 0.0 0.0 1.0
-150.59033333333332 -75.2964 1760.0100000000002 0.9395888456953848 -0.31317276835351365 0.13818689592942932
-138.02666666666667 -14.993 1437.3166666666666 -0.7761036185396258 -0.6305818196927322 -0.005453619229611884
-136.555 -18.1665 1445.4166666666667 0.9336885359143896 0.22242303197919194 0.28063091908631
-181.1016666666667 1.8550733333333334 2601.74 0.0 0.0 1.0
-179.94233333333332 67.24636666666667 2601.74 0.0 0.0 1.0
-184.34799999999998 116.17366666666665 2601.74 0.0 0.0 1.0
-150.17966666666666 125.234 1806.0366666666669 -0.9535773665495405 -2.2796259659426066e-16 0.3011481462742931
-151.16433333333333 131.40533333333335 1802.41 0.0 0.0 1.0
-151.1643333333333 131.40533333333335 1802.41 0.0 0.0 1.0
-135.85033333333334 145.23999999999998 1368.3 0.5933853549557163 0.7911353557746743 0.14831948411236426
-134.15 155.46666666666667 1374.58 -0.9161036053654973 -0.3982776667298219 0.04614200278039564
-159.22333333333333 -281.33733333333333 1936.57 0.0 0.0 1.0
-149.76999999999998 -157.07700000000003 1640.9533333333336 0.4092508144955411 -0.4083185802939664 0.8159593787814783
-185.27533333333335 -139.826 2601.74 0.0 0.0 1.0
-146.423 -82.53026666666666 1721.1933333333334 -0.5801442541024555 0.8123735661892297 -0.05900706219512001
-145.531 -73.3289 1682.4766666666667 0.8890255632804382 1.0638304330768071e-15 0.457857562822653
-147.72833333333332 -75.69246666666668 1754.8500000000001 -0.06115422826794519 -0.8562665229429753 0.5129013570386605
-183.18833333333336 -52.4058 2601.74 0.0 0.0 1.0
-184.57966666666667 111.30433333333333 2601.74 0.0 0.0 1.0
-184.57966666666667 138.89833333333334 2601.74 0.0 0.0 1.0
-136.58066666666664 167.36933333333334 1401.41 0.0 0.0 1.0
-183.65199999999996 376.81166666666667 2601.74 0.0 0.0 1.0
-183.65233333333333 -350.3766666666667 2601.74 0.0 0.0 1.0
-186.43500000000003 -347.13033333333334 2601.74 0.0 0.0 1.0
-183.65233333333333 -271.3043333333333 2601.74 0.0 0.0 1.0
-149.76999999999998 -157.07700000000003 1640.9533333333336 0.40925081449553713 -0.4083185802939276 0.8159593787814997
-183.65200000000002 -206.37666666666667 2601.74 0.0 0.0 1.0
-149.2696666666667 -103.81786666666666 1650.0 0.29821344862450605 -0.1987337732512746 0.9335810765160089
-184.57966666666667 -158.145 2601.74 0.0 0.0 1.0
-185.27533333333335 -139.826 2601.74 0.0 0.0 1.0
-147.75533333333334 -76.41199999999999 1674.64 -0.8507662407495383 0.5004177959290455 0.16055788089787035
-149.27033333333335 -61.53846666666667 1770.41 0.0 0.0 1.0
-186.203 -81.6232 2601.74 0.0 0.0 1.0
-162.335 37.3927 1846.96 0.6339318659010782 0.7730890839964666 -0.021532710017134124
-180.17399999999998 59.362300000000005 2601.74 0.0 0.0 1.0
-184.34799999999998 116.17366666666665 2601.74 0.0 0.0 1.0
-184.57966666666667 134.95666666666668 2601.74 0.0 0.0 1.0
-184.57966666666667 134.95666666666668 2601.74 0.0 0.0 1.0
-130.20199999999997 149.64233333333334 1350.7966666666666 -0.21853086296934587 0.7198411846839443 0.6588421136833076
-133.09633333333332 156.22233333333335 1366.2300000000002 0.3363338735572925 -0.9412989160875632 -0.02891152141147129
-136.58066666666664 167.36933333333334 1401.41 0.0 0.0 1.0
-135.508 167.13899999999998 1380.9266666666665 0.38629775948586936 -0.8884325737783273 0.24791450717094846
-138.19333333333336 175.931 1386.2700000000002 -0.5261973271349668 0.7230212240520337 0.44761220100251464
-147.75966666666667 -190.45533333333333 1634.97 0.0 0.0 1.0
-184.57966666666667 -242.31866666666667 2601.74 0.0 0.0 1.0
-184.57933333333335 -235.59399999999997 2601.74 0.0 0.0 1.0
-185.04333333333332 -210.78266666666664 2601.74 0.0 0.0 1.0
-150.05266666666668 -120.04366666666665 1607.18 0.4109566403590318 0.7502857440532449 0.5178667222512816
-145.98333333333332 -65.96823333333333 1709.72 0.22074547390607585 -0.5523414028501173 0.8038596957476761
-185.50700000000003 -56.811566666666664 2601.74 0.0 0.0 1.0
-185.50699999999998 -39.1884 2601.74 0.0 0.0 1.0
-134.48566666666667 -8.315863333333333 1479.97 -1.1652631942837515e-13 0.3237540931583935 0.9461412617380062
-165.73233333333334 43.036766666666665 1872.0033333333333 -0.6950203488461635 -0.6886024070967074 0.20681740649756192
-184.34766666666667 89.971 2601.74 0.0 0.0 1.0
-185.971 93.913 2601.74 0.0 0.0 1.0
-184.11566666666667 127.76799999999999 2601.74 0.0 0.0 1.0
-184.11566666666667 127.76799999999999 2601.74 0.0 0.0 1.0
-185.04333333333332 134.261 2601.74 0.0 0.0 1.0
-155.068 108.78966666666668 1784.4966666666667 -0.0870298224790518 -0.7843631170596242 0.6141663541710625
-137.56133333333335 189.79366666666667 1422.506666666667 0.6980394162898539 -0.34901970814492683 0.6252409268691151
-185.04333333333332 369.15933333333334 2601.74 0.0 0.0 1.0
-159.74133333333333 -285.99766666666665 1936.57 0.0 0.0 1.0
-186.89866666666668 -270.84066666666666 2601.74 0.0 0.0 1.0
-188.05766666666668 -213.10166666666666 2601.74 0.0 0.0 1.0
-186.66666666666666 -188.52166666666665 2601.74 0.0 0.0 1.0
-149.2696666666667 -103.81786666666666 1650.0 0.2982134486245038 -0.1987337732512767 0.9335810765160092
-148.72966666666665 -69.96730000000001 1732.83 0.8102344505557181 0.40564289641791873 0.4230531594473151
-184.11599999999999 -78.6087 2601.74 0.0 0.0 1.0
-185.50699999999998 -56.811566666666664 2601.74 0.0 0.0 1.0
-185.04333333333332 -54.260866666666665 2601.74 0.0 0.0 1.0
-134.48566666666667 -8.315863333333333 1479.97 -4.892635851624101e-14 0.32375409315829984 0.9461412617380381
-187.826 76.28983333333333 2601.74 0.0 0.0 1.0
-184.34799999999998 116.17366666666668 2601.74 0.0 0.0 1.0
-185.04333333333338 134.261 2601.74 0.0 0.0 1.0
-184.57966666666667 138.89833333333334 2601.74 0.0 0.0 1.0
-153.78733333333335 122.38833333333334 1788.0533333333333 0.8317392330671108 2.9760711421747586e-15 0.5551665049126563
-153.78733333333335 122.38833333333334 1788.0533333333333 0.8317392330671018 3.457164709194756e-14 0.5551665049126695
-186.43466666666666 208.0 2601.74 0.0 0.0 1.0
-186.43466666666666 208.0 2601.74 0.0 0.0 1.0
-136.92933333333335 125.516 1406.8966666666668 0.2393613244539161 0.7187205726289175 0.6527992760685538
-133.20700000000002 158.655 1375.6366666666665 -0.2384664051392344 -0.6543641756215715 0.7175941048274238
-183.65199999999996 376.81166666666667 2601.74 0.0 0.0 1.0
-187.82600000000002 382.145 2601.74 0.0 0.0 1.0
-148.05100000000002 -192.0583333333333 1634.97 0.0 0.0 1.0
-190.84066666666664 -257.62333333333333 2601.74 0.0 0.0 1.0
-147.253 -135.53133333333332 1643.96 0.0 0.0 1.0
-147.61133333333333 -128.82500000000002 1635.006666666667 -0.9284597485436548 0.3320989811933068 0.16635132107867756
-186.66666666666666 -192.0 2601.74 0.0 0.0 1.0
-150.59033333333332 -75.2964 1760.01 0.9395888456953848 -0.3131727683535132 0.13818689592942965
-184.81166666666664 -14.376833333333332 2601.74 0.0 0.0 1.0
-186.89833333333334 89.27533333333334 2601.74 0.0 0.0 1.0
-185.971 93.913 2601.74 0.0 0.0 1.0
-155.83733333333333 67.83976666666666 1795.2066666666667 -0.7518627302634515 0.30060112904513914 0.5868060974952253
-153.03333333333333 99.29939999999999 1797.0 0.0 0.0 1.0
-137.29999999999998 120.182 1391.6333333333332 0.34828063836971057 0.8135558119666613 0.4656474393272804
-138.002 135.71366666666665 1390.5533333333333 -0.6132651225825911 -0.28624899557922373 0.73618435323881
-137.52499999999998 149.415 1397.0433333333333 -0.9153888438428752 0.22900028601821415 0.3310923339063894
-137.40033333333335 151.284 1397.0433333333333 -0.9827764960262995 -1.2060233468510592e-17 0.18479815707487135
-186.66666666666666 361.507 2601.74 0.0 0.0 1.0
-185.971 364.2896666666666 2601.74 0.0 0.0 1.0
-159.74133333333336 -285.9976666666667 1936.57 0.0 0.0 1.0
-188.28966666666668 -320.0 2601.74 0.0 0.0 1.0
-184.81133333333332 -317.4493333333333 2601.74 0.0 0.0 1.0
-184.57933333333335 -235.59399999999997 2601.74 0.0 0.0 1.0
-151.12666666666667 -71.87543333333333 1687.22 -0.12866148704810965 -0.5403953738231007 0.8315161223338731
-184.81166666666664 -14.376833333333332 2601.74 0.0 0.0 1.0
-159.0666666666667 -1.5488163333333331 1953.7266666666665 0.4362034850550208 -0.8953566357651066 0.08979428944673627
-187.59399999999997 109.68133333333333 2601.74 0.0 0.0 1.0
-137.52499999999998 149.415 1397.0433333333333 -0.9153888438428753 0.22900028601821404 0.33109233390638937
-136.58066666666664 167.36933333333334 1401.41 0.0 0.0 1.0
-138.40233333333333 179.97166666666666 1409.1066666666666 0.6403134767644446 0.5030427067504404 0.5804710902870354
-186.66666666666666 361.507 2601.74 0.0 0.0 1.0
-186.66666666666666 -192.0 2601.74 0.0 0.0 1.0
-187.1303333333333 -188.52166666666665 2601.74 0.0 0.0 1.0
-185.27533333333335 -139.82600000000002 2601.74 0.0 0.0 1.0
-154.208 -62.11416666666667 1659.2033333333336 -0.24621382756807755 0.9404465342878485 0.2343908429530721
-158.85799999999998 36.336600000000004 1780.9866666666667 0.0428025862749018 0.9416478831813048 0.33386704345943985
-155.77466666666666 104.11433333333332 1756.58 0.7276205589909018 -0.6595418667065084 0.1886076567774008
-154.951 126.39066666666668 1770.41 0.0 0.0 1.0
-154.951 126.39066666666668 1770.41 0.0 0.0 1.0
-186.43466666666666 208.0 2601.74 0.0 0.0 1.0
-136.92933333333335 125.516 1406.8966666666668 0.239361324453917 0.718720572628917 0.6527992760685541
-137.04566666666668 126.58933333333333 1388.4000000000003 4.2339327244319415e-28 -2.6853233548938195e-28 1.0
-137.40033333333335 151.284 1397.0433333333333 -0.9827764960262996 -1.9357663572598914e-17 0.18479815707487135
-159.74133333333336 -285.9976666666667 1936.57 0.0 0.0 1.0
-193.15966666666668 -360.8113333333333 2601.74 0.0 0.0 1.0
-187.59400000000002 -243.47833333333332 2601.74 0.0 0.0 1.0
-186.203 -81.6232 2601.74 0.0 0.0 1.0
-190.37699999999998 -66.55073333333333 2601.74 0.0 0.0 1.0
-187.82600000000002 76.28983333333333 2601.74 0.0 0.0 1.0
-187.82600000000002 82.7826 2601.74 0.0 0.0 1.0
-152.07233333333332 103.14333333333333 1797.0 0.0 0.0 1.0
-137.143 130.01533333333333 1378.8 0.0 0.0 1.0
-135.00666666666666 137.45066666666668 1374.5866666666668 -0.6754933087374337 0.4222552279111516 0.6044909530775917
-190.37666666666667 -338.087 2601.74 0.0 0.0 1.0
-148.051 -192.0583333333333 1634.97 0.0 0.0 1.0
-148.051 -192.0583333333333 1634.97 0.0 0.0 1.0
-188.52166666666665 -291.7103333333333 2601.74 0.0 0.0 1.0
-190.60866666666666 -244.638 2601.74 0.0 0.0 1.0
-192.0 -168.34766666666667 2601.74 0.0 0.0 1.0
-151.512 -77.07043333333333 1685.63 0.0 0.0 1.0
-155.6626666666667 -60.6479 1772.1633333333332 0.38538830286058284 -0.22483924295471605 0.894943110396292
-191.30433333333335 -41.971000000000004 2601.74 0.0 0.0 1.0
-191.07233333333332 -36.63766666666667 2601.74 0.0 0.0 1.0
-187.82600000000002 76.28983333333333 2601.74 0.0 0.0 1.0
-189.21733333333336 89.50723333333333 2601.74 0.0 0.0 1.0
-155.83733333333333 67.83976666666666 1795.2066666666667 -0.7518627302634515 0.300601129045139 0.5868060974952254
-155.63766666666666 133.517 1779.1899999999998 -0.8953071944589894 -4.446238513432113e-16 0.4454492423946563
-155.63766666666666 133.517 1779.1899999999998 -0.8953071944589894 -4.446238513432113e-16 0.4454492423946563
-137.56133333333332 189.79366666666667 1422.506666666667 0.6980394162898539 -0.34901970814492705 0.625240926869115
-189.21733333333336 -322.78266666666667 2601.74 0.0 0.0 1.0
-149.68633333333335 -130.95433333333332 1629.05 -0.909305456584873 0.3846350016266145 0.15880649277869616
-151.41833333333332 -123.149 1615.8766666666668 -0.6031736505225214 -0.7806781406767456 -0.1634722850664119
-150.12 -115.01400000000001 1573.3866666666665 0.842813256099065 0.3161312327251784 0.43557646749950935
-188.98566666666667 -162.08700000000002 2601.74 0.0 0.0 1.0
-151.79866666666666 -90.8551 1657.6266666666668 -0.9141287844359324 -0.27436383072699927 0.29848459567369806
-153.01333333333332 -63.36916666666667 1742.9233333333332 0.9736702306425128 0.18840525040521272 0.128334498792431
-187.82600000000002 -62.3768 2601.74 0.0 0.0 1.0
-140.71900000000002 -12.214266666666665 1428.1833333333334 0.7041351020353718 0.7052374418392638 -0.08266745858950503
-140.71900000000002 -12.214266666666665 1428.1833333333334 0.7041351020353709 0.7052374418392645 -0.08266745858950529
-184.81166666666664 0.0 2601.74 0.0 0.0 1.0
-157.001 15.400199999999998 1818.84 0.0 0.0 1.0
-157.001 15.4002 1818.84 0.0 0.0 1.0
-193.39133333333334 64.0 2601.74 0.0 0.0 1.0
-156.47933333333333 131.03966666666665 1795.2066666666667 -0.9675412402249756 -0.19334712544045607 0.16272933831312852
-156.076 132.933 1797.0 0.0 0.0 1.0
-138.75266666666667 114.69266666666665 1385.2066666666667 -0.8374029914662389 -0.025514765283359473 0.545990134192853
-140.077 169.18333333333337 1392.71 -0.4560701238139697 0.45607012381396544 0.7641989821562344
-192.232 -342.261 2601.74 0.0 0.0 1.0
-190.37666666666667 -338.087 2601.74 0.0 0.0 1.0
-189.21733333333336 -322.78266666666667 2601.74 0.0 0.0 1.0
-151.05 -190.66933333333336 1607.18 -0.8412956157260196 0.45773687497840243 0.2875737127158595
-191.0726666666667 -273.62333333333333 2601.74 0.0 0.0 1.0
-191.76833333333335 -272.92766666666665 2601.74 0.0 0.0 1.0
-146.54933333333332 -102.08626666666667 1612.97 -0.5644552577186647 0.6081986601676729 0.5581081004644202
-148.28666666666666 -98.87103333333334 1602.9066666666668 0.9994357420827124 -0.031131616971491166 0.01261030817698786
-188.75366666666665 -135.42033333333333 2601.74 0.0 0.0 1.0
-147.60633333333334 -70.00269999999999 1674.64 -0.8766347287533125 -0.35859249817398037 0.3208161040174728
-192.232 -39.42026666666666 2601.74 0.0 0.0 1.0
-194.55066666666667 12.521766666666664 2601.74 0.0 0.0 1.0
-157.001 15.4002 1818.84 0.0 0.0 1.0
-156.8936666666667 120.915 1789.8366666666668 -0.1506125440141825 0.9027329541121256 0.40297527857868803
-156.076 132.933 1797.0 0.0 0.0 1.0
-139.351 144.04666666666665 1387.3400000000001 -0.9876604998439691 0.15184734986338683 0.03832909322469583
-139.1543333333333 148.43666666666667 1379.8700000000001 -0.9896177365109342 0.12368129668215519 0.07320978373138547
-140.077 169.1833333333333 1392.71 -0.4560701238139696 0.4560701238139654 0.7641989821562344
-190.37666666666667 -338.087 2601.74 0.0 0.0 1.0
-150.85166666666666 -137.45666666666668 1642.4566666666667 0.8810600633733193 -0.44040477435606523 0.17255955335183795
-149.89033333333333 -135.82433333333333 1643.96 0.0 0.0 1.0
-151.45966666666666 -94.92453333333333 1594.3500000000001 -0.469985242031978 -0.8781512268834916 0.08924289885005603
-188.75366666666665 -135.42033333333333 2601.74 0.0 0.0 1.0
-149.58966666666666 -82.3629 1668.4133333333332 0.7299004071989285 -0.4293249256063626 0.531907420350506
-156.34866666666667 -61.86286666666667 1748.0266666666666 0.8833553681067201 -0.4519785405977752 0.12409146818434422
-191.07233333333332 -36.63766666666667 2601.74 0.0 0.0 1.0
-191.30433333333335 131.71 2601.74 0.0 0.0 1.0
-155.068 108.78966666666668 1784.4966666666667 -0.0870298224790518 -0.7843631170596242 0.6141663541710625
-137.598 124.79733333333333 1380.9266666666665 0.23209791247417466 0.6496983231758151 0.723894086098004
-138.497 141.282 1390.5533333333333 0.7482460611681738 0.34925299934475695 0.5640480249012532
-139.57833333333335 169.86733333333333 1401.41 0.0 0.0 1.0
-150.559 -194.69633333333334 1629.05 -0.8989622549497215 0.4194973381094943 0.12605097181204436
-191.53633333333335 -275.942 2601.74 0.0 0.0 1.0
-191.76833333333335 -272.92766666666665 2601.74 0.0 0.0 1.0
-139.63200000000003 -13.153300000000002 1432.7266666666667 -0.7753954039328125 -0.630006397487721 0.04305701666876551
-195.942 32.0 2601.74 0.0 0.0 1.0
-159.07533333333333 34.9505 1833.7766666666666 0.0004378092932637856 0.9496953675462064 0.3131748987136404
-189.21733333333336 89.50723333333333 2601.74 0.0 0.0 1.0
-192.92766666666668 100.40596666666666 2601.74 0.0 0.0 1.0
-193.62333333333333 111.53633333333333 2601.74 0.0 0.0 1.0
-155.068 108.78966666666668 1784.4966666666667 -0.0870298224790518 -0.7843631170596242 0.6141663541710625
-156.47933333333333 131.03966666666668 1795.2066666666667 -0.9675412402249757 -0.19334712544045612 0.16272933831312844
-139.44566666666665 146.09433333333334 1380.9266666666665 -0.982005382222267 0.12272991332018557 0.14353674673378639
-136.73366666666666 150.66733333333335 1377.75 0.10459225539127742 -0.9944090893527363 -0.014526635013911516
-193.15933333333336 379.826 2601.74 0.0 0.0 1.0
-193.85500000000002 381.449 2601.74 0.0 0.0 1.0
-191.76833333333335 -272.92766666666665 2601.74 0.0 0.0 1.0
-194.78266666666664 -258.319 2601.74 0.0 0.0 1.0
-192.0 -168.34766666666667 2601.74 0.0 0.0 1.0
-191.76833333333335 -69.56523333333332 2601.74 0.0 0.0 1.0
-192.46366666666665 -38.02896666666667 2601.74 0.0 0.0 1.0
-193.39133333333334 -32.9275 2601.74 0.0 0.0 1.0
-192.92766666666668 100.40596666666666 2601.74 0.0 0.0 1.0
-193.62333333333333 111.53633333333333 2601.74 0.0 0.0 1.0
-142.78633333333335 122.97366666666666 1389.4766666666667 0.35106193852805284 -0.6142992910876405 0.7066766561067006
-138.78566666666669 127.16133333333333 1379.8633333333335 -0.375652707695107 0.5630970418399196 0.736075243893222
-135.508 167.13899999999998 1380.9266666666665 0.3862977594858693 -0.8884325737783274 0.2479145071709485
-138.19333333333336 175.931 1386.2700000000002 -0.5261973271349669 0.7230212240520336 0.4476122010025146
-140.709 187.70033333333333 1419.1333333333332 -0.17707429446662934 -0.8858386868304486 0.42887587383023984
-138.89533333333335 -267.13733333333334 1860.42 0.21548474106679666 0.9277090339441857 0.30483155136192985
-150.31233333333333 -262.71233333333333 1955.7399999999998 -0.1452819183928758 -0.851662092739721 0.5035522256710664
-194.319 -256.696 2601.74 0.0 0.0 1.0
-196.17399999999998 -214.72466666666665 2601.74 0.0 0.0 1.0
-153.89033333333336 -95.97126666666666 1651.5199999999998 -0.6519579100369344 0.6519579100369344 0.3871714956973788
-155.58100000000002 -78.76436666666666 1627.5666666666666 0.3948435194751889 -0.1692174156341897 0.9030304875110984
-192.69566666666665 -40.811566666666664 2601.74 0.0 0.0 1.0
-141.93933333333334 -11.222373333333332 1447.7433333333336 0.544588797601886 0.15556658107065396 0.8241493070921796
-195.47799999999998 17.159466666666663 2601.74 0.0 0.0 1.0
-144.0533333333333 23.535866666666664 1466.7066666666667 0.8302202974104372 0.5538360232547382 -0.06324489792150972
-144.0533333333333 23.535866666666667 1466.7066666666667 0.8302202974104347 0.5538360232547418 -0.0632448979215103
-192.23166666666665 70.029 2601.74 0.0 0.0 1.0
-155.63766666666666 133.51699999999997 1779.1899999999998 -0.8953071944589894 -4.1396246664697662e-16 0.4454492423946563
-191.768 207.30433333333335 2601.74 0.0 0.0 1.0
-143.06733333333332 118.03699999999999 1376.6866666666667 0.3775594545396511 -0.9172025133008682 0.12723367432520316
-137.689 133.095 1360.0066666666667 -0.0010018387011153367 -0.7344233593679729 0.6786908910055286
-139.60066666666668 146.109 1378.8066666666666 0.9762777303665248 -0.17741769255859033 -0.12411589566841351
-141.15333333333334 170.73299999999998 1400.3166666666668 -4.39356916417816e-17 0.9765569181374731 0.2152593450650646
-193.15966666666668 -360.8113333333333 2601.74 0.0 0.0 1.0
-195.24633333333335 -290.7823333333333 2601.74 0.0 0.0 1.0
-195.47833333333332 -287.99966666666666 2601.74 0.0 0.0 1.0
-193.62300000000002 -243.94233333333332 2601.74 0.0 0.0 1.0
-150.85166666666666 -137.45666666666668 1642.4566666666667 0.8810600633733193 -0.44040477435606523 0.17255955335183795
-192.0 -168.34766666666667 2601.74 0.0 0.0 1.0
-189.02266666666665 -103.21683333333334 1852.6433333333334 0.06935439274541357 0.4327973962564885 0.8988194379298431
-191.76833333333335 -69.56523333333332 2601.74 0.0 0.0 1.0
-151.83133333333333 -30.3479 1526.5366666666669 0.6416451660372564 0.6999991891376466 0.31351653243116057
-194.78266666666664 -51.71016666666667 2601.74 0.0 0.0 1.0
-192.69566666666665 -40.811566666666664 2601.74 0.0 0.0 1.0
-139.90033333333332 12.255573333333333 1696.7866666666669 0.12449361318086129 -0.20334284585136428 0.971160659890135
-144.0533333333333 23.535866666666664 1466.7066666666667 0.8302202974104359 0.5538360232547404 -0.06324489792151014
-193.39133333333334 64.0 2601.74 0.0 0.0 1.0
-155.83733333333333 67.83976666666666 1795.2066666666667 -0.7518627302634515 0.300601129045139 0.5868060974952254
-192.92766666666668 100.40596666666666 2601.74 0.0 0.0 1.0
-155.59933333333333 105.98266666666666 1766.993333333333 0.5174427045856584 -0.854119826668735 0.052272068664337576
-156.44766666666666 126.98933333333333 1772.1633333333332 0.19381183343924327 -0.9698786675490289 0.14755454399048312
-195.47833333333332 204.52166666666668 2601.74 0.0 0.0 1.0
-140.258 148.8213333333333 1363.1033333333332 -0.9878185507009882 0.10391117309176136 0.11583168391115357
-148.01766666666666 -214.25533333333337 1484.8700000000001 -0.6569272559034584 0.7508876516914269 0.06792874935170208
-192.232 -342.261 2601.74 0.0 0.0 1.0
-152.56333333333336 -95.14390000000002 1574.743333333333 0.06088690078142938 -0.45477324247148065 0.888523541187969
-151.79866666666666 -90.8551 1657.6266666666668 -0.9141287844359324 -0.27436383072699927 0.29848459567369806
-194.78266666666664 -51.71016666666667 2601.74 0.0 0.0 1.0
-160.12766666666667 4.406613999999999 1682.74 -0.9328796165555397 -0.06395745638281795 0.3544644760596318
-194.55066666666667 19.014533333333333 2601.74 0.0 0.0 1.0
-190.84066666666664 76.5217 2601.74 0.0 0.0 1.0
-156.17499999999998 106.70733333333334 1748.0266666666666 -0.8653792389110493 0.26143736754787567 0.42751523447869094
-154.951 126.39066666666668 1770.41 0.0 0.0 1.0
-141.40866666666668 111.91666666666667 1427.0600000000002 -0.35028240638509095 0.8478779522046469 0.3980015250502495
-148.01766666666666 -214.25533333333337 1484.8700000000001 -0.6569272559034584 0.7508876516914269 0.06792874935170208
-152.561 -181.602 1605.7333333333333 -0.8096046498914342 -0.5476900165054679 0.2111301889697641
-159.05433333333335 -171.41633333333334 1642.4566666666667 0.43141826384059256 4.003280169152726e-16 0.9021520280001419
-149.35366666666664 -71.32686666666667 1706.4633333333334 0.13757026932052963 -0.6190913619002115 0.7731754694890535
-194.78266666666664 -80.92753333333333 2601.74 0.0 0.0 1.0
-194.78266666666664 -51.71016666666667 2601.74 0.0 0.0 1.0
-195.47799999999998 17.159466666666663 2601.74 0.0 0.0 1.0
-139.30800000000002 123.13733333333334 1406.8966666666668 -0.14932012515289755 -0.44835750345112 0.8812939630585256
-140.258 148.8213333333333 1363.1033333333332 -0.9878185507009882 0.10391117309176136 0.11583168391115357
-140.60566666666668 147.75866666666667 1360.0066666666667 -0.9957616920772573 0.06859078228789134 0.06126954526168027
-141.85433333333333 172.34466666666665 1399.2233333333334 -0.9146368344022257 0.0831892451523415 0.39562483572907736
-198.72466666666665 358.7246666666667 2601.74 0.0 0.0 1.0
-195.01433333333333 378.89833333333337 2601.74 0.0 0.0 1.0
-150.523 -111.64266666666667 1624.62 0.5415713776848955 -0.39380833192307213 0.7427081799606436
-193.39133333333334 -32.9275 2601.74 0.0 0.0 1.0
-182.999 32.612159999999996 2070.6066666666666 0.5256528195417781 0.03585054925403917 0.8499434401334965
-196.86966666666663 65.15943333333333 2601.74 0.0 0.0 1.0
-197.10166666666666 115.01466666666666 2601.74 0.0 0.0 1.0
-140.077 169.1833333333333 1392.71 -0.4560701238139697 0.4560701238139653 0.7641989821562345
-141.85433333333333 172.34466666666665 1399.2233333333334 -0.9146368344022257 0.08318924515234145 0.39562483572907725
-143.89666666666668 187.40366666666668 1416.8933333333334 -0.1854424336642313 -0.9277014623414074 0.3240078711486829
-196.638 -361.73900000000003 2601.74 0.0 0.0 1.0
-152.18566666666666 -197.31833333333336 1623.1599999999999 -0.9061840761162402 0.42286737365768007 -0.003688426386973139
-197.5653333333333 -295.65200000000004 2601.74 0.0 0.0 1.0
-198.261 -253.681 2601.74 0.0 0.0 1.0
-196.17399999999998 -214.72466666666665 2601.74 0.0 0.0 1.0
-147.296 -119.93666666666667 1583.1866666666665 -0.832936663633827 0.5485492186522657 0.07287159316590788
-153.7023333333333 -86.58693333333333 1624.62 0.8573771676940011 0.5146866018863114 -0.0014471198065039454
-155.441 -75.44273333333335 1597.17 0.20152118835492078 -0.9767114859915929 0.07364702150199354
-150.5616666666667 -31.559566666666665 1513.7033333333336 0.8285160375088374 0.5597370190370218 -0.01598890584759491
-197.79733333333334 -25.971 2601.74 0.0 0.0 1.0
-197.10166666666666 115.01466666666666 2601.74 0.0 0.0 1.0
-198.0293333333333 119.652 2601.74 0.0 0.0 1.0
-195.01466666666667 127.536 2601.74 0.0 0.0 1.0
-144.42933333333335 115.997 1414.6633333333332 0.5363363655741102 0.8433456742120771 0.03333731768651164
-140.87266666666667 130.80733333333333 1393.7966666666669 0.8146207920180137 -0.4494719855134121 0.3665622722684031
-140.60566666666668 147.75866666666664 1360.0066666666667 -0.9957616920772572 0.06859078228789123 0.06126954526168016
-144.70666666666665 185.1786666666667 1412.4333333333334 0.8037216789771507 0.4029267833599175 0.437814424149525
-174.11333333333334 185.73366666666666 1531.7766666666666 -0.035695114714346686 -0.4285163526246378 0.9028286627698562
-199.42033333333333 -337.391 2601.74 0.0 0.0 1.0
-197.56533333333334 -295.652 2601.74 0.0 0.0 1.0
-196.63766666666666 -270.37666666666667 2601.74 0.0 0.0 1.0
-198.261 -253.681 2601.74 0.0 0.0 1.0
-198.029 -241.39133333333334 2601.74 0.0 0.0 1.0
-198.029 -241.39133333333334 2601.74 0.0 0.0 1.0
-150.77033333333333 -134.43066666666667 1630.5433333333333 -0.90532663714095 0.3829519662811178 0.18366129588044583
-153.89033333333336 -95.97126666666666 1651.5199999999998 -0.6519579100369343 0.6519579100369343 0.3871714956973789
-153.7023333333333 -86.58693333333333 1624.62 0.8573771676940012 0.5146866018863113 -0.0014471198065036123
-154.52433333333332 -59.97606666666667 1703.243333333333 -0.8040405375699866 -0.5942571785806311 0.01942214327912803
-146.63433333333333 -3.0992766666666665 1448.91 0.0 0.0 1.0
-198.72433333333333 12.985533333333331 2601.74 0.0 0.0 1.0
-197.56499999999997 16.927566666666667 2601.74 0.0 0.0 1.0
-163.52766666666668 18.864900000000002 1809.7 -0.27075317908541646 -0.962592400033513 -0.010420528434861962
-195.942 32.0 2601.74 0.0 0.0 1.0
-196.40599999999998 99.01453333333335 2601.74 0.0 0.0 1.0
-158.459 97.43169999999999 1729.49 0.9963319309564936 0.06877706419076775 -0.050915604659122725
-158.76233333333334 113.26833333333333 1736.17 -0.99890549065805 4.430743598908692e-17 0.046774145991135045
-145.21333333333334 115.008 1418.01 0.0 0.0 1.0
-142.78633333333335 122.97366666666666 1389.4766666666667 0.3510619385280528 -0.6142992910876405 0.7066766561067006
-143.16366666666667 124.20133333333335 1334.73 -0.9539847396442179 0.2601225514489971 0.1491622430564046
-144.70666666666665 185.1786666666667 1412.4333333333334 0.8037216789771507 0.4029267833599175 0.437814424149525
-199.42033333333333 353.855 2601.74 0.0 0.0 1.0
-195.01433333333333 378.89833333333337 2601.74 0.0 0.0 1.0
-153.4346666666667 -199.53033333333335 1618.7766666666666 -0.9985701226285836 0.0004131220284151768 0.05345595872983033
-198.26099999999997 -297.507 2601.74 0.0 0.0 1.0
-197.797 -288.2316666666666 2601.74 0.0 0.0 1.0
-195.94233333333332 -257.62333333333333 2601.74 0.0 0.0 1.0
-196.17399999999998 -214.72466666666665 2601.74 0.0 0.0 1.0
-204.058 -202.4346666666667 2601.74 0.0 0.0 1.0
-153.89033333333336 -95.97126666666666 1651.5199999999998 -0.6519579100369344 0.6519579100369344 0.3871714956973788
-151.12666666666667 -71.87543333333333 1687.22 -0.12866148704810962 -0.5403953738231008 0.8315161223338731
-195.942 32.0 2601.74 0.0 0.0 1.0
-158.41 31.999899999999997 1795.2066666666667 0.3388176594703854 -0.12481447117447568 0.9325362949593147
-198.49300000000002 115.94233333333334 2601.74 0.0 0.0 1.0
-158.46333333333334 93.05083333333333 1722.8633333333335 -0.998880140034132 0.0004954946934964916 0.047309833337280706
-158.76233333333334 113.26833333333333 1736.17 -0.9989054906580499 -1.1173336505368396e-17 0.046774145991135156
-158.76233333333334 113.26833333333333 1736.17 -0.9989054906580501 -1.6871804670349115e-17 0.04677414599113483
-197.10133333333337 355.942 2601.74 0.0 0.0 1.0
-201.50733333333332 -377.739 2601.74 0.0 0.0 1.0
-200.1163333333333 -364.5216666666667 2601.74 0.0 0.0 1.0
-199.42033333333333 -337.391 2601.74 0.0 0.0 1.0
-155.32366666666667 -202.40099999999998 1612.9466666666667 -0.8848944016494582 0.4423813608823422 0.14581025160575625
-198.72466666666665 -243.24666666666667 2601.74 0.0 0.0 1.0
-198.261 -172.058 2601.74 0.0 0.0 1.0
-155.752 -75.74616666666667 1591.4966666666667 -0.14125250147892474 0.9884718110423841 0.054508802963698075
-153.72433333333333 -56.91506666666667 1698.3999999999999 0.1643488721495469 0.986093232897281 0.02468976017219742
-188.66 -55.63535333333334 2289.893333333333 0.7773287056368806 0.4127305430365108 0.47477740282966174
-200.57966666666667 98.78263333333332 2601.74 0.0 0.0 1.0
-199.42066666666665 121.043 2601.74 0.0 0.0 1.0
-158.548 91.0793 1714.61 0.0 0.0 1.0
-158.548 91.0793 1714.61 0.0 0.0 1.0
-156.8936666666667 120.915 1789.8366666666668 -0.1506125440141825 0.9027329541121256 0.40297527857868803
-195.47833333333332 204.52166666666668 2601.74 0.0 0.0 1.0
-143.06733333333332 118.03699999999999 1376.6866666666667 0.37755945453965106 -0.9172025133008682 0.12723367432520322
-152.57333333333335 -181.64433333333332 1557.0133333333333 -0.7656948379320788 0.6431865785154438 -0.0047371280080306995
-152.13433333333333 -181.58700000000002 1562.4233333333334 0.9482568579044743 -0.3162113994922181 0.028623107244091006
-198.261 -297.507 2601.74 0.0 0.0 1.0
-200.34766666666667 -267.8256666666667 2601.74 0.0 0.0 1.0
-198.72466666666665 -243.24666666666667 2601.74 0.0 0.0 1.0
-153.7023333333333 -86.58693333333333 1624.62 0.8573771676940012 0.5146866018863113 -0.0014471198065036123
-155.752 -75.74616666666667 1591.4966666666667 -0.1412525014789247 0.9884718110423841 0.054508802963698075
-161.01433333333333 -62.44493333333333 1751.42 -0.07221738894573211 0.48743071485173745 0.8701700678332857
-164.35233333333335 -58.39763333333334 1775.67 0.0 0.0 1.0
-146.63433333333333 -3.099276666666667 1448.91 0.0 0.0 1.0
-197.56499999999997 16.927566666666667 2601.74 0.0 0.0 1.0
-158.548 91.0793 1714.61 0.0 0.0 1.0
-145.21333333333334 115.008 1418.01 0.0 0.0 1.0
-137.689 133.095 1360.0066666666667 -0.0010018387011153367 -0.7344233593679729 0.6786908910055286
-198.261 -253.681 2601.74 0.0 0.0 1.0
-198.72466666666665 -159.768 2601.74 0.0 0.0 1.0
-199.88400000000001 -76.05796666666667 2601.74 0.0 0.0 1.0
-200.11599999999999 -21.101466666666667 2601.74 0.0 0.0 1.0
-165.25266666666667 32.66393333333333 1822.5833333333333 -0.8676056440185524 0.328306985322165 0.37346347861045887
-200.34799999999998 66.31883333333333 2601.74 0.0 0.0 1.0
-199.88433333333333 73.971 2601.74 0.0 0.0 1.0
-200.11599999999999 116.86966666666667 2601.74 0.0 0.0 1.0
-158.77833333333334 92.82273333333335 1712.9766666666665 -0.9898152208179285 -0.1415696081127484 0.014962442847278353
-143.85299999999998 169.37766666666664 1367.2633333333333 -0.9975307180682348 0.00010108691994932536 0.0702314480251283
-152.13433333333333 -181.58700000000002 1562.4233333333334 0.9482568579044743 -0.3162113994922181 0.028623107244091006
-198.95633333333333 -294.2606666666667 2601.74 0.0 0.0 1.0
-155.09633333333332 -98.09903333333334 1574.7433333333336 0.3088615106721763 -0.5156865382194805 0.7991695449180414
-199.42 13.2174 2601.74 0.0 0.0 1.0
-165.75066666666666 43.89436666666666 1885.7666666666667 0.7834729087806277 0.5825320588682532 0.21639455075749017
-198.72466666666665 77.91303333333333 2601.74 0.0 0.0 1.0
-145.035 115.92666666666666 1416.8933333333334 -0.28112194506096144 0.8433658351828734 0.45793506095453756
-199.42033333333333 -337.391 2601.74 0.0 0.0 1.0
-152.46400000000003 -118.55066666666669 1626.09 0.0 0.0 1.0
-202.89866666666668 -173.913 2601.74 0.0 0.0 1.0
-153.09566666666666 -27.758266666666668 1504.78 0.8539442283744507 0.4657772277513359 0.23201471706390545
-148.184 -2.066186666666667 1448.91 0.0 0.0 1.0
-200.11599999999999 116.86966666666667 2601.74 0.0 0.0 1.0
-160.7586666666667 128.36533333333333 1706.5 -0.9867418320879806 0.15787129020891377 0.03764588337957153
-146.47699999999998 114.50233333333334 1418.01 0.0 0.0 1.0
-143.52466666666666 161.3273333333333 1344.75 0.8070644116832386 0.5875437024180108 -0.05864668058231456
-143.85299999999998 169.37766666666667 1367.2633333333333 -0.9975307180682349 0.00010108691994898045 0.0702314480251281
-200.57966666666667 350.8403333333333 2601.74 0.0 0.0 1.0
