ply
format ascii 1.0
comment VCGLIB generated
element vertex 888
property float x
property float y
property float z
property float nx
property float ny
property float nz
element face 0
property list uchar int vertex_indices
end_header
12.781066666666666 0.07889533333333332 1770.41 0.0 0.0 1.0
35.0365 6.909976666666666 2183.94 0.0 0.0 1.0
12.392166666666668 13.882366666666664 1760.0 0.0 0.0 1.0
11.964799999999999 27.2923 1754.84 0.0 0.0 1.0
11.718766666666667 28.202133333333332 1753.13 -0.6920380735556041 -0.6920380735556028 -0.20534509855094765
10.916186666666666 41.55946666666667 1749.71 0.0 0.0 1.0
33.674 73.28466666666667 2183.94 0.0 0.0 1.0
34.0633 107.73700000000001 2183.94 0.0 0.0 1.0
34.0633 107.73700000000001 2183.94 0.0 0.0 1.0
34.06326666666667 119.80533333333334 2183.94 0.0 0.0 1.0
33.674 151.72766666666666 2183.94 0.0 0.0 1.0
34.84186666666667 160.876 2183.94 0.0 0.0 1.0
16.833333333333332 -119.41666666666667 1870.0 0.0 0.0 1.0
17.0 -117.91666666666667 1870.0 0.0 0.0 1.0
17.86086666666667 -109.57466666666666 1864.17 0.0 0.0 1.0
18.027 -107.91266666666667 1864.17 0.0 0.0 1.0
17.333333333333332 -100.75 1870.0 0.0 0.0 1.0
16.333333333333332 -97.25 1870.0 0.0 0.0 1.0
17.86086666666667 -90.79956666666665 1864.17 0.0 0.0 1.0
17.19626666666667 -86.47976666666666 1864.17 0.0 0.0 1.0
16.697833333333335 -77.00933333333333 1864.17 0.0 0.0 1.0
16.635299999999997 -70.63743333333333 1875.86 0.0 0.0 1.0
34.45256666666666 -71.92216666666667 2183.94 0.0 0.0 1.0
33.86863333333333 -59.270100000000006 2183.94 0.0 0.0 1.0
33.673966666666665 -48.95376666666667 2183.94 0.0 0.0 1.0
34.45256666666666 -36.88563333333334 2183.94 0.0 0.0 1.0
35.62043333333333 -20.53526666666667 2183.94 0.0 0.0 1.0
33.8686 -2.6277373333333336 2183.94 0.0 0.0 1.0
12.781066666666666 0.07889533333333332 1770.41 0.0 0.0 1.0
33.284666666666666 9.051096666666668 2183.94 0.0 0.0 1.0
33.284666666666666 9.051096666666668 2183.94 0.0 0.0 1.0
12.392166666666668 13.882366666666664 1760.0 0.0 0.0 1.0
11.3392 27.605099999999997 1754.84 0.0 0.0 1.0
33.673966666666665 42.91973333333333 2183.94 0.0 0.0 1.0
11.072133333333333 42.96296666666666 1749.71 0.0 0.0 1.0
11.072133333333333 43.586733333333335 1749.71 0.0 0.0 1.0
10.916199999999998 44.21053333333334 1749.71 0.0 0.0 1.0
34.06323333333333 68.0292 2183.94 0.0 0.0 1.0
34.6472 78.15086666666666 2183.94 0.0 0.0 1.0
33.8686 79.31873333333333 2183.94 0.0 0.0 1.0
34.45253333333333 80.09733333333334 2183.94 0.0 0.0 1.0
34.6472 96.25303333333333 2183.94 0.0 0.0 1.0
33.09003333333333 109.09966666666666 2183.94 0.0 0.0 1.0
33.673966666666665 118.248 2183.94 0.0 0.0 1.0
34.06326666666667 119.80533333333334 2183.94 0.0 0.0 1.0
34.06323333333333 138.49133333333336 2183.94 0.0 0.0 1.0
34.841833333333334 154.06366666666668 2183.94 0.0 0.0 1.0
34.45253333333333 159.51333333333332 2183.94 0.0 0.0 1.0
34.45253333333333 159.51333333333332 2183.94 0.0 0.0 1.0
16.4038 -134.84766666666667 1887.7 0.0 0.0 1.0
16.69783333333333 -77.00933333333334 1864.17 0.0 0.0 1.0
34.0633 -84.18493333333333 2183.94 0.0 0.0 1.0
33.09003333333334 -66.47203333333333 2183.94 0.0 0.0 1.0
33.86863333333333 -61.21653333333334 2183.94 0.0 0.0 1.0
33.47933333333334 -60.43796666666666 2183.94 0.0 0.0 1.0
32.8954 -42.72506666666667 2183.94 0.0 0.0 1.0
32.8954 -42.72506666666667 2183.94 0.0 0.0 1.0
33.284666666666666 -35.5231 2183.94 0.0 0.0 1.0
10.999 -8.783386666666667 1775.67 0.0 0.0 1.0
33.09003333333333 15.085166666666666 2183.94 0.0 0.0 1.0
11.3392 26.197466666666667 1754.84 0.0 0.0 1.0
32.50606666666667 40.194633333333336 2183.94 0.0 0.0 1.0
11.072133333333333 42.96296666666666 1749.71 0.0 0.0 1.0
11.3392 46.68620000000001 1754.84 0.0 0.0 1.0
33.4793 65.30413333333333 2183.94 0.0 0.0 1.0
33.674 73.28466666666667 2183.94 0.0 0.0 1.0
33.09003333333333 73.47930000000001 2183.94 0.0 0.0 1.0
33.09003333333333 74.2579 2183.94 0.0 0.0 1.0
34.257933333333334 103.06569999999999 2183.94 0.0 0.0 1.0
33.868633333333335 108.51566666666668 2183.94 0.0 0.0 1.0
32.89536666666667 111.241 2183.94 0.0 0.0 1.0
34.063266666666664 116.10700000000001 2183.94 0.0 0.0 1.0
33.673966666666665 129.343 2183.94 0.0 0.0 1.0
34.45256666666666 141.80066666666667 2183.94 0.0 0.0 1.0
33.2847 149.197 2183.94 0.0 0.0 1.0
33.674 151.72766666666666 2183.94 0.0 0.0 1.0
33.86863333333333 152.50633333333334 2183.94 0.0 0.0 1.0
15.932899999999998 -128.721 1881.76 0.0 0.0 1.0
16.333333333333332 -103.91666666666667 1870.0 0.0 0.0 1.0
16.666666666666668 -102.75 1870.0 0.0 0.0 1.0
15.833333333333334 -95.91666666666667 1870.0 0.0 0.0 1.0
16.033266666666666 -87.14433333333334 1864.17 0.0 0.0 1.0
15.368666666666668 -81.32916666666667 1864.17 0.0 0.0 1.0
16.69783333333333 -77.00933333333334 1864.17 0.0 0.0 1.0
33.47933333333333 -85.3528 2183.94 0.0 0.0 1.0
32.11676666666667 -77.56689999999999 2183.94 0.0 0.0 1.0
32.700733333333325 -52.8467 2183.94 0.0 0.0 1.0
32.700700000000005 -48.95376666666667 2183.94 0.0 0.0 1.0
31.922133333333335 -34.3552 2183.94 0.0 0.0 1.0
32.11676666666667 -16.0584 2183.94 0.0 0.0 1.0
33.67393333333333 -5.15815 2183.94 0.0 0.0 1.0
33.089999999999996 -4.57421 2183.94 0.0 0.0 1.0
11.04536 2.7613396666666663 1770.41 0.0 0.0 1.0
11.3392 27.605099999999997 1754.84 0.0 0.0 1.0
31.9221 41.16786666666667 2183.94 0.0 0.0 1.0
10.916199999999998 44.21053333333333 1749.71 0.0 0.0 1.0
32.700700000000005 67.25063333333334 2183.94 0.0 0.0 1.0
33.09003333333333 74.2579 2183.94 0.0 0.0 1.0
33.284666666666666 140.04866666666666 2183.94 0.0 0.0 1.0
32.89536666666667 156.20433333333332 2183.94 0.0 0.0 1.0
17.166666666666668 -124.75 1870.0 0.0 0.0 1.0
15.833333333333334 -122.75 1870.0 0.0 0.0 1.0
16.0 -116.91666666666667 1870.0 0.0 0.0 1.0
16.333333333333332 -103.91666666666667 1870.0 0.0 0.0 1.0
16.5 -100.41666666666667 1870.0 0.0 0.0 1.0
15.666666666666666 -99.75 1870.0 0.0 0.0 1.0
15.5 -96.91666666666667 1870.0 0.0 0.0 1.0
16.635299999999997 -70.63743333333333 1875.86 0.0 0.0 1.0
31.922133333333335 -79.31873333333333 2183.94 0.0 0.0 1.0
32.11676666666667 -77.56689999999999 2183.94 0.0 0.0 1.0
32.31143333333333 -59.27009999999999 2183.94 0.0 0.0 1.0
31.532833333333333 -44.4769 2183.94 0.0 0.0 1.0
31.338199999999997 -29.294433333333334 2183.94 0.0 0.0 1.0
32.11676666666667 -16.0584 2183.94 0.0 0.0 1.0
10.20772 -10.524213333333334 1775.67 0.0 0.0 1.0
31.532866666666663 0.09732366666666666 2183.94 0.0 0.0 1.0
31.532866666666663 0.4866166666666667 2183.94 0.0 0.0 1.0
33.284666666666666 9.051096666666668 2183.94 0.0 0.0 1.0
30.364966666666664 20.146 2183.94 0.0 0.0 1.0
10.039200000000001 18.43133333333333 1760.0 0.0 0.0 1.0
9.568616666666667 22.98036666666667 1760.0 0.0 0.0 1.0
32.50606666666667 42.33576666666667 2183.94 0.0 0.0 1.0
9.512666666666666 41.4035 1749.71 0.0 0.0 1.0
9.77518 46.5298 1754.84 0.0 0.0 1.0
32.31143333333333 75.81510000000002 2183.94 0.0 0.0 1.0
32.31143333333333 87.29926666666667 2183.94 0.0 0.0 1.0
32.31143333333333 108.71033333333332 2183.94 0.0 0.0 1.0
31.922166666666666 129.53766666666664 2183.94 0.0 0.0 1.0
30.9489 134.793 2183.94 0.0 0.0 1.0
31.532866666666663 143.74733333333333 2183.94 0.0 0.0 1.0
31.727499999999996 144.52566666666667 2183.94 0.0 0.0 1.0
31.14356666666666 146.861 2183.94 0.0 0.0 1.0
31.727499999999996 157.76133333333334 2183.94 0.0 0.0 1.0
30.5596 -160.68133333333333 2183.94 0.0 0.0 1.0
16.4038 -135.18433333333334 1887.7 0.0 0.0 1.0
15.166666666666666 -120.08333333333333 1870.0 0.0 0.0 1.0
15.333333333333334 -112.75 1870.0 0.0 0.0 1.0
15.333333333333334 -112.75 1870.0 0.0 0.0 1.0
16.0 -105.58333333333333 1870.0 0.0 0.0 1.0
15.5 -96.91666666666667 1870.0 0.0 0.0 1.0
15.368666666666668 -81.32916666666667 1864.17 0.0 0.0 1.0
15.036366666666666 -80.6646 1864.17 0.0 0.0 1.0
16.635299999999997 -70.63743333333333 1875.86 0.0 0.0 1.0
30.9489 -80.29196666666667 2183.94 0.0 0.0 1.0
32.11676666666667 -77.5669 2183.94 0.0 0.0 1.0
33.09003333333333 -66.47203333333333 2183.94 0.0 0.0 1.0
31.143533333333334 -58.4915 2183.94 0.0 0.0 1.0
31.532833333333333 -49.343066666666665 2183.94 0.0 0.0 1.0
31.532833333333333 -44.4769 2183.94 0.0 0.0 1.0
32.11676666666667 -16.0584 2183.94 0.0 0.0 1.0
10.999 -8.783386666666667 1775.67 0.0 0.0 1.0
10.039200000000001 18.43133333333333 1760.0 0.0 0.0 1.0
9.72549 18.901933333333332 1760.0 0.0 0.0 1.0
31.9221 41.16786666666667 2183.94 0.0 0.0 1.0
31.72746666666667 41.94646666666667 2183.94 0.0 0.0 1.0
8.421053333333333 35.78946666666666 1749.71 0.0 0.0 1.0
9.512666666666666 41.4035 1749.71 0.0 0.0 1.0
9.356723333333333 41.87133333333333 1749.71 0.0 0.0 1.0
8.732943333333333 42.963 1749.71 0.0 0.0 1.0
30.754266666666666 66.86133333333333 2183.94 0.0 0.0 1.0
31.532833333333333 68.02923333333334 2183.94 0.0 0.0 1.0
31.922133333333335 72.70073333333333 2183.94 0.0 0.0 1.0
31.143533333333334 75.81510000000002 2183.94 0.0 0.0 1.0
31.72746666666667 79.31873333333333 2183.94 0.0 0.0 1.0
31.72746666666667 81.07053333333333 2183.94 0.0 0.0 1.0
31.3382 108.71033333333332 2183.94 0.0 0.0 1.0
31.727499999999996 111.63033333333334 2183.94 0.0 0.0 1.0
32.70073333333333 152.50633333333334 2183.94 0.0 0.0 1.0
30.5596 -161.07066666666665 2183.94 0.0 0.0 1.0
15.932899999999998 -128.721 1881.76 0.0 0.0 1.0
15.166666666666666 -120.08333333333333 1870.0 0.0 0.0 1.0
14.833333333333334 -119.91666666666667 1870.0 0.0 0.0 1.0
15.333333333333334 -112.75 1870.0 0.0 0.0 1.0
15.5 -98.75 1870.0 0.0 0.0 1.0
15.0 -96.25 1870.0 0.0 0.0 1.0
16.033266666666666 -87.14433333333334 1864.17 0.0 0.0 1.0
15.036366666666666 -80.6646 1864.17 0.0 0.0 1.0
29.975666666666665 -61.995133333333335 2183.94 0.0 0.0 1.0
30.9489 -47.201966666666664 2183.94 0.0 0.0 1.0
31.532833333333333 -44.4769 2183.94 0.0 0.0 1.0
31.14356666666667 -36.69096666666667 2183.94 0.0 0.0 1.0
31.338199999999997 -29.294433333333334 2183.94 0.0 0.0 1.0
31.338199999999997 -29.29443333333333 2183.94 0.0 0.0 1.0
30.170299999999997 -23.455 2183.94 0.0 0.0 1.0
31.922133333333335 -21.897833333333335 2183.94 0.0 0.0 1.0
9.416413333333333 -9.891193333333334 1775.67 0.0 0.0 1.0
10.365966666666667 -6.4095 1775.67 0.0 0.0 1.0
10.365966666666667 -6.4095 1775.67 0.0 0.0 1.0
29.586366666666663 13.528 2183.94 0.0 0.0 1.0
9.72549 18.901933333333332 1760.0 0.0 0.0 1.0
9.568616666666665 22.98036666666667 1760.0 0.0 0.0 1.0
32.31143333333333 31.630200000000002 2183.94 0.0 0.0 1.0
8.888886666666666 42.02726666666666 1749.71 0.0 0.0 1.0
31.72746666666667 73.09003333333334 2183.94 0.0 0.0 1.0
29.975666666666665 116.10666666666668 2183.94 0.0 0.0 1.0
30.9489 134.793 2183.94 0.0 0.0 1.0
30.9489 145.49866666666668 2183.94 0.0 0.0 1.0
30.170333333333332 160.09733333333335 2183.94 0.0 0.0 1.0
15.932899999999998 -128.721 1881.76 0.0 0.0 1.0
13.625900000000001 -120.794 1875.86 0.0 0.0 1.0
14.833333333333334 -119.91666666666667 1870.0 0.0 0.0 1.0
14.333333333333334 -118.75 1870.0 0.0 0.0 1.0
14.333333333333334 -117.91666666666667 1870.0 0.0 0.0 1.0
30.170333333333332 -52.262766666666664 2183.94 0.0 0.0 1.0
30.170333333333332 -52.262766666666664 2183.94 0.0 0.0 1.0
31.532833333333333 -49.343066666666665 2183.94 0.0 0.0 1.0
30.364966666666664 -41.94646666666667 2183.94 0.0 0.0 1.0
29.9757 1.070557 2183.94 0.0 0.0 1.0
29.9757 1.070557 2183.94 0.0 0.0 1.0
29.975666666666665 3.21168 2183.94 0.0 0.0 1.0
30.170333333333332 19.951333333333334 2183.94 0.0 0.0 1.0
8.784316666666665 21.568633333333334 1760.0 0.0 0.0 1.0
8.941180000000001 22.196066666666667 1760.0 0.0 0.0 1.0
29.197099999999995 30.8516 2183.94 0.0 0.0 1.0
8.576996666666666 40.3119 1749.71 0.0 0.0 1.0
8.888886666666666 42.02726666666666 1749.71 0.0 0.0 1.0
30.170333333333332 66.86133333333333 2183.94 0.0 0.0 1.0
29.9757 67.05596666666666 2183.94 0.0 0.0 1.0
31.3382 108.71033333333332 2183.94 0.0 0.0 1.0
31.3382 110.85166666666667 2183.94 0.0 0.0 1.0
29.197066666666668 115.52266666666667 2183.94 0.0 0.0 1.0
30.754266666666666 128.95366666666666 2183.94 0.0 0.0 1.0
30.754266666666666 135.96066666666664 2183.94 0.0 0.0 1.0
29.391733333333335 140.63266666666667 2183.94 0.0 0.0 1.0
30.754266666666666 143.55266666666668 2183.94 0.0 0.0 1.0
30.754266666666666 147.05566666666667 2183.94 0.0 0.0 1.0
29.586366666666667 150.17033333333333 2183.94 0.0 0.0 1.0
29.391733333333335 159.31866666666667 2183.94 0.0 0.0 1.0
14.721366666666666 -135.016 1887.7 0.0 0.0 1.0
14.721366666666666 -135.016 1887.7 0.0 0.0 1.0
14.5531 -132.99666666666667 1887.7 0.0 0.0 1.0
14.333333333333334 -117.91666666666667 1870.0 0.0 0.0 1.0
13.833333333333334 -112.91666666666667 1870.0 0.0 0.0 1.0
14.166666666666666 -96.41666666666667 1870.0 0.0 0.0 1.0
14.833333333333334 -94.58333333333333 1870.0 0.0 0.0 1.0
15.534799999999999 -76.8432 1864.17 0.0 0.0 1.0
28.029166666666665 -72.50606666666665 2183.94 0.0 0.0 1.0
29.975666666666665 -61.995133333333335 2183.94 0.0 0.0 1.0
30.170299999999997 -57.90753333333333 2183.94 0.0 0.0 1.0
30.170333333333332 -52.262766666666664 2183.94 0.0 0.0 1.0
30.364966666666664 -39.80533333333333 2183.94 0.0 0.0 1.0
30.5596 -34.54983333333333 2183.94 0.0 0.0 1.0
9.416413333333333 -9.891193333333334 1775.67 0.0 0.0 1.0
29.975666666666665 3.21168 2183.94 0.0 0.0 1.0
29.975666666666665 3.21168 2183.94 0.0 0.0 1.0
11.04536 2.7613396666666663 1770.41 0.0 0.0 1.0
30.9489 11.776180000000002 2183.94 0.0 0.0 1.0
8.784316666666665 21.568633333333334 1760.0 0.0 0.0 1.0
7.641326666666667 36.41323333333333 1749.71 0.0 0.0 1.0
7.641326666666667 36.41323333333333 1749.71 0.0 0.0 1.0
7.641326666666667 39.84406666666667 1749.71 0.0 0.0 1.0
7.953216666666666 42.65110000000001 1749.71 0.0 0.0 1.0
7.272726666666666 46.842600000000004 1754.84 0.0 0.0 1.0
29.78103333333333 66.66666666666667 2183.94 0.0 0.0 1.0
29.39173333333333 75.4258 2183.94 0.0 0.0 1.0
30.170299999999997 78.54013333333334 2183.94 0.0 0.0 1.0
28.807766666666666 88.85643333333333 2183.94 0.0 0.0 1.0
28.418466666666664 124.28266666666666 2183.94 0.0 0.0 1.0
29.197100000000002 128.56433333333334 2183.94 0.0 0.0 1.0
30.754266666666666 135.96066666666664 2183.94 0.0 0.0 1.0
30.364966666666664 144.33100000000002 2183.94 0.0 0.0 1.0
30.364966666666664 146.47166666666666 2183.94 0.0 0.0 1.0
30.170333333333332 149.00233333333333 2183.94 0.0 0.0 1.0
28.613166666666668 -161.26533333333336 2183.94 0.0 0.0 1.0
28.613166666666668 -160.48666666666668 2183.94 0.0 0.0 1.0
14.721366666666666 -135.016 1887.7 0.0 0.0 1.0
13.081733333333332 -122.68366666666668 1881.76 0.0 0.0 1.0
13.124333333333333 -119.122 1875.86 0.0 0.0 1.0
14.166666666666666 -96.41666666666667 1870.0 0.0 0.0 1.0
29.391733333333335 -80.09733333333334 2183.94 0.0 0.0 1.0
29.002433333333332 -61.8005 2183.94 0.0 0.0 1.0
30.170299999999997 -57.90753333333333 2183.94 0.0 0.0 1.0
29.197099999999995 -37.08026666666667 2183.94 0.0 0.0 1.0
8.783383333333333 -9.891193333333334 1775.67 0.0 0.0 1.0
8.625123333333333 -9.41642 1775.67 0.0 0.0 1.0
29.78103333333333 1.8491466666666667 2183.94 0.0 0.0 1.0
30.75423333333333 40.97323333333333 2183.94 0.0 0.0 1.0
29.78103333333333 66.66666666666667 2183.94 0.0 0.0 1.0
30.364966666666664 68.8078 2183.94 0.0 0.0 1.0
29.197066666666668 74.25793333333333 2183.94 0.0 0.0 1.0
29.39173333333333 75.4258 2183.94 0.0 0.0 1.0
29.391733333333335 140.63266666666667 2183.94 0.0 0.0 1.0
-11.8436 116.66333333333334 1663.9033333333334 0.9445317757148155 2.993536044626777e-15 0.3284200430318125
-11.8436 116.66333333333334 1663.9033333333334 0.9445317757148155 2.993536044626777e-15 0.3284200430318125
28.613133333333334 159.51333333333332 2183.94 0.0 0.0 1.0
13.880133333333333 -132.66033333333334 1887.7 0.0 0.0 1.0
13.124333333333333 -119.122 1875.86 0.0 0.0 1.0
12.1212 -106.91733333333333 1875.86 0.0 0.0 1.0
14.205633333333333 -84.48596666666667 1864.17 0.0 0.0 1.0
27.44526666666667 -78.54013333333333 2183.94 0.0 0.0 1.0
28.029166666666665 -72.50606666666665 2183.94 0.0 0.0 1.0
29.3917 -25.012166666666662 2183.94 0.0 0.0 1.0
29.3917 -25.012166666666662 2183.94 0.0 0.0 1.0
7.6190500000000005 -16.4286 1780.95 0.0 0.0 1.0
8.783383333333333 -9.891193333333334 1775.67 0.0 0.0 1.0
29.002433333333332 20.340633333333333 2183.94 0.0 0.0 1.0
7.843140000000001 23.2941 1760.0 0.0 0.0 1.0
26.666666666666668 45.060833333333335 2183.94 0.0 0.0 1.0
7.329433333333334 37.037 1749.71 0.0 0.0 1.0
6.705650000000001 37.660799999999995 1749.71 0.0 0.0 1.0
6.39376 42.80703333333333 1749.71 0.0 0.0 1.0
28.613133333333334 73.67399999999999 2183.94 0.0 0.0 1.0
28.22383333333333 89.635 2183.94 0.0 0.0 1.0
28.418466666666664 115.13366666666667 2183.94 0.0 0.0 1.0
28.418466666666664 115.13366666666667 2183.94 0.0 0.0 1.0
28.418466666666664 124.28266666666666 2183.94 0.0 0.0 1.0
29.39173333333333 140.63266666666667 2183.94 0.0 0.0 1.0
29.002433333333332 151.33833333333334 2183.94 0.0 0.0 1.0
28.22383333333333 159.31866666666667 2183.94 0.0 0.0 1.0
12.833333333333334 -113.25 1870.0 0.0 0.0 1.0
11.954033333333333 -112.60166666666665 1875.86 0.0 0.0 1.0
12.1212 -110.09366666666665 1875.86 0.0 0.0 1.0
27.63993333333333 -96.44766666666668 2183.94 0.0 0.0 1.0
29.00243333333333 -61.8005 2183.94 0.0 0.0 1.0
28.223833333333335 -50.90023333333334 2183.94 0.0 0.0 1.0
27.834533333333336 -46.42336666666667 2183.94 0.0 0.0 1.0
7.6190500000000005 -16.4286 1780.95 0.0 0.0 1.0
26.8613 15.6691 2183.94 0.0 0.0 1.0
29.002433333333332 20.340633333333333 2183.94 0.0 0.0 1.0
6.081873333333333 39.06433333333334 1749.71 0.0 0.0 1.0
7.272726666666666 46.842600000000004 1754.84 0.0 0.0 1.0
7.272726666666666 46.842600000000004 1754.84 0.0 0.0 1.0
8.85608 48.973366666666664 1758.28 0.07493741218021398 -0.8994209597760725 0.4306115666946506
26.277366666666666 63.55233333333333 2183.94 0.0 0.0 1.0
28.613133333333334 73.67399999999999 2183.94 0.0 0.0 1.0
28.807766666666666 88.85643333333333 2183.94 0.0 0.0 1.0
26.8613 93.33333333333333 2183.94 0.0 0.0 1.0
26.666666666666668 103.84466666666667 2183.94 0.0 0.0 1.0
26.666666666666668 108.71033333333332 2183.94 0.0 0.0 1.0
27.834533333333336 114.93900000000001 2183.94 0.0 0.0 1.0
27.250600000000002 152.50633333333334 2183.94 0.0 0.0 1.0
28.22383333333333 159.31866666666667 2183.94 0.0 0.0 1.0
27.834566666666664 159.708 2183.94 0.0 0.0 1.0
28.029233333333334 -161.07066666666665 2183.94 0.0 0.0 1.0
28.029233333333334 -160.68133333333333 2183.94 0.0 0.0 1.0
12.702433333333333 -133.165 1887.7 0.0 0.0 1.0
11.692966666666669 -130.305 1887.7 0.0 0.0 1.0
13.081733333333332 -122.68366666666668 1881.76 0.0 0.0 1.0
12.243166666666667 -122.34800000000001 1881.76 0.0 0.0 1.0
13.124333333333333 -119.122 1875.86 0.0 0.0 1.0
12.833333333333334 -113.25 1870.0 0.0 0.0 1.0
10.833333333333334 -101.08333333333333 1870.0 0.0 0.0 1.0
27.63993333333333 -96.44766666666668 2183.94 0.0 0.0 1.0
27.63993333333333 -96.44766666666668 2183.94 0.0 0.0 1.0
13.873333333333335 -80.00003333333332 1864.17 0.0 0.0 1.0
27.4453 -94.89050000000002 2183.94 0.0 0.0 1.0
27.44526666666667 -78.54013333333333 2183.94 0.0 0.0 1.0
26.2774 -68.0292 2183.94 0.0 0.0 1.0
28.223866666666666 -61.216566666666665 2183.94 0.0 0.0 1.0
27.445266666666665 -36.49633333333333 2183.94 0.0 0.0 1.0
6.98413 -19.444433333333333 1780.95 0.0 0.0 1.0
6.98413 -19.444433333333333 1780.95 0.0 0.0 1.0
7.6755700000000004 -8.941643333333333 1775.67 0.0 0.0 1.0
7.833826666666667 -8.625123333333333 1775.67 0.0 0.0 1.0
6.092976666666668 1.6617196666666667 1775.67 0.0 0.0 1.0
27.250600000000002 23.065700000000003 2183.94 0.0 0.0 1.0
6.431373333333333 23.450966666666663 1760.0 0.0 0.0 1.0
6.081873333333334 39.06433333333333 1749.71 0.0 0.0 1.0
6.39376 42.80703333333333 1749.71 0.0 0.0 1.0
5.76998 43.11893333333334 1749.71 0.0 0.0 1.0
27.83456666666667 129.343 2183.94 0.0 0.0 1.0
27.445266666666665 142.38466666666667 2183.94 0.0 0.0 1.0
27.44526666666667 153.09033333333332 2183.94 0.0 0.0 1.0
27.055966666666666 156.39866666666668 2183.94 0.0 0.0 1.0
27.834566666666664 159.708 2183.94 0.0 0.0 1.0
12.914033333333334 -127.54699999999998 1881.76 0.0 0.0 1.0
11.954033333333333 -112.60166666666667 1875.86 0.0 0.0 1.0
12.622766666666665 -108.25466666666667 1875.86 0.0 0.0 1.0
26.277366666666666 -105.79066666666667 2183.94 0.0 0.0 1.0
25.888066666666663 -102.48200000000001 2183.94 0.0 0.0 1.0
10.950866666666665 -77.99373333333334 1875.86 0.0 0.0 1.0
26.0827 -64.91486666666667 2183.94 0.0 0.0 1.0
26.666666666666668 -50.510933333333334 2183.94 0.0 0.0 1.0
25.888066666666663 -14.501233333333333 2183.94 0.0 0.0 1.0
7.2007900000000005 -7.9920866666666655 1775.67 0.0 0.0 1.0
27.834533333333336 5.547446666666667 2183.94 0.0 0.0 1.0
27.834533333333336 5.547446666666667 2183.94 0.0 0.0 1.0
5.996056666666667 10.966466666666667 1770.41 0.0 0.0 1.0
26.8613 15.6691 2183.94 0.0 0.0 1.0
7.058826666666666 21.7255 1760.0 0.0 0.0 1.0
6.404736666666667 33.357033333333334 1753.1299999999999 1.5048281881146193e-15 0.8149028052327874 0.5795976345912167
6.081873333333334 39.06433333333333 1749.71 0.0 0.0 1.0
5.92593 39.84406666666667 1749.71 0.0 0.0 1.0
27.055966666666666 72.31143333333334 2183.94 0.0 0.0 1.0
25.69343333333333 79.31876666666666 2183.94 0.0 0.0 1.0
26.8613 93.33333333333333 2183.94 0.0 0.0 1.0
26.0827 101.31400000000001 2183.94 0.0 0.0 1.0
25.888066666666663 111.04633333333334 2183.94 0.0 0.0 1.0
27.834533333333336 114.93900000000001 2183.94 0.0 0.0 1.0
26.0827 118.05333333333333 2183.94 0.0 0.0 1.0
26.8613 124.67166666666667 2183.94 0.0 0.0 1.0
27.055933333333332 135.766 2183.94 0.0 0.0 1.0
26.082733333333334 146.47166666666666 2183.94 0.0 0.0 1.0
27.445233333333334 150.94899999999998 2183.94 0.0 0.0 1.0
27.250600000000002 152.50633333333334 2183.94 0.0 0.0 1.0
27.250600000000002 152.50633333333334 2183.94 0.0 0.0 1.0
27.055966666666666 156.39866666666668 2183.94 0.0 0.0 1.0
26.666666666666668 156.59333333333333 2183.94 0.0 0.0 1.0
26.8613 157.76133333333334 2183.94 0.0 0.0 1.0
27.250600000000002 158.54 2183.94 0.0 0.0 1.0
10.566033333333335 -125.03166666666665 1881.76 0.0 0.0 1.0
11.740033333333335 -121.50933333333334 1881.76 0.0 0.0 1.0
11.786866666666667 -114.10633333333334 1875.86 0.0 0.0 1.0
11.786866666666667 -113.10333333333334 1875.86 0.0 0.0 1.0
11.452466666666666 -112.769 1875.86 0.0 0.0 1.0
12.1212 -106.91733333333333 1875.86 0.0 0.0 1.0
10.833333333333334 -101.08333333333333 1870.0 0.0 0.0 1.0
10.0 -97.58333333333333 1870.0 0.0 0.0 1.0
26.277366666666666 -105.79066666666667 2183.94 0.0 0.0 1.0
11.236866666666666 -73.20753333333334 1881.76 0.0 0.0 1.0
11.236866666666666 -73.20753333333334 1881.76 0.0 0.0 1.0
27.44526666666667 -78.54013333333333 2183.94 0.0 0.0 1.0
25.888099999999998 -68.80776666666667 2183.94 0.0 0.0 1.0
25.109466666666666 -55.57176666666667 2183.94 0.0 0.0 1.0
25.69343333333333 -41.75183333333334 2183.94 0.0 0.0 1.0
26.472033333333332 -35.9124 2183.94 0.0 0.0 1.0
25.69343333333333 -14.890533333333332 2183.94 0.0 0.0 1.0
5.996056666666667 11.282066666666665 1770.41 0.0 0.0 1.0
24.720200000000002 31.2409 2183.94 0.0 0.0 1.0
25.109499999999997 35.71776666666667 2183.94 0.0 0.0 1.0
6.404736666666667 33.357033333333334 1753.1299999999999 -3.987794698503742e-15 0.8149028052327887 0.579597634591215
25.4988 45.83943333333334 2183.94 0.0 0.0 1.0
5.76998 43.11893333333334 1749.71 0.0 0.0 1.0
26.082733333333334 71.14353333333334 2183.94 0.0 0.0 1.0
26.082733333333334 80.87593333333334 2183.94 0.0 0.0 1.0
25.888099999999998 90.0243 2183.94 0.0 0.0 1.0
25.888099999999998 90.0243 2183.94 0.0 0.0 1.0
26.277366666666666 99.75673333333333 2183.94 0.0 0.0 1.0
25.498766666666665 103.45533333333333 2183.94 0.0 0.0 1.0
26.666666666666668 108.71033333333332 2183.94 0.0 0.0 1.0
25.888066666666663 112.21433333333334 2183.94 0.0 0.0 1.0
26.2774 130.70566666666664 2183.94 0.0 0.0 1.0
26.082733333333334 146.47166666666666 2183.94 0.0 0.0 1.0
26.277366666666666 156.788 2183.94 0.0 0.0 1.0
26.472033333333332 160.876 2183.94 0.0 0.0 1.0
11.524733333333332 -133.67000000000002 1887.7 0.0 0.0 1.0
11.019966666666667 -130.81 1887.7 0.0 0.0 1.0
10.901466666666666 -121.34166666666665 1881.76 0.0 0.0 1.0
10.166666666666666 -102.75 1870.0 0.0 0.0 1.0
26.277366666666666 -105.79066666666667 2183.94 0.0 0.0 1.0
25.888066666666663 -102.48200000000001 2183.94 0.0 0.0 1.0
26.0827 -101.11933333333332 2183.94 0.0 0.0 1.0
10.950866666666665 -77.99373333333334 1875.86 0.0 0.0 1.0
24.914833333333334 -72.7007 2183.94 0.0 0.0 1.0
26.0827 -64.91486666666667 2183.94 0.0 0.0 1.0
26.0827 -64.91486666666667 2183.94 0.0 0.0 1.0
25.109466666666666 -43.50366666666667 2183.94 0.0 0.0 1.0
25.49876666666667 -42.530433333333335 2183.94 0.0 0.0 1.0
24.330900000000003 -39.02676666666667 2183.94 0.0 0.0 1.0
26.472033333333332 -35.9124 2183.94 0.0 0.0 1.0
27.639866666666666 -26.569333333333333 2183.94 0.0 0.0 1.0
5.555556666666667 -16.587333333333333 1780.95 0.0 0.0 1.0
5.555556666666667 -15.4762 1780.95 0.0 0.0 1.0
5.618200000000001 4.352126666666667 1775.67 0.0 0.0 1.0
5.618200000000001 4.352126666666667 1775.67 0.0 0.0 1.0
25.498766666666665 16.64233333333333 2183.94 0.0 0.0 1.0
25.4988 24.428233333333335 2183.94 0.0 0.0 1.0
5.960786666666667 22.35293333333333 1760.0 0.0 0.0 1.0
25.30413333333333 36.885633333333324 2183.94 0.0 0.0 1.0
25.304133333333336 47.98056666666667 2183.94 0.0 0.0 1.0
4.301076666666667 46.842600000000004 1754.84 0.0 0.0 1.0
24.914833333333334 64.52556666666666 2183.94 0.0 0.0 1.0
25.6934 93.52796666666666 2183.94 0.0 0.0 1.0
26.277366666666666 99.75673333333333 2183.94 0.0 0.0 1.0
25.498766666666665 103.45533333333333 2183.94 0.0 0.0 1.0
25.498766666666665 109.09966666666666 2183.94 0.0 0.0 1.0
26.0827 118.05333333333333 2183.94 0.0 0.0 1.0
25.304100000000002 118.24799999999999 2183.94 0.0 0.0 1.0
25.109466666666666 139.46466666666666 2183.94 0.0 0.0 1.0
25.304133333333336 144.52566666666667 2183.94 0.0 0.0 1.0
26.277366666666666 156.788 2183.94 0.0 0.0 1.0
25.30413333333333 161.07066666666665 2183.94 0.0 0.0 1.0
10.515246666666666 -131.31466666666668 1887.7 0.0 0.0 1.0
10.34698 -129.46366666666668 1887.7 0.0 0.0 1.0
10.515223333333333 -128.286 1887.7 0.0 0.0 1.0
10.3983 -115.13633333333333 1881.76 0.0 0.0 1.0
10.230583333333334 -114.633 1881.76 0.0 0.0 1.0
10.166666666666666 -96.58333333333333 1870.0 0.0 0.0 1.0
25.888066666666663 -103.45533333333333 2183.94 0.0 0.0 1.0
10.950866666666665 -77.99373333333334 1875.86 0.0 0.0 1.0
11.236866666666666 -73.20753333333334 1881.76 0.0 0.0 1.0
26.2774 -79.90266666666666 2183.94 0.0 0.0 1.0
24.52553333333334 -75.0365 2183.94 0.0 0.0 1.0
24.914833333333334 -72.7007 2183.94 0.0 0.0 1.0
25.49876666666667 -65.30416666666666 2183.94 0.0 0.0 1.0
24.720200000000002 -50.316300000000005 2183.94 0.0 0.0 1.0
25.69343333333333 -49.927 2183.94 0.0 0.0 1.0
25.69343333333333 -41.75183333333334 2183.94 0.0 0.0 1.0
5.492540000000001 -27.4627 1786.2699999999998 2.1640904126557378e-27 -5.574322690723287e-28 1.0
6.031746666666667 -18.492066666666666 1780.95 0.0 0.0 1.0
5.555556666666667 -15.4762 1780.95 0.0 0.0 1.0
5.14342 -5.934716666666667 1775.67 0.0 0.0 1.0
4.891516666666667 10.6509 1770.41 0.0 0.0 1.0
4.891516666666667 10.6509 1770.41 0.0 0.0 1.0
24.720200000000002 31.2409 2183.94 0.0 0.0 1.0
25.109499999999997 35.71776666666667 2183.94 0.0 0.0 1.0
24.914833333333334 45.450133333333326 2183.94 0.0 0.0 1.0
25.4988 45.83943333333334 2183.94 0.0 0.0 1.0
25.304133333333336 47.98056666666667 2183.94 0.0 0.0 1.0
4.301076666666667 46.842600000000004 1754.84 0.0 0.0 1.0
24.914833333333334 64.52556666666666 2183.94 0.0 0.0 1.0
24.3309 69.58636666666668 2183.94 0.0 0.0 1.0
25.4988 70.1703 2183.94 0.0 0.0 1.0
25.498766666666665 76.983 2183.94 0.0 0.0 1.0
24.914866666666665 81.26523333333334 2183.94 0.0 0.0 1.0
25.4988 89.05106666666667 2183.94 0.0 0.0 1.0
25.888099999999998 90.0243 2183.94 0.0 0.0 1.0
24.914833333333334 106.17966666666666 2183.94 0.0 0.0 1.0
24.914833333333334 106.17966666666666 2183.94 0.0 0.0 1.0
25.49876666666667 125.06066666666668 2183.94 0.0 0.0 1.0
24.914866666666665 131.87366666666665 2183.94 0.0 0.0 1.0
24.52553333333334 140.24333333333334 2183.94 0.0 0.0 1.0
26.082733333333334 143.16333333333333 2183.94 0.0 0.0 1.0
25.304133333333336 146.47166666666666 2183.94 0.0 0.0 1.0
25.109499999999997 -161.07066666666665 2183.94 0.0 0.0 1.0
10.851733333333334 -132.997 1887.7 0.0 0.0 1.0
10.566033333333335 -125.03166666666665 1881.76 0.0 0.0 1.0
10.0629 -123.85766666666667 1881.76 0.0 0.0 1.0
10.566033333333335 -122.34800000000001 1881.76 0.0 0.0 1.0
10.3983 -115.13633333333333 1881.76 0.0 0.0 1.0
9.0 -101.25 1870.0 0.0 0.0 1.0
9.166666666666666 -96.41666666666667 1870.0 0.0 0.0 1.0
9.666666666666666 -94.91666666666667 1870.0 0.0 0.0 1.0
24.525533333333332 -75.0365 2183.94 0.0 0.0 1.0
25.109466666666666 -55.57176666666667 2183.94 0.0 0.0 1.0
24.720200000000002 -54.20923333333334 2183.94 0.0 0.0 1.0
23.941600000000005 -44.671533333333336 2183.94 0.0 0.0 1.0
4.855723333333334 -28.8955 1786.2699999999998 3.718219917521913e-26 5.754554264134876e-26 1.0
5.174130000000001 -26.507500000000004 1786.2699999999998 -9.181156062678269e-28 -1.9455734520850378e-27 1.0
24.136233333333337 -13.1387 2183.94 0.0 0.0 1.0
3.71909 0.5539076666666666 1775.67 0.0 0.0 1.0
4.985163333333333 4.826903333333333 1775.67 0.0 0.0 1.0
24.914833333333334 45.450133333333326 2183.94 0.0 0.0 1.0
3.5190599999999996 45.747800000000005 1754.84 0.0 0.0 1.0
24.720166666666668 65.30416666666666 2183.94 0.0 0.0 1.0
23.941599999999998 75.8151 2183.94 0.0 0.0 1.0
25.6934 93.52796666666666 2183.94 0.0 0.0 1.0
25.49876666666667 103.45533333333333 2183.94 0.0 0.0 1.0
24.914833333333334 106.17966666666666 2183.94 0.0 0.0 1.0
24.33086666666667 109.29433333333334 2183.94 0.0 0.0 1.0
23.552300000000002 112.993 2183.94 0.0 0.0 1.0
24.525533333333332 118.248 2183.94 0.0 0.0 1.0
24.914800000000003 119.02666666666666 2183.94 0.0 0.0 1.0
25.49876666666667 125.06066666666668 2183.94 0.0 0.0 1.0
23.74696666666667 135.18233333333333 2183.94 0.0 0.0 1.0
25.109466666666666 139.46466666666666 2183.94 0.0 0.0 1.0
25.304133333333336 146.47166666666666 2183.94 0.0 0.0 1.0
10.515223333333333 -128.286 1887.7 0.0 0.0 1.0
10.230583333333334 -114.633 1881.76 0.0 0.0 1.0
9.224319999999999 -112.95600000000002 1881.76 0.0 0.0 1.0
8.833333333333334 -101.91666666666667 1870.0 0.0 0.0 1.0
8.666666666666666 -99.41666666666667 1870.0 0.0 0.0 1.0
7.941483333333333 -95.54860000000001 1875.86 0.0 0.0 1.0
24.525533333333332 -75.0365 2183.94 0.0 0.0 1.0
24.914833333333334 -72.7007 2183.94 0.0 0.0 1.0
25.1095 -68.0292 2183.94 0.0 0.0 1.0
23.35766666666667 -61.80046666666667 2183.94 0.0 0.0 1.0
23.35766666666667 -61.80046666666667 2183.94 0.0 0.0 1.0
23.941599999999998 -50.70556666666667 2183.94 0.0 0.0 1.0
23.552333333333337 -43.892966666666666 2183.94 0.0 0.0 1.0
23.35766666666667 -39.6107 2183.94 0.0 0.0 1.0
4.855723333333334 -28.8955 1786.2699999999998 3.7182199175219246e-26 5.754554264134894e-26 1.0
3.96825 -21.031766666666666 1780.95 0.0 0.0 1.0
5.238093333333333 -16.746066666666668 1780.95 0.0 0.0 1.0
5.079363333333333 -16.26986666666667 1780.95 0.0 0.0 1.0
24.136233333333337 -13.1387 2183.94 0.0 0.0 1.0
23.941600000000005 -12.360100000000001 2183.94 0.0 0.0 1.0
4.891516666666667 10.6509 1770.41 0.0 0.0 1.0
23.746933333333335 17.4209 2183.94 0.0 0.0 1.0
25.1095 35.71776666666667 2183.94 0.0 0.0 1.0
3.0498533333333335 46.217000000000006 1754.84 0.0 0.0 1.0
24.914833333333334 63.35766666666667 2183.94 0.0 0.0 1.0
24.525533333333332 65.1095 2183.94 0.0 0.0 1.0
23.746966666666665 90.41363333333334 2183.94 0.0 0.0 1.0
23.941599999999998 130.511 2183.94 0.0 0.0 1.0
23.941600000000005 141.022 2183.94 0.0 0.0 1.0
25.304133333333336 161.07066666666665 2183.94 0.0 0.0 1.0
22.968366666666668 -161.07066666666665 2183.94 0.0 0.0 1.0
9.842260000000001 -130.978 1887.7 0.0 0.0 1.0
9.842260000000001 -130.305 1887.7 0.0 0.0 1.0
7.941483333333333 -108.08799999999998 1875.86 0.0 0.0 1.0
8.833333333333334 -100.25 1870.0 0.0 0.0 1.0
8.666666666666666 -99.41666666666667 1870.0 0.0 0.0 1.0
8.553456666666667 -89.8113 1881.76 0.0 0.0 1.0
8.553456666666667 -89.8113 1881.76 0.0 0.0 1.0
23.941600000000005 -101.11933333333333 2183.94 0.0 0.0 1.0
23.941600000000005 -52.8467 2183.94 0.0 0.0 1.0
23.552333333333337 -43.892966666666666 2183.94 0.0 0.0 1.0
23.552333333333337 -43.892966666666666 2183.94 0.0 0.0 1.0
23.35766666666667 -39.6107 2183.94 0.0 0.0 1.0
23.941600000000005 -12.360100000000001 2183.94 0.0 0.0 1.0
22.968400000000003 -10.997566666666666 2183.94 0.0 0.0 1.0
4.035606666666666 5.618200000000001 1775.67 0.0 0.0 1.0
4.418143333333333 11.439866666666667 1770.41 0.0 0.0 1.0
22.384433333333334 26.569333333333333 2183.94 0.0 0.0 1.0
3.049853333333333 46.217000000000006 1754.84 0.0 0.0 1.0
23.163033333333335 81.45986666666667 2183.94 0.0 0.0 1.0
22.1898 83.60096666666666 2183.94 0.0 0.0 1.0
23.552300000000002 112.993 2183.94 0.0 0.0 1.0
23.163 118.248 2183.94 0.0 0.0 1.0
23.163033333333335 134.01500000000001 2183.94 0.0 0.0 1.0
23.163033333333335 134.79333333333332 2183.94 0.0 0.0 1.0
23.163033333333335 134.79333333333332 2183.94 0.0 0.0 1.0
22.579066666666666 151.1436666666667 2183.94 0.0 0.0 1.0
22.189766666666667 155.81466666666668 2183.94 0.0 0.0 1.0
23.35766666666667 159.31866666666667 2183.94 0.0 0.0 1.0
8.55346 -111.61433333333333 1881.76 0.0 0.0 1.0
8.833333333333334 -101.91666666666667 1870.0 0.0 0.0 1.0
8.5 -98.41666666666667 1870.0 0.0 0.0 1.0
7.941483333333333 -95.54860000000001 1875.86 0.0 0.0 1.0
23.941599999999998 -100.34066666666666 2183.94 0.0 0.0 1.0
8.218026666666665 -72.87213333333334 1881.76 0.0 0.0 1.0
9.03714 -72.71913333333333 1877.8266666666666 0.9265071414264261 0.37059546771444773 0.06514227655940641
23.746933333333335 -75.23113333333333 2183.94 0.0 0.0 1.0
22.189766666666667 -50.70556666666667 2183.94 0.0 0.0 1.0
23.35766666666667 -39.6107 2183.94 0.0 0.0 1.0
4.855723333333333 -28.8955 1786.2699999999998 2.1247352264923232e-26 3.3642604987508376e-26 1.0
4.37811 -26.0299 1786.2699999999998 0.0 1.0 0.0
3.96825 -21.031766666666666 1780.95 0.0 0.0 1.0
3.8095200000000005 -14.047633333333332 1780.95 0.0 0.0 1.0
4.826903333333333 1.9782396666666664 1775.67 0.0 0.0 1.0
21.8005 30.4623 2183.94 0.0 0.0 1.0
1.6422306666666666 40.4301 1754.84 0.0 0.0 1.0
2.5806466666666665 46.373400000000004 1754.84 0.0 0.0 1.0
21.800466666666665 70.36496666666666 2183.94 0.0 0.0 1.0
23.163 108.90499999999999 2183.94 0.0 0.0 1.0
22.384433333333334 112.79833333333333 2183.94 0.0 0.0 1.0
23.552300000000002 113.77166666666666 2183.94 0.0 0.0 1.0
22.579066666666666 129.927 2183.94 0.0 0.0 1.0
23.163033333333335 134.79333333333332 2183.94 0.0 0.0 1.0
22.773733333333336 135.766 2183.94 0.0 0.0 1.0
22.968366666666668 140.24333333333334 2183.94 0.0 0.0 1.0
22.968366666666668 141.41133333333332 2183.94 0.0 0.0 1.0
22.579066666666666 151.1436666666667 2183.94 0.0 0.0 1.0
22.579066666666666 157.956 2183.94 0.0 0.0 1.0
9.056603333333333 -113.79433333333334 1881.76 0.0 0.0 1.0
7.941483333333333 -108.08800000000001 1875.86 0.0 0.0 1.0
8.05031 -73.54296666666669 1881.76 0.0 0.0 1.0
8.05031 -73.54296666666669 1881.76 0.0 0.0 1.0
8.218026666666665 -72.87213333333334 1881.76 0.0 0.0 1.0
22.579066666666666 -61.9951 2183.94 0.0 0.0 1.0
22.189766666666667 -50.70556666666667 2183.94 0.0 0.0 1.0
3.2636800000000004 -26.3483 1786.2699999999998 -2.301863225991627e-26 4.2939721127848665e-26 1.0
3.96825 -21.031766666666666 1780.95 0.0 0.0 1.0
22.968400000000003 -10.997566666666666 2183.94 0.0 0.0 1.0
2.4530166666666666 -6.409496666666667 1775.67 0.0 0.0 1.0
2.2947566666666668 -1.1869439999999998 1775.67 0.0 0.0 1.0
3.0860533333333335 5.9347199999999996 1775.67 0.0 0.0 1.0
21.99513333333333 27.931866666666668 2183.94 0.0 0.0 1.0
22.384433333333334 29.48906666666667 2183.94 0.0 0.0 1.0
2.580646666666667 46.373400000000004 1754.84 0.0 0.0 1.0
1.6422306666666666 47.4682 1754.84 0.0 0.0 1.0
22.579066666666666 74.6472 2183.94 0.0 0.0 1.0
22.1898 83.60096666666666 2183.94 0.0 0.0 1.0
22.579066666666666 90.21900000000001 2183.94 0.0 0.0 1.0
21.605833333333333 100.146 2183.94 0.0 0.0 1.0
21.8005 108.51566666666668 2183.94 0.0 0.0 1.0
22.189766666666667 122.14133333333332 2183.94 0.0 0.0 1.0
22.579066666666666 135.57166666666666 2183.94 0.0 0.0 1.0
22.384433333333334 140.43800000000002 2183.94 0.0 0.0 1.0
21.8005 141.606 2183.94 0.0 0.0 1.0
9.224323333333333 -122.68366666666667 1881.76 0.0 0.0 1.0
6.708596666666666 -110.60766666666666 1881.76 0.0 0.0 1.0
7.941483333333333 -108.08800000000001 1875.86 0.0 0.0 1.0
8.0 -99.75 1870.0 0.0 0.0 1.0
6.876309999999999 -92.32706666666667 1881.76 0.0 0.0 1.0
7.714883333333333 -88.805 1881.76 0.0 0.0 1.0
6.87631 -83.27043333333333 1881.76 0.0 0.0 1.0
21.216533333333334 -62.57906666666667 2183.94 0.0 0.0 1.0
21.605833333333333 -50.90023333333334 2183.94 0.0 0.0 1.0
21.995099999999997 -47.59123333333333 2183.94 0.0 0.0 1.0
2.87425 -38.2435 1791.62 0.0 0.0 1.0
2.87425 -38.2435 1791.62 0.0 0.0 1.0
21.0219 -42.7251 2183.94 0.0 0.0 1.0
4.12698 -16.746066666666668 1780.95 0.0 0.0 1.0
1.9047603333333332 -11.984166666666667 1780.95 0.0 0.0 1.0
2.4530166666666666 -6.409496666666667 1775.67 0.0 0.0 1.0
2.2947566666666668 -1.1869439999999998 1775.67 0.0 0.0 1.0
22.189766666666667 18.394133333333333 2183.94 0.0 0.0 1.0
-0.8652933333333334 21.160266666666665 1765.1899999999998 -4.349436233559731e-27 -6.599959054506097e-27 1.0
21.411199999999997 26.763966666666665 2183.94 0.0 0.0 1.0
21.021866666666664 36.691 2183.94 0.0 0.0 1.0
21.6058 37.080299999999994 2183.94 0.0 0.0 1.0
21.6058 38.2482 2183.94 0.0 0.0 1.0
21.021866666666664 39.416066666666666 2183.94 0.0 0.0 1.0
21.0219 42.53043333333333 2183.94 0.0 0.0 1.0
1.6422306666666666 40.4301 1754.84 0.0 0.0 1.0
2.11144 46.0606 1754.84 0.0 0.0 1.0
21.800466666666665 70.36496666666666 2183.94 0.0 0.0 1.0
21.411166666666663 72.50606666666665 2183.94 0.0 0.0 1.0
21.0219 89.63503333333334 2183.94 0.0 0.0 1.0
21.216533333333334 91.5815 2183.94 0.0 0.0 1.0
21.605833333333333 100.146 2183.94 0.0 0.0 1.0
21.411199999999997 118.24799999999999 2183.94 0.0 0.0 1.0
20.437933333333334 128.36966666666666 2183.94 0.0 0.0 1.0
21.800466666666665 150.365 2183.94 0.0 0.0 1.0
22.189766666666667 155.81466666666668 2183.94 0.0 0.0 1.0
21.995099999999997 156.98266666666666 2183.94 0.0 0.0 1.0
19.270066666666665 -161.26533333333336 2183.94 0.0 0.0 1.0
6.87631 -81.92869999999999 1881.76 0.0 0.0 1.0
6.708593333333333 -80.7547 1881.76 0.0 0.0 1.0
20.437966666666664 -66.6667 2183.94 0.0 0.0 1.0
20.2433 -64.33093333333333 2183.94 0.0 0.0 1.0
20.63263333333333 -57.3236 2183.94 0.0 0.0 1.0
21.605833333333333 -50.90023333333334 2183.94 0.0 0.0 1.0
21.0219 -42.7251 2183.94 0.0 0.0 1.0
22.384433333333334 -39.6107 2183.94 0.0 0.0 1.0
21.99513333333333 -26.958633333333335 2183.94 0.0 0.0 1.0
2.6984100000000004 -20.07936666666667 1780.95 0.0 0.0 1.0
2.1364966666666665 6.567756666666667 1775.67 0.0 0.0 1.0
22.189766666666667 18.394133333333333 2183.94 0.0 0.0 1.0
21.0219 42.53043333333333 2183.94 0.0 0.0 1.0
21.605833333333333 64.52553333333333 2183.94 0.0 0.0 1.0
21.800466666666665 70.36496666666666 2183.94 0.0 0.0 1.0
20.6326 73.28466666666667 2183.94 0.0 0.0 1.0
20.827266666666667 82.82236666666667 2183.94 0.0 0.0 1.0
21.605833333333333 100.146 2183.94 0.0 0.0 1.0
20.048666666666666 102.87133333333333 2183.94 0.0 0.0 1.0
21.411199999999997 109.29433333333334 2183.94 0.0 0.0 1.0
22.384433333333334 112.79833333333333 2183.94 0.0 0.0 1.0
21.0219 130.12166666666667 2183.94 0.0 0.0 1.0
20.827266666666663 148.22366666666667 2183.94 0.0 0.0 1.0
20.827266666666663 148.22366666666667 2183.94 0.0 0.0 1.0
21.21653333333333 149.58633333333333 2183.94 0.0 0.0 1.0
8.49632 -131.14600000000002 1887.7 0.0 0.0 1.0
7.150366666666667 -127.44466666666666 1887.7 0.0 0.0 1.0
6.037736666666667 -110.60766666666666 1881.76 0.0 0.0 1.0
6.205453333333334 -106.918 1881.76 0.0 0.0 1.0
7.0 -101.41666666666667 1870.0 0.0 0.0 1.0
7.941483333333333 -95.54860000000001 1875.86 0.0 0.0 1.0
6.87631 -92.32706666666667 1881.76 0.0 0.0 1.0
7.379453333333333 -91.32076666666667 1881.76 0.0 0.0 1.0
6.5408800000000005 -87.96643333333333 1881.76 0.0 0.0 1.0
7.044023333333333 -75.72326666666667 1881.76 0.0 0.0 1.0
7.044023333333333 -75.72326666666667 1881.76 0.0 0.0 1.0
19.2701 -79.1241 2183.94 0.0 0.0 1.0
20.437966666666664 -66.6667 2183.94 0.0 0.0 1.0
20.63263333333333 -57.3236 2183.94 0.0 0.0 1.0
20.63263333333333 -57.3236 2183.94 0.0 0.0 1.0
21.0219 -42.7251 2183.94 0.0 0.0 1.0
2.626863333333333 -26.8259 1786.2699999999998 -6.885619896258573e-28 7.37765584780684e-28 1.0
2.626863333333333 -26.8259 1786.2699999999998 -6.885619896258562e-28 7.377655847806826e-28 1.0
2.53968 -20.2381 1780.95 0.0 0.0 1.0
1.9047603333333332 -11.984166666666667 1780.95 0.0 0.0 1.0
21.021933333333333 -10.218966666666667 2183.94 0.0 0.0 1.0
20.0487 -9.245736666666666 2183.94 0.0 0.0 1.0
2.4530166666666666 -6.409496666666667 1775.67 0.0 0.0 1.0
0.9467463333333334 11.755433333333334 1770.41 0.0 0.0 1.0
0.9467463333333334 13.964500000000001 1770.41 0.0 0.0 1.0
20.6326 26.374666666666666 2183.94 0.0 0.0 1.0
20.82726666666667 30.267633333333333 2183.94 0.0 0.0 1.0
21.0219 42.53043333333333 2183.94 0.0 0.0 1.0
0.39100733333333343 40.2737 1754.84 0.0 0.0 1.0
1.6422306666666666 47.4682 1754.84 0.0 0.0 1.0
21.216566666666665 108.90500000000002 2183.94 0.0 0.0 1.0
20.243333333333336 130.90033333333335 2183.94 0.0 0.0 1.0
21.021933333333333 141.41133333333332 2183.94 0.0 0.0 1.0
21.021933333333333 141.41133333333332 2183.94 0.0 0.0 1.0
20.827266666666663 149.00233333333333 2183.94 0.0 0.0 1.0
18.296833333333332 -144.13633333333334 2183.94 0.0 0.0 1.0
6.037736666666667 -110.60766666666666 1881.76 0.0 0.0 1.0
6.205453333333334 -106.918 1881.76 0.0 0.0 1.0
6.205453333333334 -106.918 1881.76 0.0 0.0 1.0
6.037736666666667 -95.34593333333333 1881.76 0.0 0.0 1.0
5.199163333333334 -84.61216666666667 1881.76 0.0 0.0 1.0
6.708593333333333 -80.7547 1881.76 0.0 0.0 1.0
18.491466666666668 -69.97566666666667 2183.94 0.0 0.0 1.0
20.2433 -64.33093333333333 2183.94 0.0 0.0 1.0
20.2433 -64.33093333333333 2183.94 0.0 0.0 1.0
20.827233333333336 -50.510933333333334 2183.94 0.0 0.0 1.0
2.87425 -38.2435 1791.62 0.0 0.0 1.0
18.6861 -36.690999999999995 2183.94 0.0 0.0 1.0
1.4285703333333333 -12.460333333333333 1780.95 0.0 0.0 1.0
1.503462 -1.028684 1775.67 0.0 0.0 1.0
1.3452019999999998 4.03561 1775.67 0.0 0.0 1.0
2.1364966666666665 6.567756666666667 1775.67 0.0 0.0 1.0
0.157791 12.7022 1770.41 0.0 0.0 1.0
20.6326 26.374666666666666 2183.94 0.0 0.0 1.0
19.46473333333333 31.240866666666665 2183.94 0.0 0.0 1.0
19.075433333333333 34.16056666666667 2183.94 0.0 0.0 1.0
20.04863333333333 37.0803 2183.94 0.0 0.0 1.0
20.6326 40.778600000000004 2183.94 0.0 0.0 1.0
0.2346046666666667 44.1838 1754.84 0.0 0.0 1.0
19.464699999999997 61.995133333333335 2183.94 0.0 0.0 1.0
19.464699999999997 61.995133333333335 2183.94 0.0 0.0 1.0
19.270066666666665 78.92943333333334 2183.94 0.0 0.0 1.0
19.270066666666665 80.8759 2183.94 0.0 0.0 1.0
20.2433 91.38683333333334 2183.94 0.0 0.0 1.0
19.270066666666665 96.25306666666667 2183.94 0.0 0.0 1.0
19.075433333333333 117.08 2183.94 0.0 0.0 1.0
18.2968 124.28233333333333 2183.94 0.0 0.0 1.0
19.0754 153.674 2183.94 0.0 0.0 1.0
5.366876666666666 -116.81333333333333 1881.76 0.0 0.0 1.0
5.366876666666666 -116.81333333333333 1881.76 0.0 0.0 1.0
4.863733333333333 -115.13666666666666 1881.76 0.0 0.0 1.0
6.037736666666667 -110.60766666666666 1881.76 0.0 0.0 1.0
6.0 -100.41666666666667 1870.0 0.0 0.0 1.0
5.702306666666666 -86.79243333333334 1881.76 0.0 0.0 1.0
18.296833333333332 -78.15086666666666 2183.94 0.0 0.0 1.0
20.048666666666666 -50.90023333333334 2183.94 0.0 0.0 1.0
1.5968066666666667 -36.32736666666667 1791.62 0.0 0.0 1.0
18.4915 -32.2141 2183.94 0.0 0.0 1.0
18.4915 -25.206799999999998 2183.94 0.0 0.0 1.0
1.4285703333333333 -12.460333333333333 1780.95 0.0 0.0 1.0
19.46473333333333 -8.07786 2183.94 0.0 0.0 1.0
19.075433333333333 -7.1046233333333335 2183.94 0.0 0.0 1.0
0.395648 -4.035609999999999 1775.67 0.0 0.0 1.0
0.712165 -1.9782386666666667 1775.67 0.0 0.0 1.0
-0.0791283333333334 1.3452020000000002 1775.67 0.0 0.0 1.0
0.157791 12.7022 1770.41 0.0 0.0 1.0
0.31558233333333335 14.595666666666666 1770.41 0.0 0.0 1.0
19.075433333333333 34.74453333333333 2183.94 0.0 0.0 1.0
20.243333333333336 42.53043333333333 2183.94 0.0 0.0 1.0
-0.8602153333333334 37.302033333333334 1754.84 0.0 0.0 1.0
-0.7079633333333333 54.827933333333334 1765.1899999999998 0.0 0.0 1.0
19.659366666666667 73.47933333333333 2183.94 0.0 0.0 1.0
19.270066666666665 78.92943333333334 2183.94 0.0 0.0 1.0
20.048666666666666 81.84913333333334 2183.94 0.0 0.0 1.0
19.464699999999997 89.44036666666666 2183.94 0.0 0.0 1.0
18.880766666666666 97.03163333333335 2183.94 0.0 0.0 1.0
19.075433333333333 117.08 2183.94 0.0 0.0 1.0
19.270066666666665 130.31633333333332 2183.94 0.0 0.0 1.0
19.075433333333333 155.62 2183.94 0.0 0.0 1.0
19.075433333333333 155.62 2183.94 0.0 0.0 1.0
17.907533333333333 -160.09733333333335 2183.94 0.0 0.0 1.0
17.907533333333333 -146.47166666666666 2183.94 0.0 0.0 1.0
4.863733333333333 -115.13666666666666 1881.76 0.0 0.0 1.0
5.0314499999999995 -85.1153 1881.76 0.0 0.0 1.0
18.88076666666667 -57.323566666666665 2183.94 0.0 0.0 1.0
18.296833333333332 -37.46956666666666 2183.94 0.0 0.0 1.0
2.149252666666667 -25.711466666666666 1786.2699999999998 8.60724198215484e-29 5.53323158394293e-29 1.0
19.075433333333333 -7.1046233333333335 2183.94 0.0 0.0 1.0
0.395648 -4.03561 1775.67 0.0 0.0 1.0
0.395648 -4.03561 1775.67 0.0 0.0 1.0
-0.0791283333333334 1.3452020000000002 1775.67 0.0 0.0 1.0
18.491500000000002 23.8443 2183.94 0.0 0.0 1.0
18.880766666666663 36.49636666666667 2183.94 0.0 0.0 1.0
-1.7254893333333332 33.17646666666667 1760.0 0.0 0.0 1.0
-0.8602153333333334 37.302033333333334 1754.84 0.0 0.0 1.0
18.491466666666664 62.3844 2183.94 0.0 0.0 1.0
-0.7079633333333333 54.827933333333334 1765.1899999999998 0.0 0.0 1.0
19.659366666666667 73.47933333333333 2183.94 0.0 0.0 1.0
18.6861 79.90266666666666 2183.94 0.0 0.0 1.0
18.6861 95.6691 2183.94 0.0 0.0 1.0
18.491466666666664 120.584 2183.94 0.0 0.0 1.0
18.491466666666668 129.1483333333333 2183.94 0.0 0.0 1.0
19.854033333333334 141.606 2183.94 0.0 0.0 1.0
19.0754 153.674 2183.94 0.0 0.0 1.0
19.075433333333333 155.62 2183.94 0.0 0.0 1.0
19.270066666666665 -161.26533333333336 2183.94 0.0 0.0 1.0
5.1314400000000004 -128.11766666666668 1887.7 0.0 0.0 1.0
17.323600000000003 -145.304 2183.94 0.0 0.0 1.0
5.099270000000001 -103.908 1875.86 0.0 0.0 1.0
4.696016666666667 -95.1782 1881.76 0.0 0.0 1.0
4.025156666666667 -83.94130000000001 1881.76 0.0 0.0 1.0
17.518233333333335 -79.31873333333333 2183.94 0.0 0.0 1.0
17.712866666666667 -76.59366666666666 2183.94 0.0 0.0 1.0
17.323600000000003 -69.19706666666667 2183.94 0.0 0.0 1.0
18.1022 -32.79803333333333 2183.94 0.0 0.0 1.0
18.1022 -32.79803333333333 2183.94 0.0 0.0 1.0
18.4915 -32.214099999999995 2183.94 0.0 0.0 1.0
14.598533333333334 -19.172733333333337 2183.94 0.0 0.0 1.0
-0.63492 -7.53968 1780.95 0.0 0.0 1.0
17.907533333333333 32.9927 2183.94 0.0 0.0 1.0
17.907533333333333 32.9927 2183.94 0.0 0.0 1.0
18.4915 34.54986666666667 2183.94 0.0 0.0 1.0
-1.4858266666666669 39.3353 1754.84 0.0 0.0 1.0
-0.703812 42.463366666666666 1754.84 0.0 0.0 1.0
17.712866666666667 84.1849 2183.94 0.0 0.0 1.0
17.128933333333336 104.23366666666668 2183.94 0.0 0.0 1.0
19.075433333333333 117.08 2183.94 0.0 0.0 1.0
17.7129 144.72 2183.94 0.0 0.0 1.0
2.7760233333333333 -119.03266666666666 1887.7 0.0 0.0 1.0
4.863733333333333 -115.13666666666666 1881.76 0.0 0.0 1.0
4.360586666666666 -111.279 1881.76 0.0 0.0 1.0
3.6897266666666666 -104.40266666666668 1881.76 0.0 0.0 1.0
4.76489 -100.5641 1875.86 0.0 0.0 1.0
4.528303333333333 -84.77986666666668 1881.76 0.0 0.0 1.0
17.518233333333335 -79.31873333333333 2183.94 0.0 0.0 1.0
17.323566666666668 -77.56689999999999 2183.94 0.0 0.0 1.0
17.712866666666667 -76.59366666666666 2183.94 0.0 0.0 1.0
17.323600000000003 -69.19706666666666 2183.94 0.0 0.0 1.0
17.907533333333333 -62.77373333333333 2183.94 0.0 0.0 1.0
17.907500000000002 -57.90753333333333 2183.94 0.0 0.0 1.0
17.323566666666668 -57.323566666666665 2183.94 0.0 0.0 1.0
-0.6387226666666667 -35.20956666666667 1791.62 0.0 0.0 1.0
-0.31936133333333333 -34.41116666666667 1791.62 0.0 0.0 1.0
17.907533333333333 -33.96593333333333 2183.94 0.0 0.0 1.0
