ply
format ascii 1.0
comment VCGLIB generated
element vertex 846
property float x
property float y
property float z
property float nx
property float ny
property float nz
element face 0
property list uchar int vertex_indices
end_header
-32.894733333333335 90.43863333333333 1968.42 0.0 0.0 1.0
-39.287366666666664 103.663 1788.0533333333333 5.795054802896311e-16 0.8354699125165637 0.5495361910552984
-37.15976666666666 108.79699999999998 1770.41 0.0 0.0 1.0
-37.15976666666666 108.79699999999998 1770.41 0.0 0.0 1.0
-25.1852 142.91366666666667 2216.3 0.0 0.0 1.0
-35.77436666666667 128.738 1841.2300000000002 0.0 1.0 0.0
-27.358033333333335 -160.49366666666666 2216.3 0.0 0.0 1.0
-27.358033333333335 -160.49366666666666 2216.3 0.0 0.0 1.0
-30.7483 -144.67100000000002 2035.37 0.0 0.0 1.0
-31.655333333333335 -141.95000000000002 2035.37 0.0 0.0 1.0
-30.7345 -123.57066666666667 2028.47 0.0 0.0 1.0
-30.915266666666668 -115.07333333333332 2028.47 0.0 0.0 1.0
-30.72073333333333 -102.61233333333332 2021.62 0.0 0.0 1.0
-26.567933333333333 -109.33333333333333 2216.3 0.0 0.0 1.0
-25.7778 -103.80233333333332 2216.3 0.0 0.0 1.0
-26.3704 -93.13576666666665 2216.3 0.0 0.0 1.0
-27.1605 -77.9259 2216.3 0.0 0.0 1.0
-27.358033333333335 -75.9506 2216.3 0.0 0.0 1.0
-27.1605 -66.46916666666665 2216.3 0.0 0.0 1.0
-26.3704 -62.91356666666667 2216.3 0.0 0.0 1.0
-31.750266666666665 -51.460433333333334 2001.34 0.0 0.0 1.0
-31.362133333333333 -16.7442 1988.04 0.0 0.0 1.0
-34.840066666666665 13.1269 1852.63 0.0 0.0 1.0
-25.975333333333335 41.77779999999999 2216.3 0.0 0.0 1.0
-32.5246 44.50273333333334 1961.97 0.0 0.0 1.0
-30.438600000000005 73.42106666666666 1968.42 0.0 0.0 1.0
-26.37036666666667 122.568 2216.3 0.0 0.0 1.0
-26.962999999999997 127.70366666666666 2216.3 0.0 0.0 1.0
-35.44616666666666 129.39466666666667 1841.2300000000002 -3.3323645497914444e-27 -8.457778044836722e-32 1.0
-34.71926666666667 130.768 1837.4633333333331 1.748013689452746e-17 0.9998731543760944 0.015927182990062044
-30.385499999999997 -132.87966666666668 2035.37 0.0 0.0 1.0
-31.276833333333332 -119.95466666666668 2028.47 0.0 0.0 1.0
-25.3827 -119.40733333333333 2216.3 0.0 0.0 1.0
-26.3704 -110.12333333333333 2216.3 0.0 0.0 1.0
-26.962999999999997 -108.74066666666666 2216.3 0.0 0.0 1.0
-27.1605 -104.79 2216.3 0.0 0.0 1.0
-27.358033333333335 -93.33330000000001 2216.3 0.0 0.0 1.0
-27.1605 -77.9259 2216.3 0.0 0.0 1.0
-26.567933333333333 -69.03703333333334 2216.3 0.0 0.0 1.0
-26.962999999999997 -67.06176666666666 2216.3 0.0 0.0 1.0
-26.3704 -62.91356666666667 2216.3 0.0 0.0 1.0
-25.7778 -54.22220000000001 2216.3 0.0 0.0 1.0
-32.800000000000004 -38.1333 1994.67 0.0 0.0 1.0
-32.800000000000004 -33.3333 1994.67 0.0 0.0 1.0
-32.44446666666666 -32.08886666666667 1994.67 0.0 0.0 1.0
-25.975333333333335 -34.469166666666666 2216.3 0.0 0.0 1.0
-31.8937 -17.098566666666667 1988.04 0.0 0.0 1.0
-32.425266666666666 -16.035466666666668 1988.04 0.0 0.0 1.0
-26.963000000000005 1.4814819999999997 2216.3 0.0 0.0 1.0
-26.963000000000005 1.4814819999999997 2216.3 0.0 0.0 1.0
-26.567933333333333 2.469136666666666 2216.3 0.0 0.0 1.0
-27.555566666666664 6.024693333333334 2216.3 0.0 0.0 1.0
-30.148633333333336 24.543533333333333 1905.7300000000002 -6.53148817554572e-26 8.2102499248500675e-25 1.0
-27.358066666666662 61.530833333333334 2216.3 0.0 0.0 1.0
-28.148133333333334 66.46916666666667 2216.3 0.0 0.0 1.0
-33.42106666666667 79.21050000000001 1968.42 0.0 0.0 1.0
-33.5965 80.78946666666667 1968.42 0.0 0.0 1.0
-33.94736666666667 82.89476666666665 1968.42 0.0 0.0 1.0
-32.894733333333335 90.43863333333333 1968.42 0.0 0.0 1.0
-31.331166666666665 98.65783333333336 1974.92 0.0 0.0 1.0
-26.962999999999997 127.70366666666666 2216.3 0.0 0.0 1.0
-37.47533333333333 108.008 1770.41 0.0 0.0 1.0
-35.774366666666666 128.738 1841.2300000000002 0.0 1.0 0.0
-31.111100000000004 -143.22 2035.37 0.0 0.0 1.0
-31.8192 -120.497 2028.47 0.0 0.0 1.0
-31.8192 -120.497 2028.47 0.0 0.0 1.0
-25.777766666666665 -129.08599999999998 2216.3 0.0 0.0 1.0
-32.8829 -102.61233333333332 2021.62 0.0 0.0 1.0
-26.962999999999997 -108.74066666666666 2216.3 0.0 0.0 1.0
-33.063066666666664 -92.7027 2021.62 0.0 0.0 1.0
-28.148133333333334 -75.55556666666666 2216.3 0.0 0.0 1.0
-27.358033333333335 -73.58026666666667 2216.3 0.0 0.0 1.0
-27.555566666666664 -67.06176666666666 2216.3 0.0 0.0 1.0
-32.642133333333334 -54.136 2001.34 0.0 0.0 1.0
-32.444433333333336 -35.999966666666666 1994.67 0.0 0.0 1.0
-32.44446666666666 -32.08886666666667 1994.67 0.0 0.0 1.0
-33.15553333333333 -27.644433333333335 1994.67 0.0 0.0 1.0
-32.425266666666666 -16.035466666666668 1988.04 0.0 0.0 1.0
-25.975333333333328 -11.753099999999998 2216.3 0.0 0.0 1.0
-32.739266666666666 -2.2002200000000003 1974.92 0.0 0.0 1.0
-32.739266666666666 -2.2002200000000003 1974.92 0.0 0.0 1.0
-36.160999999999994 11.475733333333332 1852.63 0.0 0.0 1.0
-35.967099999999995 16.214 1846.91 0.0 0.0 1.0
-27.555566666666664 25.1852 2216.3 0.0 0.0 1.0
-27.358033333333335 37.03706666666667 2216.3 0.0 0.0 1.0
-27.358066666666662 61.530833333333334 2216.3 0.0 0.0 1.0
-27.5556 63.1111 2216.3 0.0 0.0 1.0
-27.5556 63.1111 2216.3 0.0 0.0 1.0
-27.5556 63.1111 2216.3 0.0 0.0 1.0
-33.42106666666667 79.2105 1968.42 0.0 0.0 1.0
-34.29826666666667 89.0351 1968.42 0.0 0.0 1.0
-29.1358 113.48166666666667 2216.3 0.0 0.0 1.0
-28.148133333333334 124.14800000000001 2216.3 0.0 0.0 1.0
-26.962999999999997 127.70366666666666 2216.3 0.0 0.0 1.0
-39.287366666666664 103.663 1788.0533333333333 -1.0624267138643239e-15 0.8354699125165647 0.5495361910552969
-37.47533333333333 108.008 1770.41 0.0 0.0 1.0
-25.1852 137.77766666666665 2216.3 0.0 0.0 1.0
-35.9236 128.32266666666666 1905.7300000000002 0.0 0.0 1.0
-35.774366666666666 128.738 1841.2300000000002 0.0 1.0 0.0
-27.358033333333335 161.87633333333335 2216.3 0.0 0.0 1.0
-32.018166666666666 -141.043 2035.37 0.0 0.0 1.0
-32.74379999999999 -135.41966666666667 2035.37 0.0 0.0 1.0
-33.26553333333333 -127.367 2028.47 0.0 0.0 1.0
-32.3616 -124.113 2028.47 0.0 0.0 1.0
-27.950599999999998 -127.30833333333332 2216.3 0.0 0.0 1.0
-33.446333333333335 -115.25433333333335 2028.47 0.0 0.0 1.0
-29.333333333333332 -120.98766666666666 2216.3 0.0 0.0 1.0
-27.950599999999998 -106.37033333333333 2216.3 0.0 0.0 1.0
-33.063066666666664 -92.7027 2021.62 0.0 0.0 1.0
-28.938233333333333 -87.20986666666666 2216.3 0.0 0.0 1.0
-33.4007 -75.8698 2014.8100000000002 -5.433471870366408e-28 -3.433520598259989e-27 1.0
-27.1605 -77.9259 2216.3 0.0 0.0 1.0
-28.148133333333334 -75.55556666666666 2216.3 0.0 0.0 1.0
-27.1605 -66.46916666666665 2216.3 0.0 0.0 1.0
-33.5111 -38.3111 1994.67 0.0 0.0 1.0
-33.5111 -35.28886666666667 1994.67 0.0 0.0 1.0
-34.2222 -29.422233333333338 1994.67 0.0 0.0 1.0
-33.15553333333333 -27.644433333333335 1994.67 0.0 0.0 1.0
-27.1605 -8.987666666666668 2216.3 0.0 0.0 1.0
-29.530833333333334 22.617266666666666 2216.3 0.0 0.0 1.0
-37.916666666666664 26.25 1870.0 0.0 0.0 1.0
-37.916666666666664 26.25 1870.0 0.0 0.0 1.0
-27.950599999999998 41.97533333333333 2216.3 0.0 0.0 1.0
-27.555566666666664 65.28396666666667 2216.3 0.0 0.0 1.0
-27.555533333333333 68.64196666666666 2216.3 0.0 0.0 1.0
-34.12283333333334 79.2105 1968.42 0.0 0.0 1.0
-33.94736666666667 82.01756666666667 1968.42 0.0 0.0 1.0
-34.122800000000005 90.26316666666668 1968.42 0.0 0.0 1.0
-29.333299999999998 115.65433333333334 2216.3 0.0 0.0 1.0
-27.358033333333335 122.76533333333334 2216.3 0.0 0.0 1.0
-29.135766666666665 131.85166666666666 2216.3 0.0 0.0 1.0
-32.018166666666666 -141.043 2035.37 0.0 0.0 1.0
-32.74379999999999 -135.41966666666667 2035.37 0.0 0.0 1.0
-32.74379999999999 -135.41966666666667 2035.37 0.0 0.0 1.0
-32.18076666666666 -119.95466666666668 2028.47 0.0 0.0 1.0
-34.144133333333336 -106.39633333333332 2021.62 0.0 0.0 1.0
-27.7531 -108.34566666666667 2216.3 0.0 0.0 1.0
-28.148133333333334 -94.12343333333332 2216.3 0.0 0.0 1.0
-27.358033333333335 -93.33330000000001 2216.3 0.0 0.0 1.0
-28.938233333333333 -87.20986666666666 2216.3 0.0 0.0 1.0
-28.148133333333334 -75.55556666666666 2216.3 0.0 0.0 1.0
-28.938266666666667 -22.2222 2216.3 0.0 0.0 1.0
-37.6132 16.5432 1846.91 0.0 0.0 1.0
-37.11596666666667 29.3417 1875.86 0.0 0.0 1.0
-37.11596666666667 30.679199999999998 1875.86 0.0 0.0 1.0
-37.617533333333334 31.682333333333332 1875.86 0.0 0.0 1.0
-34.27323333333333 45.901633333333336 1961.97 0.0 0.0 1.0
-28.148133333333334 83.25926666666668 2216.3 0.0 0.0 1.0
-35.8772 93.59649999999999 1968.42 0.0 0.0 1.0
-28.5432 126.51866666666666 2216.3 0.0 0.0 1.0
-35.101166666666664 126.688 1911.82 0.0 0.0 1.0
-35.9236 128.32266666666666 1905.7300000000002 0.0 0.0 1.0
-36.813433333333336 127.88233333333335 1881.76 0.0 0.0 1.0
-36.813433333333336 127.88233333333335 1881.76 0.0 0.0 1.0
-28.5432 162.66666666666666 2216.3 0.0 0.0 1.0
-30.5185 -160.49366666666666 2216.3 0.0 0.0 1.0
-30.123433333333335 -153.58033333333333 2216.3 0.0 0.0 1.0
-33.26553333333333 -127.367 2028.47 0.0 0.0 1.0
-33.26553333333333 -127.367 2028.47 0.0 0.0 1.0
-33.446333333333335 -124.65533333333333 2028.47 0.0 0.0 1.0
-33.446333333333335 -115.25433333333332 2028.47 0.0 0.0 1.0
-33.78376666666667 -108.198 2021.62 0.0 0.0 1.0
-29.72836666666667 -110.32133333333333 2216.3 0.0 0.0 1.0
-28.148133333333334 -104.98766666666667 2216.3 0.0 0.0 1.0
-34.0691 -54.49273333333334 2001.34 0.0 0.0 1.0
-34.57776666666667 -34.75553333333334 1994.67 0.0 0.0 1.0
-34.93333333333334 -29.600000000000005 1994.67 0.0 0.0 1.0
-29.72836666666667 2.271603333333333 2216.3 0.0 0.0 1.0
-35.083333333333336 8.083333333333334 1870.0 0.0 0.0 1.0
-41.204566666666665 10.882666666666665 1864.17 0.0 0.0 1.0
-27.358033333333335 37.03706666666667 2216.3 0.0 0.0 1.0
-27.950599999999998 41.97533333333333 2216.3 0.0 0.0 1.0
-29.530833333333334 67.06173333333334 2216.3 0.0 0.0 1.0
-34.82456666666666 79.03506666666668 1968.42 0.0 0.0 1.0
-33.94736666666667 82.89476666666665 1968.42 0.0 0.0 1.0
-29.333299999999998 115.65433333333334 2216.3 0.0 0.0 1.0
-29.530833333333334 126.51866666666666 2216.3 0.0 0.0 1.0
-29.72836666666667 131.45666666666668 2216.3 0.0 0.0 1.0
-29.72836666666667 162.86433333333335 2216.3 0.0 0.0 1.0
-30.5185 -157.53099999999998 2216.3 0.0 0.0 1.0
-30.320966666666664 -154.173 2216.3 0.0 0.0 1.0
-29.72836666666667 -153.9753333333333 2216.3 0.0 0.0 1.0
-33.28799999999999 -138.322 2035.37 0.0 0.0 1.0
-33.446333333333335 -124.65533333333333 2028.47 0.0 0.0 1.0
-34.1695 -115.25433333333332 2028.47 0.0 0.0 1.0
-35.225233333333335 -109.279 2021.62 0.0 0.0 1.0
-29.72836666666667 -110.32133333333333 2216.3 0.0 0.0 1.0
-29.72836666666667 -110.32133333333333 2216.3 0.0 0.0 1.0
-33.963966666666664 -91.98199999999999 2021.62 0.0 0.0 1.0
-28.938233333333333 -87.20986666666666 2216.3 0.0 0.0 1.0
-37.31543333333333 -73.64653333333334 2008.05 0.0 0.0 1.0
-29.333299999999998 -78.32096666666666 2216.3 0.0 0.0 1.0
-30.320966666666664 -76.7407 2216.3 0.0 0.0 1.0
-30.320966666666664 -76.7407 2216.3 0.0 0.0 1.0
-29.530866666666668 -72.0 2216.3 0.0 0.0 1.0
-29.925933333333333 -67.65436666666666 2216.3 0.0 0.0 1.0
-35.8222 -37.42223333333333 1994.67 0.0 0.0 1.0
-34.93333333333334 -29.600000000000005 1994.67 0.0 0.0 1.0
-33.488400000000006 -15.503900000000002 1988.04 0.0 0.0 1.0
-29.9259 1.4814796666666668 2216.3 0.0 0.0 1.0
-29.9259 1.4814796666666668 2216.3 0.0 0.0 1.0
-29.9259 1.4814796666666668 2216.3 0.0 0.0 1.0
-29.530866666666668 7.012346666666667 2216.3 0.0 0.0 1.0
-29.530833333333334 22.61726666666667 2216.3 0.0 0.0 1.0
-30.123433333333335 23.20986666666667 2216.3 0.0 0.0 1.0
-30.320966666666664 55.80246666666667 2216.3 0.0 0.0 1.0
-36.02183333333333 49.224066666666666 1961.97 0.0 0.0 1.0
-36.02183333333333 49.224066666666666 1961.97 0.0 0.0 1.0
-30.913566666666668 57.382733333333334 2216.3 0.0 0.0 1.0
-34.82456666666666 79.03506666666668 1968.42 0.0 0.0 1.0
-36.22806666666667 90.0877 1968.42 0.0 0.0 1.0
-31.111099999999997 109.92566666666666 2216.3 0.0 0.0 1.0
-30.716033333333332 118.222 2216.3 0.0 0.0 1.0
-29.72836666666667 131.45666666666668 2216.3 0.0 0.0 1.0
-29.72836666666667 131.45666666666668 2216.3 0.0 0.0 1.0
-35.9236 128.32266666666666 1905.7300000000002 0.0 0.0 1.0
-36.813433333333336 127.88233333333335 1881.76 0.0 0.0 1.0
-30.123433333333335 161.87666666666667 2216.3 0.0 0.0 1.0
-31.703699999999998 -163.654 2216.3 0.0 0.0 1.0
-30.913566666666668 -157.33333333333334 2216.3 0.0 0.0 1.0
-34.1695 -115.25433333333335 2028.47 0.0 0.0 1.0
-35.04503333333333 -91.62163333333335 2021.62 0.0 0.0 1.0
-35.852833333333336 -54.67113333333333 2001.34 0.0 0.0 1.0
-29.333333333333332 -55.01233333333334 2216.3 0.0 0.0 1.0
-29.333333333333332 -55.01233333333334 2216.3 0.0 0.0 1.0
-27.7531 -33.67903333333333 2216.3 0.0 0.0 1.0
-34.93333333333334 -29.600000000000005 1994.67 0.0 0.0 1.0
-30.123433333333335 0.49382666666666664 2216.3 0.0 0.0 1.0
-30.123433333333335 23.20986666666667 2216.3 0.0 0.0 1.0
-37.11596666666667 29.3417 1875.86 0.0 0.0 1.0
-29.925933333333333 61.3333 2216.3 0.0 0.0 1.0
-37.59563333333333 67.75956666666667 1961.97 0.0 0.0 1.0
-28.148133333333334 83.25926666666668 2216.3 0.0 0.0 1.0
-35.87716666666666 90.78946666666667 1968.42 0.0 0.0 1.0
-36.4035 90.96493333333332 1968.42 0.0 0.0 1.0
-31.308633333333333 112.69133333333333 2216.3 0.0 0.0 1.0
-29.333299999999998 115.65433333333333 2216.3 0.0 0.0 1.0
-30.320966666666664 126.71633333333334 2216.3 0.0 0.0 1.0
-39.8784 130.74 1818.84 0.0 0.0 1.0
-30.5185 -160.49366666666666 2216.3 0.0 0.0 1.0
-30.5185 -160.49366666666666 2216.3 0.0 0.0 1.0
-30.716033333333332 -157.72833333333332 2216.3 0.0 0.0 1.0
-30.913566666666668 -157.33333333333334 2216.3 0.0 0.0 1.0
-30.320966666666664 -154.173 2216.3 0.0 0.0 1.0
-33.87656666666667 -140.741 2216.3 0.0 0.0 1.0
-35.765766666666664 -103.694 2021.62 0.0 0.0 1.0
-35.765766666666664 -103.694 2021.62 0.0 0.0 1.0
-30.320966666666664 -109.926 2216.3 0.0 0.0 1.0
-30.320966666666664 -76.7407 2216.3 0.0 0.0 1.0
-30.320966666666664 -70.22223333333334 2216.3 0.0 0.0 1.0
-31.901233333333334 -45.92589999999999 2216.3 0.0 0.0 1.0
-35.8222 -37.42223333333333 1994.67 0.0 0.0 1.0
-35.46666666666667 -34.22220000000001 1994.67 0.0 0.0 1.0
-35.46666666666667 -34.22220000000001 1994.67 0.0 0.0 1.0
-34.0741 -28.543166666666668 2216.3 0.0 0.0 1.0
-39.13313333333333 12.301333333333332 1852.63 0.0 0.0 1.0
-37.6132 16.5432 1846.91 0.0 0.0 1.0
-36.7213 49.74866666666666 1961.97 0.0 0.0 1.0
-30.913566666666668 57.382733333333334 2216.3 0.0 0.0 1.0
-30.913566666666668 67.65433333333333 2216.3 0.0 0.0 1.0
-32.2963 73.97533333333332 2216.3 0.0 0.0 1.0
-37.280699999999996 81.6667 1968.42 0.0 0.0 1.0
-30.320966666666664 126.71633333333334 2216.3 0.0 0.0 1.0
-38.856833333333334 107.48233333333333 1772.1633333333332 0.7813791535548706 0.39060706577917165 0.48669573508842223
-32.2963 140.93833333333336 2216.3 0.0 0.0 1.0
-35.101166666666664 126.688 1911.82 0.0 0.0 1.0
-40.953300000000006 128.24800000000002 1860.3166666666668 0.0 0.9947081808196793 0.10274062006044286
-39.8784 130.74 1818.84 0.0 0.0 1.0
-30.123433333333335 161.87666666666667 2216.3 0.0 0.0 1.0
-32.493833333333335 -164.04899999999998 2216.3 0.0 0.0 1.0
-31.111100000000004 -156.74066666666667 2216.3 0.0 0.0 1.0
-32.69136666666667 -149.8273333333333 2216.3 0.0 0.0 1.0
-35.25423333333333 -119.95466666666668 2028.47 0.0 0.0 1.0
-30.518500000000003 -108.14799999999998 2216.3 0.0 0.0 1.0
-35.04503333333333 -91.62163333333335 2021.62 0.0 0.0 1.0
-32.8889 -90.56793333333333 2216.3 0.0 0.0 1.0
-36.888866666666665 -39.199999999999996 1994.67 0.0 0.0 1.0
-35.8222 -37.42223333333333 1994.67 0.0 0.0 1.0
-38.449600000000004 -24.717566666666666 1988.04 0.0 0.0 1.0
-32.2963 -7.209876666666666 2216.3 0.0 0.0 1.0
-30.320966666666664 5.432100000000001 2216.3 0.0 0.0 1.0
-33.667633333333335 28.711866666666666 1765.1899999999998 0.0 0.0 1.0
-31.901233333333334 57.77779999999999 2216.3 0.0 0.0 1.0
-32.09876666666667 61.3333 2216.3 0.0 0.0 1.0
-31.703699999999998 67.25926666666666 2216.3 0.0 0.0 1.0
-37.7705 72.13113333333332 1961.97 0.0 0.0 1.0
-37.945366666666665 73.7049 1961.97 0.0 0.0 1.0
-37.45616666666666 84.12283333333333 1968.42 0.0 0.0 1.0
-37.1053 89.21050000000001 1968.42 0.0 0.0 1.0
-37.1053 89.21050000000001 1968.42 0.0 0.0 1.0
-37.1053 89.73683333333332 1968.42 0.0 0.0 1.0
-37.1053 89.73683333333334 1968.42 0.0 0.0 1.0
-37.6316 94.29823333333333 1968.42 0.0 0.0 1.0
-31.111099999999997 109.92566666666666 2216.3 0.0 0.0 1.0
-31.308633333333333 111.111 2216.3 0.0 0.0 1.0
-30.5185 113.87666666666667 2216.3 0.0 0.0 1.0
-31.703699999999998 118.41966666666667 2216.3 0.0 0.0 1.0
-32.8889 121.77766666666666 2216.3 0.0 0.0 1.0
-32.09876666666667 131.06166666666664 2216.3 0.0 0.0 1.0
-32.69136666666667 137.18533333333332 2216.3 0.0 0.0 1.0
-39.8784 130.74 1818.84 0.0 0.0 1.0
-32.69136666666667 -149.8273333333333 2216.3 0.0 0.0 1.0
-34.711866666666666 -125.017 2028.47 0.0 0.0 1.0
-35.765766666666664 -103.694 2021.62 0.0 0.0 1.0
-33.4007 -75.8698 2014.8100000000002 -5.433471870366406e-28 -3.433520598259989e-27 1.0
-31.111100000000004 -77.33330000000001 2216.3 0.0 0.0 1.0
-31.111100000000004 -75.9506 2216.3 0.0 0.0 1.0
-32.2963 -68.0494 2216.3 0.0 0.0 1.0
-31.901233333333334 -45.925900000000006 2216.3 0.0 0.0 1.0
-31.901233333333334 -45.925900000000006 2216.3 0.0 0.0 1.0
-32.2963 -22.8148 2216.3 0.0 0.0 1.0
-39.8234 -12.9801 1981.46 0.0 0.0 1.0
-32.493833333333335 -10.172866666666666 2216.3 0.0 0.0 1.0
-32.69136666666667 -7.60494 2216.3 0.0 0.0 1.0
-38.95506666666667 31.682333333333332 1875.86 0.0 0.0 1.0
-31.901233333333334 44.54319999999999 2216.3 0.0 0.0 1.0
-37.420766666666665 49.224066666666666 1961.97 0.0 0.0 1.0
-37.945366666666665 49.74866666666667 1961.97 0.0 0.0 1.0
-31.703699999999998 67.25926666666666 2216.3 0.0 0.0 1.0
-38.2951 69.85793333333334 1961.97 0.0 0.0 1.0
-37.7705 72.13113333333332 1961.97 0.0 0.0 1.0
-36.929833333333335 78.33333333333334 1968.42 0.0 0.0 1.0
-37.6316 78.85966666666667 1968.42 0.0 0.0 1.0
-37.280699999999996 80.08773333333333 1968.42 0.0 0.0 1.0
-37.45616666666667 84.12283333333333 1968.42 0.0 0.0 1.0
-37.45616666666666 84.12283333333333 1968.42 0.0 0.0 1.0
-36.92983333333333 93.07016666666668 1968.42 0.0 0.0 1.0
-32.09876666666667 131.06166666666664 2216.3 0.0 0.0 1.0
-32.09876666666667 131.06166666666664 2216.3 0.0 0.0 1.0
-32.2963 140.93833333333333 2216.3 0.0 0.0 1.0
-33.4815 148.64166666666665 2216.3 0.0 0.0 1.0
-32.493833333333335 -164.04899999999998 2216.3 0.0 0.0 1.0
-32.493833333333335 -164.04899999999998 2216.3 0.0 0.0 1.0
-38.146899999999995 -128.63266666666667 2028.47 0.0 0.0 1.0
-37.24293333333333 -120.13566666666668 2028.47 0.0 0.0 1.0
-32.4938 -122.37033333333333 2216.3 0.0 0.0 1.0
-33.87656666666666 -102.81466666666665 2216.3 0.0 0.0 1.0
-38.787866666666666 -88.97863333333333 2014.8100000000002 0.0 0.0 1.0
-32.8889 -90.56793333333333 2216.3 0.0 0.0 1.0
-34.271633333333334 -87.4074 2216.3 0.0 0.0 1.0
-37.31543333333333 -73.64653333333332 2008.05 0.0 0.0 1.0
-33.67903333333334 -10.76546 2216.3 0.0 0.0 1.0
-33.283966666666664 -5.827163333333334 2216.3 0.0 0.0 1.0
-33.283966666666664 -5.827163333333334 2216.3 0.0 0.0 1.0
-33.87656666666666 26.567933333333333 2216.3 0.0 0.0 1.0
-31.901233333333334 57.777800000000006 2216.3 0.0 0.0 1.0
-32.49383333333333 69.82713333333332 2216.3 0.0 0.0 1.0
-33.08643333333333 75.35806666666666 2216.3 0.0 0.0 1.0
-38.469966666666664 70.20766666666667 1961.97 0.0 0.0 1.0
-38.469966666666664 70.20766666666667 1961.97 0.0 0.0 1.0
-38.12023333333333 71.60656666666667 1961.97 0.0 0.0 1.0
-37.98246666666666 87.98246666666667 1968.42 0.0 0.0 1.0
-38.333333333333336 94.82456666666667 1968.42 0.0 0.0 1.0
-33.67903333333333 120.98766666666667 2216.3 0.0 0.0 1.0
-32.69136666666667 137.18533333333332 2216.3 0.0 0.0 1.0
-33.4815 146.46900000000002 2216.3 0.0 0.0 1.0
-33.283966666666664 -161.4813333333333 2216.3 0.0 0.0 1.0
-33.4815 -159.90133333333333 2216.3 0.0 0.0 1.0
-33.87656666666666 -158.5186666666667 2216.3 0.0 0.0 1.0
-34.0741 -153.58033333333333 2216.3 0.0 0.0 1.0
-37.42373333333333 -130.07899999999998 2028.47 0.0 0.0 1.0
-36.4865 -109.45933333333333 2021.62 0.0 0.0 1.0
-37.927933333333335 -108.198 2021.62 0.0 0.0 1.0
-38.1081 -105.67566666666666 2021.62 0.0 0.0 1.0
-37.207233333333335 -102.61266666666667 2021.62 0.0 0.0 1.0
-37.207233333333335 -102.61266666666667 2021.62 0.0 0.0 1.0
-34.86423333333334 -93.33333333333333 2216.3 0.0 0.0 1.0
-38.88516666666666 -53.95766666666666 2001.34 0.0 0.0 1.0
-37.77776666666666 -40.26666666666667 1994.67 0.0 0.0 1.0
-36.53333333333333 -31.377766666666663 1994.67 0.0 0.0 1.0
-33.87656666666667 0.29629599999999995 2216.3 0.0 0.0 1.0
-34.0741 2.2716066666666666 2216.3 0.0 0.0 1.0
-40.79416666666666 30.8464 1875.86 0.0 0.0 1.0
-41.887166666666666 33.258 1879.7933333333333 -0.19077471653938574 -0.9538735826969248 0.23179774753489277
-32.8889 69.43209999999999 2216.3 0.0 0.0 1.0
-38.64483333333333 69.68306666666666 1961.97 0.0 0.0 1.0
-38.469966666666664 70.20766666666667 1961.97 0.0 0.0 1.0
-37.945366666666665 73.7049 1961.97 0.0 0.0 1.0
-37.98246666666666 87.98246666666667 1968.42 0.0 0.0 1.0
-33.67903333333333 118.22233333333334 2216.3 0.0 0.0 1.0
-33.87656666666666 135.01233333333334 2216.3 0.0 0.0 1.0
-33.87656666666666 135.605 2216.3 0.0 0.0 1.0
-33.08643333333333 140.14833333333334 2216.3 0.0 0.0 1.0
-33.08643333333333 140.14833333333334 2216.3 0.0 0.0 1.0
-34.074099999999994 147.654 2216.3 0.0 0.0 1.0
-40.91483333333334 128.21533333333332 1862.2433333333336 0.23901739633464292 0.9549679019486617 0.17580384096253313
-40.68893333333333 130.74 1818.84 0.0 0.0 1.0
-34.0741 -152.19766666666666 2216.3 0.0 0.0 1.0
-33.67903333333334 -150.025 2216.3 0.0 0.0 1.0
-37.42373333333333 -130.07899999999998 2028.47 0.0 0.0 1.0
-38.1081 -105.67566666666666 2021.62 0.0 0.0 1.0
-32.2963 -108.74066666666666 2216.3 0.0 0.0 1.0
-33.87656666666666 -102.81466666666665 2216.3 0.0 0.0 1.0
-33.87656666666667 -101.43196666666667 2216.3 0.0 0.0 1.0
-33.87656666666667 -90.56793333333333 2216.3 0.0 0.0 1.0
-34.469166666666666 -84.24693333333333 2216.3 0.0 0.0 1.0
-34.86423333333334 -49.08643333333333 2216.3 0.0 0.0 1.0
-37.777766666666665 -40.266666666666666 1994.67 0.0 0.0 1.0
-38.4496 -24.71756666666667 1988.04 0.0 0.0 1.0
-37.74086666666667 -14.7951 1988.04 0.0 0.0 1.0
-33.283966666666664 -5.827163333333334 2216.3 0.0 0.0 1.0
-34.271633333333334 -0.6913573333333334 2216.3 0.0 0.0 1.0
-34.0741 2.2716066666666666 2216.3 0.0 0.0 1.0
-34.6667 26.567933333333333 2216.3 0.0 0.0 1.0
-37.916666666666664 26.25 1870.0 0.0 0.0 1.0
-34.46913333333333 45.530833333333334 2216.3 0.0 0.0 1.0
-39.34426666666666 49.92353333333333 1961.97 0.0 0.0 1.0
-34.469166666666666 61.530833333333334 2216.3 0.0 0.0 1.0
-34.469166666666666 61.530833333333334 2216.3 0.0 0.0 1.0
-39.825700000000005 64.92376666666667 1955.5600000000002 2.3634863235402177e-26 5.9092808576989874e-27 1.0
-39.86886666666667 75.62843333333332 1961.97 0.0 0.0 1.0
-33.67903333333334 120.98766666666667 2216.3 0.0 0.0 1.0
-33.67903333333334 120.98766666666667 2216.3 0.0 0.0 1.0
-34.074099999999994 147.654 2216.3 0.0 0.0 1.0
-33.481500000000004 -163.85166666666666 2216.3 0.0 0.0 1.0
-34.469166666666666 -158.12366666666665 2216.3 0.0 0.0 1.0
-34.271633333333334 -155.35799999999998 2216.3 0.0 0.0 1.0
-34.271633333333334 -150.815 2216.3 0.0 0.0 1.0
-35.654333333333334 -141.3336666666667 2216.3 0.0 0.0 1.0
-38.1081 -105.67566666666666 2021.62 0.0 0.0 1.0
-38.8288 -104.23433333333332 2021.62 0.0 0.0 1.0
-33.87656666666667 -101.43196666666667 2216.3 0.0 0.0 1.0
-34.6667 -90.96300000000001 2216.3 0.0 0.0 1.0
-34.469166666666666 -84.24693333333333 2216.3 0.0 0.0 1.0
-34.469166666666666 -84.24693333333333 2216.3 0.0 0.0 1.0
-35.851866666666666 -73.1852 2216.3 0.0 0.0 1.0
-35.2593 -68.8395 2216.3 0.0 0.0 1.0
-39.4203 -54.13603333333333 2001.34 0.0 0.0 1.0
-35.061766666666664 -50.469166666666666 2216.3 0.0 0.0 1.0
-35.061766666666664 -49.87656666666666 2216.3 0.0 0.0 1.0
-37.74086666666667 -14.7951 1988.04 0.0 0.0 1.0
-34.271633333333334 3.0617300000000003 2216.3 0.0 0.0 1.0
-34.271633333333334 3.0617300000000003 2216.3 0.0 0.0 1.0
-44.0867 13.622300000000001 1852.63 0.0 0.0 1.0
-34.6667 26.567933333333333 2216.3 0.0 0.0 1.0
-41.46293333333333 29.6761 1875.86 0.0 0.0 1.0
-37.03703333333333 42.3704 2216.3 0.0 0.0 1.0
-33.87656666666667 64.49383333333334 2216.3 0.0 0.0 1.0
-39.825700000000005 64.92376666666667 1955.5600000000002 2.3634863235402185e-26 5.909280857698994e-27 1.0
-39.825700000000005 64.92376666666667 1955.5600000000002 2.3634863235402177e-26 5.9092808576989874e-27 1.0
-39.519133333333336 71.6066 1961.97 0.0 0.0 1.0
-39.86886666666667 75.62843333333332 1961.97 0.0 0.0 1.0
-40.39343333333333 79.4754 1961.97 0.0 0.0 1.0
-40.56833333333333 80.69946666666665 1961.97 0.0 0.0 1.0
-40.39346666666666 84.02186666666667 1961.97 0.0 0.0 1.0
-35.654333333333334 102.2224 2216.3 0.0 0.0 1.0
-39.7368 93.77193333333334 1968.42 0.0 0.0 1.0
-39.7368 93.77193333333332 1968.42 0.0 0.0 1.0
-39.7368 93.77193333333332 1968.42 0.0 0.0 1.0
-35.25926666666667 133.43200000000002 2216.3 0.0 0.0 1.0
-34.271633333333334 134.02466666666666 2216.3 0.0 0.0 1.0
-33.87656666666667 135.605 2216.3 0.0 0.0 1.0
-34.0741 147.654 2216.3 0.0 0.0 1.0
-36.049366666666664 162.46900000000002 2216.3 0.0 0.0 1.0
-34.469166666666666 -158.12366666666665 2216.3 0.0 0.0 1.0
-36.444433333333336 -143.50633333333334 2216.3 0.0 0.0 1.0
-38.870066666666666 -119.41266666666667 2028.47 0.0 0.0 1.0
-40.316366666666674 -116.15833333333335 2028.47 0.0 0.0 1.0
-40.40403333333334 -90.5948 2014.8100000000002 5.566729994384538e-28 8.349965827114452e-28 1.0
-35.259299999999996 -91.16053333333332 2216.3 0.0 0.0 1.0
-35.25926666666667 -89.58026666666666 2216.3 0.0 0.0 1.0
-34.469166666666666 -78.91356666666667 2216.3 0.0 0.0 1.0
-35.456799999999994 -68.24693333333333 2216.3 0.0 0.0 1.0
-39.73186666666667 -56.52036666666667 2003.5766666666666 1.2472279149927428e-15 0.8916300453182304 0.4527646875428895
-39.77706666666666 -55.02786666666666 2001.34 0.0 0.0 1.0
-39.4203 -54.13603333333333 2001.34 0.0 0.0 1.0
-39.4203 -54.13603333333333 2001.34 0.0 0.0 1.0
-40.44443333333333 -35.46666666666667 1994.67 0.0 0.0 1.0
-37.03703333333333 -35.6543 2216.3 0.0 0.0 1.0
-35.851866666666666 -28.938233333333333 2216.3 0.0 0.0 1.0
-38.4496 -24.71756666666667 1988.04 0.0 0.0 1.0
-41.589400000000005 -13.1567 1981.46 0.0 0.0 1.0
-34.271633333333334 -0.6913573333333333 2216.3 0.0 0.0 1.0
-36.049366666666664 7.40741 2216.3 0.0 0.0 1.0
-36.246900000000004 10.370396666666666 2216.3 0.0 0.0 1.0
-44.1952 10.882666666666665 1864.17 0.0 0.0 1.0
-44.3064 11.677 1858.39 0.0 0.0 1.0
-34.86423333333334 25.58026666666667 2216.3 0.0 0.0 1.0
-34.6667 26.567933333333333 2216.3 0.0 0.0 1.0
-41.46293333333333 29.6761 1875.86 0.0 0.0 1.0
-35.45680000000001 61.92589999999999 2216.3 0.0 0.0 1.0
-33.08643333333333 75.35806666666666 2216.3 0.0 0.0 1.0
-39.34426666666666 69.15846666666665 1961.97 0.0 0.0 1.0
-39.519133333333336 71.6066 1961.97 0.0 0.0 1.0
-39.86886666666666 75.62843333333332 1961.97 0.0 0.0 1.0
-40.39343333333333 76.50276666666667 1961.97 0.0 0.0 1.0
-40.39343333333333 79.4754 1961.97 0.0 0.0 1.0
-36.83953333333333 101.62973333333333 2216.3 0.0 0.0 1.0
-35.851866666666666 111.50633333333333 2216.3 0.0 0.0 1.0
-46.35726666666667 100.45710000000001 1793.4133333333332 0.23501111954182655 0.7051314843538765 0.6689987768782512
-35.259299999999996 131.457 2216.3 0.0 0.0 1.0
-36.83950000000001 -147.6543333333333 2216.3 0.0 0.0 1.0
-35.654333333333334 -141.3336666666667 2216.3 0.0 0.0 1.0
-38.870066666666666 -126.644 2028.47 0.0 0.0 1.0
-39.008966666666666 -105.13499999999999 2021.62 0.0 0.0 1.0
-39.9099 -103.33366666666666 2021.62 0.0 0.0 1.0
-39.9099 -103.33366666666666 2021.62 0.0 0.0 1.0
-40.40403333333334 -90.5948 2014.8100000000002 5.566729994384538e-28 8.349965827114454e-28 1.0
-35.654333333333334 -94.71603333333333 2216.3 0.0 0.0 1.0
-35.851866666666666 -91.16053333333332 2216.3 0.0 0.0 1.0
-40.0 -73.2886 2008.05 0.0 0.0 1.0
-35.061766666666664 -80.69136666666667 2216.3 0.0 0.0 1.0
-35.851866666666666 -73.1852 2216.3 0.0 0.0 1.0
-35.851866666666666 -69.6296 2216.3 0.0 0.0 1.0
-37.03703333333333 -64.88889999999999 2216.3 0.0 0.0 1.0
-39.77706666666666 -55.02786666666666 2001.34 0.0 0.0 1.0
-35.45683333333333 -50.469166666666666 2216.3 0.0 0.0 1.0
-35.061766666666664 -49.87656666666666 2216.3 0.0 0.0 1.0
-40.444433333333336 -35.46666666666667 1994.67 0.0 0.0 1.0
-35.851866666666666 -28.938233333333333 2216.3 0.0 0.0 1.0
-36.0494 -22.617266666666666 2216.3 0.0 0.0 1.0
-36.0494 -10.370356666666666 2216.3 0.0 0.0 1.0
-36.642 -8.790126666666666 2216.3 0.0 0.0 1.0
-41.892199999999995 -2.552256666666667 1974.92 0.0 0.0 1.0
-44.19753333333333 17.037066666666664 1846.91 0.0 0.0 1.0
-39.34426666666666 49.92353333333333 1961.97 0.0 0.0 1.0
-35.25926666666667 56.79013333333333 2216.3 0.0 0.0 1.0
-40.39343333333333 76.50276666666667 1961.97 0.0 0.0 1.0
-40.39343333333333 79.4754 1961.97 0.0 0.0 1.0
-40.78946666666666 92.54386666666666 1968.42 0.0 0.0 1.0
-35.851866666666666 111.50633333333333 2216.3 0.0 0.0 1.0
-36.444433333333336 119.605 2216.3 0.0 0.0 1.0
-35.851866666666666 131.457 2216.3 0.0 0.0 1.0
-42.239900000000006 128.21533333333332 1862.2433333333336 -0.24278260277345678 -0.9700113730449798 -0.011599308338817256
-42.48446666666667 128.944 1858.39 0.0 0.0 1.0
-35.851866666666666 -142.32133333333334 2216.3 0.0 0.0 1.0
-40.31636666666666 -124.65533333333333 2028.47 0.0 0.0 1.0
-37.432066666666664 -128.29633333333334 2216.3 0.0 0.0 1.0
-36.64196666666667 -122.17266666666667 2216.3 0.0 0.0 1.0
-39.9099 -103.33366666666666 2021.62 0.0 0.0 1.0
-35.851866666666666 -91.16053333333332 2216.3 0.0 0.0 1.0
-36.246900000000004 -88.98766666666667 2216.3 0.0 0.0 1.0
-36.246900000000004 -67.45683333333334 2216.3 0.0 0.0 1.0
-42.3477 -28.084166666666665 1988.04 0.0 0.0 1.0
-35.851866666666666 -28.938233333333333 2216.3 0.0 0.0 1.0
-36.0494 -10.370356666666666 2216.3 0.0 0.0 1.0
-41.892199999999995 -2.552256666666667 1974.92 0.0 0.0 1.0
-42.0682 2.7282699999999998 1974.92 0.0 0.0 1.0
-36.049366666666664 7.40741 2216.3 0.0 0.0 1.0
-36.049366666666664 7.40741 2216.3 0.0 0.0 1.0
-36.246900000000004 9.185196666666668 2216.3 0.0 0.0 1.0
-44.03293333333334 16.543233333333333 1846.91 0.0 0.0 1.0
-39.519133333333336 46.95083333333333 1961.97 0.0 0.0 1.0
-36.246900000000004 61.72836666666666 2216.3 0.0 0.0 1.0
-41.56863333333334 65.6209 1955.5600000000002 0.0 1.0 0.0
-41.44263333333333 85.59563333333334 1961.97 0.0 0.0 1.0
-35.851866666666666 111.50633333333333 2216.3 0.0 0.0 1.0
-36.641933333333334 116.44433333333332 2216.3 0.0 0.0 1.0
-36.641933333333334 116.44433333333332 2216.3 0.0 0.0 1.0
-37.037000000000006 120.19766666666668 2216.3 0.0 0.0 1.0
-35.25926666666666 133.43200000000002 2216.3 0.0 0.0 1.0
-37.037 138.56799999999998 2216.3 0.0 0.0 1.0
-37.037 138.56799999999998 2216.3 0.0 0.0 1.0
-43.769000000000005 130.90166666666667 1818.84 0.0 0.0 1.0
-36.049366666666664 162.469 2216.3 0.0 0.0 1.0
-35.654333333333334 -157.531 2216.3 0.0 0.0 1.0
-37.432066666666664 -147.85166666666666 2216.3 0.0 0.0 1.0
-40.497166666666665 -119.59333333333332 2028.47 0.0 0.0 1.0
-37.432066666666664 -128.29633333333334 2216.3 0.0 0.0 1.0
-40.316366666666674 -116.15833333333335 2028.47 0.0 0.0 1.0
-36.44443333333333 -104.395 2216.3 0.0 0.0 1.0
-36.83946666666667 -88.5926 2216.3 0.0 0.0 1.0
-36.83946666666667 -88.5926 2216.3 0.0 0.0 1.0
-36.64196666666667 -73.7778 2216.3 0.0 0.0 1.0
-36.8395 -72.79013333333334 2216.3 0.0 0.0 1.0
-36.83950000000001 -70.61726666666667 2216.3 0.0 0.0 1.0
-37.432066666666664 -66.86423333333333 2216.3 0.0 0.0 1.0
-41.560766666666666 -52.53066666666667 2001.34 0.0 0.0 1.0
-41.333333333333336 -41.6889 1994.67 0.0 0.0 1.0
-41.86666666666667 -37.6 1994.67 0.0 0.0 1.0
-41.15553333333333 -36.35556666666667 1994.67 0.0 0.0 1.0
-36.049366666666664 5.037036666666666 2216.3 0.0 0.0 1.0
-37.432066666666664 9.975330000000001 2216.3 0.0 0.0 1.0
-44.1952 10.882666666666665 1864.17 0.0 0.0 1.0
-46.76923333333334 19.7744 1841.2300000000002 3.9995549949018037e-28 4.9996028430521224e-27 1.0
-33.667633333333335 28.711866666666666 1765.1899999999998 0.0 0.0 1.0
-42.1317 31.347966666666668 1875.86 0.0 0.0 1.0
-38.41973333333333 45.13576666666666 2216.3 0.0 0.0 1.0
-37.827133333333336 52.24693333333334 2216.3 0.0 0.0 1.0
-38.41973333333333 54.617266666666666 2216.3 0.0 0.0 1.0
-36.246900000000004 61.72836666666666 2216.3 0.0 0.0 1.0
-43.31153333333333 69.10676666666666 1955.5600000000002 -1.6989810646549493e-41 2.7273804511591484e-27 1.0
-41.9672 80.0 1961.97 0.0 0.0 1.0
-40.43856666666667 93.42106666666666 1968.42 0.0 0.0 1.0
-37.6296 107.95100000000001 2216.3 0.0 0.0 1.0
-37.23453333333333 112.88866666666667 2216.3 0.0 0.0 1.0
-36.641933333333334 116.44433333333332 2216.3 0.0 0.0 1.0
-36.444433333333336 119.605 2216.3 0.0 0.0 1.0
-47.18563333333333 100.51870000000001 1791.62 0.0 0.0 1.0
-43.95223333333334 125.16833333333334 1949.1899999999998 -6.069828969866446e-28 4.6157219191617146e-27 1.0
-41.90476666666667 126.82999999999998 1903.7133333333334 -0.31243801578602737 0.9374060310722498 0.15379343029226647
-37.432066666666664 162.27133333333333 2216.3 0.0 0.0 1.0
-38.222199999999994 -161.48133333333334 2216.3 0.0 0.0 1.0
-37.827133333333336 -148.44433333333333 2216.3 0.0 0.0 1.0
-37.432066666666664 -147.85166666666666 2216.3 0.0 0.0 1.0
-38.222199999999994 -144.09866666666667 2216.3 0.0 0.0 1.0
-41.03953333333333 -122.12433333333333 2028.47 0.0 0.0 1.0
-40.316366666666674 -116.15833333333335 2028.47 0.0 0.0 1.0
-42.0721 -108.73833333333334 2021.62 0.0 0.0 1.0
-35.654333333333334 -94.71603333333333 2216.3 0.0 0.0 1.0
-36.839466666666674 -90.17286666666666 2216.3 0.0 0.0 1.0
-37.23453333333333 -71.60493333333334 2216.3 0.0 0.0 1.0
-41.86666666666667 -37.599999999999994 1994.67 0.0 0.0 1.0
-37.03703333333333 -35.6543 2216.3 0.0 0.0 1.0
-36.64196666666667 -28.543166666666668 2216.3 0.0 0.0 1.0
-41.589400000000005 -13.1567 1981.46 0.0 0.0 1.0
-38.41973333333333 -6.02469 2216.3 0.0 0.0 1.0
-44.3064 11.677 1858.39 0.0 0.0 1.0
-38.617266666666666 42.963 2216.3 0.0 0.0 1.0
-38.02466666666667 51.259299999999996 2216.3 0.0 0.0 1.0
-37.6296 107.95100000000001 2216.3 0.0 0.0 1.0
-37.037000000000006 120.19766666666668 2216.3 0.0 0.0 1.0
-37.6296 134.61733333333333 2216.3 0.0 0.0 1.0
-37.03703333333333 145.87633333333335 2216.3 0.0 0.0 1.0
-46.4228 129.34933333333333 1824.39 0.0 0.0 1.0
-45.7143 130.90166666666667 1818.84 0.0 0.0 1.0
-38.222199999999994 -161.48133333333334 2216.3 0.0 0.0 1.0
-38.02466666666667 -154.963 2216.3 0.0 0.0 1.0
-38.8148 -150.61733333333333 2216.3 0.0 0.0 1.0
-37.827133333333336 -148.44433333333333 2216.3 0.0 0.0 1.0
-37.827133333333336 -146.07399999999998 2216.3 0.0 0.0 1.0
-38.02466666666667 -145.08633333333333 2216.3 0.0 0.0 1.0
-41.9435 -119.23166666666667 2028.47 0.0 0.0 1.0
-42.97296666666667 -113.24333333333334 2021.62 0.0 0.0 1.0
-41.711733333333335 -107.47733333333333 2021.62 0.0 0.0 1.0
-42.252266666666664 -106.036 2021.62 0.0 0.0 1.0
-38.41973333333333 -105.38266666666668 2216.3 0.0 0.0 1.0
-40.40403333333333 -90.5948 2014.8100000000002 -7.793545991172965e-28 1.3360146821095148e-27 1.0
-36.839499999999994 -76.93826666666666 2216.3 0.0 0.0 1.0
-39.01233333333334 -65.08643333333335 2216.3 0.0 0.0 1.0
-41.86666666666667 -37.599999999999994 1994.67 0.0 0.0 1.0
-37.03703333333333 -35.6543 2216.3 0.0 0.0 1.0
-43.1788 -12.8035 1981.46 0.0 0.0 1.0
-38.8148 -7.209876666666666 2216.3 0.0 0.0 1.0
-45.572766666666666 13.952533333333333 1852.63 0.0 0.0 1.0
-45.572766666666666 13.952533333333333 1852.63 0.0 0.0 1.0
-44.85596666666667 16.37863333333333 1846.91 0.0 0.0 1.0
-45.69056666666666 28.992766666666665 1864.17 0.0 0.0 1.0
-42.78866666666667 66.49236666666667 1955.5600000000002 1.3130479575223432e-27 6.564988669198798e-28 1.0
-43.0164 79.82513333333333 1961.97 0.0 0.0 1.0
-43.71586666666667 83.32236666666667 1961.97 0.0 0.0 1.0
-42.491800000000005 85.59563333333334 1961.97 0.0 0.0 1.0
-38.02466666666667 108.741 2216.3 0.0 0.0 1.0
-38.02466666666667 108.741 2216.3 0.0 0.0 1.0
-38.222199999999994 113.67866666666667 2216.3 0.0 0.0 1.0
-37.037 138.56799999999998 2216.3 0.0 0.0 1.0
-38.2222 -161.48133333333334 2216.3 0.0 0.0 1.0
-39.01233333333334 -153.38266666666667 2216.3 0.0 0.0 1.0
-38.8148 -143.30866666666665 2216.3 0.0 0.0 1.0
-39.60493333333333 -128.49366666666666 2216.3 0.0 0.0 1.0
-42.97296666666667 -113.24333333333334 2021.62 0.0 0.0 1.0
-38.617266666666666 -87.80246666666666 2216.3 0.0 0.0 1.0
-43.40046666666667 -73.46756666666667 2008.05 0.0 0.0 1.0
-39.01233333333333 -65.08643333333335 2216.3 0.0 0.0 1.0
-43.522866666666665 -55.02786666666666 2001.34 0.0 0.0 1.0
-40.0 -53.62963333333334 2216.3 0.0 0.0 1.0
-43.58803333333333 -23.831666666666667 1988.04 0.0 0.0 1.0
-38.222199999999994 9.975330000000001 2216.3 0.0 0.0 1.0
-38.8148 10.567896666666668 2216.3 0.0 0.0 1.0
-38.222199999999994 10.962966666666667 2216.3 0.0 0.0 1.0
-46.17283333333334 18.0247 1846.91 0.0 0.0 1.0
-46.17283333333334 18.0247 1846.91 0.0 0.0 1.0
-45.69056666666666 28.992766666666665 1864.17 0.0 0.0 1.0
-38.617266666666666 42.963 2216.3 0.0 0.0 1.0
-39.01233333333334 44.345666666666666 2216.3 0.0 0.0 1.0
-38.41973333333333 54.617266666666666 2216.3 0.0 0.0 1.0
-39.60493333333333 60.34563333333333 2216.3 0.0 0.0 1.0
-43.834399999999995 68.4096 1955.5600000000002 -2.2159803165713102e-27 1.1079265902903276e-26 1.0
-38.41973333333333 119.01233333333333 2216.3 0.0 0.0 1.0
-40.0 125.53099999999999 2216.3 0.0 0.0 1.0
-38.8148 135.21 2216.3 0.0 0.0 1.0
-43.95223333333334 125.16833333333334 1949.1899999999998 -6.069828969866446e-28 4.6157219191617146e-27 1.0
-43.77106666666666 128.91133333333332 1860.3166666666668 -0.5145824323023124 -0.8574303117450544 -0.004263902744521865
-46.396866666666675 130.44533333333334 1817.0033333333333 0.19597648140929783 0.9785141934185894 0.06405616295718886
-38.617266666666666 161.87633333333335 2216.3 0.0 0.0 1.0
-39.80246666666667 -163.0616666666667 2216.3 0.0 0.0 1.0
-39.60493333333333 -128.88866666666667 2216.3 0.0 0.0 1.0
-42.0721 -108.73833333333334 2021.62 0.0 0.0 1.0
-42.7928 -105.13533333333334 2021.62 0.0 0.0 1.0
-43.333333333333336 -102.973 2021.62 0.0 0.0 1.0
-43.40046666666667 -73.46756666666667 2008.05 0.0 0.0 1.0
-43.522866666666665 -55.02786666666666 2001.34 0.0 0.0 1.0
-43.288900000000005 -39.37776666666667 1994.67 0.0 0.0 1.0
-43.64443333333333 -34.93333333333333 1994.67 0.0 0.0 1.0
-43.58803333333333 -23.831666666666667 1988.04 0.0 0.0 1.0
-40.0 -21.432066666666667 2216.3 0.0 0.0 1.0
-39.01233333333334 -4.04938 2216.3 0.0 0.0 1.0
-43.652366666666666 -2.7282733333333336 1974.92 0.0 0.0 1.0
-44.3064 11.677 1858.39 0.0 0.0 1.0
-40.395066666666665 26.567933333333333 2216.3 0.0 0.0 1.0
-46.7086 34.2977 1881.76 0.0 0.0 1.0
-39.407399999999996 42.963 2216.3 0.0 0.0 1.0
-39.60493333333333 45.13576666666666 2216.3 0.0 0.0 1.0
-39.604933333333335 50.469166666666666 2216.3 0.0 0.0 1.0
-39.60493333333333 50.469166666666666 2216.3 0.0 0.0 1.0
-39.60493333333333 55.20986666666667 2216.3 0.0 0.0 1.0
-40.0 59.16049999999999 2216.3 0.0 0.0 1.0
-44.3573 70.67540000000001 1955.5600000000002 -1.1817431617701404e-26 -4.136101066195501e-26 1.0
-44.3573 70.67540000000001 1955.5600000000002 -1.1817431617701407e-26 -4.136101066195501e-26 1.0
-44.065599999999996 78.60109999999999 1961.97 0.0 0.0 1.0
-43.71586666666667 83.32236666666667 1961.97 0.0 0.0 1.0
-43.71586666666667 83.32236666666667 1961.97 0.0 0.0 1.0
-39.20986666666666 113.48133333333332 2216.3 0.0 0.0 1.0
-39.80246666666667 117.62966666666667 2216.3 0.0 0.0 1.0
-39.20986666666667 118.22233333333334 2216.3 0.0 0.0 1.0
-40.0 125.53099999999999 2216.3 0.0 0.0 1.0
-40.39506666666667 131.457 2216.3 0.0 0.0 1.0
-45.68946666666667 123.08366666666666 1949.1899999999998 -1.5734972014028188e-27 -1.708784032442643e-27 1.0
-40.19753333333333 144.88866666666667 2216.3 0.0 0.0 1.0
-45.6205 129.06666666666666 1841.2300000000002 5.207745083709744e-29 1.456114046524379e-27 1.0
-46.422799999999995 129.34933333333333 1824.39 0.0 0.0 1.0
-40.79013333333334 -158.321 2216.3 0.0 0.0 1.0
-39.01233333333334 -152.19766666666666 2216.3 0.0 0.0 1.0
-39.60493333333333 -143.30866666666665 2216.3 0.0 0.0 1.0
-39.80246666666667 -142.51866666666666 2216.3 0.0 0.0 1.0
-43.20903333333334 -119.59333333333335 2028.47 0.0 0.0 1.0
-42.7928 -105.13533333333334 2021.62 0.0 0.0 1.0
-43.333333333333336 -102.973 2021.62 0.0 0.0 1.0
-41.1852 -107.358 2216.3 0.0 0.0 1.0
-40.19753333333333 -87.4074 2216.3 0.0 0.0 1.0
-39.01233333333333 -65.08643333333335 2216.3 0.0 0.0 1.0
-43.701233333333334 -54.31436666666667 2001.34 0.0 0.0 1.0
-40.39506666666667 -52.24693333333334 2216.3 0.0 0.0 1.0
-41.1852 -50.271633333333334 2216.3 0.0 0.0 1.0
-44.711099999999995 -41.86666666666667 1994.67 0.0 0.0 1.0
-43.58803333333333 -23.831666666666667 1988.04 0.0 0.0 1.0
-40.0 -21.432066666666667 2216.3 0.0 0.0 1.0
-40.592600000000004 -0.6913576666666668 2216.3 0.0 0.0 1.0
-43.124300000000005 2.7282699999999998 1974.92 0.0 0.0 1.0
-46.687400000000004 11.214933333333335 1864.17 0.0 0.0 1.0
-46.56346666666666 14.943233333333334 1852.63 0.0 0.0 1.0
-46.76923333333334 19.7744 1841.2300000000002 3.9995549949018037e-28 4.999602843052122e-27 1.0
-40.5926 26.172866666666668 2216.3 0.0 0.0 1.0
-39.407399999999996 42.963 2216.3 0.0 0.0 1.0
-40.0 45.728366666666666 2216.3 0.0 0.0 1.0
-39.60493333333333 50.469166666666666 2216.3 0.0 0.0 1.0
-39.60493333333333 60.34563333333333 2216.3 0.0 0.0 1.0
-39.60493333333333 60.34563333333333 2216.3 0.0 0.0 1.0
-40.0 61.13576666666666 2216.3 0.0 0.0 1.0
-42.96296666666667 69.82713333333334 2216.3 0.0 0.0 1.0
-44.3573 70.67540000000001 1955.5600000000002 -1.1817431617701404e-26 -4.136101066195501e-26 1.0
-39.20986666666666 113.48133333333332 2216.3 0.0 0.0 1.0
-39.80246666666667 134.61733333333333 2216.3 0.0 0.0 1.0
-45.708666666666666 126.897 1899.6933333333334 -0.9155956744458809 -0.0003014499206687386 0.40210007468780445
-40.98766666666666 -141.92600000000002 2216.3 0.0 0.0 1.0
-41.77779999999999 -132.64200000000002 2216.3 0.0 0.0 1.0
-40.19753333333333 -128.69133333333335 2216.3 0.0 0.0 1.0
-41.1852 -128.29633333333334 2216.3 0.0 0.0 1.0
-40.39503333333334 -122.56766666666665 2216.3 0.0 0.0 1.0
-41.38273333333333 -109.33333333333333 2216.3 0.0 0.0 1.0
-44.79213333333333 -76.05903333333333 2010.3033333333333 -0.692310525558438 0.6922675462608507 0.2036462142908141
-44.11633333333333 -74.54136666666666 2008.05 0.0 0.0 1.0
-43.40046666666666 -73.46756666666667 2008.05 0.0 0.0 1.0
-43.522866666666665 -55.02786666666666 2001.34 0.0 0.0 1.0
-44.711099999999995 -41.86666666666667 1994.67 0.0 0.0 1.0
-40.0 -21.432066666666667 2216.3 0.0 0.0 1.0
-40.93023333333334 -15.149466666666667 1988.04 0.0 0.0 1.0
-44.7682 -12.9801 1981.46 0.0 0.0 1.0
-40.395066666666665 -7.80247 2216.3 0.0 0.0 1.0
-40.98766666666666 0.49382566666666666 2216.3 0.0 0.0 1.0
-46.995866666666664 17.366266666666665 1846.91 0.0 0.0 1.0
-47.185900000000004 27.829733333333333 1864.17 0.0 0.0 1.0
-46.7861 31.885266666666666 1868.0566666666666 1.1800863141444429e-16 -0.9136318057070927 0.4065426467179023
-40.0 42.567933333333336 2216.3 0.0 0.0 1.0
-40.5926 45.530833333333334 2216.3 0.0 0.0 1.0
-39.80246666666667 56.79013333333333 2216.3 0.0 0.0 1.0
-40.0 59.16049999999999 2216.3 0.0 0.0 1.0
-46.27453333333333 75.0327 1955.5600000000002 -3.939646138209555e-27 -9.848361947060044e-27 1.0
-44.065599999999996 78.60109999999999 1961.97 0.0 0.0 1.0
-42.172866666666664 106.173 2216.3 0.0 0.0 1.0
-40.39506666666667 116.64200000000001 2216.3 0.0 0.0 1.0
-40.592600000000004 132.83966666666666 2216.3 0.0 0.0 1.0
-47.7236 129.18666666666667 1824.39 0.0 0.0 1.0
-45.7143 130.90166666666667 1818.84 0.0 0.0 1.0
-40.5926 161.67866666666666 2216.3 0.0 0.0 1.0
-41.58026666666667 -159.11133333333333 2216.3 0.0 0.0 1.0
-40.79013333333334 -158.321 2216.3 0.0 0.0 1.0
-40.79013333333334 -150.22233333333335 2216.3 0.0 0.0 1.0
-40.19753333333333 -149.2346666666667 2216.3 0.0 0.0 1.0
-43.20903333333334 -119.59333333333335 2028.47 0.0 0.0 1.0
-45.6757 -114.144 2021.62 0.0 0.0 1.0
-45.79123333333333 -87.72163333333333 2014.8100000000002 7.704829201953042e-29 -1.3290597997039936e-27 1.0
-41.58026666666667 -88.5926 2216.3 0.0 0.0 1.0
-44.474266666666665 -74.3624 2008.05 0.0 0.0 1.0
-40.0 -53.62963333333334 2216.3 0.0 0.0 1.0
-46.3576 -14.039700000000002 1981.46 0.0 0.0 1.0
-40.5926 -0.6913576666666666 2216.3 0.0 0.0 1.0
-40.98766666666666 1.876542 2216.3 0.0 0.0 1.0
-41.777800000000006 3.061726666666667 2216.3 0.0 0.0 1.0
-47.54716666666666 34.46543333333333 1881.76 0.0 0.0 1.0
-45.925900000000006 43.13726666666667 1955.5600000000002 8.863073740293549e-27 2.8255144199560647e-31 1.0
-45.925900000000006 43.137266666666676 1955.5600000000002 8.862226085967561e-27 -8.864486389432598e-27 1.0
-41.97533333333333 76.34566666666667 2216.3 0.0 0.0 1.0
-45.22873333333334 68.75816666666667 1955.5600000000002 -7.387071959295784e-28 -2.708553811738324e-27 1.0
-46.51363333333333 85.94536666666666 1961.97 0.0 0.0 1.0
-45.814166666666665 87.1694 1961.97 0.0 0.0 1.0
-41.58026666666667 112.09866666666666 2216.3 0.0 0.0 1.0
-41.58026666666667 116.04933333333334 2216.3 0.0 0.0 1.0
-40.79013333333333 130.27166666666668 2216.3 0.0 0.0 1.0
-46.7318 124.47333333333334 1949.1899999999998 1.962011899617684e-28 2.751719208913765e-27 1.0
-40.79013333333334 -162.27166666666668 2216.3 0.0 0.0 1.0
-41.58026666666666 -128.88866666666667 2216.3 0.0 0.0 1.0
-41.382733333333334 -109.33333333333333 2216.3 0.0 0.0 1.0
-41.382733333333334 -109.33333333333333 2216.3 0.0 0.0 1.0
-41.1852 -107.358 2216.3 0.0 0.0 1.0
-45.79123333333333 -87.72163333333333 2014.8100000000002 7.704829201953042e-29 -1.3290597997039936e-27 1.0
-42.76546666666667 -87.01233333333334 2216.3 0.0 0.0 1.0
-42.765433333333334 -67.85183333333333 2216.3 0.0 0.0 1.0
-44.711099999999995 -41.86666666666667 1994.67 0.0 0.0 1.0
-41.777766666666665 -34.864200000000004 2216.3 0.0 0.0 1.0
-46.24583333333334 -27.198233333333334 1988.04 0.0 0.0 1.0
-42.172866666666664 -12.543166666666666 2216.3 0.0 0.0 1.0
-42.172866666666664 -12.543166666666666 2216.3 0.0 0.0 1.0
-45.58856666666666 -2.552256666666667 1974.92 0.0 0.0 1.0
-48.37976666666666 15.4386 1852.63 0.0 0.0 1.0
-46.995866666666664 17.366266666666665 1846.91 0.0 0.0 1.0
-41.382733333333334 26.567933333333333 2216.3 0.0 0.0 1.0
-47.54716666666666 34.46543333333333 1881.76 0.0 0.0 1.0
-41.777800000000006 45.728366666666666 2216.3 0.0 0.0 1.0
-45.925900000000006 43.137266666666676 1955.5600000000002 8.862226085967561e-27 -8.864486389432598e-27 1.0
-42.76546666666667 60.93823333333333 2216.3 0.0 0.0 1.0
-41.97533333333334 76.34566666666667 2216.3 0.0 0.0 1.0
-46.7974 69.9782 1955.5600000000002 0.0 0.0 1.0
-46.27453333333333 75.0327 1955.5600000000002 -3.9396461382095544e-27 -9.848361947060043e-27 1.0
-46.51363333333333 85.94536666666666 1961.97 0.0 0.0 1.0
-41.97533333333333 123.35799999999999 2216.3 0.0 0.0 1.0
-41.97533333333333 123.358 2216.3 0.0 0.0 1.0
-41.97533333333333 129.28400000000002 2216.3 0.0 0.0 1.0
-51.25 128.41666666666666 1870.0 0.0 0.0 1.0
-42.567933333333336 -141.13566666666668 2216.3 0.0 0.0 1.0
-42.567933333333336 -141.13566666666665 2216.3 0.0 0.0 1.0
-42.76546666666667 -131.06166666666667 2216.3 0.0 0.0 1.0
-42.76546666666667 -131.06166666666667 2216.3 0.0 0.0 1.0
-42.765433333333334 -128.49366666666666 2216.3 0.0 0.0 1.0
-45.6757 -114.144 2021.62 0.0 0.0 1.0
-45.13516666666667 -109.279 2021.62 0.0 0.0 1.0
-43.35803333333333 -104.39466666666665 2216.3 0.0 0.0 1.0
-46.689099999999996 -90.77443333333333 2014.8100000000002 -6.185006794345453e-28 4.12327408152922e-28 1.0
-42.765433333333334 -91.16046666666666 2216.3 0.0 0.0 1.0
-45.01116666666667 -75.43623333333333 2008.05 0.0 0.0 1.0
-43.16049999999999 -75.75306666666667 2216.3 0.0 0.0 1.0
-43.55553333333333 -65.28396666666667 2216.3 0.0 0.0 1.0
-46.844433333333335 -35.111133333333335 1994.67 0.0 0.0 1.0
-46.7774 -28.261366666666664 1988.04 0.0 0.0 1.0
-41.1852 -28.543166666666668 2216.3 0.0 0.0 1.0
-42.172866666666664 -7.407406666666667 2216.3 0.0 0.0 1.0
