ply
format ascii 1.0
comment VCGLIB generated
element vertex 902
property float x
property float y
property float z
property float nx
property float ny
property float nz
element face 0
property list uchar int vertex_indices
end_header
72.26666666666667 128.66666666666666 2992.0 0.0 0.0 1.0
73.86666666666666 132.4 2992.0 0.0 0.0 1.0
73.86666666666666 139.86666666666667 2992.0 0.0 0.0 1.0
74.13333333333334 148.66666666666666 2992.0 0.0 0.0 1.0
73.6 -147.86666666666667 2992.0 0.0 0.0 1.0
59.69416666666667 -128.56233333333333 2744.9499999999994 0.0 0.0 1.0
60.183466666666675 -126.11666666666667 2744.9499999999994 -3.5978297950999245e-26 -8.994737995674346e-26 1.0
72.8 -120.93333333333334 2992.0 0.0 0.0 1.0
72.53333333333333 -117.46666666666665 2992.0 0.0 0.0 1.0
72.53333333333333 -117.46666666666665 2992.0 0.0 0.0 1.0
72.53333333333335 -113.46666666666665 2992.0 0.0 0.0 1.0
72.53333333333333 -113.46666666666665 2992.0 0.0 0.0 1.0
58.569266666666664 -99.72626666666666 2732.42 0.0 0.0 1.0
59.05633333333333 -94.36836666666666 2732.42 0.0 0.0 1.0
59.5434 -93.63776666666666 2732.42 0.0 0.0 1.0
59.5434 -93.63776666666666 2732.42 0.0 0.0 1.0
59.39393333333334 -89.8182 2720.0 0.0 0.0 1.0
59.39393333333334 -89.8182 2720.0 0.0 0.0 1.0
59.63636666666667 -85.2121 2720.0 0.0 0.0 1.0
59.5434 -82.9224 2732.42 0.0 0.0 1.0
71.46666666666667 -88.39999999999999 2992.0 0.0 0.0 1.0
73.06666666666668 -61.46666666666667 2992.0 0.0 0.0 1.0
73.06666666666668 -59.333333333333336 2992.0 0.0 0.0 1.0
72.8 -56.13333333333333 2992.0 0.0 0.0 1.0
72.26666666666667 -46.26666666666667 2992.0 0.0 0.0 1.0
72.26666666666667 -46.26666666666667 2992.0 0.0 0.0 1.0
73.33333333333333 -33.46666666666667 2992.0 0.0 0.0 1.0
72.0 -27.866666666666664 2992.0 0.0 0.0 1.0
72.8 -24.133333333333336 2992.0 0.0 0.0 1.0
54.035066666666665 -7.836256666666666 2624.56 0.0 0.0 1.0
53.56726666666666 0.35087866666666656 2624.56 0.0 0.0 1.0
54.73683333333333 12.748533333333333 2624.56 0.0 0.0 1.0
55.2047 15.555566666666664 2624.56 0.0 0.0 1.0
72.26666666666667 34.800000000000004 2992.0 0.0 0.0 1.0
72.8 37.73333333333333 2992.0 0.0 0.0 1.0
73.33333333333333 44.13333333333333 2992.0 0.0 0.0 1.0
72.53333333333332 47.333333333333336 2992.0 0.0 0.0 1.0
72.0 52.93333333333334 2992.0 0.0 0.0 1.0
72.53333333333333 57.199999999999996 2992.0 0.0 0.0 1.0
73.33333333333333 59.333333333333336 2992.0 0.0 0.0 1.0
73.33333333333333 61.46666666666667 2992.0 0.0 0.0 1.0
73.33333333333333 77.73333333333333 2992.0 0.0 0.0 1.0
73.06666666666666 79.06666666666666 2992.0 0.0 0.0 1.0
73.06666666666666 79.06666666666666 2992.0 0.0 0.0 1.0
73.6 90.0 2992.0 0.0 0.0 1.0
73.6 94.0 2992.0 0.0 0.0 1.0
74.13333333333334 96.93333333333334 2992.0 0.0 0.0 1.0
72.8 104.13333333333333 2992.0 0.0 0.0 1.0
73.06666666666666 109.2 2992.0 0.0 0.0 1.0
72.26666666666667 117.73333333333333 2992.0 0.0 0.0 1.0
72.26666666666667 117.73333333333333 2992.0 0.0 0.0 1.0
71.73333333333333 123.33333333333333 2992.0 0.0 0.0 1.0
73.06666666666668 124.93333333333334 2992.0 0.0 0.0 1.0
72.26666666666667 132.66666666666666 2992.0 0.0 0.0 1.0
73.06666666666666 140.13333333333335 2992.0 0.0 0.0 1.0
73.33333333333333 140.93333333333334 2992.0 0.0 0.0 1.0
72.26666666666667 143.0666666666667 2992.0 0.0 0.0 1.0
59.69416666666667 -129.05166666666665 2744.9499999999994 -2.398988980380889e-26 4.797977960761734e-26 1.0
59.69416666666667 -128.56233333333333 2744.9499999999994 0.0 0.0 1.0
59.69416666666667 -128.56233333333333 2744.9499999999994 0.0 0.0 1.0
59.69416666666667 -126.11666666666667 2744.9499999999994 2.398988980380936e-26 -4.797977960761919e-26 1.0
59.69416666666667 -126.11666666666667 2744.9499999999994 2.398988980380937e-26 -4.7979779607619203e-26 1.0
60.4281 -123.42533333333334 2744.9499999999994 1.332862450212036e-27 -5.331086623068732e-27 1.0
59.93879999999999 -122.44666666666667 2744.9499999999994 -6.331573341815455e-27 -1.6658964738753386e-27 1.0
72.8 -120.93333333333334 2992.0 0.0 0.0 1.0
72.0 -117.46666666666665 2992.0 0.0 0.0 1.0
72.0 -115.60000000000001 2992.0 0.0 0.0 1.0
72.26666666666667 -114.53333333333335 2992.0 0.0 0.0 1.0
58.56926666666667 -97.77773333333333 2732.42 0.0 0.0 1.0
58.8128 -97.04716666666667 2732.42 0.0 0.0 1.0
59.056333333333335 -95.82953333333334 2732.42 0.0 0.0 1.0
72.53333333333333 -79.33333333333333 2992.0 0.0 0.0 1.0
72.53333333333333 -79.33333333333333 2992.0 0.0 0.0 1.0
60.51753333333334 -67.09283333333333 2732.42 0.0 0.0 1.0
59.5434 -58.0822 2732.42 0.0 0.0 1.0
72.53333333333335 -61.199999999999996 2992.0 0.0 0.0 1.0
72.0 -59.06666666666666 2992.0 0.0 0.0 1.0
72.8 -56.13333333333333 2992.0 0.0 0.0 1.0
72.26666666666667 -43.86666666666667 2992.0 0.0 0.0 1.0
72.8 -42.53333333333333 2992.0 0.0 0.0 1.0
71.73333333333333 -31.599999999999998 2992.0 0.0 0.0 1.0
71.73333333333333 -31.600000000000005 2992.0 0.0 0.0 1.0
72.26666666666667 -26.8 2992.0 0.0 0.0 1.0
72.53333333333333 -25.46666666666667 2992.0 0.0 0.0 1.0
71.73333333333333 -18.533333333333335 2992.0 0.0 0.0 1.0
71.73333333333333 -18.53333333333333 2992.0 0.0 0.0 1.0
72.0 -16.666666666666668 2992.0 0.0 0.0 1.0
71.73333333333333 -15.6 2992.0 0.0 0.0 1.0
52.631566666666664 -9.707576666666666 2624.56 0.0 0.0 1.0
53.56723333333334 -8.771916666666668 2624.56 0.0 0.0 1.0
53.56723333333334 1.9883066666666667 2624.56 0.0 0.0 1.0
52.631566666666664 8.070176666666667 2624.56 0.0 0.0 1.0
52.631566666666664 8.070176666666667 2624.56 0.0 0.0 1.0
72.26666666666667 32.4 2992.0 0.0 0.0 1.0
72.0 34.0 2992.0 0.0 0.0 1.0
72.26666666666667 35.6 2992.0 0.0 0.0 1.0
72.26666666666667 36.666666666666664 2992.0 0.0 0.0 1.0
71.73333333333333 52.4 2992.0 0.0 0.0 1.0
71.73333333333333 65.46666666666667 2992.0 0.0 0.0 1.0
71.73333333333333 65.46666666666667 2992.0 0.0 0.0 1.0
72.0 74.8 2992.0 0.0 0.0 1.0
72.0 74.8 2992.0 0.0 0.0 1.0
72.0 74.8 2992.0 0.0 0.0 1.0
72.26666666666667 81.2 2992.0 0.0 0.0 1.0
71.2 82.26666666666667 2992.0 0.0 0.0 1.0
72.26666666666667 100.39999999999999 2992.0 0.0 0.0 1.0
72.8 104.13333333333333 2992.0 0.0 0.0 1.0
71.73333333333333 106.8 2992.0 0.0 0.0 1.0
72.53333333333335 124.13333333333334 2992.0 0.0 0.0 1.0
72.26666666666667 128.66666666666666 2992.0 0.0 0.0 1.0
72.0 137.2 2992.0 0.0 0.0 1.0
72.26666666666667 143.06666666666666 2992.0 0.0 0.0 1.0
72.26666666666667 143.06666666666666 2992.0 0.0 0.0 1.0
57.98166666666666 -133.211 2744.9499999999994 -1.5993623022244972e-26 -1.999066692917015e-26 1.0
68.8 -127.06666666666666 2992.0 0.0 0.0 1.0
72.0 -117.73333333333333 2992.0 0.0 0.0 1.0
58.56926666666667 -97.77773333333333 2732.42 0.0 0.0 1.0
58.325733333333325 -94.36836666666666 2732.42 0.0 0.0 1.0
58.42423333333334 -89.8182 2720.0 0.0 0.0 1.0
70.39999999999999 -91.86666666666667 2992.0 0.0 0.0 1.0
57.83866666666666 -82.9224 2732.42 0.0 0.0 1.0
71.46666666666667 -88.39999999999999 2992.0 0.0 0.0 1.0
70.66666666666667 -84.93333333333334 2992.0 0.0 0.0 1.0
70.66666666666667 -84.93333333333334 2992.0 0.0 0.0 1.0
69.86666666666667 -68.13333333333334 2992.0 0.0 0.0 1.0
72.0 -59.06666666666666 2992.0 0.0 0.0 1.0
72.0 -55.86666666666667 2992.0 0.0 0.0 1.0
70.93333333333334 -50.26666666666667 2992.0 0.0 0.0 1.0
70.93333333333334 -50.26666666666667 2992.0 0.0 0.0 1.0
72.26666666666667 -46.26666666666667 2992.0 0.0 0.0 1.0
71.73333333333333 -31.599999999999998 2992.0 0.0 0.0 1.0
72.0 -27.866666666666664 2992.0 0.0 0.0 1.0
71.73333333333333 -18.533333333333335 2992.0 0.0 0.0 1.0
71.73333333333333 -15.6 2992.0 0.0 0.0 1.0
71.73333333333333 22.53333333333333 2992.0 0.0 0.0 1.0
70.66666666666667 29.73333333333333 2992.0 0.0 0.0 1.0
71.73333333333333 32.93333333333334 2992.0 0.0 0.0 1.0
70.66666666666667 40.666666666666664 2992.0 0.0 0.0 1.0
70.4 49.73333333333333 2992.0 0.0 0.0 1.0
70.4 53.46666666666667 2992.0 0.0 0.0 1.0
71.2 56.4 2992.0 0.0 0.0 1.0
71.2 65.73333333333333 2992.0 0.0 0.0 1.0
71.73333333333333 112.93333333333334 2992.0 0.0 0.0 1.0
72.26666666666667 117.73333333333333 2992.0 0.0 0.0 1.0
71.2 127.59999999999998 2992.0 0.0 0.0 1.0
71.2 141.73333333333335 2992.0 0.0 0.0 1.0
44.14520000000001 124.283 2560.9833333333336 -0.0008970849187622747 -0.9988365562663144 0.048215444669718284
72.0 148.93333333333334 2992.0 0.0 0.0 1.0
72.0 148.93333333333334 2992.0 0.0 0.0 1.0
70.66666666666667 -148.66666666666666 2992.0 0.0 0.0 1.0
57.247733333333336 -132.477 2744.9499999999994 3.998678145080749e-27 1.9990666830209268e-27 1.0
57.003099999999996 -119.51066666666668 2744.9499999999994 5.997472423118416e-27 -4.198189858166504e-26 1.0
71.73333333333333 -121.2 2992.0 0.0 0.0 1.0
56.864533333333334 -100.70033333333333 2732.42 0.0 0.0 1.0
57.108066666666666 -94.12483333333334 2732.42 0.0 0.0 1.0
56.621 -92.66363333333334 2732.42 0.0 0.0 1.0
70.13333333333334 -97.46666666666665 2992.0 0.0 0.0 1.0
70.13333333333334 -97.46666666666665 2992.0 0.0 0.0 1.0
70.4 -85.73333333333333 2992.0 0.0 0.0 1.0
59.5434 -58.0822 2732.42 0.0 0.0 1.0
70.4 -50.53333333333333 2992.0 0.0 0.0 1.0
69.06666666666666 -36.93333333333333 2992.0 0.0 0.0 1.0
70.13333333333333 -19.866666666666664 2992.0 0.0 0.0 1.0
51.461999999999996 -3.1578933333333334 2624.56 0.0 0.0 1.0
51.9298 2.45614 2624.56 0.0 0.0 1.0
69.60000000000001 16.933333333333334 2992.0 0.0 0.0 1.0
69.33333333333333 26.0 2992.0 0.0 0.0 1.0
70.66666666666667 40.666666666666664 2992.0 0.0 0.0 1.0
70.66666666666667 40.666666666666664 2992.0 0.0 0.0 1.0
70.39999999999999 49.73333333333333 2992.0 0.0 0.0 1.0
71.2 52.93333333333334 2992.0 0.0 0.0 1.0
69.86666666666667 62.26666666666667 2992.0 0.0 0.0 1.0
69.86666666666667 62.26666666666667 2992.0 0.0 0.0 1.0
71.2 65.73333333333333 2992.0 0.0 0.0 1.0
69.06666666666666 69.73333333333333 2992.0 0.0 0.0 1.0
70.66666666666667 91.06666666666666 2992.0 0.0 0.0 1.0
70.39999999999999 106.8 2992.0 0.0 0.0 1.0
70.13333333333334 112.93333333333334 2992.0 0.0 0.0 1.0
70.13333333333334 122.53333333333335 2992.0 0.0 0.0 1.0
70.13333333333334 122.53333333333335 2992.0 0.0 0.0 1.0
70.39999999999999 126.8 2992.0 0.0 0.0 1.0
71.2 132.66666666666666 2992.0 0.0 0.0 1.0
70.4 133.73333333333335 2992.0 0.0 0.0 1.0
69.60000000000001 135.6 2992.0 0.0 0.0 1.0
70.39999999999999 140.66666666666666 2992.0 0.0 0.0 1.0
57.98166666666666 -133.21099999999998 2744.9499999999994 7.995177174005915e-27 2.7986933760214856e-26 1.0
57.737 -123.67 2744.9499999999994 0.0 0.0 1.0
71.2 -115.06666666666666 2992.0 0.0 0.0 1.0
56.864533333333334 -100.70033333333333 2732.42 0.0 0.0 1.0
56.864533333333334 -100.70033333333333 2732.42 0.0 0.0 1.0
56.13393333333334 -99.4826 2732.42 0.0 0.0 1.0
56.37746666666667 -96.56009999999999 2732.42 0.0 0.0 1.0
56.37746666666667 -96.56009999999999 2732.42 0.0 0.0 1.0
69.86666666666666 -98.26666666666667 2992.0 0.0 0.0 1.0
70.13333333333334 -97.46666666666665 2992.0 0.0 0.0 1.0
70.4 -85.73333333333333 2992.0 0.0 0.0 1.0
69.60000000000001 -78.0 2992.0 0.0 0.0 1.0
69.06666666666666 -70.53333333333335 2992.0 0.0 0.0 1.0
69.06666666666666 -68.66666666666667 2992.0 0.0 0.0 1.0
68.8 -58.0 2992.0 0.0 0.0 1.0
69.33333333333333 -50.53333333333333 2992.0 0.0 0.0 1.0
69.86666666666666 -15.866666666666665 2992.0 0.0 0.0 1.0
50.994166666666665 -12.51463333333333 2624.56 0.0 0.0 1.0
50.99416666666667 -12.514633333333334 2624.56 0.0 0.0 1.0
50.994166666666665 -9.707586666666666 2624.56 0.0 0.0 1.0
50.994166666666665 -9.707586666666666 2624.56 0.0 0.0 1.0
50.99416666666667 -8.304093333333334 2624.56 0.0 0.0 1.0
51.22806666666667 -5.02924 2624.56 0.0 0.0 1.0
51.461999999999996 -3.1578933333333334 2624.56 0.0 0.0 1.0
51.461999999999996 -3.1578933333333334 2624.56 0.0 0.0 1.0
51.461999999999996 -0.35087566666666675 2624.56 0.0 0.0 1.0
50.29240000000001 3.8596466666666664 2624.56 0.0 0.0 1.0
51.461999999999996 8.304093333333332 2624.56 0.0 0.0 1.0
69.60000000000001 16.933333333333334 2992.0 0.0 0.0 1.0
69.60000000000001 22.0 2992.0 0.0 0.0 1.0
69.33333333333333 26.0 2992.0 0.0 0.0 1.0
69.33333333333333 32.4 2992.0 0.0 0.0 1.0
69.86666666666666 35.333333333333336 2992.0 0.0 0.0 1.0
70.13333333333334 40.666666666666664 2992.0 0.0 0.0 1.0
69.6 41.733333333333334 2992.0 0.0 0.0 1.0
69.06666666666666 46.800000000000004 2992.0 0.0 0.0 1.0
70.39999999999999 49.73333333333333 2992.0 0.0 0.0 1.0
69.86666666666666 53.73333333333333 2992.0 0.0 0.0 1.0
69.60000000000001 56.666666666666664 2992.0 0.0 0.0 1.0
68.8 60.93333333333334 2992.0 0.0 0.0 1.0
69.06666666666666 69.46666666666665 2992.0 0.0 0.0 1.0
69.86666666666666 76.13333333333334 2992.0 0.0 0.0 1.0
68.8 82.0 2992.0 0.0 0.0 1.0
71.2 117.2 2992.0 0.0 0.0 1.0
69.86666666666666 123.06666666666666 2992.0 0.0 0.0 1.0
69.86666666666666 123.06666666666666 2992.0 0.0 0.0 1.0
69.06666666666666 127.06666666666666 2992.0 0.0 0.0 1.0
69.6 135.6 2992.0 0.0 0.0 1.0
69.60000000000001 140.66666666666666 2992.0 0.0 0.0 1.0
57.247733333333336 -132.477 2744.9499999999994 3.998678145080749e-27 1.9990666830209268e-27 1.0
56.02450000000001 -128.56266666666667 2744.9499999999994 2.833764311828863e-26 -1.2338456616302337e-26 1.0
56.02450000000001 -127.09499999999998 2744.9499999999994 1.9667117249676478e-26 1.0337345814356524e-26 1.0
56.26913333333334 -124.404 2744.9499999999994 5.398215462460817e-26 -3.8983570597228745e-26 1.0
57.003099999999996 -119.51066666666668 2744.9499999999994 5.997472423118416e-27 -4.198189858166504e-26 1.0
57.003099999999996 -119.51066666666668 2744.9499999999994 5.997472423118419e-27 -4.198189858166505e-26 1.0
68.53333333333333 -119.86666666666666 2992.0 0.0 0.0 1.0
68.53333333333333 -119.86666666666666 2992.0 0.0 0.0 1.0
56.37746666666667 -96.56009999999999 2732.42 0.0 0.0 1.0
56.133933333333324 -93.39423333333333 2732.42 0.0 0.0 1.0
68.0 -94.26666666666667 2992.0 0.0 0.0 1.0
68.0 -94.26666666666667 2992.0 0.0 0.0 1.0
54.91626666666667 -82.67886666666668 2732.42 0.0 0.0 1.0
58.1818 -72.60606666666666 2720.0 0.0 0.0 1.0
54.787866666666666 -66.54546666666667 2720.0 0.0 0.0 1.0
68.53333333333333 -69.46666666666665 2992.0 0.0 0.0 1.0
68.8 -69.2 2992.0 0.0 0.0 1.0
68.8 -68.4 2992.0 0.0 0.0 1.0
67.73333333333333 -59.86666666666667 2992.0 0.0 0.0 1.0
68.8 -58.0 2992.0 0.0 0.0 1.0
69.06666666666668 -36.93333333333334 2992.0 0.0 0.0 1.0
69.60000000000001 -28.399999999999995 2992.0 0.0 0.0 1.0
69.60000000000001 -28.399999999999995 2992.0 0.0 0.0 1.0
68.53333333333335 -22.0 2992.0 0.0 0.0 1.0
69.33333333333333 -21.2 2992.0 0.0 0.0 1.0
69.86666666666666 -15.866666666666665 2992.0 0.0 0.0 1.0
50.99416666666667 -12.514633333333334 2624.56 0.0 0.0 1.0
50.99416666666667 -9.707586666666666 2624.56 0.0 0.0 1.0
50.52633333333333 -7.602340000000001 2624.56 0.0 0.0 1.0
50.76023333333333 -6.19883 2624.56 0.0 0.0 1.0
49.59063333333334 3.39181 2624.56 0.0 0.0 1.0
69.06666666666666 17.73333333333333 2992.0 0.0 0.0 1.0
68.26666666666667 18.8 2992.0 0.0 0.0 1.0
68.0 27.599999999999998 2992.0 0.0 0.0 1.0
68.8 38.800000000000004 2992.0 0.0 0.0 1.0
68.8 42.266666666666666 2992.0 0.0 0.0 1.0
69.06666666666666 46.800000000000004 2992.0 0.0 0.0 1.0
69.06666666666666 46.800000000000004 2992.0 0.0 0.0 1.0
68.8 53.199999999999996 2992.0 0.0 0.0 1.0
69.06666666666666 61.46666666666667 2992.0 0.0 0.0 1.0
68.8 82.0 2992.0 0.0 0.0 1.0
68.8 91.06666666666666 2992.0 0.0 0.0 1.0
67.2 96.66666666666667 2992.0 0.0 0.0 1.0
67.2 106.0 2992.0 0.0 0.0 1.0
68.0 110.53333333333335 2992.0 0.0 0.0 1.0
70.13333333333333 112.93333333333334 2992.0 0.0 0.0 1.0
69.06666666666666 127.06666666666666 2992.0 0.0 0.0 1.0
69.06666666666666 127.06666666666666 2992.0 0.0 0.0 1.0
69.6 135.6 2992.0 0.0 0.0 1.0
69.06666666666668 142.0 2992.0 0.0 0.0 1.0
68.0 -148.66666666666666 2992.0 0.0 0.0 1.0
68.8 -127.06666666666666 2992.0 0.0 0.0 1.0
68.0 -120.93333333333332 2992.0 0.0 0.0 1.0
55.64686666666666 -98.50833333333334 2732.42 0.0 0.0 1.0
55.40333333333333 -97.77773333333334 2732.42 0.0 0.0 1.0
54.672733333333326 -92.90716666666667 2732.42 0.0 0.0 1.0
69.06666666666666 -88.66666666666667 2992.0 0.0 0.0 1.0
68.8 -87.86666666666667 2992.0 0.0 0.0 1.0
68.26666666666667 -68.93333333333334 2992.0 0.0 0.0 1.0
67.73333333333333 -68.66666666666667 2992.0 0.0 0.0 1.0
68.0 -58.53333333333333 2992.0 0.0 0.0 1.0
68.53333333333333 -49.73333333333333 2992.0 0.0 0.0 1.0
68.53333333333333 -48.4 2992.0 0.0 0.0 1.0
67.73333333333333 -46.26666666666667 2992.0 0.0 0.0 1.0
67.73333333333333 -46.26666666666667 2992.0 0.0 0.0 1.0
67.2 -42.53333333333333 2992.0 0.0 0.0 1.0
68.0 -37.733333333333334 2992.0 0.0 0.0 1.0
68.53333333333335 -22.0 2992.0 0.0 0.0 1.0
50.292399999999994 -6.9005833333333335 2624.56 0.0 0.0 1.0
49.82456666666666 -5.029236666666667 2624.56 0.0 0.0 1.0
50.29243333333333 7.602340000000001 2624.56 0.0 0.0 1.0
50.29243333333333 7.602340000000001 2624.56 0.0 0.0 1.0
69.33333333333333 15.866666666666665 2992.0 0.0 0.0 1.0
67.46666666666665 20.933333333333334 2992.0 0.0 0.0 1.0
67.46666666666665 27.066666666666666 2992.0 0.0 0.0 1.0
67.2 34.0 2992.0 0.0 0.0 1.0
67.73333333333333 37.199999999999996 2992.0 0.0 0.0 1.0
68.0 42.266666666666666 2992.0 0.0 0.0 1.0
68.0 53.199999999999996 2992.0 0.0 0.0 1.0
67.46666666666665 56.93333333333334 2992.0 0.0 0.0 1.0
68.0 60.666666666666664 2992.0 0.0 0.0 1.0
68.26666666666667 76.93333333333334 2992.0 0.0 0.0 1.0
68.8 82.0 2992.0 0.0 0.0 1.0
67.46666666666665 84.66666666666667 2992.0 0.0 0.0 1.0
67.73333333333333 87.86666666666667 2992.0 0.0 0.0 1.0
67.73333333333333 87.86666666666667 2992.0 0.0 0.0 1.0
68.0 110.53333333333335 2992.0 0.0 0.0 1.0
66.93333333333332 120.66666666666667 2992.0 0.0 0.0 1.0
68.0 132.4 2992.0 0.0 0.0 1.0
68.0 136.9333333333333 2992.0 0.0 0.0 1.0
67.73333333333333 142.53333333333333 2992.0 0.0 0.0 1.0
56.02450000000001 -130.275 2744.9499999999994 6.748075832388586e-27 -2.998736225476164e-27 1.0
56.02450000000001 -125.62733333333334 2744.9499999999994 8.33086701713351e-27 -6.33073346072776e-27 1.0
56.02450000000001 -120.0 2744.9499999999994 2.699230332955425e-26 -2.6990464616793585e-26 1.0
66.93333333333332 -126.0 2992.0 0.0 0.0 1.0
66.93333333333332 -122.0 2992.0 0.0 0.0 1.0
54.91626666666667 -102.64833333333333 2732.42 0.0 0.0 1.0
54.18566666666667 -82.67886666666668 2732.42 0.0 0.0 1.0
54.67273333333333 -82.1918 2732.42 0.0 0.0 1.0
67.73333333333333 -78.26666666666667 2992.0 0.0 0.0 1.0
67.73333333333333 -68.66666666666667 2992.0 0.0 0.0 1.0
51.87876666666667 -58.303066666666666 2720.0 0.0 0.0 1.0
66.93333333333334 -63.6 2992.0 0.0 0.0 1.0
67.2 -58.79999999999999 2992.0 0.0 0.0 1.0
67.73333333333333 -46.26666666666667 2992.0 0.0 0.0 1.0
67.2 -42.53333333333333 2992.0 0.0 0.0 1.0
68.0 -37.733333333333334 2992.0 0.0 0.0 1.0
48.75183333333334 -33.24523333333334 2636.12 0.0 0.0 1.0
66.4 -31.066666666666666 2992.0 0.0 0.0 1.0
48.421033333333334 -14.8538 2624.56 0.0 0.0 1.0
49.59063333333334 -13.450299999999999 2624.56 0.0 0.0 1.0
48.655 -10.175426666666667 2624.56 0.0 0.0 1.0
49.82456666666666 -5.029236666666667 2624.56 0.0 0.0 1.0
49.59063333333333 3.39181 2624.56 0.0 0.0 1.0
48.65496666666667 3.8596466666666664 2624.56 0.0 0.0 1.0
68.0 19.86666666666667 2992.0 0.0 0.0 1.0
67.46666666666665 22.26666666666667 2992.0 0.0 0.0 1.0
66.93333333333334 23.333333333333332 2992.0 0.0 0.0 1.0
67.46666666666665 27.066666666666666 2992.0 0.0 0.0 1.0
67.46666666666667 27.066666666666666 2992.0 0.0 0.0 1.0
66.66666666666667 32.13333333333333 2992.0 0.0 0.0 1.0
66.93333333333334 32.93333333333334 2992.0 0.0 0.0 1.0
68.0 42.266666666666666 2992.0 0.0 0.0 1.0
67.2 47.6 2992.0 0.0 0.0 1.0
68.0 53.199999999999996 2992.0 0.0 0.0 1.0
67.46666666666667 56.93333333333334 2992.0 0.0 0.0 1.0
67.46666666666665 56.93333333333334 2992.0 0.0 0.0 1.0
66.93333333333334 68.13333333333333 2992.0 0.0 0.0 1.0
66.93333333333334 69.2 2992.0 0.0 0.0 1.0
66.93333333333334 70.0 2992.0 0.0 0.0 1.0
66.93333333333334 71.06666666666666 2992.0 0.0 0.0 1.0
67.46666666666667 78.0 2992.0 0.0 0.0 1.0
67.73333333333333 79.60000000000001 2992.0 0.0 0.0 1.0
67.46666666666667 83.60000000000001 2992.0 0.0 0.0 1.0
67.46666666666665 84.66666666666667 2992.0 0.0 0.0 1.0
67.2 87.59999999999998 2992.0 0.0 0.0 1.0
67.46666666666668 91.06666666666666 2992.0 0.0 0.0 1.0
65.86666666666667 100.13333333333334 2992.0 0.0 0.0 1.0
68.0 110.53333333333335 2992.0 0.0 0.0 1.0
66.93333333333334 120.66666666666667 2992.0 0.0 0.0 1.0
68.26666666666667 127.60000000000001 2992.0 0.0 0.0 1.0
68.0 135.86666666666665 2992.0 0.0 0.0 1.0
67.2 138.53333333333333 2992.0 0.0 0.0 1.0
67.2 -115.59999999999998 2992.0 0.0 0.0 1.0
53.94213333333334 -102.16133333333335 2732.42 0.0 0.0 1.0
53.942133333333324 -98.75186666666667 2732.42 0.0 0.0 1.0
65.86666666666667 -97.73333333333333 2992.0 0.0 0.0 1.0
66.13333333333334 -96.39999999999999 2992.0 0.0 0.0 1.0
66.13333333333334 -94.0 2992.0 0.0 0.0 1.0
66.13333333333334 -94.0 2992.0 0.0 0.0 1.0
54.18566666666667 -82.67886666666668 2732.42 0.0 0.0 1.0
66.13333333333333 -78.53333333333332 2992.0 0.0 0.0 1.0
66.39999999999999 -74.53333333333335 2992.0 0.0 0.0 1.0
66.66666666666667 -59.06666666666666 2992.0 0.0 0.0 1.0
66.66666666666667 -59.06666666666666 2992.0 0.0 0.0 1.0
68.26666666666667 -56.666666666666664 2992.0 0.0 0.0 1.0
66.93333333333334 -43.06666666666666 2992.0 0.0 0.0 1.0
66.66666666666667 -42.800000000000004 2992.0 0.0 0.0 1.0
48.75183333333334 -33.24523333333334 2636.12 0.0 0.0 1.0
66.66666666666667 -32.4 2992.0 0.0 0.0 1.0
66.13333333333334 -31.600000000000005 2992.0 0.0 0.0 1.0
48.655 -10.175426666666667 2624.56 0.0 0.0 1.0
48.655 -9.239753333333333 2624.56 0.0 0.0 1.0
47.95323333333334 -8.538013333333334 2624.56 0.0 0.0 1.0
48.18713333333333 1.7543856666666666 2624.56 0.0 0.0 1.0
66.13333333333334 24.133333333333336 2992.0 0.0 0.0 1.0
66.39999999999999 33.733333333333334 2992.0 0.0 0.0 1.0
66.93333333333334 34.8 2992.0 0.0 0.0 1.0
66.39999999999999 60.666666666666664 2992.0 0.0 0.0 1.0
66.93333333333334 69.2 2992.0 0.0 0.0 1.0
66.93333333333334 70.0 2992.0 0.0 0.0 1.0
67.2 87.59999999999998 2992.0 0.0 0.0 1.0
67.46666666666668 91.06666666666666 2992.0 0.0 0.0 1.0
66.4 96.39999999999999 2992.0 0.0 0.0 1.0
66.4 96.40000000000002 2992.0 0.0 0.0 1.0
66.4 96.40000000000002 2992.0 0.0 0.0 1.0
65.86666666666667 106.0 2992.0 0.0 0.0 1.0
66.4 107.06666666666668 2992.0 0.0 0.0 1.0
66.13333333333334 107.86666666666667 2992.0 0.0 0.0 1.0
65.86666666666666 140.66666666666666 2992.0 0.0 0.0 1.0
65.86666666666666 142.0 2992.0 0.0 0.0 1.0
67.2 148.13333333333333 2992.0 0.0 0.0 1.0
64.8 -147.6 2992.0 0.0 0.0 1.0
54.06730000000001 -131.98766666666668 2744.9499999999994 2.343592639790803e-28 -1.02144261160747e-26 1.0
64.8 -124.66666666666667 2992.0 0.0 0.0 1.0
66.13333333333333 -123.06666666666666 2992.0 0.0 0.0 1.0
64.26666666666667 -120.39999999999999 2992.0 0.0 0.0 1.0
65.86666666666666 -116.93333333333332 2992.0 0.0 0.0 1.0
53.455066666666674 -96.80363333333332 2732.42 0.0 0.0 1.0
52.96803333333333 -92.4201 2732.42 0.0 0.0 1.0
65.6 -94.53333333333335 2992.0 0.0 0.0 1.0
51.282033333333324 -66.9683 2707.69 0.0 0.0 1.0
65.60000000000001 -71.86666666666667 2992.0 0.0 0.0 1.0
51.87876666666667 -58.303066666666666 2720.0 0.0 0.0 1.0
65.33333333333333 -60.4 2992.0 0.0 0.0 1.0
66.93333333333334 -46.53333333333333 2992.0 0.0 0.0 1.0
66.39999999999999 -42.266666666666666 2992.0 0.0 0.0 1.0
64.8 -30.26666666666667 2992.0 0.0 0.0 1.0
65.33333333333333 -23.333333333333332 2992.0 0.0 0.0 1.0
66.39999999999999 -22.53333333333333 2992.0 0.0 0.0 1.0
47.9532 4.561403333333334 2624.56 0.0 0.0 1.0
65.06666666666666 9.733333333333333 2992.0 0.0 0.0 1.0
65.60000000000001 17.2 2992.0 0.0 0.0 1.0
66.66666666666667 27.066666666666666 2992.0 0.0 0.0 1.0
66.66666666666667 32.13333333333333 2992.0 0.0 0.0 1.0
66.39999999999999 33.733333333333334 2992.0 0.0 0.0 1.0
66.93333333333334 39.86666666666667 2992.0 0.0 0.0 1.0
65.33333333333333 47.6 2992.0 0.0 0.0 1.0
66.13333333333334 107.86666666666667 2992.0 0.0 0.0 1.0
65.86666666666666 120.93333333333334 2992.0 0.0 0.0 1.0
64.8 131.33333333333334 2992.0 0.0 0.0 1.0
65.86666666666666 140.66666666666666 2992.0 0.0 0.0 1.0
65.86666666666666 140.66666666666666 2992.0 0.0 0.0 1.0
65.86666666666666 142.0 2992.0 0.0 0.0 1.0
44.14520000000001 124.283 2560.9833333333336 -0.000897084918763554 -0.9988365562663141 0.048215444669717916
64.8 -147.6 2992.0 0.0 0.0 1.0
53.333333333333336 -122.69133333333333 2744.9499999999994 0.0 0.0 1.0
51.8654 -119.02133333333335 2744.9499999999994 5.997881025954166e-26 -4.7979779607619163e-26 1.0
64.8 -124.66666666666667 2992.0 0.0 0.0 1.0
51.26333333333334 -95.34250000000002 2732.42 0.0 0.0 1.0
65.86666666666666 -97.73333333333335 2992.0 0.0 0.0 1.0
64.8 -94.53333333333335 2992.0 0.0 0.0 1.0
64.26666666666667 -92.13333333333333 2992.0 0.0 0.0 1.0
64.0 -84.13333333333334 2992.0 0.0 0.0 1.0
64.53333333333333 -79.06666666666666 2992.0 0.0 0.0 1.0
51.28203333333334 -66.9683 2707.69 0.0 0.0 1.0
51.28203333333334 -66.9683 2707.69 0.0 0.0 1.0
64.8 -69.46666666666668 2992.0 0.0 0.0 1.0
65.60000000000001 -66.26666666666667 2992.0 0.0 0.0 1.0
47.81203333333334 -33.24523333333334 2636.12 0.0 0.0 1.0
65.6 -31.066666666666666 2992.0 0.0 0.0 1.0
64.26666666666667 -27.86666666666667 2992.0 0.0 0.0 1.0
64.8 -25.2 2992.0 0.0 0.0 1.0
46.08186666666668 -16.725133333333332 2624.56 0.0 0.0 1.0
47.251466666666666 -7.602343333333334 2624.56 0.0 0.0 1.0
46.7836 -6.900586666666666 2624.56 0.0 0.0 1.0
45.61403333333334 -2.923976666666667 2624.56 0.0 0.0 1.0
48.18713333333333 1.7543856666666666 2624.56 0.0 0.0 1.0
47.9532 4.561403333333334 2624.56 0.0 0.0 1.0
65.06666666666666 9.733333333333333 2992.0 0.0 0.0 1.0
65.06666666666666 9.733333333333333 2992.0 0.0 0.0 1.0
65.60000000000001 22.8 2992.0 0.0 0.0 1.0
65.33333333333333 23.599999999999998 2992.0 0.0 0.0 1.0
38.299033333333334 21.618666666666666 2462.55 0.0 0.0 1.0
38.51853333333333 29.51986666666667 2462.55 0.0 0.0 1.0
39.177 29.95883333333333 2462.55 0.0 0.0 1.0
38.51853333333333 30.397766666666666 2462.55 0.0 0.0 1.0
38.9575 34.12893333333333 2462.55 0.0 0.0 1.0
64.0 53.46666666666667 2992.0 0.0 0.0 1.0
64.0 54.53333333333333 2992.0 0.0 0.0 1.0
64.8 60.666666666666664 2992.0 0.0 0.0 1.0
66.66666666666667 74.53333333333333 2992.0 0.0 0.0 1.0
65.60000000000001 80.4 2992.0 0.0 0.0 1.0
65.60000000000001 80.4 2992.0 0.0 0.0 1.0
66.13333333333333 87.33333333333333 2992.0 0.0 0.0 1.0
65.06666666666668 106.0 2992.0 0.0 0.0 1.0
64.0 111.06666666666668 2992.0 0.0 0.0 1.0
64.8 121.46666666666668 2992.0 0.0 0.0 1.0
64.26666666666667 130.53333333333333 2992.0 0.0 0.0 1.0
64.53333333333333 136.66666666666666 2992.0 0.0 0.0 1.0
64.53333333333333 136.66666666666666 2992.0 0.0 0.0 1.0
64.0 -147.0666666666667 2992.0 0.0 0.0 1.0
51.131499999999996 -130.51966666666667 2744.9499999999994 -1.333377009798123e-27 -8.662955253475647e-27 1.0
53.333333333333336 -124.404 2744.9499999999994 2.1593450430308148e-27 3.118803347836716e-27 1.0
64.8 -124.66666666666667 2992.0 0.0 0.0 1.0
64.26666666666667 -120.40000000000002 2992.0 0.0 0.0 1.0
51.26333333333334 -95.34250000000002 2732.42 0.0 0.0 1.0
64.26666666666667 -94.8 2992.0 0.0 0.0 1.0
64.26666666666667 -94.0 2992.0 0.0 0.0 1.0
64.0 -93.2 2992.0 0.0 0.0 1.0
64.0 -93.2 2992.0 0.0 0.0 1.0
49.2121 -82.7879 2720.0 0.0 0.0 1.0
64.0 -84.13333333333333 2992.0 0.0 0.0 1.0
64.26666666666667 -60.93333333333334 2992.0 0.0 0.0 1.0
46.63726666666667 -41.233466666666665 2636.12 0.0 0.0 1.0
46.16740000000001 -40.29366666666667 2636.12 0.0 0.0 1.0
46.872233333333334 -32.77533333333333 2636.12 0.0 0.0 1.0
46.40233333333333 -31.60056666666667 2636.12 0.0 0.0 1.0
45.61403333333334 -27.9532 2624.56 0.0 0.0 1.0
64.8 -28.933333333333337 2992.0 0.0 0.0 1.0
64.53333333333335 -26.533333333333335 2992.0 0.0 0.0 1.0
46.08186666666668 -16.725133333333332 2624.56 0.0 0.0 1.0
45.61403333333334 -10.877166666666668 2624.56 0.0 0.0 1.0
46.7836 -6.900586666666666 2624.56 0.0 0.0 1.0
62.4 3.6 2992.0 0.0 0.0 1.0
63.46666666666667 13.466666666666669 2992.0 0.0 0.0 1.0
62.93333333333334 14.266666666666666 2992.0 0.0 0.0 1.0
36.9399 18.032766666666667 2452.46 0.0 0.0 1.0
38.299033333333334 21.618666666666666 2462.55 0.0 0.0 1.0
38.299033333333334 23.59396666666667 2462.55 0.0 0.0 1.0
38.9575 34.12893333333333 2462.55 0.0 0.0 1.0
36.721333333333334 36.61203333333333 2452.46 0.0 0.0 1.0
64.0 54.53333333333333 2992.0 0.0 0.0 1.0
63.20000000000001 62.53333333333333 2992.0 0.0 0.0 1.0
37.37703333333334 70.27319999999999 2452.46 0.0 0.0 1.0
36.72130000000001 75.95626666666665 2452.46 0.0 0.0 1.0
63.46666666666666 103.33333333333333 2992.0 0.0 0.0 1.0
64.8 106.8 2992.0 0.0 0.0 1.0
64.8 109.73333333333335 2992.0 0.0 0.0 1.0
64.53333333333333 122.8 2992.0 0.0 0.0 1.0
63.46666666666667 124.66666666666667 2992.0 0.0 0.0 1.0
63.73333333333333 130.26666666666668 2992.0 0.0 0.0 1.0
64.26666666666667 130.53333333333333 2992.0 0.0 0.0 1.0
64.53333333333335 136.66666666666666 2992.0 0.0 0.0 1.0
65.06666666666666 140.66666666666666 2992.0 0.0 0.0 1.0
62.4 146.26666666666668 2992.0 0.0 0.0 1.0
63.199999999999996 -146.8 2992.0 0.0 0.0 1.0
50.6422 -128.807 2744.9499999999994 1.199712419127304e-26 1.7992689754749146e-26 1.0
50.64216666666667 -120.24466666666667 2744.9499999999994 1.9993390766641353e-26 -2.398988980380973e-26 1.0
51.8654 -119.02133333333335 2744.9499999999994 5.997881025954145e-26 -4.797977960761903e-26 1.0
63.199999999999996 -121.46666666666668 2992.0 0.0 0.0 1.0
65.06666666666668 -115.06666666666668 2992.0 0.0 0.0 1.0
49.802166666666665 -100.45666666666666 2732.42 0.0 0.0 1.0
50.776266666666665 -92.90716666666667 2732.42 0.0 0.0 1.0
62.93333333333334 -83.6 2992.0 0.0 0.0 1.0
50.55806666666666 -66.9683 2707.69 0.0 0.0 1.0
62.666666666666664 -61.20000000000001 2992.0 0.0 0.0 1.0
62.93333333333334 -50.800000000000004 2992.0 0.0 0.0 1.0
62.93333333333334 -50.800000000000004 2992.0 0.0 0.0 1.0
46.16740000000001 -40.29366666666667 2636.12 0.0 0.0 1.0
46.40233333333333 -32.07046666666667 2636.12 0.0 0.0 1.0
46.40233333333333 -31.60056666666667 2636.12 0.0 0.0 1.0
45.61403333333333 -27.9532 2624.56 0.0 0.0 1.0
44.67836666666667 -23.04093333333333 2624.56 0.0 0.0 1.0
45.3801 -22.339199999999995 2624.56 0.0 0.0 1.0
45.84793333333334 -10.175426666666667 2624.56 0.0 0.0 1.0
45.146166666666666 -9.941493333333332 2624.56 0.0 0.0 1.0
62.4 3.6 2992.0 0.0 0.0 1.0
62.93333333333334 20.400000000000002 2992.0 0.0 0.0 1.0
38.299033333333334 23.59396666666667 2462.55 0.0 0.0 1.0
62.93333333333334 32.666666666666664 2992.0 0.0 0.0 1.0
62.93333333333334 32.666666666666664 2992.0 0.0 0.0 1.0
63.46666666666667 46.26666666666667 2992.0 0.0 0.0 1.0
64.0 53.46666666666667 2992.0 0.0 0.0 1.0
64.0 61.199999999999996 2992.0 0.0 0.0 1.0
33.7879 60.92603333333333 2445.7866666666664 4.0555371995528654e-17 0.99918049906386 0.0404762929440939
37.377 67.86886666666668 2452.46 0.0 0.0 1.0
37.377 67.86886666666666 2452.46 0.0 0.0 1.0
37.158433333333335 68.74316666666667 2452.46 0.0 0.0 1.0
36.93986666666667 75.08196666666666 2452.46 0.0 0.0 1.0
62.4 96.39999999999999 2992.0 0.0 0.0 1.0
62.4 96.39999999999999 2992.0 0.0 0.0 1.0
62.13333333333333 112.13333333333333 2992.0 0.0 0.0 1.0
62.93333333333334 115.33333333333333 2992.0 0.0 0.0 1.0
62.93333333333334 115.33333333333333 2992.0 0.0 0.0 1.0
63.73333333333333 130.26666666666668 2992.0 0.0 0.0 1.0
64.0 136.93333333333334 2992.0 0.0 0.0 1.0
62.666666666666664 -147.86666666666667 2992.0 0.0 0.0 1.0
62.666666666666664 -146.53333333333333 2992.0 0.0 0.0 1.0
62.666666666666664 -146.53333333333333 2992.0 0.0 0.0 1.0
50.15293333333333 -128.073 2744.9499999999994 -8.998660460481077e-27 -1.1994944901904863e-26 1.0
63.199999999999996 -122.8 2992.0 0.0 0.0 1.0
49.802166666666665 -99.96966666666667 2732.42 0.0 0.0 1.0
50.045700000000004 -94.85543333333334 2732.42 0.0 0.0 1.0
49.2121 -82.7879 2720.0 0.0 0.0 1.0
61.6 -87.86666666666666 2992.0 0.0 0.0 1.0
62.666666666666664 -78.53333333333335 2992.0 0.0 0.0 1.0
62.93333333333334 -70.0 2992.0 0.0 0.0 1.0
48.96966666666666 -58.303066666666666 2720.0 0.0 0.0 1.0
60.800000000000004 -54.0 2992.0 0.0 0.0 1.0
62.133333333333326 -50.53333333333333 2992.0 0.0 0.0 1.0
62.13333333333333 -47.86666666666667 2992.0 0.0 0.0 1.0
45.69753333333333 -39.823766666666664 2636.12 0.0 0.0 1.0
45.4626 -38.884 2636.12 0.0 0.0 1.0
45.4626 -38.88399999999999 2636.12 0.0 0.0 1.0
45.22763333333334 -35.82966666666667 2636.12 0.0 0.0 1.0
44.91226666666666 -26.783600000000003 2624.56 0.0 0.0 1.0
44.67836666666667 -23.04093333333333 2624.56 0.0 0.0 1.0
44.91230000000001 -17.4269 2624.56 0.0 0.0 1.0
44.21053333333334 -14.853800000000001 2624.56 0.0 0.0 1.0
44.67836666666667 -12.280700000000001 2624.56 0.0 0.0 1.0
45.1462 -11.344999999999999 2624.56 0.0 0.0 1.0
44.67836666666667 -3.1578966666666664 2624.56 0.0 0.0 1.0
44.67836666666667 -3.1578966666666664 2624.56 0.0 0.0 1.0
62.93333333333334 13.466666666666667 2992.0 0.0 0.0 1.0
62.93333333333334 14.266666666666666 2992.0 0.0 0.0 1.0
36.9399 18.03276666666667 2452.46 0.0 0.0 1.0
37.201633333333334 21.618666666666666 2462.55 0.0 0.0 1.0
62.93333333333334 32.666666666666664 2992.0 0.0 0.0 1.0
37.6406 29.9588 2462.55 0.0 0.0 1.0
61.86666666666667 41.46666666666667 2992.0 0.0 0.0 1.0
35.12196666666666 40.6504 2432.52 0.0 0.0 1.0
35.3388 46.93770000000001 2432.52 0.0 0.0 1.0
62.13333333333333 64.93333333333334 2992.0 0.0 0.0 1.0
62.13333333333333 64.93333333333334 2992.0 0.0 0.0 1.0
62.13333333333333 65.73333333333333 2992.0 0.0 0.0 1.0
37.158433333333335 68.74316666666667 2452.46 0.0 0.0 1.0
37.15846666666667 71.14753333333333 2452.46 0.0 0.0 1.0
37.15846666666667 71.14753333333333 2452.46 0.0 0.0 1.0
61.86666666666667 100.39999999999999 2992.0 0.0 0.0 1.0
62.93333333333334 115.33333333333333 2992.0 0.0 0.0 1.0
62.13333333333333 127.33333333333333 2992.0 0.0 0.0 1.0
62.13333333333333 128.13333333333335 2992.0 0.0 0.0 1.0
49.90826666666666 -130.51966666666667 2744.9499999999994 1.4993681057795993e-26 -3.1484176843324126e-26 1.0
50.15293333333333 -128.073 2744.9499999999994 -8.998660460481077e-27 -1.199494490190486e-26 1.0
50.15293333333333 -128.073 2744.9499999999994 -8.998660460481077e-27 -1.199494490190486e-26 1.0
61.86666666666667 -86.53333333333332 2992.0 0.0 0.0 1.0
61.6 -85.2 2992.0 0.0 0.0 1.0
61.866666666666674 -83.33333333333333 2992.0 0.0 0.0 1.0
47.66213333333334 -67.6923 2707.69 0.0 0.0 1.0
61.86666666666667 -69.46666666666667 2992.0 0.0 0.0 1.0
60.800000000000004 -68.13333333333333 2992.0 0.0 0.0 1.0
61.6 -46.26666666666667 2992.0 0.0 0.0 1.0
45.6975 -34.185 2636.12 0.0 0.0 1.0
44.7577 -28.076333333333334 2636.12 0.0 0.0 1.0
44.67836666666667 -25.3801 2624.56 0.0 0.0 1.0
43.74266666666667 -13.450299999999999 2624.56 0.0 0.0 1.0
43.9766 -12.982466666666667 2624.56 0.0 0.0 1.0
45.146166666666666 -9.941493333333334 2624.56 0.0 0.0 1.0
42.87813333333333 -8.105726666666667 2636.12 0.0 0.0 1.0
44.67836666666667 -3.1578966666666664 2624.56 0.0 0.0 1.0
60.53333333333333 11.6 2992.0 0.0 0.0 1.0
35.847 18.25136666666667 2452.46 0.0 0.0 1.0
37.6406 29.9588 2462.55 0.0 0.0 1.0
61.06666666666666 40.13333333333333 2992.0 0.0 0.0 1.0
35.847 34.8634 2452.46 0.0 0.0 1.0
35.847 34.8634 2452.46 0.0 0.0 1.0
61.6 45.199999999999996 2992.0 0.0 0.0 1.0
35.12196666666667 40.6504 2432.52 0.0 0.0 1.0
34.68836666666667 46.0705 2432.52 0.0 0.0 1.0
35.3388 46.93770000000001 2432.52 0.0 0.0 1.0
61.86666666666667 65.46666666666665 2992.0 0.0 0.0 1.0
61.86666666666667 65.73333333333333 2992.0 0.0 0.0 1.0
32.5442 76.9524 2442.45 0.0 0.0 1.0
31.869933333333336 78.8076 2432.52 0.0 0.0 1.0
61.6 98.8 2992.0 0.0 0.0 1.0
61.6 101.73333333333335 2992.0 0.0 0.0 1.0
62.13333333333333 104.93333333333334 2992.0 0.0 0.0 1.0
62.13333333333333 112.13333333333333 2992.0 0.0 0.0 1.0
62.13333333333333 112.13333333333333 2992.0 0.0 0.0 1.0
60.53333333333333 120.39999999999999 2992.0 0.0 0.0 1.0
61.6 126.53333333333335 2992.0 0.0 0.0 1.0
62.4 129.20000000000002 2992.0 0.0 0.0 1.0
62.13333333333333 131.33333333333334 2992.0 0.0 0.0 1.0
60.800000000000004 132.66666666666666 2992.0 0.0 0.0 1.0
60.26666666666667 139.0666666666667 2992.0 0.0 0.0 1.0
61.333333333333336 142.79999999999998 2992.0 0.0 0.0 1.0
61.333333333333336 143.6 2992.0 0.0 0.0 1.0
61.333333333333336 146.26666666666668 2992.0 0.0 0.0 1.0
61.333333333333336 146.53333333333333 2992.0 0.0 0.0 1.0
61.6 148.13333333333335 2992.0 0.0 0.0 1.0
61.6 148.13333333333335 2992.0 0.0 0.0 1.0
61.86666666666667 -146.26666666666668 2992.0 0.0 0.0 1.0
49.6636 -121.468 2744.9499999999994 8.997434443184874e-27 -8.996515086804432e-27 1.0
48.34096666666667 -100.21300000000001 2732.42 0.0 0.0 1.0
48.097433333333335 -99.48246666666667 2732.42 0.0 0.0 1.0
47.8539 -93.63776666666666 2732.42 0.0 0.0 1.0
61.06666666666666 -88.13333333333333 2992.0 0.0 0.0 1.0
60.53333333333334 -83.6 2992.0 0.0 0.0 1.0
60.0 -78.26666666666667 2992.0 0.0 0.0 1.0
47.66213333333334 -67.6923 2707.69 0.0 0.0 1.0
47.42079999999999 -66.9683 2707.69 0.0 0.0 1.0
60.26666666666667 -62.26666666666667 2992.0 0.0 0.0 1.0
60.53333333333333 -61.73333333333333 2992.0 0.0 0.0 1.0
60.79999999999999 -59.866666666666674 2992.0 0.0 0.0 1.0
60.53333333333333 -58.53333333333334 2992.0 0.0 0.0 1.0
60.53333333333333 -50.53333333333333 2992.0 0.0 0.0 1.0
60.800000000000004 -45.46666666666667 2992.0 0.0 0.0 1.0
60.79999999999999 -43.866666666666674 2992.0 0.0 0.0 1.0
60.79999999999999 -42.800000000000004 2992.0 0.0 0.0 1.0
60.79999999999999 -42.800000000000004 2992.0 0.0 0.0 1.0
60.26666666666667 -36.666666666666664 2992.0 0.0 0.0 1.0
60.26666666666667 -36.666666666666664 2992.0 0.0 0.0 1.0
60.53333333333333 -32.666666666666664 2992.0 0.0 0.0 1.0
60.53333333333333 -32.666666666666664 2992.0 0.0 0.0 1.0
44.67836666666667 -23.04093333333333 2624.56 0.0 0.0 1.0
43.97663333333333 -17.193 2624.56 0.0 0.0 1.0
44.44446666666666 -16.0234 2624.56 0.0 0.0 1.0
44.21053333333333 -12.51463333333333 2624.56 0.0 0.0 1.0
60.0 -2.266666666666667 2992.0 0.0 0.0 1.0
59.46666666666667 17.2 2992.0 0.0 0.0 1.0
61.6 18.8 2992.0 0.0 0.0 1.0
36.10423333333333 21.399199999999997 2462.55 0.0 0.0 1.0
59.46666666666667 26.8 2992.0 0.0 0.0 1.0
62.133333333333326 32.93333333333333 2992.0 0.0 0.0 1.0
35.847 34.86339999999999 2452.46 0.0 0.0 1.0
34.68833333333333 39.3496 2432.52 0.0 0.0 1.0
34.68833333333333 39.3496 2432.52 0.0 0.0 1.0
32.71256666666667 49.986533333333334 2422.67 0.0 0.0 1.0
60.53333333333333 69.46666666666665 2992.0 0.0 0.0 1.0
60.53333333333333 69.46666666666665 2992.0 0.0 0.0 1.0
34.31693333333333 73.55193333333334 2452.46 0.0 0.0 1.0
31.869933333333336 78.8076 2432.52 0.0 0.0 1.0
61.866666666666674 97.46666666666665 2992.0 0.0 0.0 1.0
61.333333333333336 103.33333333333333 2992.0 0.0 0.0 1.0
32.47313333333333 85.69893333333334 2412.9 0.0 0.0 1.0
32.47313333333333 86.77420000000001 2412.9 0.0 0.0 1.0
61.6 126.53333333333335 2992.0 0.0 0.0 1.0
60.26666666666667 137.46666666666667 2992.0 0.0 0.0 1.0
60.800000000000004 142.79999999999998 2992.0 0.0 0.0 1.0
60.800000000000004 143.86666666666667 2992.0 0.0 0.0 1.0
61.06666666666666 146.26666666666668 2992.0 0.0 0.0 1.0
61.06666666666666 146.53333333333333 2992.0 0.0 0.0 1.0
48.44039999999999 -131.009 2744.9499999999994 0.0 -1.0 0.0
48.19573333333333 -126.85000000000001 2744.9499999999994 3.2709617885800427e-31 -9.008559456275396e-27 1.0
48.68503333333333 -123.42533333333334 2744.9499999999994 -1.499858475116106e-26 1.4997767155757e-27 1.0
58.133333333333326 -125.46666666666665 2992.0 0.0 0.0 1.0
48.097433333333335 -99.48246666666667 2732.42 0.0 0.0 1.0
48.097433333333335 -99.48246666666667 2732.42 0.0 0.0 1.0
47.36683333333334 -93.15069999999999 2732.42 0.0 0.0 1.0
59.46666666666667 -98.8 2992.0 0.0 0.0 1.0
59.199999999999996 -97.2 2992.0 0.0 0.0 1.0
47.27270000000001 -82.54546666666666 2720.0 0.0 0.0 1.0
60.79999999999999 -87.86666666666666 2992.0 0.0 0.0 1.0
59.73333333333333 -78.53333333333333 2992.0 0.0 0.0 1.0
47.42080000000001 -66.9683 2707.69 0.0 0.0 1.0
59.73333333333333 -61.20000000000001 2992.0 0.0 0.0 1.0
60.0 -57.46666666666666 2992.0 0.0 0.0 1.0
59.73333333333333 -54.53333333333333 2992.0 0.0 0.0 1.0
60.26666666666667 -52.666666666666664 2992.0 0.0 0.0 1.0
60.53333333333333 -44.666666666666664 2992.0 0.0 0.0 1.0
60.53333333333333 -32.666666666666664 2992.0 0.0 0.0 1.0
43.34799999999999 -24.55213333333333 2636.12 0.0 0.0 1.0
43.74266666666667 -13.4503 2624.56 0.0 0.0 1.0
59.20000000000001 -3.0666666666666664 2992.0 0.0 0.0 1.0
60.800000000000004 4.133333333333334 2992.0 0.0 0.0 1.0
59.73333333333333 11.333333333333334 2992.0 0.0 0.0 1.0
60.53333333333333 11.6 2992.0 0.0 0.0 1.0
34.9727 18.251366666666666 2452.46 0.0 0.0 1.0
35.4458 21.83813333333333 2462.55 0.0 0.0 1.0
35.00683333333333 22.496566666666666 2462.55 0.0 0.0 1.0
61.333333333333336 43.333333333333336 2992.0 0.0 0.0 1.0
32.9539 45.20326666666667 2432.52 0.0 0.0 1.0
60.0 66.53333333333333 2992.0 0.0 0.0 1.0
34.098366666666664 64.80873333333334 2452.46 0.0 0.0 1.0
34.098366666666664 75.95626666666666 2452.46 0.0 0.0 1.0
30.95046666666667 93.06556666666667 2403.21 0.0 0.0 1.0
60.53333333333333 120.39999999999999 2992.0 0.0 0.0 1.0
60.53333333333333 120.39999999999999 2992.0 0.0 0.0 1.0
60.26666666666667 137.46666666666667 2992.0 0.0 0.0 1.0
59.73333333333333 138.0 2992.0 0.0 0.0 1.0
60.800000000000004 143.86666666666667 2992.0 0.0 0.0 1.0
46.3927 -118.72133333333333 2732.42 0.0 0.0 1.0
59.46666666666667 -122.26666666666667 2992.0 0.0 0.0 1.0
58.13333333333333 -116.39999999999999 2992.0 0.0 0.0 1.0
47.1233 -93.88130000000001 2732.42 0.0 0.0 1.0
59.199999999999996 -99.06666666666666 2992.0 0.0 0.0 1.0
59.199999999999996 -98.26666666666667 2992.0 0.0 0.0 1.0
60.53333333333333 -84.13333333333333 2992.0 0.0 0.0 1.0
58.93333333333334 -77.2 2992.0 0.0 0.0 1.0
58.666666666666664 -76.66666666666667 2992.0 0.0 0.0 1.0
58.93333333333334 -66.0 2992.0 0.0 0.0 1.0
58.93333333333334 -66.0 2992.0 0.0 0.0 1.0
60.0 -62.26666666666667 2992.0 0.0 0.0 1.0
59.73333333333333 -55.86666666666667 2992.0 0.0 0.0 1.0
58.93333333333334 -47.86666666666667 2992.0 0.0 0.0 1.0
58.93333333333334 -47.86666666666667 2992.0 0.0 0.0 1.0
59.73333333333333 -37.46666666666667 2992.0 0.0 0.0 1.0
59.46666666666666 -36.13333333333333 2992.0 0.0 0.0 1.0
60.0 -33.199999999999996 2992.0 0.0 0.0 1.0
42.17326666666667 -19.853199999999998 2636.12 0.0 0.0 1.0
41.46843333333333 -9.98533 2636.12 0.0 0.0 1.0
58.4 -2.2666666666666666 2992.0 0.0 0.0 1.0
58.666666666666664 5.2 2992.0 0.0 0.0 1.0
60.26666666666667 10.800000000000002 2992.0 0.0 0.0 1.0
59.46666666666666 17.2 2992.0 0.0 0.0 1.0
33.224066666666666 17.5956 2452.46 0.0 0.0 1.0
59.46666666666666 26.8 2992.0 0.0 0.0 1.0
34.787366666666664 23.59396666666667 2462.55 0.0 0.0 1.0
34.787366666666664 23.59396666666667 2462.55 0.0 0.0 1.0
61.06666666666667 40.13333333333333 2992.0 0.0 0.0 1.0
31.891166666666674 32.9796 2442.45 0.0 0.0 1.0
30.967766666666666 51.93546666666666 2412.9 0.0 0.0 1.0
31.39786666666667 54.301066666666664 2412.9 0.0 0.0 1.0
33.00546666666667 61.09286666666667 2452.46 0.0 0.0 1.0
33.44263333333333 63.27869999999999 2452.46 0.0 0.0 1.0
33.44263333333333 71.5847 2452.46 0.0 0.0 1.0
34.098366666666664 75.95626666666666 2452.46 0.0 0.0 1.0
30.736266666666666 81.4993 2403.21 0.0 0.0 1.0
32.47313333333333 86.7742 2412.9 0.0 0.0 1.0
30.736266666666666 91.99463333333334 2403.21 0.0 0.0 1.0
30.08 95.25333333333334 2393.6 0.0 0.0 1.0
60.800000000000004 130.26666666666665 2992.0 0.0 0.0 1.0
58.93333333333334 135.6 2992.0 0.0 0.0 1.0
59.199999999999996 136.66666666666666 2992.0 0.0 0.0 1.0
59.46666666666667 138.79999999999998 2992.0 0.0 0.0 1.0
59.20000000000001 139.6 2992.0 0.0 0.0 1.0
59.20000000000001 139.6 2992.0 0.0 0.0 1.0
59.46666666666667 145.46666666666667 2992.0 0.0 0.0 1.0
58.93333333333334 148.4 2992.0 0.0 0.0 1.0
58.93333333333334 148.4 2992.0 0.0 0.0 1.0
58.13333333333333 -147.86666666666667 2992.0 0.0 0.0 1.0
58.13333333333333 -146.0 2992.0 0.0 0.0 1.0
58.13333333333333 -146.00000000000003 2992.0 0.0 0.0 1.0
47.21713333333333 -130.76433333333333 2744.9499999999994 -2.999144814394914e-27 -5.998085327372092e-27 1.0
46.3927 -118.72133333333333 2732.42 0.0 0.0 1.0
56.79999999999999 -117.2 2992.0 0.0 0.0 1.0
58.666666666666664 -110.53333333333335 2992.0 0.0 0.0 1.0
57.86666666666667 -105.46666666666665 2992.0 0.0 0.0 1.0
57.86666666666667 -105.46666666666665 2992.0 0.0 0.0 1.0
58.13333333333333 -98.8 2992.0 0.0 0.0 1.0
58.666666666666664 -98.26666666666667 2992.0 0.0 0.0 1.0
58.4 -77.2 2992.0 0.0 0.0 1.0
58.4 -75.60000000000001 2992.0 0.0 0.0 1.0
58.133333333333326 -67.60000000000001 2992.0 0.0 0.0 1.0
58.93333333333334 -66.0 2992.0 0.0 0.0 1.0
58.93333333333334 -60.666666666666664 2992.0 0.0 0.0 1.0
58.13333333333333 -59.866666666666674 2992.0 0.0 0.0 1.0
59.199999999999996 -50.53333333333333 2992.0 0.0 0.0 1.0
58.666666666666664 -49.73333333333333 2992.0 0.0 0.0 1.0
58.13333333333333 -47.333333333333336 2992.0 0.0 0.0 1.0
58.13333333333333 -47.333333333333336 2992.0 0.0 0.0 1.0
57.6 -44.13333333333333 2992.0 0.0 0.0 1.0
58.93333333333334 -35.333333333333336 2992.0 0.0 0.0 1.0
58.4 -31.066666666666663 2992.0 0.0 0.0 1.0
57.333333333333336 -28.400000000000002 2992.0 0.0 0.0 1.0
42.17326666666667 -19.853199999999998 2636.12 0.0 0.0 1.0
42.17326666666667 -19.853199999999998 2636.12 0.0 0.0 1.0
41.233466666666665 -16.7988 2636.12 0.0 0.0 1.0
58.93333333333334 -3.3333333333333335 2992.0 0.0 0.0 1.0
58.13333333333333 -2.8000000000000003 2992.0 0.0 0.0 1.0
57.6 -0.13333333333333333 2992.0 0.0 0.0 1.0
58.4 16.666666666666668 2992.0 0.0 0.0 1.0
58.133333333333326 26.8 2992.0 0.0 0.0 1.0
58.666666666666664 27.599999999999998 2992.0 0.0 0.0 1.0
31.653099999999995 37.615199999999994 2432.52 0.0 0.0 1.0
32.9539 45.20326666666667 2432.52 0.0 0.0 1.0
32.0867 45.63686666666666 2432.52 0.0 0.0 1.0
32.0867 48.0217 2432.52 0.0 0.0 1.0
32.0867 48.0217 2432.52 0.0 0.0 1.0
31.417033333333332 49.986533333333334 2422.67 0.0 0.0 1.0
31.417033333333332 49.986533333333334 2422.67 0.0 0.0 1.0
60.0 66.53333333333333 2992.0 0.0 0.0 1.0
31.39786666666667 54.301066666666664 2412.9 0.0 0.0 1.0
33.44263333333333 63.27869999999999 2452.46 0.0 0.0 1.0
33.87976666666666 64.80873333333334 2452.46 0.0 0.0 1.0
33.00546666666667 71.3661 2452.46 0.0 0.0 1.0
34.098366666666664 75.95626666666665 2452.46 0.0 0.0 1.0
32.5442 76.9524 2442.45 0.0 0.0 1.0
29.87953333333333 77.6439 2403.21 0.0 0.0 1.0
32.47313333333333 86.7742 2412.9 0.0 0.0 1.0
31.397833333333335 89.5699 2412.9 0.0 0.0 1.0
31.397833333333335 89.5699 2412.9 0.0 0.0 1.0
29.216466666666665 102.52333333333333 2384.06 0.0 0.0 1.0
59.199999999999996 136.66666666666666 2992.0 0.0 0.0 1.0
58.13333333333333 142.79999999999998 2992.0 0.0 0.0 1.0
58.4 143.6 2992.0 0.0 0.0 1.0
58.4 143.6 2992.0 0.0 0.0 1.0
44.145199999999996 124.283 2560.983333333333 -0.000897084918763554 -0.9988365562663141 0.048215444669717916
58.93333333333334 148.4 2992.0 0.0 0.0 1.0
58.13333333333333 -146.0 2992.0 0.0 0.0 1.0
46.48316666666667 -130.275 2744.9499999999994 -3.598483470571255e-26 -2.9987362254760967e-26 1.0
46.48316666666667 -130.275 2744.9499999999994 -3.598483470571255e-26 -2.9987362254760967e-26 1.0
45.504566666666676 -128.073 2744.9499999999994 1.3332559367926236e-27 -3.331747546404637e-27 1.0
54.666666666666664 -134.79999999999998 2992.0 0.0 0.0 1.0
45.41856666666666 -119.452 2732.42 0.0 0.0 1.0
58.13333333333333 -125.46666666666665 2992.0 0.0 0.0 1.0
45.905633333333334 -93.8813 2732.42 0.0 0.0 1.0
58.4 -99.33333333333333 2992.0 0.0 0.0 1.0
47.27269999999999 -82.54546666666667 2720.0 0.0 0.0 1.0
56.26666666666667 -86.26666666666667 2992.0 0.0 0.0 1.0
58.400000000000006 -76.93333333333334 2992.0 0.0 0.0 1.0
44.84846666666667 -57.09093333333333 2720.0 0.0 0.0 1.0
44.84846666666667 -57.09093333333333 2720.0 0.0 0.0 1.0
58.13333333333333 -59.866666666666674 2992.0 0.0 0.0 1.0
58.13333333333333 -47.333333333333336 2992.0 0.0 0.0 1.0
57.333333333333336 -44.666666666666664 2992.0 0.0 0.0 1.0
57.333333333333336 -44.666666666666664 2992.0 0.0 0.0 1.0
57.6 -41.73333333333333 2992.0 0.0 0.0 1.0
41.233466666666665 -16.7988 2636.12 0.0 0.0 1.0
41.46843333333333 -9.98533 2636.12 0.0 0.0 1.0
57.86666666666667 -1.7333333333333334 2992.0 0.0 0.0 1.0
57.6 -0.13333333333333333 2992.0 0.0 0.0 1.0
56.79999999999999 14.0 2992.0 0.0 0.0 1.0
57.6 15.866666666666665 2992.0 0.0 0.0 1.0
33.224066666666666 17.5956 2452.46 0.0 0.0 1.0
33.224066666666666 17.5956 2452.46 0.0 0.0 1.0
32.13113333333334 20.8743 2452.46 0.0 0.0 1.0
