ply
format ascii 1.0
comment VCGLIB generated
element vertex 694
property float x
property float y
property float z
property float nx
property float ny
property float nz
element face 0
property list uchar int vertex_indices
end_header
37.6338 100.7325 1685.63 0.0 0.0 1.0
74.93916666666667 138.49133333333336 2183.94 0.0 0.0 1.0
19.079733333333333 95.23253333333334 1418.0266666666666 1.5651823306926843e-16 -0.9771472502371011 0.21256352310326415
20.559233333333335 95.01763333333332 1428.18 -0.6277982288636915 0.7533644350442775 0.19573301164093068
74.93916666666667 147.05566666666667 2183.94 0.0 0.0 1.0
74.74453333333334 160.09733333333335 2183.94 0.0 0.0 1.0
25.866666666666664 -102.46666666666665 1496.0 0.0 0.0 1.0
76.10706666666668 -145.10933333333335 2183.94 0.0 0.0 1.0
75.52313333333333 -142.96866666666668 2183.94 0.0 0.0 1.0
35.8082 -106.74533333333333 1600.0233333333333 -0.765564020954185 -0.5544015355539266 0.32642099686740217
41.56426666666667 -72.4767 1671.51 0.0 0.0 1.0
19.805833333333336 -58.834966666666666 1452.43 0.0 0.0 1.0
32.43623333333333 -65.64646666666665 1578.89 0.0 0.0 1.0
43.0058 -61.42583333333334 1729.4800000000002 7.148215785305341e-28 9.25058940254479e-28 1.0
41.70016666666667 -52.8136 1653.0666666666666 -0.6330629136642332 0.773738271006887 0.023673515206336235
45.035266666666665 -40.68483333333334 1807.8499999999997 -1.0376538929016639e-28 -4.451790607250393e-29 1.0
53.42913333333333 -41.42316666666667 1818.8766666666668 -0.4865199333659674 -0.8687799978608798 0.09230205715163887
68.1809 -36.115 1981.5 -0.5295415670614207 0.8321394589856143 0.16471080581814848
75.5231 -46.03406666666666 2183.94 0.0 0.0 1.0
23.751500000000004 -30.3148 1488.573333333333 -0.6062686349170988 0.7881553335846109 0.10606371885752626
30.6529 -27.422666666666668 1542.2699999999998 4.3764686174989357e-26 -4.512182764695258e-26 1.0
76.49636666666667 -36.107033333333334 2183.94 0.0 0.0 1.0
39.5337 4.930586666666667 1639.4800000000002 0.8201856914261021 -0.44524037094883184 0.35924426739647936
75.71776666666666 56.1557 2183.94 0.0 0.0 1.0
74.74453333333334 77.37226666666668 2183.94 0.0 0.0 1.0
74.93919999999999 97.03160000000001 2183.94 0.0 0.0 1.0
18.26523333333333 71.33136666666667 1408.0166666666667 -0.8358479338661411 0.23882499643591681 0.4942882281918993
34.75176666666667 83.19146666666667 1591.49 0.0 0.0 1.0
22.200333333333333 89.65516666666667 1473.89 0.0 0.0 1.0
38.48566666666667 -110.58166666666666 1657.62 0.0 0.0 1.0
24.270300000000002 -102.212 1492.2866666666666 0.4740431114706133 -0.8803657784454255 0.015466887516218077
20.194166666666664 -99.2233 1452.43 0.0 0.0 1.0
75.52313333333333 -142.96866666666668 2183.94 0.0 0.0 1.0
43.32183333333334 -111.783 1666.88 -0.24475342224428653 -0.8566862680944353 0.4540753245422386
14.589733333333333 -84.2613 1369.3533333333332 -0.8378444955790723 -0.23938414159402063 0.49062392316431513
19.246799999999997 -86.5031 1411.37 -0.7231582434037683 -0.618827920573335 -0.30674771346508617
75.13383333333333 -134.79333333333332 2183.94 0.0 0.0 1.0
73.77126666666668 -119.416 2183.94 0.0 0.0 1.0
19.699133333333332 -77.46636666666667 1421.38 0.0 0.0 1.0
48.31373333333334 -84.31373333333333 1760.0 0.0 0.0 1.0
14.965366666666668 -62.87913333333333 1381.99 0.0 0.0 1.0
41.934666666666665 -77.42036666666667 1695.21 -0.6417501928424444 0.758433212905057 -0.1137354454389574
46.17886666666667 -71.46343333333334 1824.39 0.0 0.0 1.0
73.7713 -63.35766666666666 2183.94 0.0 0.0 1.0
16.738366666666668 -41.5004 1375.6500000000003 -0.6700566929264398 -0.7147303851663847 0.20046073127771014
48.9846 -50.29743333333334 1841.2300000000002 6.103128354097272e-29 1.2951630299394025e-28 1.0
-0.7619033333333333 -17.142833333333332 1221.22 0.0 0.0 1.0
74.74453333333334 -21.313866666666666 2183.94 0.0 0.0 1.0
75.13383333333333 -2.627736666666667 2183.94 0.0 0.0 1.0
76.69096666666667 6.326033333333332 2183.94 0.0 0.0 1.0
73.77126666666668 12.165433333333333 2183.94 0.0 0.0 1.0
75.32843333333334 14.695866666666666 2183.94 0.0 0.0 1.0
30.88083333333334 13.230953333333332 1583.0900000000001 0.9204492744285266 0.2985206170616383 0.2523065088203983
65.7521 38.0265 2160.29 0.0 0.0 1.0
27.801433333333335 31.702133333333332 1591.49 0.0 0.0 1.0
74.35520000000001 62.77373333333333 2183.94 0.0 0.0 1.0
73.77126666666668 63.74696666666667 2183.94 0.0 0.0 1.0
74.74453333333334 77.37226666666666 2183.94 0.0 0.0 1.0
75.13383333333333 83.4063 2183.94 0.0 0.0 1.0
32.58183333333333 80.34563333333334 1583.0900000000001 0.6091798331982397 -0.7919179104567501 0.04202325454292888
45.7997 88.21050000000001 1704.87 0.6005072465923501 -0.6928835961468426 0.3991282613154494
22.200333333333333 89.65516666666667 1473.89 0.0 0.0 1.0
74.93916666666667 138.49133333333336 2183.94 0.0 0.0 1.0
74.93916666666667 147.05566666666667 2183.94 0.0 0.0 1.0
75.32846666666667 156.59333333333333 2183.94 0.0 0.0 1.0
73.96593333333334 158.73466666666664 2183.94 0.0 0.0 1.0
14.441366666666667 95.22473333333333 1372.5233333333333 -0.8738479898655932 0.4466354029615761 0.19211066453794975
29.832800000000002 -108.66933333333334 1546.2766666666666 0.4446496792483798 -0.8890029253772659 -0.10936389447608764
75.32846666666667 -133.82033333333334 2183.94 0.0 0.0 1.0
39.2893 -93.98649999999999 1626.1133333333335 -0.8259815399946722 0.27528507782221706 0.49190712692178545
19.699133333333332 -77.46636666666666 1421.38 0.0 0.0 1.0
26.798033333333336 -78.09523333333334 1473.89 0.0 0.0 1.0
39.2864 -80.30046666666665 1685.63 0.0 0.0 1.0
73.7713 -63.35766666666666 2183.94 0.0 0.0 1.0
19.54693333333333 -33.85113333333333 1452.43 0.0 0.0 1.0
50.53693333333334 -41.06206666666667 1846.95 -0.9963257449667429 -0.05243707589851586 0.06771530837024835
47.67176666666666 -44.38973333333333 1841.2300000000002 1.2080070278063956e-28 -5.078110203155581e-29 1.0
38.40696666666667 -30.48023333333333 1648.5133333333333 0.6453413493826985 0.7472304382264104 0.1586859003342278
74.9392 -18.394166666666667 2183.94 0.0 0.0 1.0
73.7713 -17.031666666666666 2183.94 0.0 0.0 1.0
73.7713 -3.99027 2183.94 0.0 0.0 1.0
50.683233333333334 19.79296666666667 1858.39 0.0 0.0 1.0
75.52313333333332 30.8516 2183.94 0.0 0.0 1.0
59.114200000000004 39.62703333333334 2092.31 0.0 0.0 1.0
73.57666666666667 56.35033333333334 2183.94 0.0 0.0 1.0
8.589293333333332 37.630266666666664 1244.1033333333332 0.6600901316198655 0.660568132860392 0.3576740974510238
74.74453333333334 77.37226666666666 2183.94 0.0 0.0 1.0
73.96593333333334 84.96346666666666 2183.94 0.0 0.0 1.0
72.60343333333333 94.30656666666668 2183.94 0.0 0.0 1.0
22.961133333333333 73.64766666666667 1484.86 0.0 0.0 1.0
72.79803333333332 108.71033333333332 2183.94 0.0 0.0 1.0
72.79806666666667 128.17499999999998 2183.94 0.0 0.0 1.0
22.034733333333335 94.02806666666667 1484.86 0.0 0.0 1.0
74.93916666666667 138.49133333333336 2183.94 0.0 0.0 1.0
73.96593333333334 147.83433333333332 2183.94 0.0 0.0 1.0
73.96593333333334 158.73466666666664 2183.94 0.0 0.0 1.0
73.7713 160.48666666666668 2183.94 0.0 0.0 1.0
26.530266666666666 -106.59833333333334 1530.43 0.0 0.0 1.0
17.049166666666665 -77.12723333333334 1401.41 0.0 0.0 1.0
16.3721 -78.69770000000001 1391.63 0.0 0.0 1.0
73.77126666666668 -119.416 2183.94 0.0 0.0 1.0
14.434266666666666 -73.33333333333334 1372.4800000000002 2.1348953162486093e-28 1.7879338601295354e-28 1.0
18.74213333333333 -71.00633333333333 1411.32 0.0 0.0 1.0
17.1163 -73.61243333333334 1391.63 0.0 0.0 1.0
41.56426666666667 -72.4767 1671.51 0.0 0.0 1.0
73.38196666666666 -88.46716666666667 2183.94 0.0 0.0 1.0
37.63973333333333 -69.77473333333334 1639.4800000000002 -0.23160035673859705 -0.9727257134328142 0.012882592331383655
50.509800000000006 -63.92156666666667 1760.0 0.0 0.0 1.0
72.6622 -51.0962 2008.05 0.0 0.0 1.0
22.266666666666666 -31.0 1496.0 0.0 0.0 1.0
73.57663333333333 -15.474466666666666 2183.94 0.0 0.0 1.0
55.85233333333333 5.1248466666666666 1949.1899999999998 -2.968374839070582e-26 -3.1190392147514387e-27 1.0
73.7713 2.0437966666666667 2183.94 0.0 0.0 1.0
74.35520000000001 14.1119 2183.94 0.0 0.0 1.0
71.8248 24.817499999999995 2183.94 0.0 0.0 1.0
40.117799999999995 22.440466666666666 1695.21 -0.7716058231942962 0.6354342158941962 0.02911719223381084
56.74796666666666 24.959333333333333 1824.39 0.0 0.0 1.0
53.68423333333334 39.0351 1968.42 0.0 0.0 1.0
72.01946666666667 48.56446666666667 2183.94 0.0 0.0 1.0
4.05617 35.679766666666666 1249.2766666666666 0.04963825687471041 0.8686124057513572 0.49299952538443664
73.77126666666668 63.74696666666667 2183.94 0.0 0.0 1.0
15.069826666666666 46.708 1341.716666666667 -0.03669234886419941 -0.7582740743140757 0.6509025270791009
72.21409999999999 70.5596 2183.94 0.0 0.0 1.0
73.382 75.62043333333334 2183.94 0.0 0.0 1.0
23.100966666666665 67.4089 1481.2033333333331 -0.07469536011094666 -0.7469912310138207 0.6606244802959945
14.667899999999998 67.45113333333335 1360.0166666666667 -0.811782069851107 -0.5798261536823089 -0.06936499530910309
72.79803333333332 108.71033333333332 2183.94 0.0 0.0 1.0
29.142333333333337 94.2041 1546.2766666666666 0.9241723268805445 -0.21124121848395463 0.31824936424384903
73.57663333333333 149.58633333333333 2183.94 0.0 0.0 1.0
18.4497 -97.79026666666665 1372.5233333333333 0.5657039983350655 -0.7165671679212897 0.40805695696187116
73.96593333333334 -129.343 2183.94 0.0 0.0 1.0
72.9927 -126.61766666666666 2183.94 0.0 0.0 1.0
72.9927 -126.61766666666666 2183.94 0.0 0.0 1.0
72.9927 -126.61766666666666 2183.94 0.0 0.0 1.0
73.77126666666668 -119.416 2183.94 0.0 0.0 1.0
17.049166666666665 -77.12723333333332 1401.41 0.0 0.0 1.0
24.0 -69.8 1496.0 0.0 0.0 1.0
18.74213333333333 -71.00633333333333 1411.32 0.0 0.0 1.0
67.08023333333334 -90.57883333333332 2042.3700000000001 -0.8938557851589121 -0.4325069596078142 -0.11815060401347707
29.965599999999995 -55.189 1542.2699999999998 -4.697338084781864e-28 4.306964848115663e-28 1.0
25.457566666666665 -53.26616666666666 1507.3 0.0 0.0 1.0
72.01946666666666 -76.98296666666668 2183.94 0.0 0.0 1.0
25.2323 -49.09536666666667 1463.08 0.0 0.0 1.0
73.57663333333333 -54.20923333333334 2183.94 0.0 0.0 1.0
17.299000000000003 -25.042933333333334 1401.41 0.0 0.0 1.0
10.348876666666667 -22.373333333333335 1318.1000000000001 -0.8064998466898594 0.5713651550213246 0.15198637082544975
74.54986666666667 -23.065699999999996 2183.94 0.0 0.0 1.0
73.57663333333333 -15.474466666666666 2183.94 0.0 0.0 1.0
72.9927 11.5815 2183.94 0.0 0.0 1.0
45.72389999999999 15.40503333333333 1754.87 0.6904384816527395 -0.48330253562810327 0.5382502783171652
15.014600000000002 18.79603333333333 1347.7633333333333 -0.387951146495072 0.9052393234419143 0.17330803566939576
11.865456666666667 26.238533333333333 1372.4800000000002 -1.8199571784125064e-29 2.2025031510355123e-29 1.0
72.01946666666667 48.56446666666667 2183.94 0.0 0.0 1.0
30.34153333333333 43.36776666666666 1583.0900000000001 -0.9655854659218528 -0.25033979636726394 0.0705315132070419
73.77126666666668 63.74696666666667 2183.94 0.0 0.0 1.0
54.69166666666666 70.48316666666666 1955.6000000000001 0.7831413362866056 -0.3045528771036384 0.5421597480882603
72.40876666666666 85.74206666666667 2183.94 0.0 0.0 1.0
72.79806666666667 98.00486666666666 2183.94 0.0 0.0 1.0
18.26523333333333 71.33136666666667 1408.0166666666667 -0.8358479338661412 0.23882499643591643 0.4942882281918992
16.61723333333333 74.22723333333333 1391.6766666666665 0.9807619768709881 0.1760097977370025 0.08441857511644381
13.958786666666667 71.78456666666666 1385.2033333333331 -0.6033927051826792 0.5801824913758937 0.5470882196073948
72.01946666666667 126.423 2183.94 0.0 0.0 1.0
73.382 141.21666666666667 2183.94 0.0 0.0 1.0
16.405366666666666 95.8353 1421.38 0.0 0.0 1.0
73.57663333333333 149.58633333333333 2183.94 0.0 0.0 1.0
73.18736666666666 159.31866666666667 2183.94 0.0 0.0 1.0
72.9927 161.07066666666665 2183.94 0.0 0.0 1.0
30.4012 -108.25466666666667 1550.2833333333335 -0.6436600435250279 0.7605944337594761 0.08484017741295162
20.194166666666664 -99.2233 1452.43 0.0 0.0 1.0
17.925566666666665 -90.76816666666666 1421.38 0.0 0.0 1.0
42.0809 -91.79193333333335 1729.4800000000002 2.899628416598778e-28 5.60694269413733e-28 1.0
13.926613333333334 -63.26306666666667 1401.41 0.0 0.0 1.0
32.576966666666664 -67.75726666666667 1578.89 0.0 0.0 1.0
72.40876666666666 -62.77373333333333 2183.94 0.0 0.0 1.0
24.07766666666667 -6.9255666666666675 1452.43 0.0 0.0 1.0
63.00566666666666 -20.158183333333334 2028.47 0.0 0.0 1.0
72.21413333333334 -4.57421 2183.94 0.0 0.0 1.0
71.43553333333334 19.756666666666664 2183.94 0.0 0.0 1.0
43.782266666666665 28.19483333333333 1714.61 0.0 0.0 1.0
34.75823333333333 31.069599999999998 1657.6966666666667 0.8270522095899098 0.29184267119724006 0.48042949314223793
20.6683 29.40506666666667 1463.08 0.0 0.0 1.0
72.21409999999999 70.5596 2183.94 0.0 0.0 1.0
72.21409999999999 75.4258 2183.94 0.0 0.0 1.0
71.6302 95.27980000000001 2183.94 0.0 0.0 1.0
73.382 110.07300000000002 2183.94 0.0 0.0 1.0
83.08059999999999 111.57633333333332 2160.29 0.0 0.0 1.0
72.01946666666667 126.423 2183.94 0.0 0.0 1.0
22.668366666666667 87.62633333333333 1448.93 -0.8767620152303273 0.4782338264892693 0.05080133709546223
20.63 87.68979999999999 1441.9800000000002 -0.9975741703643504 3.567944510646442e-06 0.06961159823727751
33.5856 89.009 1617.3 0.0 0.0 1.0
48.257799999999996 100.46316666666667 1807.8499999999997 -2.4147817638909682e-29 -8.375576341247643e-32 1.0
72.01946666666667 141.21666666666667 2183.94 0.0 0.0 1.0
20.559233333333335 95.01763333333332 1428.18 -0.6277982288636915 0.7533644350442775 0.19573301164093068
73.7713 147.05566666666667 2183.94 0.0 0.0 1.0
72.21413333333334 159.51333333333332 2183.94 0.0 0.0 1.0
14.505166666666668 -102.16966666666667 1421.38 0.0 0.0 1.0
73.96593333333334 -145.49866666666665 2183.94 0.0 0.0 1.0
50.10666666666666 -116.65933333333334 1765.2233333333334 -0.029331695437534236 0.9964057898100727 0.07946794118211874
13.364133333333333 -73.71823333333333 1381.99 0.0 0.0 1.0
18.74213333333333 -71.00633333333333 1411.32 0.0 0.0 1.0
35.53133333333333 -74.62306666666666 1630.5199999999998 -4.707185455566343e-25 2.836568948708036e-25 1.0
32.243066666666664 -69.84806666666667 1604.29 0.0 0.0 1.0
21.2298 -55.598733333333335 1452.43 0.0 0.0 1.0
17.480066666666666 -48.038266666666665 1431.58 0.0 0.0 1.0
12.175833333333335 -16.318746666666666 1332.75 -0.9879284867023556 -0.08010032954194164 0.13259427728701698
27.621499999999997 -26.939466666666664 1530.43 0.0 0.0 1.0
16.901600000000002 -12.46975 1404.7133333333334 -0.9891898974039652 -0.1187008869536968 -0.08610137229067615
72.01946666666667 -3.6009733333333336 2183.94 0.0 0.0 1.0
58.631933333333336 12.594999999999999 1949.1899999999998 1.9394393672727403e-27 -3.9566315327586355e-27 1.0
10.357133333333334 6.25001 1335.71 0.0 0.0 1.0
71.43553333333334 19.756666666666664 2183.94 0.0 0.0 1.0
71.8248 24.817499999999995 2183.94 0.0 0.0 1.0
12.927413333333334 20.921166666666664 1401.41 0.0 0.0 1.0
71.04623333333332 83.40633333333334 2183.94 0.0 0.0 1.0
41.564233333333334 84.69273333333334 1671.51 0.0 0.0 1.0
17.624533333333336 67.0887 1448.93 -0.1473793168859678 -0.9825709478569273 0.11328578631833953
13.9684 68.9924 1356.9333333333332 -0.9478446234574598 -0.31589001678723233 -0.04247431078838771
22.961133333333333 73.64766666666667 1484.86 0.0 0.0 1.0
71.7079 120.70666666666666 2114.49 0.0 0.0 1.0
70.46229999999998 131.679 2183.94 0.0 0.0 1.0
72.01946666666667 160.876 2183.94 0.0 0.0 1.0
13.891466666666666 -91.96900000000001 1391.63 0.0 0.0 1.0
34.771566666666665 -100.48396666666667 1595.756666666667 -0.6545206401352757 0.7526552865237115 0.07150350554216697
13.453899999999999 -84.05873333333334 1360.0166666666667 0.9749913295167579 -0.208926031042052 0.07577480399288888
11.845103333333334 -75.62639999999999 1363.1 0.0 0.0 1.0
9.985306666666668 -68.19383333333333 1318.06 0.0 0.0 1.0
29.965599999999995 -55.189 1542.2699999999998 -4.697338084781864e-28 4.306964848115663e-28 1.0
12.030993333333335 -46.94573333333333 1391.63 0.0 0.0 1.0
44.6575 -58.772099999999995 1770.4466666666667 -0.7734300948026438 0.6328131728275153 -0.036788269183892455
19.805833333333336 -47.7023 1452.43 0.0 0.0 1.0
19.4417 -46.4368 1473.89 0.0 0.0 1.0
0.5442193333333334 -27.591833333333337 1221.22 0.0 0.0 1.0
27.6215 -26.939466666666664 1530.43 0.0 0.0 1.0
12.358866666666666 -20.6362 1326.8666666666666 -0.9696280722402932 0.24244320112496107 0.03229079980202441
71.24086666666666 2.8223866666666666 2183.94 0.0 0.0 1.0
72.60340000000001 11.970799999999999 2183.94 0.0 0.0 1.0
58.631933333333336 12.594999999999999 1949.1899999999998 1.9394393672727403e-27 -3.9566315327586355e-27 1.0
40.117799999999995 22.440466666666666 1695.21 -0.7716058231942962 0.6354342158941962 0.02911719223381084
39.2164 33.9044 1695.21 -0.8046895273428454 -0.5929301062027639 -0.030143884008651173
15.386033333333332 31.46133333333333 1375.6499999999999 0.9508815354748423 0.25932704496352366 -0.16903783376360668
70.65696666666666 54.20923333333334 2183.94 0.0 0.0 1.0
72.21413333333334 57.518233333333335 2183.94 0.0 0.0 1.0
71.04623333333332 58.68613333333334 2183.94 0.0 0.0 1.0
34.36873333333333 55.14983333333333 1630.5199999999998 -4.095059055310184e-28 4.943569291454115e-28 1.0
70.8516 82.4331 2183.94 0.0 0.0 1.0
71.6302 95.27980000000001 2183.94 0.0 0.0 1.0
71.2409 96.25303333333333 2183.94 0.0 0.0 1.0
11.462333333333333 66.59353333333333 1332.75 -0.9563882519939333 -0.19128122091016633 0.22075553441557197
13.9684 68.9924 1356.9333333333332 -0.9478446234574589 -0.3158900167872343 -0.0424743107883878
32.530566666666665 85.09596666666668 1566.49 0.0 0.0 1.0
70.65693333333333 128.759 2183.94 0.0 0.0 1.0
71.82483333333333 136.73933333333332 2183.94 0.0 0.0 1.0
70.26766666666667 156.59333333333333 2183.94 0.0 0.0 1.0
71.6302 159.90266666666665 2183.94 0.0 0.0 1.0
71.43553333333334 160.292 2183.94 0.0 0.0 1.0
14.984533333333331 -97.16246666666666 1394.89 -0.6882020629099697 0.5898855952045966 0.4223895183081383
19.699133333333332 -77.46636666666667 1421.38 0.0 0.0 1.0
45.85366666666667 -75.85366666666668 1824.39 0.0 0.0 1.0
35.2407 -71.42596666666667 1630.5199999999998 -4.286769281918081e-27 -4.216029287294035e-27 1.0
8.57562 -51.74743333333333 1318.06 0.0 0.0 1.0
17.927733333333332 -51.726933333333335 1441.93 0.0 0.0 1.0
72.40876666666666 -62.77373333333333 2183.94 0.0 0.0 1.0
45.03526666666667 -40.68483333333333 1807.8499999999997 1.7086920527999622e-28 4.058973968642024e-29 1.0
30.466133333333335 -38.34653333333333 1578.89 0.0 0.0 1.0
10.633426666666667 -30.112233333333332 1353.89 0.04289576090354463 0.988825713845028 0.14277136034715368
70.4623 -45.839400000000005 2183.94 0.0 0.0 1.0
72.01946666666667 -35.523133333333334 2183.94 0.0 0.0 1.0
51.214933333333335 -1.4094266666666666 1870.0366666666666 -0.251861065637749 0.9570747610247959 0.14343606737897988
53.68423333333334 39.0351 1968.42 0.0 0.0 1.0
70.65693333333333 60.437966666666675 2183.94 0.0 0.0 1.0
70.65693333333333 70.1703 2183.94 0.0 0.0 1.0
70.4623 73.28466666666667 2183.94 0.0 0.0 1.0
70.65693333333333 75.81506666666667 2183.94 0.0 0.0 1.0
11.262 65.59826666666667 1329.79 -0.9736353856441936 -0.1315695428339584 0.18634267149513925
71.8248 107.93166666666666 2183.94 0.0 0.0 1.0
71.63013333333333 108.32099999999998 2183.94 0.0 0.0 1.0
14.667899999999998 67.45113333333335 1360.0166666666667 -0.811782069851107 -0.5798261536823089 -0.06936499530910309
45.3932 90.8988 1797.03 -0.0609322692867682 -0.9748018459659554 0.21458942113005167
24.971500000000002 79.6088 1463.08 0.0 0.0 1.0
37.04503333333333 83.96393333333333 1617.3 0.0 0.0 1.0
12.452276666666668 71.4831 1318.06 0.0 0.0 1.0
71.43553333333334 127.20166666666667 2183.94 0.0 0.0 1.0
25.293533333333333 100.93956666666666 1546.2766666666666 0.3499415470490434 0.8998202519419858 0.26050801877098356
72.01946666666667 141.21666666666667 2183.94 0.0 0.0 1.0
7.627517 -90.76126666666666 1326.83 0.0 0.0 1.0
36.0606 -117.5 1700.0 0.0 0.0 1.0
15.064766666666666 -93.39463333333333 1385.2033333333336 -0.9298769522902163 -0.30997762488240804 0.19809776796248957
76.0424 -130.12966666666668 2114.49 0.0 0.0 1.0
8.573563333333334 -84.84846666666667 1326.83 0.0 0.0 1.0
31.792199999999998 -97.1775 1554.29 0.0 0.0 1.0
19.393933333333333 -87.20893333333333 1431.58 0.0 0.0 1.0
14.434266666666666 -73.33333333333334 1372.4800000000002 2.1348953162486093e-28 1.7879338601295354e-28 1.0
9.756106666666666 -64.74503333333334 1326.83 0.0 0.0 1.0
16.124033333333333 -67.78296666666667 1391.63 0.0 0.0 1.0
23.824033333333333 -75.05923333333334 1518.78 0.0 0.0 1.0
15.742966666666666 -40.16063333333333 1441.93 0.0 0.0 1.0
14.9639 -30.2187 1398.1500000000003 -0.7932217082353302 0.23329683993389191 0.5624694712258476
41.690133333333335 -45.14553333333333 1685.63 0.0 0.0 1.0
72.01946666666667 -35.523133333333334 2183.94 0.0 0.0 1.0
17.5261 -19.839 1404.7133333333334 0.9961506782530083 0.058595718894106565 0.0651948459876583
7.3809466666666665 -3.2738066666666668 1335.71 0.0 0.0 1.0
17.814866666666667 -7.797243333333333 1398.1500000000003 0.9337852302788695 0.11205243335911115 0.3398373079744788
71.43553333333334 -4.184916666666667 2183.94 0.0 0.0 1.0
60.7174 1.5900266666666667 2099.7033333333334 0.8974344661097422 0.4188043906630981 0.13861551644615056
70.073 19.562033333333336 2183.94 0.0 0.0 1.0
71.8248 24.8175 2183.94 0.0 0.0 1.0
43.568900000000006 30.198266666666665 1724.5233333333333 0.05822215196738811 0.9898395399248026 0.12972226571310483
28.920199999999998 42.441300000000005 1685.63 0.0 0.0 1.0
12.528786666666667 32.384966666666664 1378.82 0.6535730566653772 -0.6224470809670754 0.43058319869293876
69.48903333333332 61.8005 2183.94 0.0 0.0 1.0
47.76756666666666 59.74263333333334 1818.8766666666668 -0.5534596900824926 0.7748412969313271 0.3054559477626358
69.68373333333334 80.68126666666667 2183.94 0.0 0.0 1.0
70.073 84.37956666666666 2183.94 0.0 0.0 1.0
16.611166666666666 55.873466666666666 1391.6766666666665 0.5290574222194026 -0.8465966680870698 0.058071727875382215
69.6837 93.72263333333335 2183.94 0.0 0.0 1.0
69.48906666666666 96.83699999999999 2183.94 0.0 0.0 1.0
9.669649999999999 72.2675 1315.1766666666667 0.9114360034080651 0.4050751651131986 -0.07210077877560321
47.57883333333333 108.32766666666667 1930.4433333333334 0.629307776766701 -0.5700936063803467 0.5281713756586988
70.26766666666667 130.511 2183.94 0.0 0.0 1.0
69.6837 136.54466666666667 2183.94 0.0 0.0 1.0
22.696433333333335 97.99823333333335 1484.86 0.0 0.0 1.0
5.386853333333334 86.49436666666668 1312.2933333333333 -0.4767892294140575 0.8783063985374113 0.03535393900248121
69.09976666666667 149.97566666666668 2183.94 0.0 0.0 1.0
70.26766666666667 156.59333333333333 2183.94 0.0 0.0 1.0
10.577726666666665 -92.8949 1347.7633333333333 -0.41468027188042345 -0.4405956263767465 0.7961882730427902
18.204733333333333 -84.80496666666666 1438.4800000000002 0.9828546228090214 0.18428026273621834 -0.006129860423089649
8.460976666666665 -78.59956666666666 1309.41 0.0 0.0 1.0
68.32116666666667 -125.45 2183.94 0.0 0.0 1.0
68.51583333333333 -123.69833333333334 2183.94 0.0 0.0 1.0
32.243066666666664 -69.84806666666667 1604.29 0.0 0.0 1.0
17.927733333333332 -51.726933333333335 1441.93 0.0 0.0 1.0
39.38276666666666 -61.67536666666666 1719.5666666666666 0.5172307846458247 -0.7758461769687383 0.3612963120454703
20.323633333333333 -51.974133333333334 1452.43 0.0 0.0 1.0
17.216833333333334 -45.6311 1452.43 0.0 0.0 1.0
23.8747 -28.487566666666666 1570.6233333333332 -0.17026555053473627 0.9790802728325559 0.1114067397029042
37.42556666666666 -23.192566666666668 1653.0666666666666 0.828961978344368 -0.5440084901035198 0.1299107430302822
9.574676666666667 -20.2429 1286.8933333333332 0.09446283722117617 -0.9918515371886895 0.08548275007602231
55.37550000000001 -32.027100000000004 1949.3100000000002 -0.7892955509700336 -0.48284759373748903 0.3793029586502429
70.26766666666667 -22.287133333333333 2183.94 0.0 0.0 1.0
68.51583333333333 -7.883210000000001 2183.94 0.0 0.0 1.0
69.68369999999999 -1.6545006666666666 2183.94 0.0 0.0 1.0
57.747833333333325 27.118866666666666 2063.5 0.07043125781831601 0.9859231284522055 0.15164109833797093
50.683233333333334 19.79296666666667 1858.39 0.0 0.0 1.0
30.10236666666667 33.975833333333334 1546.2766666666666 0.8933224271736405 -0.09923932659473356 0.4383224807896797
71.2409 51.094899999999996 2183.94 0.0 0.0 1.0
69.48906666666666 79.51336666666667 2183.94 0.0 0.0 1.0
70.26766666666667 81.45986666666667 2183.94 0.0 0.0 1.0
19.36318 67.1865 1507.36 0.5602225364570037 0.3198218780928827 0.7641103820383692
17.624533333333332 67.0887 1448.93 -0.1473793168859678 -0.9825709478569273 0.11328578631833953
61.57253333333333 99.31353333333334 1988.04 0.0 0.0 1.0
70.46229999999998 131.679 2183.94 0.0 0.0 1.0
16.218799999999998 89.99063333333334 1378.82 0.9063486179181831 0.14697563072142564 0.3961443509275858
12.970786666666667 96.09893333333332 1401.4533333333336 -0.35061035640016885 -0.9348286062555425 0.05628370022721104
68.51583333333333 152.50633333333334 2183.94 0.0 0.0 1.0
69.68373333333334 156.00933333333333 2183.94 0.0 0.0 1.0
69.68373333333334 156.00933333333333 2183.94 0.0 0.0 1.0
38.0018 -115.74933333333333 1630.5199999999998 -3.86498096523016e-29 2.604291780187988e-28 1.0
36.0606 -117.5 1700.0 0.0 0.0 1.0
66.764 -136.545 2183.94 0.0 0.0 1.0
68.32116666666667 -125.45 2183.94 0.0 0.0 1.0
7.997699999999999 -73.85916666666667 1350.8066666666666 0.8552718711405924 -2.0884349843178004e-16 0.5181795310851923
7.879966666666667 -61.79916666666666 1309.4466666666667 -0.00010542112119798446 0.9918227836020648 0.12762270493230718
14.789466666666668 -63.9198 1388.4166666666667 -0.9899416322441162 -0.0989954934514132 0.10107154409706971
17.48006666666667 -48.038266666666665 1431.58 0.0 0.0 1.0
43.0058 -61.42583333333334 1729.4800000000002 7.1482157853052885e-28 9.250589402544724e-28 1.0
69.6837 -54.793200000000006 2183.94 0.0 0.0 1.0
40.81633333333334 -38.48396666666667 1744.61 0.0 0.0 1.0
18.650906666666668 -23.912300000000002 1477.5466666666669 -0.23724505035985655 0.7117338132818344 0.6611730220683902
69.6837 4.963503333333334 2183.94 0.0 0.0 1.0
68.9051 9.829683333333334 2183.94 0.0 0.0 1.0
30.234733333333335 7.383993333333334 1608.6266666666668 0.6235356423397522 0.6602191387818594 0.4187051367228403
45.72389999999999 15.40503333333333 1754.87 0.6904384816527392 -0.4833025356281038 0.5382502783171649
68.90509999999999 27.347933333333334 2183.94 0.0 0.0 1.0
55.480999999999995 28.724800000000002 2008.05 0.0 0.0 1.0
17.759566666666668 26.40556666666667 1448.93 -0.9453253375258707 0.2363211918410452 0.2247494171703824
10.807646666666665 28.370033333333335 1318.06 0.0 0.0 1.0
32.007466666666666 40.568533333333335 1621.7066666666667 -0.8503134146751571 -0.45785874239036906 0.25948500696607446
69.09973333333333 69.97566666666667 2183.94 0.0 0.0 1.0
32.7177 56.49956666666666 1578.89 0.0 0.0 1.0
68.51583333333333 75.62043333333334 2183.94 0.0 0.0 1.0
69.48906666666666 79.51336666666667 2183.94 0.0 0.0 1.0
33.19146666666666 80.21276666666667 1591.49 0.0 0.0 1.0
29.820533333333334 80.87286666666667 1604.36 -0.8766867762829627 -0.4381431145886651 0.19862252497924435
16.252666666666666 76.11123333333333 1408.0166666666667 -0.7607428135617603 -0.6339551445921555 0.13918062458286412
68.9051 148.22366666666667 2183.94 0.0 0.0 1.0
16.405366666666666 95.8353 1421.38 0.0 0.0 1.0
22.696433333333335 97.99823333333335 1484.86 0.0 0.0 1.0
15.213133333333332 -100.36663333333335 1428.18 -0.44695822898337495 -0.8939164579667528 0.03378916572245929
36.0606 -117.5 1700.0 0.0 0.0 1.0
15.064766666666666 -93.39463333333333 1385.2033333333336 -0.9298769522902163 -0.30997762488240804 0.19809776796248957
5.374079999999999 -75.1321 1284.1566666666665 -0.12347528732690499 -0.9883523270662284 0.08895802944259475
9.985306666666668 -68.19383333333333 1318.06 0.0 0.0 1.0
14.965366666666668 -62.879133333333336 1381.99 0.0 0.0 1.0
28.3897 -57.5316 1595.756666666667 -0.4329043701026061 0.8039694111426491 0.4077094459207536
25.2705 -58.2897 1566.49 0.0 0.0 1.0
47.1795 -53.57946666666667 1841.2300000000002 5.479449411569253e-29 7.963660221266248e-29 1.0
3.5208933333333334 -37.154533333333326 1273.2066666666667 -0.6364415776301459 -0.5241260341663029 0.5658922322958273
16.738366666666668 -41.500400000000006 1375.6499999999999 -0.6700566929264397 -0.7147303851663848 0.20046073127771005
68.49316666666667 -54.52056666666667 2049.32 0.0 0.0 1.0
13.059566666666667 -33.611666666666665 1363.1433333333332 0.966643964663212 0.22751147664275534 0.11763491648324492
22.266666666666666 -31.0 1496.0 0.0 0.0 1.0
68.71050000000001 -23.06573333333333 2183.94 0.0 0.0 1.0
68.7105 -23.06573333333333 2183.94 0.0 0.0 1.0
68.32119999999999 -7.493916666666666 2183.94 0.0 0.0 1.0
9.80814 5.862303333333333 1303.7166666666665 0.5833720888301355 -0.8021372772965077 0.12748644769272482
10.357133333333334 6.25001 1335.71 0.0 0.0 1.0
70.073 19.562033333333336 2183.94 0.0 0.0 1.0
15.0146 18.79603333333333 1347.7633333333333 -0.387951146495072 0.9052393234419143 0.17330803566939576
13.589183333333333 27.235266666666664 1275.91 0.0 0.0 1.0
30.360133333333334 51.634366666666665 1657.62 0.0 0.0 1.0
68.51583333333333 75.62043333333334 2183.94 0.0 0.0 1.0
68.51583333333333 75.62043333333334 2183.94 0.0 0.0 1.0
68.32116666666667 84.9635 2183.94 0.0 0.0 1.0
17.689233333333334 52.752766666666666 1401.4533333333331 -0.754572629649146 -0.656156831610869 -0.008852057091919384
7.119156666666666 57.97886666666667 1353.85 0.0 0.0 1.0
58.12746666666667 97.32136666666668 1994.71 0.7343984635469709 -0.6731525420196656 -0.08674417509153473
22.961133333333333 73.64766666666667 1484.86 0.0 0.0 1.0
21.1671 89.22156666666667 1466.6833333333334 0.7310442483090598 0.6614290378487888 0.16758858822923164
68.51583333333333 152.50633333333334 2183.94 0.0 0.0 1.0
68.90513333333332 160.292 2183.94 0.0 0.0 1.0
25.866666666666664 -102.46666666666665 1496.0 0.0 0.0 1.0
10.144276666666668 -92.14883333333334 1363.1 0.0 0.0 1.0
16.331733333333332 -83.76393333333334 1431.58 0.0 0.0 1.0
20.112466666666666 -81.54216666666666 1441.93 0.0 0.0 1.0
9.985306666666668 -68.19383333333333 1318.06 0.0 0.0 1.0
2.2145933333333336 -61.5472 1270.5033333333333 -0.17623137682201073 0.8811560176398415 0.43875571153036164
4.75891 -51.782466666666664 1286.8933333333332 0.5838471461515815 0.8027834492967145 -0.1210836217905768
25.2705 -58.2897 1566.49 0.0 0.0 1.0
46.17886666666667 -71.46343333333334 1824.39 0.0 0.0 1.0
33.11353333333333 -50.32966666666667 1643.96 0.0 0.0 1.0
20.608633333333334 -47.73593333333333 1477.5466666666669 0.27445022378464573 -0.9605757832462555 0.04439864080578171
22.01816666666667 -30.714799999999997 1488.573333333333 0.6071128731466767 -0.7892528517888119 0.0921623307149666
65.79076666666667 -41.55716666666667 2183.94 0.0 0.0 1.0
27.650233333333333 -32.36386666666667 1574.756666666667 -0.9829854749830617 -0.17553133856100747 -0.05411381667657498
56.69053333333333 -11.081266666666666 2129.5899999999997 -0.7685141845840476 -0.21957603024843092 0.6009761351613362
5.42373 -8.30509 1267.8 0.0 0.0 1.0
33.757266666666666 -14.45953 1662.25 0.29333512811673007 0.7040066901070746 0.6467836445808002
67.54256666666667 -10.024326666666665 2183.94 0.0 0.0 1.0
67.54256666666667 -10.024326666666667 2183.94 0.0 0.0 1.0
67.54256666666667 -8.467153333333334 2183.94 0.0 0.0 1.0
69.09976666666665 -2.2384406666666665 2183.94 0.0 0.0 1.0
67.93186666666666 62.189766666666664 2183.94 0.0 0.0 1.0
49.098033333333326 57.8039 1760.0 0.0 0.0 1.0
67.54256666666667 70.17033333333333 2183.94 0.0 0.0 1.0
37.08946666666667 65.45243333333333 1858.493333333333 0.26075383495577537 0.8481813433773382 0.46108117105610613
67.34793333333333 96.25303333333333 2183.94 0.0 0.0 1.0
6.781423333333334 66.14436666666667 1289.6666666666667 0.91505061729292 0.366030839006729 0.16942193685552098
10.3461 72.6805 1326.8666666666666 0.18816117902916096 -0.9347001668694775 0.30154762270747043
10.00028 73.87123333333334 1335.7533333333333 -0.9777983890560386 0.20950444416429828 -0.004265938914761523
68.5158 137.12866666666665 2183.94 0.0 0.0 1.0
68.5158 137.12866666666665 2183.94 0.0 0.0 1.0
67.34793333333333 147.63966666666667 2183.94 0.0 0.0 1.0
67.54256666666667 153.47933333333333 2183.94 0.0 0.0 1.0
69.2248 -127.28833333333334 1981.5 0.13024218157313713 0.6629567571409393 0.7372416919167281
65.01219999999999 -129.927 2183.94 0.0 0.0 1.0
66.56933333333333 -123.504 2183.94 0.0 0.0 1.0
14.925833333333335 -77.00233333333334 1401.41 0.0 0.0 1.0
11.3934 -74.70360000000001 1381.99 0.0 0.0 1.0
65.59609999999999 -119.80533333333334 2183.94 0.0 0.0 1.0
14.434266666666666 -73.33333333333333 1372.4800000000002 -2.2802857039584672e-28 -3.023970092733186e-28 1.0
39.2864 -80.30046666666665 1685.63 0.0 0.0 1.0
14.965366666666668 -62.879133333333336 1381.99 0.0 0.0 1.0
13.926613333333334 -63.26306666666667 1401.41 0.0 0.0 1.0
43.29409999999999 -81.96079999999999 1760.0 0.0 0.0 1.0
48.105066666666666 -77.29606666666666 1835.6166666666668 -0.09375894214046007 -0.98438795909327 0.14896176274765366
3.8893866666666668 -42.5665 1265.1299999999999 0.7015750279534642 0.701560540726124 0.1249211265085477
19.4417 -46.4368 1473.89 0.0 0.0 1.0
66.764 -57.12896666666668 2183.94 0.0 0.0 1.0
26.530966666666668 -30.91796666666667 1538.3233333333335 -0.7044066510260565 0.7044066510260558 0.08730715881594124
11.355866666666666 -29.322433333333333 1385.2033333333336 0.2722604025962635 0.9529482508193429 0.13328129815722628
5.515280000000001 -21.435666666666663 1275.91 0.0 0.0 1.0
40.845933333333335 -32.14503333333334 1807.8499999999997 -1.3593553305202055e-26 -1.314342263428696e-26 1.0
5.515280000000001 -21.435666666666663 1275.91 0.0 0.0 1.0
8.125893333333332 -22.8326 1284.12 0.0 0.0 1.0
63.00566666666666 -20.158183333333337 2028.47 0.0 0.0 1.0
5.1977400000000005 -10.45199 1267.8 0.0 0.0 1.0
2.9137733333333333 -11.823680000000001 1306.5633333333333 -0.4284400475640566 0.8262653720459952 0.36568382600410704
20.352633333333333 -11.217453333333333 1507.3 0.0 0.0 1.0
67.54256666666667 -10.024326666666667 2183.94 0.0 0.0 1.0
67.73723333333334 -7.688563333333334 2183.94 0.0 0.0 1.0
55.481 28.7248 2008.05 0.0 0.0 1.0
17.759566666666668 26.40556666666667 1448.93 -0.9453253375258707 0.23632119184104508 0.2247494171703824
69.09976666666667 32.019466666666666 2183.94 0.0 0.0 1.0
33.48486666666667 45.37876666666667 1700.0 0.0 0.0 1.0
67.54260000000001 74.6472 2183.94 0.0 0.0 1.0
67.9319 75.62043333333334 2183.94 0.0 0.0 1.0
52.520333333333326 71.3008 1824.39 0.0 0.0 1.0
67.34793333333333 96.25303333333333 2183.94 0.0 0.0 1.0
66.56936666666667 97.03163333333333 2183.94 0.0 0.0 1.0
6.162706666666666 63.18213333333333 1292.44 0.0 0.0 1.0
65.59609999999999 119.02666666666666 2183.94 0.0 0.0 1.0
68.90513333333332 131.679 2183.94 0.0 0.0 1.0
1.9649116666666668 78.09123333333334 1259.79 0.0 0.0 1.0
67.93186666666666 156.59333333333333 2183.94 0.0 0.0 1.0
67.54260000000001 159.31866666666667 2183.94 0.0 0.0 1.0
8.460976666666667 -78.59956666666666 1309.41 0.0 0.0 1.0
15.875966666666665 -85.5194 1391.63 0.0 0.0 1.0
8.460976666666667 -78.59956666666666 1309.41 0.0 0.0 1.0
3.4683733333333326 -75.79246666666667 1275.91 0.0 0.0 1.0
3.1192733333333336 -74.11563333333334 1270.5033333333333 -0.42594317913591806 -0.8991981759471389 -0.10007521431865837
66.3747 -124.08800000000001 2183.94 0.0 0.0 1.0
11.845103333333334 -75.6264 1363.1 0.0 0.0 1.0
9.756106666666666 -64.74503333333332 1326.83 0.0 0.0 1.0
9.756106666666666 -64.74503333333332 1326.83 0.0 0.0 1.0
45.85366666666667 -75.85366666666668 1824.39 0.0 0.0 1.0
62.6764 -84.57423333333332 2183.94 0.0 0.0 1.0
12.030993333333335 -46.449600000000004 1391.63 0.0 0.0 1.0
45.562999999999995 -50.524699999999996 1797.03 -0.5972197441190793 -0.7962883747897498 0.0961946017666294
51.784933333333335 -36.7312 1930.32 0.0 0.0 1.0
42.07036666666667 -33.265166666666666 1765.2233333333334 0.432775153590292 0.8988341736278171 -0.06930219876525265
68.32116666666666 -30.656966666666666 2183.94 0.0 0.0 1.0
5.42373 -8.30509 1267.8 0.0 0.0 1.0
68.9051 9.829683333333334 2183.94 0.0 0.0 1.0
67.81733333333334 29.845333333333333 2168.1733333333336 0.8048570989426077 -0.5930583890237722 0.022063487716525654
1.4035083333333336 21.052633333333336 1259.79 0.0 0.0 1.0
61.82866666666666 26.11746666666667 2056.4100000000003 0.3646091467331514 0.9115173217839571 0.19025336319320404
27.801433333333335 31.702133333333336 1591.49 0.0 0.0 1.0
29.27926666666667 50.7712 1635.0 0.8294542042405177 -0.5529641845954687 0.07897046044185282
67.54256666666667 83.01703333333333 2183.94 0.0 0.0 1.0
66.3747 84.76886666666667 2183.94 0.0 0.0 1.0
47.2574 84.30376666666668 1893.67 0.0 0.0 1.0
59.2381 78.76190000000001 2137.14 0.0 0.0 1.0
65.9854 102.67666666666668 2183.94 0.0 0.0 1.0
50.513600000000004 93.69586666666667 1807.8499999999997 -2.264630196922367e-29 2.609585814223625e-28 1.0
8.847333333333333 84.44396666666667 1315.1766666666667 0.9851533885046215 -0.029853030307810162 0.16906092895551886
6.621093333333334 93.97113333333334 1363.1 0.0 0.0 1.0
66.3747 151.72766666666666 2183.94 0.0 0.0 1.0
67.15326666666667 155.23100000000002 2183.94 0.0 0.0 1.0
26.263 -102.3954 1522.6633333333332 -0.5730155529265992 -0.8185259803923012 -0.040845997686996774
66.18006666666666 -123.11466666666666 2183.94 0.0 0.0 1.0
13.524733333333335 -78.4051 1431.58 0.0 0.0 1.0
42.0809 -91.79193333333335 1729.4800000000002 2.8996284165987797e-28 5.606942694137333e-28 1.0
3.809523333333333 -68.51456666666667 1275.91 0.0 0.0 1.0
6.666666666666667 -64.1071 1335.71 0.0 0.0 1.0
6.930443333333333 -62.84283333333334 1341.716666666667 0.652787903805044 -0.7507069971603976 0.1015231848408799
11.023876666666666 -59.18396666666666 1381.99 0.0 0.0 1.0
2.1894750000000003 -43.73333333333333 1259.79 0.0 0.0 1.0
65.2068 -70.5596 2183.94 0.0 0.0 1.0
1.8079066666666666 -27.288166666666665 1267.8 0.0 0.0 1.0
19.2 -32.333333333333336 1496.0 0.0 0.0 1.0
19.084563333333335 -29.3836 1522.6633333333332 -0.0339617663661657 0.9848669721877715 0.16995189177817813
18.770233333333334 -27.37863333333333 1452.43 0.0 0.0 1.0
39.43663333333333 -9.389673333333333 1685.63 0.0 0.0 1.0
64.62286666666667 -15.0852 2183.94 0.0 0.0 1.0
60.7174 1.5900266666666667 2099.7033333333334 0.8974344661097423 0.41880439066309816 0.13861551644615067
4.493393333333334 10.527123333333332 1275.9433333333334 -0.13788941709379332 -0.962064064830563 0.23541292193766258
66.764 27.737233333333336 2183.94 0.0 0.0 1.0
55.481 28.7248 2008.05 0.0 0.0 1.0
14.109833333333334 19.256466666666665 1408.0166666666667 0.8924862888050635 -0.3187475165090656 0.3191680513683472
15.081976666666668 25.192333333333334 1445.43 -0.7528950278496312 0.6399514978382831 0.15365922508538446
67.93186666666666 62.189766666666664 2183.94 0.0 0.0 1.0
66.3747 70.55963333333334 2183.94 0.0 0.0 1.0
64.8175 87.68856666666666 2183.94 0.0 0.0 1.0
3.6548866666666666 56.55543333333333 1259.8233333333335 -0.16236417871526487 -0.8110423961504465 0.5620036522271539
65.01216666666666 103.84466666666667 2183.94 0.0 0.0 1.0
6.908663333333333 59.954433333333334 1267.8333333333333 -0.5838915529766967 -0.652793236566039 0.4826299251560109
6.162706666666666 63.18213333333333 1292.44 0.0 0.0 1.0
11.33348 73.03633333333333 1344.76 -0.3084471598698722 -0.9249342214531048 -0.222164433591762
9.595643333333333 72.93513333333333 1320.9833333333333 -0.9138130494522774 -0.40613161045356344 -0.0016809643435771603
22.431766666666665 87.01406666666666 1484.86 0.0 0.0 1.0
64.81753333333333 140.8273333333333 2183.94 0.0 0.0 1.0
26.530266666666666 -106.59833333333334 1530.43 0.0 0.0 1.0
3.3021933333333333 -84.05416666666666 1278.6466666666668 0.8660199732309912 0.2886700337751186 0.4082634168833465
5.513586666666666 -77.07266666666668 1289.6666666666667 0.8747590747310231 0.3180939997921617 0.3655308037251424
-1.3950466666666668 -80.54603333333334 1249.2766666666666 -0.06563823055825944 -0.7220087706743158 0.6887633539602293
65.59609999999999 -125.64466666666665 2183.94 0.0 0.0 1.0
65.79076666666667 -124.08800000000001 2183.94 0.0 0.0 1.0
65.59613333333333 -123.30933333333333 2183.94 0.0 0.0 1.0
14.125103333333334 -73.41253333333334 1421.38 0.0 0.0 1.0
8.810573333333332 -66.0793 1318.06 0.0 0.0 1.0
6.735416666666667 -57.705466666666666 1300.9066666666665 -0.95247196111776 0.03665452958329623 0.3024129771446916
21.848166666666668 -55.14373333333333 1503.5333333333335 -0.5929844691831011 0.7708856953478784 0.23260409286092484
18.666666666666668 -51.93333333333334 1496.0 0.0 0.0 1.0
6.428570000000001 -50.29763333333333 1335.71 0.0 0.0 1.0
15.311 -45.74163333333333 1431.58 0.0 0.0 1.0
46.030766666666665 -50.78973333333334 1841.2300000000002 2.6868708240131254e-29 5.025617822616621e-29 1.0
65.79076666666667 -41.55716666666667 2183.94 0.0 0.0 1.0
18.770233333333334 -27.37863333333333 1452.43 0.0 0.0 1.0
5.1977400000000005 -10.45199 1267.8 0.0 0.0 1.0
13.904933333333332 -15.555166666666667 1391.6766666666665 -0.8289508029697363 -0.43605934006673525 0.3502753462583295
2.2174833333333326 -2.103766666666667 1275.91 0.0 0.0 1.0
66.764 27.737233333333336 2183.94 0.0 0.0 1.0
48.58663333333334 23.018633333333337 1864.2133333333334 0.6450235491975349 0.7622887572762767 0.05348337602288253
0.38808000000000004 21.566166666666664 1244.07 0.0 0.0 1.0
10.807646666666665 28.370033333333335 1318.06 0.0 0.0 1.0
62.87106666666667 47.20193333333333 2183.94 0.0 0.0 1.0
66.3747 70.55963333333334 2183.94 0.0 0.0 1.0
66.56936666666667 97.03163333333333 2183.94 0.0 0.0 1.0
64.62286666666667 99.56203333333333 2183.94 0.0 0.0 1.0
65.9854 147.83433333333332 2183.94 0.0 0.0 1.0
18.0826 -104.99466666666666 1503.5333333333335 0.7162592373749102 0.5797942508211791 0.38834434666906104
-1.916495 -85.80423333333334 1228.75 0.0 0.0 1.0
14.505166666666668 -102.16966666666667 1421.38 0.0 0.0 1.0
17.087366666666668 -100.64710000000001 1452.43 0.0 0.0 1.0
28.29176666666667 -106.74056666666667 1657.62 0.0 0.0 1.0
65.20683333333334 -125.45 2183.94 0.0 0.0 1.0
8.57562 -51.74743333333333 1318.06 0.0 0.0 1.0
8.57562 -51.74743333333333 1318.06 0.0 0.0 1.0
15.485966666666664 -48.12853333333334 1441.93 0.0 0.0 1.0
65.2068 -70.5596 2183.94 0.0 0.0 1.0
65.2068 -70.5596 2183.94 0.0 0.0 1.0
29.78686666666667 -30.6323 1587.29 -0.24125064499204787 0.9305486153595969 0.27545852817304084
2.4446766666666666 -26.022633333333335 1306.5633333333333 0.036928131556417894 -0.9601567353813922 0.27701147377229535
11.832193333333334 -26.683566666666668 1435.03 0.4924317634560351 0.6331297036036067 0.5972082859056701
3.8095226666666675 -19.6162 1275.91 0.0 0.0 1.0
11.7629 -25.68126666666667 1381.99 0.0 0.0 1.0
-3.09953 -14.29343 1201.6166666666668 -0.8209036371672149 -0.09471997236086578 0.5631565904094475
20.352633333333333 -11.217453333333333 1507.3 0.0 0.0 1.0
11.414700000000002 9.01072 1391.6766666666665 -0.5425432887041032 -0.7604264054010859 0.35692921126032745
30.360133333333334 51.634366666666665 1657.62 0.0 0.0 1.0
3.6746733333333332 55.14993333333334 1309.4466666666665 -0.21309285954207435 -0.9586748019475786 0.18850479389912747
64.62286666666667 99.56203333333333 2183.94 0.0 0.0 1.0
-0.7645613333333334 59.6407 1231.2866666666666 -0.5931999159064691 -0.8050551863342357 8.200553182408627e-05
64.62286666666667 118.63733333333334 2183.94 0.0 0.0 1.0
64.62286666666667 118.63733333333333 2183.94 0.0 0.0 1.0
26.802066666666665 85.34686666666668 1518.78 0.0 0.0 1.0
64.62286666666667 147.05566666666667 2183.94 0.0 0.0 1.0
-1.1498966666666666 86.68033333333334 1228.75 0.0 0.0 1.0
10.170553333333332 -95.93796666666667 1391.63 0.0 0.0 1.0
65.20683333333334 -139.27 2183.94 0.0 0.0 1.0
2.67235 -71.47123333333333 1275.91 0.0 0.0 1.0
6.666666666666667 -64.1071 1335.71 0.0 0.0 1.0
25.2705 -58.2897 1566.49 0.0 0.0 1.0
63.8443 -76.39903333333334 2183.94 0.0 0.0 1.0
64.42823333333332 -58.68613333333334 2183.94 0.0 0.0 1.0
31.941399999999998 -41.391933333333334 1643.96 0.0 0.0 1.0
65.79076666666667 -41.55716666666667 2183.94 0.0 0.0 1.0
34.42136666666667 -28.249266666666667 1775.67 0.0 0.0 1.0
3.0508433333333334 -18.700566666666663 1267.8 0.0 0.0 1.0
20.352633333333333 -11.217453333333333 1507.3 0.0 0.0 1.0
64.62286666666667 -15.0852 2183.94 0.0 0.0 1.0
3.5820899999999996 -6.197593333333334 1275.91 0.0 0.0 1.0
1.7283833333333334 4.7458166666666655 1249.2766666666666 -0.94488079751096 -0.07558951533283786 0.31856946442934386
2.50029 9.212879999999998 1267.8333333333333 -0.3989035258243755 -0.8772110766733562 0.2671641893039806
11.630519999999999 17.542166666666663 1441.93 0.0 0.0 1.0
0.164271 41.3876 1223.73 -0.5888773564722734 -0.785243155273382 -0.19135476511059324
64.23356666666666 84.9635 2183.94 0.0 0.0 1.0
0.7105003333333334 60.03673333333333 1223.73 -0.9284380534606352 -0.37136441699703504 -0.009552521901517428
63.64963333333333 117.664 2183.94 0.0 0.0 1.0
-1.80698 69.81519999999999 1228.75 0.0 0.0 1.0
64.6229 131.679 2183.94 0.0 0.0 1.0
63.26036666666666 135.5716666666667 2183.94 0.0 0.0 1.0
22.200333333333333 89.65516666666667 1473.89 0.0 0.0 1.0
64.42823333333332 139.46466666666666 2183.94 0.0 0.0 1.0
64.2336 142.96833333333333 2183.94 0.0 0.0 1.0
64.8175 151.72766666666666 2183.94 0.0 0.0 1.0
66.18006666666666 158.54 2183.94 0.0 0.0 1.0
11.866043333333332 -100.22326666666667 1431.58 0.0 0.0 1.0
10.144276666666668 -92.14883333333334 1363.1 0.0 0.0 1.0
15.6322 -103.31713333333333 1473.89 0.0 0.0 1.0
11.803273333333335 -79.62526666666668 1401.41 0.0 0.0 1.0
11.845103333333334 -75.6264 1363.1 0.0 0.0 1.0
65.59609999999999 -119.80533333333334 2183.94 0.0 0.0 1.0
11.3934 -74.70360000000001 1381.99 0.0 0.0 1.0
6.428570000000001 -50.29763333333333 1335.71 0.0 0.0 1.0
-1.4604456666666668 -42.785666666666664 1213.79 0.0 0.0 1.0
18.666666666666668 -51.93333333333334 1496.0 0.0 0.0 1.0
19.4417 -46.4368 1473.89 0.0 0.0 1.0
40.81633333333334 -38.48396666666667 1744.61 0.0 0.0 1.0
64.62286666666667 -15.0852 2183.94 0.0 0.0 1.0
36.36873333333333 -12.993630000000001 1813.3633333333335 -0.9039525511462593 0.4218468926039455 -0.07010695027288613
3.136007333333333 13.883233333333331 1281.3833333333332 0.7868474237108237 0.6119982689747904 -0.07955658722883646
9.190946666666667 42.2654 1452.43 0.0 0.0 1.0
11.03448 49.8522 1473.89 0.0 0.0 1.0
42.4017 62.66943333333333 1818.8766666666668 -0.9293100984832333 -0.12228199828502999 0.34846786616918235
64.62286666666667 99.56203333333333 2183.94 0.0 0.0 1.0
6.162706666666666 63.18213333333333 1292.44 0.0 0.0 1.0
16.252666666666666 76.11123333333333 1408.0166666666667 -0.7607428135617602 -0.6339551445921555 0.13918062458286398
14.423016666666667 88.68509999999999 1522.6633333333332 0.529859510762614 0.2649460657768886 0.805637934238298
63.64963333333333 146.08233333333334 2183.94 0.0 0.0 1.0
31.098366666666664 112.55033333333334 1714.61 0.0 0.0 1.0
63.06569999999999 152.117 2183.94 0.0 0.0 1.0
14.6699 -97.8646 1463.08 0.0 0.0 1.0
15.061100000000001 -94.8655 1463.08 0.0 0.0 1.0
13.524733333333335 -78.4051 1431.58 0.0 0.0 1.0
30.064633333333333 -89.15973333333334 1657.62 0.0 0.0 1.0
-0.32650700000000005 -53.716033333333336 1231.2866666666666 -0.9080803470364722 -0.3143357418885572 0.27673656190949997
0.11019399999999997 -51.074333333333335 1236.36 0.0 0.0 1.0
19.805833333333332 -58.834966666666666 1452.43 0.0 0.0 1.0
0.11019399999999997 -51.074333333333335 1236.36 0.0 0.0 1.0
-1.4604456666666668 -42.785666666666664 1213.79 0.0 0.0 1.0
18.666666666666668 -51.93333333333334 1496.0 0.0 0.0 1.0
-0.78103 -28.842433333333332 1251.88 0.0 0.0 1.0
4.46352 -25.579400000000003 1284.12 0.0 0.0 1.0
11.7629 -25.68126666666667 1381.99 0.0 0.0 1.0
53.99293333333333 -4.61719 2114.49 0.0 0.0 1.0
7.023813333333334 1.0119066666666665 1335.71 0.0 0.0 1.0
-2.580644 14.1398 1206.45 0.0 0.0 1.0
9.517323333333335 11.333269999999999 1404.7133333333334 -0.6818630753465993 0.7305719443574603 -0.03643323478141424
1.11576 11.994423333333332 1251.88 0.0 0.0 1.0
2.2028993333333333 13.8551 1300.87 0.0 0.0 1.0
-1.182794 19.408599999999996 1206.45 0.0 0.0 1.0
54.0747 53.75823333333333 2077.83 0.9791796398850604 0.16785994435546028 0.11415021644983736
30.360133333333334 51.634366666666665 1657.62 0.0 0.0 1.0
