ply
format ascii 1.0
comment VCGLIB generated
element vertex 702
property float x
property float y
property float z
property float nx
property float ny
property float nz
element face 0
property list uchar int vertex_indices
end_header
-39.8234 -12.626900000000001 1981.46 0.0 0.0 1.0
-40.7064 -6.97572 1981.46 0.0 0.0 1.0
-40.7064 -6.97572 1981.46 0.0 0.0 1.0
-41.18813333333333 -1.8481833333333333 1974.92 0.0 0.0 1.0
-40.30806666666667 -1.144112 1974.92 0.0 0.0 1.0
-40.6601 0.08800866666666667 1974.92 0.0 0.0 1.0
-40.13203333333333 4.664466666666667 1974.92 0.0 0.0 1.0
-38.531666666666666 7.350829999999999 1512.3933333333334 -0.4285748682797984 0.12857346562541747 0.8943111573809325
-44.471799999999995 15.015366666666667 1841.2300000000002 -7.550430332129028e-27 -2.448742470659754e-27 1.0
-42.22223333333333 17.530866666666665 1846.91 0.0 0.0 1.0
-42.61606666666667 26.075933333333335 1893.67 0.0 0.0 1.0
-41.388000000000005 34.74236666666666 1887.7 0.0 0.0 1.0
-41.9672 40.830600000000004 1961.97 0.0 0.0 1.0
-41.26773333333333 48.349733333333326 1961.97 0.0 0.0 1.0
-40.8715 54.11763333333334 1955.5600000000002 -4.4311413710701874e-26 -1.1816866622882864e-26 1.0
-41.74296666666667 54.8148 1955.5600000000002 1.4772495799416412e-27 5.908715808850543e-27 1.0
-39.86886666666666 64.43716666666667 1961.97 0.0 0.0 1.0
-42.666666666666664 77.90163333333334 1961.97 0.0 0.0 1.0
-40.087733333333325 82.36840000000001 1968.42 0.0 0.0 1.0
-41.092866666666666 83.49723333333333 1961.97 0.0 0.0 1.0
-41.09286666666667 83.49723333333333 1961.97 0.0 0.0 1.0
-40.08773333333333 87.98246666666667 1968.42 0.0 0.0 1.0
-40.61403333333333 92.36843333333331 1968.42 0.0 0.0 1.0
-39.2099 109.53133333333334 2216.3 0.0 0.0 1.0
-40.130266666666664 123.605 1949.1899999999998 1.5453736610283581e-27 3.2088816724767666e-27 1.0
-43.09746666666667 126.15066666666667 1903.7133333333331 3.949114952159302e-16 0.99984364025919 0.017683185042600698
-43.931099999999994 129.767 1818.84 0.0 0.0 1.0
-42.2626 130.182 1813.33 0.0 0.0 1.0
-48.191 -119.66933333333333 1648.4800000000002 9.374012071448345e-27 -1.771246374658772e-26 1.0
-40.135600000000004 -132.972 2028.47 0.0 0.0 1.0
-41.039566666666666 -122.66633333333333 2028.47 0.0 0.0 1.0
-40.67796666666667 -117.24266666666665 2028.47 0.0 0.0 1.0
-40.810833333333335 -111.26166666666667 2021.62 0.0 0.0 1.0
-40.450466666666664 -110.721 2021.62 0.0 0.0 1.0
-39.9099 -104.955 2021.62 0.0 0.0 1.0
-39.549566666666664 -95.58556666666668 2021.62 0.0 0.0 1.0
-41.3019 -78.38383333333333 2014.8100000000002 1.3348462541723848e-25 -2.057848401453805e-25 1.0
-40.894866666666665 -72.93066666666667 2008.05 0.0 0.0 1.0
-40.75303333333333 -21.351066666666668 1988.04 0.0 0.0 1.0
-40.706399999999995 -14.3929 1981.46 0.0 0.0 1.0
-40.7064 -6.97572 1981.46 0.0 0.0 1.0
-41.364133333333335 1.144112 1974.92 0.0 0.0 1.0
-42.447266666666664 27.7637 1893.67 0.0 0.0 1.0
-43.291133333333335 28.270033333333334 1893.67 0.0 0.0 1.0
-41.79233333333333 42.2295 1961.97 0.0 0.0 1.0
-41.79233333333333 42.2295 1961.97 0.0 0.0 1.0
-40.918033333333334 43.97816666666666 1961.97 0.0 0.0 1.0
-41.26773333333333 48.34973333333334 1961.97 0.0 0.0 1.0
-41.79233333333333 48.87433333333333 1961.97 0.0 0.0 1.0
-41.7429 58.47496666666666 1955.5600000000002 -2.0351950357307175e-26 5.252610376786784e-27 1.0
-41.22003333333333 59.5207 1955.5600000000002 2.9543578774075403e-27 2.068022280655266e-26 1.0
-41.22003333333333 59.5207 1955.5600000000002 2.9543578774075403e-27 2.068022280655266e-26 1.0
-42.142066666666665 74.40436666666666 1961.97 0.0 0.0 1.0
-41.09286666666667 83.49723333333333 1961.97 0.0 0.0 1.0
-41.84213333333333 88.68420000000002 1968.42 0.0 0.0 1.0
-39.07993333333334 107.4603 2085.07 0.5661802035010804 -0.8209689385857473 -0.07382397334786905
-43.655033333333336 98.38373333333334 1866.14 -0.8000060172522524 0.5999909815304133 0.0010929054672512328
-41.6938 122.21499999999999 1949.1899999999998 3.5260592897033474e-27 -2.3146452674374605e-26 1.0
-30.210966666666664 118.94866666666667 2005.83 0.6266474694761166 0.5291762029926115 0.5720887126884273
-48.191 -119.22866666666665 1648.4800000000002 -2.5148368671934387e-25 -3.941534024439682e-25 1.0
-47.98533333333333 -112.015 1643.96 0.0 0.0 1.0
-40.135600000000004 -132.972 2028.47 0.0 0.0 1.0
-41.039566666666666 -122.66633333333333 2028.47 0.0 0.0 1.0
-40.81083333333333 -110.0 2021.62 0.0 0.0 1.0
-41.171166666666664 -104.41466666666668 2021.62 0.0 0.0 1.0
-41.17116666666667 -101.35133333333333 2021.62 0.0 0.0 1.0
-41.301899999999996 -92.92930000000001 2014.8100000000002 -1.6702205094067446e-27 1.2804765567896676e-26 1.0
-40.942766666666664 -88.26036666666668 2014.8100000000002 -9.567413557278932e-27 1.7744529937790432e-26 1.0
-42.73853333333333 -84.1302 2014.8100000000002 1.335696980491296e-27 2.0034132726007044e-26 1.0
-39.82103333333333 -76.15213333333334 2008.05 0.0 0.0 1.0
-42.095866666666666 -54.3144 2001.34 0.0 0.0 1.0
-39.42026666666666 -45.57416666666666 2001.34 0.0 0.0 1.0
-42.04443333333334 -30.666666666666668 1994.67 0.0 0.0 1.0
-41.540166666666664 -2.7282733333333336 1974.92 0.0 0.0 1.0
-41.36416666666667 0.08800866666666667 1974.92 0.0 0.0 1.0
-41.36416666666667 0.08800866666666667 1974.92 0.0 0.0 1.0
-42.76576666666667 10.485046666666667 1852.63 0.0 0.0 1.0
-45.726 11.042899999999998 1835.58 0.0 0.0 1.0
-43.20986666666666 17.037066666666664 1846.91 0.0 0.0 1.0
-41.7429 58.47496666666666 1955.5600000000002 -2.0351950357307172e-26 5.2526103767867854e-27 1.0
-41.9672 72.48086666666667 1961.97 0.0 0.0 1.0
-42.4918 82.09836666666668 1961.97 0.0 0.0 1.0
-41.617466666666665 82.44806666666666 1961.97 0.0 0.0 1.0
-42.01756666666666 92.89473333333332 1968.42 0.0 0.0 1.0
-49.69696666666667 95.75756666666666 1813.33 0.0 0.0 1.0
-46.211666666666666 103.264 1775.67 0.0 0.0 1.0
-43.09746666666667 126.15066666666667 1903.7133333333334 3.949114952159302e-16 0.99984364025919 0.017683185042600698
-43.931099999999994 129.76700000000002 1818.84 0.0 0.0 1.0
-48.71796666666666 -112.308 1643.96 0.0 0.0 1.0
-49.74356666666667 -109.52366666666667 1643.96 0.0 0.0 1.0
-40.810833333333335 -110.0 2021.62 0.0 0.0 1.0
-41.35136666666667 -96.66666666666667 2021.62 0.0 0.0 1.0
-41.301899999999996 -78.38383333333333 2014.8100000000002 3.33680588799766e-26 -5.561618528815385e-26 1.0
-43.0425 -62.0134 2008.05 0.0 0.0 1.0
-42.04443333333334 -30.666666666666668 1994.67 0.0 0.0 1.0
-41.9934 -28.084166666666665 1988.04 0.0 0.0 1.0
-41.9934 -28.084166666666665 1988.04 0.0 0.0 1.0
-42.347766666666665 -27.552599999999998 1988.04 0.0 0.0 1.0
-42.34773333333333 -20.465133333333334 1988.04 0.0 0.0 1.0
-41.766 -13.863100000000001 1981.46 0.0 0.0 1.0
-41.589400000000005 -12.9801 1981.46 0.0 0.0 1.0
-42.8256 -9.448113333333334 1981.46 0.0 0.0 1.0
-41.54016666666667 -2.7282733333333336 1974.92 0.0 0.0 1.0
-41.71616666666666 1.144112 1974.92 0.0 0.0 1.0
-44.11703333333333 4.581226666666667 1489.8933333333334 0.03770730219923991 0.9992425561714249 0.009616303700053307
-45.62049999999999 18.133333333333336 1841.2300000000002 -1.6202441697170737e-26 -6.573407580017204e-27 1.0
-43.29116666666667 26.075933333333335 1893.67 0.0 0.0 1.0
-43.45993333333333 26.751033333333336 1893.67 0.0 0.0 1.0
-45.98883333333333 37.0766 1903.74 0.28389571337388075 0.9581915175847405 -0.03566846725872799
-42.142066666666665 41.7049 1961.97 0.0 0.0 1.0
-42.142066666666665 41.7049 1961.97 0.0 0.0 1.0
-49.5135 36.396366666666665 1617.3 0.0 0.0 1.0
-42.4918 48.87433333333333 1961.97 0.0 0.0 1.0
-41.6175 51.147533333333335 1961.97 0.0 0.0 1.0
-42.491800000000005 70.73223333333333 1961.97 0.0 0.0 1.0
-43.83733333333333 97.95873333333334 1873.93 -0.8219657945240566 0.5690351847512755 0.02389960559335287
-52.04749999999999 62.831133333333334 1222.1466666666665 -0.5441737850679453 -0.728093999421283 0.4168381216390201
-46.211666666666666 103.264 1775.67 0.0 0.0 1.0
-46.369933333333336 103.897 1775.67 0.0 0.0 1.0
-47.063500000000005 105.79366666666665 1780.95 0.0 0.0 1.0
-43.97513333333333 127.78433333333334 1858.39 0.0 0.0 1.0
-44.3462 128.93433333333334 1839.3466666666666 0.4344834268241334 -0.8677330264727046 0.24137843023700034
-48.63176666666667 -119.37566666666667 1648.4800000000002 1.3881975438150238e-27 6.933906863035347e-27 1.0
-48.63176666666667 -119.37566666666667 1648.4800000000002 1.3881975438150238e-27 6.933906863035347e-27 1.0
-56.1838 -89.01053333333333 1281.3999999999999 -0.4606777697286076 -0.7872909825487885 0.40981569183626837
-42.485899999999994 -127.90966666666667 2028.47 0.0 0.0 1.0
-42.072066666666665 -112.883 2021.62 0.0 0.0 1.0
-42.432433333333336 -112.16233333333334 2021.62 0.0 0.0 1.0
-42.738499999999995 -89.69693333333333 2014.8100000000002 -3.2986192652233675e-27 1.3056641283598163e-27 1.0
-42.020199999999996 -79.10213333333333 2014.8100000000002 -5.570296403767437e-26 3.3421777962014243e-26 1.0
-41.78973333333334 -73.2886 2008.05 0.0 0.0 1.0
-40.7159 -65.05593333333333 2008.05 0.0 0.0 1.0
-42.095866666666666 -54.3144 2001.34 0.0 0.0 1.0
-42.22223333333333 -43.1111 1994.67 0.0 0.0 1.0
-43.111133333333335 -37.42223333333333 1994.67 0.0 0.0 1.0
-43.532000000000004 -8.918320000000001 1981.46 0.0 0.0 1.0
-45.62049999999999 18.133333333333336 1841.2300000000002 -1.6202441697170737e-26 -6.573407580017204e-27 1.0
-46.666666666666664 20.65843333333333 1846.91 0.0 0.0 1.0
-43.68253333333333 24.2963 1899.68 0.0 0.0 1.0
-43.96623333333333 28.438833333333335 1893.67 0.0 0.0 1.0
-46.20543333333333 31.94966666666667 1881.76 0.0 0.0 1.0
-42.69643333333334 35.28516666666666 1889.6899999999998 0.8918794424475643 0.35677298191108786 0.27796420546122913
-49.5135 36.396366666666665 1617.3 0.0 0.0 1.0
-43.31156666666667 54.8148 1955.5600000000002 2.2608439230413987e-30 1.772501722077331e-26 1.0
-43.31156666666667 54.8148 1955.5600000000002 2.2608439230413987e-30 1.772501722077331e-26 1.0
-44.183033333333334 61.960800000000006 1955.5600000000002 0.0 -8.863073713275814e-27 1.0
-43.0164 69.5082 1961.97 0.0 0.0 1.0
-42.666666666666664 77.90163333333334 1961.97 0.0 0.0 1.0
-55.89116666666666 63.45776666666666 1261.66 0.9920960892532916 0.07116237945153524 0.10335020773622275
-42.696133333333336 121.303 1951.3133333333335 0.30075085207064745 0.9025411846688214 0.3081693283819465
-42.736133333333335 122.38866666666667 1949.1899999999998 -3.966658136072314e-27 -5.951890590929986e-27 1.0
-42.736133333333335 122.38866666666667 1949.1899999999998 -3.966658136072314e-27 -5.951890590929986e-27 1.0
-44.039233333333335 125.738 1907.76 0.0 0.9831887360764876 0.18259219384277875
-37.03703333333333 161.679 2216.3 0.0 0.0 1.0
-48.631766666666664 -120.55066666666666 1648.4800000000002 4.537605393878165e-27 -5.292958049246892e-27 1.0
-48.71796666666666 -112.308 1643.96 0.0 0.0 1.0
-42.6667 -130.26 2028.47 0.0 0.0 1.0
-42.6667 -126.10166666666667 2028.47 0.0 0.0 1.0
-41.039566666666666 -122.66633333333333 2028.47 0.0 0.0 1.0
-41.76273333333334 -117.96566666666666 2028.47 0.0 0.0 1.0
-42.43243333333333 -114.144 2021.62 0.0 0.0 1.0
-42.072066666666665 -103.15333333333332 2021.62 0.0 0.0 1.0
-41.35136666666667 -96.66666666666667 2021.62 0.0 0.0 1.0
-42.73850000000001 -89.69693333333332 2014.8100000000002 2.8862344538394632e-27 -3.2299054737954893e-27 1.0
-42.918066666666675 -79.82043333333333 2014.8100000000002 2.4492682048513184e-26 -3.451429439613835e-26 1.0
-41.78973333333334 -73.2886 2008.05 0.0 0.0 1.0
-43.166133333333335 -55.741366666666664 2001.34 0.0 0.0 1.0
-42.98773333333333 -54.67113333333333 2001.34 0.0 0.0 1.0
-43.701233333333334 -52.1739 2001.34 0.0 0.0 1.0
-42.04443333333334 -30.666666666666668 1994.67 0.0 0.0 1.0
-42.702133333333336 -27.198233333333334 1988.04 0.0 0.0 1.0
-42.702133333333336 -27.198233333333334 1988.04 0.0 0.0 1.0
-42.52493333333333 -17.098566666666667 1988.04 0.0 0.0 1.0
-44.88446666666667 3.60836 1974.92 0.0 0.0 1.0
-44.783500000000004 9.239876666666667 1868.0566666666666 -0.12399720385799193 -0.9919776308639348 -0.024598237761564955
-45.14766666666666 28.270066666666665 1893.67 0.0 0.0 1.0
-41.1852 42.172866666666664 2216.3 0.0 0.0 1.0
-49.945933333333336 36.5405 1617.3 0.0 0.0 1.0
-42.4918 48.699466666666666 1961.97 0.0 0.0 1.0
-43.31156666666667 54.8148 1955.5600000000002 2.2608439230386805e-30 1.7725017220773314e-26 1.0
-43.48583333333334 57.9521 1955.5600000000002 1.7725582431733414e-26 -7.976201357935036e-26 1.0
-43.83443333333333 63.355133333333335 1955.5600000000002 -2.5410370981472474e-27 5.913462517433875e-29 1.0
-43.0164 69.5082 1961.97 0.0 0.0 1.0
-43.36613333333333 81.9235 1961.97 0.0 0.0 1.0
-42.71933333333334 90.43856666666666 1968.42 0.0 0.0 1.0
-42.017566666666674 92.89473333333332 1968.42 0.0 0.0 1.0
-46.68646666666667 103.42233333333333 1775.67 0.0 0.0 1.0
-47.161233333333335 103.73899999999999 1775.67 0.0 0.0 1.0
-47.063500000000005 105.79366666666665 1780.95 0.0 0.0 1.0
-38.0247 118.61766666666666 2216.3 0.0 0.0 1.0
-45.536100000000005 128.51166666666666 1854.5500000000002 -0.43313229028673944 0.866877090882963 0.24682084274480304
-46.40886666666666 129.035 1843.1233333333332 0.4302476414083677 -0.8592734842407351 0.2766514889591662
-50.036633333333334 -110.69600000000001 1643.96 0.0 0.0 1.0
-42.6667 -130.26 2028.47 0.0 0.0 1.0
-42.485899999999994 -129.356 2028.47 0.0 0.0 1.0
-42.6667 -126.10166666666667 2028.47 0.0 0.0 1.0
-42.6667 -126.10166666666667 2028.47 0.0 0.0 1.0
-42.6667 -118.32733333333333 2028.47 0.0 0.0 1.0
-42.6667 -118.32733333333333 2028.47 0.0 0.0 1.0
-43.5135 -114.86466666666668 2021.62 0.0 0.0 1.0
-42.61263333333333 -100.9909 2021.62 0.0 0.0 1.0
-43.636366666666675 -92.92930000000001 2014.8100000000002 3.7105448933766965e-27 9.279117588550299e-27 1.0
-43.57943333333333 -70.24606666666666 2008.05 0.0 0.0 1.0
-43.57943333333333 -68.63533333333334 2008.05 0.0 0.0 1.0
-43.0425 -62.0134 2008.05 0.0 0.0 1.0
-43.111133333333335 -37.42223333333333 1994.67 0.0 0.0 1.0
-43.111133333333335 -37.42223333333333 1994.67 0.0 0.0 1.0
-43.410833333333336 -25.780733333333334 1988.04 0.0 0.0 1.0
-44.119566666666664 -25.07196666666667 1988.04 0.0 0.0 1.0
-43.532000000000004 -8.918320000000001 1981.46 0.0 0.0 1.0
-43.47636666666667 -4.840483333333333 1974.92 0.0 0.0 1.0
-45.726 11.042899999999998 1835.58 0.0 0.0 1.0
-45.726 11.042899999999998 1835.58 0.0 0.0 1.0
-47.32476666666667 38.327933333333334 1924.1699999999998 -0.1960920317790992 -0.980318939577746 0.02286245345339046
-43.71586666666667 41.7049 1961.97 0.0 0.0 1.0
-49.94593333333333 36.5405 1617.3 0.0 0.0 1.0
-45.22873333333334 50.80610000000001 1955.5600000000002 -6.56482119288584e-28 -4.923867059504649e-27 1.0
-44.76503333333333 79.30053333333333 1961.97 0.0 0.0 1.0
-39.2099 109.53133333333334 2216.3 0.0 0.0 1.0
-43.655033333333336 98.38373333333334 1866.14 -0.8000060172522522 0.5999909815304135 0.0010929054672512198
-47.161233333333335 103.73899999999999 1775.67 0.0 0.0 1.0
-45.83599999999999 124.984 1911.82 0.0 0.0 1.0
-46.3627 130.09133333333332 1818.84 0.0 0.0 1.0
-40.39506666666667 162.07433333333336 2216.3 0.0 0.0 1.0
-43.5135 -111.622 2021.62 0.0 0.0 1.0
-44.53426666666667 -95.98203333333333 2014.8100000000002 2.2267953341190167e-27 -2.226878007047675e-26 1.0
-43.81596666666667 -95.08416666666666 2014.8100000000002 -2.0042728823409163e-25 -4.453756014095286e-26 1.0
-43.636366666666675 -92.92930000000001 2014.8100000000002 3.7105448933766965e-27 9.279117588550299e-27 1.0
-43.456799999999994 -88.6195 2014.8100000000002 -8.2459103020212e-28 8.936832922130169e-28 1.0
-44.354666666666674 -84.1302 2014.8100000000002 -1.3912821253200705e-27 1.947743389247728e-26 1.0
-44.354666666666674 -84.1302 2014.8100000000002 -1.3912821253200709e-27 1.9477433892477283e-26 1.0
-42.98773333333333 -54.67113333333333 2001.34 0.0 0.0 1.0
-43.701233333333334 -52.1739 2001.34 0.0 0.0 1.0
-45.4222 -44.0 1994.67 0.0 0.0 1.0
-44.17776666666666 -34.5778 1994.67 0.0 0.0 1.0
-44.17776666666666 -34.5778 1994.67 0.0 0.0 1.0
-44.47396666666666 -18.516033333333336 1988.04 0.0 0.0 1.0
-44.11959999999999 -17.275733333333335 1988.04 0.0 0.0 1.0
-43.532000000000004 -8.918320000000001 1981.46 0.0 0.0 1.0
-42.77226666666667 0.7920783333333333 1974.92 0.0 0.0 1.0
-45.630566666666674 13.54892 1756.57 -0.9323386071107729 0.03884833626166558 0.35949343312561954
-47.42563333333334 19.117966666666668 1841.2300000000002 2.261964900879189e-28 1.569526474191625e-28 1.0
-43.71586666666667 41.7049 1961.97 0.0 0.0 1.0
-44.88016666666667 49.41176666666667 1955.5600000000002 -1.0942066179268151e-28 -2.5534510950594845e-28 1.0
-45.05446666666666 57.77779999999999 1955.5600000000002 -1.961817850054744e-44 0.9995120760870788 0.03123475237772124
-44.183033333333334 61.9608 1955.5600000000002 0.0 0.0 1.0
-45.22876666666667 62.1351 1955.5600000000002 1.641582009460517e-27 -9.846604057334815e-28 1.0
-44.76503333333333 79.30053333333333 1961.97 0.0 0.0 1.0
-44.59016666666667 81.0492 1961.97 0.0 0.0 1.0
-51.00133333333333 66.99356666666667 1268.7033333333331 0.6470676102683551 -0.7549225764543613 0.10674929180612465
-47.794966666666674 105.74433333333332 2132.0733333333333 0.7978027178767654 -0.5802572154673866 0.1637448846421814
-49.603166666666674 102.30133333333333 1780.95 0.0 0.0 1.0
-45.83599999999999 124.984 1911.82 0.0 0.0 1.0
-46.36426666666667 128.346 1854.5500000000002 0.44269862652225245 -0.8860232915062426 -0.13777029064263174
-50.6227 -112.16133333333335 1643.96 0.0 0.0 1.0
-49.74356666666667 -109.52366666666667 1643.96 0.0 0.0 1.0
-43.02826666666667 -125.37866666666666 2028.47 0.0 0.0 1.0
-44.59459999999999 -117.027 2021.62 0.0 0.0 1.0
-44.41443333333333 -101.1709 2021.62 0.0 0.0 1.0
-43.63636666666667 -92.92930000000001 2014.8100000000002 -7.421089786753686e-27 1.4844934928615562e-26 1.0
-44.53423333333333 -87.18296666666667 2014.8100000000002 -1.1134390035238531e-26 2.2268780070476762e-26 1.0
-43.9955 -80.17956666666667 2014.8100000000002 -4.454252027113649e-28 1.692433899681606e-26 1.0
-43.22149999999999 -71.49886666666667 2008.05 0.0 0.0 1.0
-44.474266666666665 -67.0246 2008.05 0.0 0.0 1.0
-43.93736666666666 -62.37133333333333 2008.05 0.0 0.0 1.0
-43.93736666666666 -62.37133333333333 2008.05 0.0 0.0 1.0
-43.701233333333334 -52.1739 2001.34 0.0 0.0 1.0
-44.4147 -49.4983 2001.34 0.0 0.0 1.0
-44.4147 -49.4983 2001.34 0.0 0.0 1.0
-44.593066666666665 -49.14156666666667 2001.34 0.0 0.0 1.0
-46.3111 -40.44446666666666 1994.67 0.0 0.0 1.0
-44.17776666666666 -34.5778 1994.67 0.0 0.0 1.0
-44.65116666666666 -22.0598 1988.04 0.0 0.0 1.0
-43.8852 -13.863099999999998 1981.46 0.0 0.0 1.0
-45.651199999999996 -13.3333 1981.46 0.0 0.0 1.0
-45.298 -5.9161166666666665 1981.46 0.0 0.0 1.0
-45.236533333333334 -5.0165 1974.92 0.0 0.0 1.0
-47.3251 15.061733333333331 1846.91 0.0 0.0 1.0
-47.8844 14.117633333333332 1852.63 0.0 0.0 1.0
-47.6543 20.49383333333333 1846.91 0.0 0.0 1.0
-45.50913333333333 24.152066666666666 1901.6966666666667 0.24186849515825457 -0.9675216019157835 -0.07349544799644232
-46.73016666666666 24.2963 1899.68 0.0 0.0 1.0
-46.329100000000004 27.763733333333334 1893.67 0.0 0.0 1.0
-47.949533333333335 28.85383333333333 1887.7 0.0 0.0 1.0
-46.87629999999999 31.111100000000004 1881.76 0.0 0.0 1.0
-47.825633333333336 105.73933333333332 1782.7233333333334 0.5546225955062684 -0.8313519178181551 -0.035323721405959345
-47.0635 105.79366666666665 1780.95 0.0 0.0 1.0
-51.083333333333336 127.25 1870.0 0.0 0.0 1.0
-45.99733333333333 127.98266666666666 1856.47 -0.19329868940011335 0.9662989815182725 0.17000557341730813
-47.983799999999995 129.605 1818.84 0.0 0.0 1.0
-51.941399999999994 -116.264 1643.96 0.0 0.0 1.0
-45.13516666666666 -118.28833333333334 2021.62 0.0 0.0 1.0
-44.89336666666666 -87.36253333333333 2014.8100000000002 -2.2268780070477482e-26 -5.567195017618973e-27 1.0
-44.53423333333333 -87.18296666666667 2014.8100000000002 -1.1134390035238523e-26 2.2268780070476753e-26 1.0
-45.727066666666666 -75.0783 2008.05 0.0 0.0 1.0
-44.593066666666665 -49.14156666666667 2001.34 0.0 0.0 1.0
-44.8889 -37.6 1994.67 0.0 0.0 1.0
-44.119566666666664 -25.07196666666667 1988.04 0.0 0.0 1.0
-44.47396666666666 -18.516033333333336 1988.04 0.0 0.0 1.0
-45.298 -5.916116666666667 1981.46 0.0 0.0 1.0
-44.88446666666667 3.60836 1974.92 0.0 0.0 1.0
-47.6543 20.49383333333333 1846.91 0.0 0.0 1.0
-46.87629999999999 31.111100000000004 1881.76 0.0 0.0 1.0
-47.37943333333334 31.94966666666667 1881.76 0.0 0.0 1.0
-47.37943333333333 32.95596666666666 1881.76 0.0 0.0 1.0
-53.15 38.789566666666666 1809.6766666666665 0.5587081392715192 0.2660483497956544 0.7855338889460887
-41.1852 42.172866666666664 2216.3 0.0 0.0 1.0
-47.49453333333333 41.9172 1955.5600000000002 8.862508718457568e-27 5.317392242915923e-26 1.0
-45.22873333333334 50.80610000000001 1955.5600000000002 -6.56482119288584e-28 -4.923867059504649e-27 1.0
-46.27450000000001 50.9804 1955.5600000000002 2.9543579044252717e-27 0.0 1.0
-44.9399 80.0 1961.97 0.0 0.0 1.0
-39.6107 107.54266666666668 2183.94 0.0 0.0 1.0
-39.6107 107.54266666666668 2183.94 0.0 0.0 1.0
-44.12593333333333 122.56233333333334 1949.1899999999998 -2.3832218266735073e-28 4.761923593779473e-27 1.0
-48.18816666666667 123.85533333333335 1944.97 0.07242798053148418 0.9424429304879892 0.3264284154440944
-52.0879 -114.06566666666667 1643.96 0.0 0.0 1.0
-51.64833333333333 -111.72166666666668 1643.96 0.0 0.0 1.0
-52.3105 -104.694 1639.45 0.0 0.0 1.0
-44.4144 -114.86466666666668 2021.62 0.0 0.0 1.0
-45.1351 -113.60366666666668 2021.62 0.0 0.0 1.0
-44.95493333333334 -111.26166666666667 2021.62 0.0 0.0 1.0
-46.03603333333333 -108.19833333333334 2021.62 0.0 0.0 1.0
-44.89336666666666 -87.36253333333333 2014.8100000000002 -2.2268780070477482e-26 -5.567195017618973e-27 1.0
-45.25253333333333 -80.89786666666667 2014.8100000000002 -2.0042356745355014e-27 2.672204007769192e-27 1.0
-45.298 -5.9161166666666665 1981.46 0.0 0.0 1.0
-46.46863333333334 2.9042866666666662 1974.92 0.0 0.0 1.0
-48.6842 5.8771933333333335 1968.42 0.0 0.0 1.0
-41.2031 11.708406666666667 1788.0533333333333 0.33611481135127874 0.14004722717746396 0.9313504215654804
-49.30973333333333 10.227676666666667 1866.1133333333335 -0.27444215189515825 -0.9605482198823306 0.045040232504291865
-47.8844 12.796666666666667 1852.63 0.0 0.0 1.0
-48.148133333333334 20.1646 1846.91 0.0 0.0 1.0
-46.659699999999994 41.00286666666667 1953.4366666666665 -0.2280477808837972 -0.9121475114141547 0.3405600197541398
-53.21296666666667 38.849766666666675 1611.493333333333 -0.7170152937457612 0.537782253361312 0.44348541859266266
-45.22876666666667 62.1351 1955.5600000000002 1.641582009460517e-27 -9.846604057334816e-28 1.0
-46.9717 70.32679999999999 1955.5600000000002 -4.431536856637917e-27 1.3132153794032225e-27 1.0
-46.6885 87.51913333333333 1961.97 0.0 0.0 1.0
-49.07633333333333 96.30523333333333 1802.41 0.0 0.0 1.0
-49.07633333333333 96.30523333333333 1802.41 0.0 0.0 1.0
-50.02943333333334 98.22183333333334 1793.4133333333332 -0.1960629214487815 0.9803964706766664 0.019547151140399153
-47.600433333333335 117.698 1949.1899999999998 1.7153475316509524e-26 -9.551487300252031e-26 1.0
-46.99356666666666 125.117 1913.8633333333335 -0.9998513714644442 2.066241997884219e-15 0.01724050407239638
-47.369566666666664 125.495 1911.82 0.0 0.0 1.0
-47.369566666666664 125.495 1911.82 0.0 0.0 1.0
-45.78286666666667 126.29333333333334 1895.6733333333334 -0.6980142913882276 -0.3492140669267352 0.6251604469880356
-52.380966666666666 -115.53133333333334 1643.96 0.0 0.0 1.0
-52.0879 -114.06566666666667 1643.96 0.0 0.0 1.0
-52.3105 -104.694 1639.45 0.0 0.0 1.0
-45.4321 -92.39056666666669 2014.8100000000002 4.1753575154343386e-26 4.5928260977648936e-26 1.0
-45.25253333333333 -84.8485 2014.8100000000002 -2.0877842524385155e-27 3.943645111554126e-27 1.0
-46.621933333333324 -74.8993 2008.05 0.0 0.0 1.0
-44.8322 -65.0559 2008.05 0.0 0.0 1.0
-46.91193333333333 -56.45483333333333 2001.34 0.0 0.0 1.0
-45.8417 -51.995533333333334 2001.34 0.0 0.0 1.0
-45.4222 -44.0 1994.67 0.0 0.0 1.0
-46.48886666666667 -43.46666666666667 1994.67 0.0 0.0 1.0
-46.133333333333326 -37.24443333333333 1994.67 0.0 0.0 1.0
-46.82066666666666 -3.9603966666666666 1974.92 0.0 0.0 1.0
-46.64463333333333 -1.848183 1974.92 0.0 0.0 1.0
-48.87513333333333 11.805966666666668 1852.63 0.0 0.0 1.0
-48.71 14.943233333333334 1852.63 0.0 0.0 1.0
-48.64196666666667 20.0 1846.91 0.0 0.0 1.0
-49.338433333333334 19.423733333333335 1854.5500000000002 -0.9352688098318636 0.3400946282370489 -0.09801988165669687
-47.68183333333334 26.779866666666663 1883.74 0.9507808433931859 -0.1901511295603236 0.24465963247637518
-48.692 27.0886 1893.67 0.0 0.0 1.0
-47.37943333333334 31.94966666666667 1881.76 0.0 0.0 1.0
-46.087633333333336 38.579366666666665 1936.6266666666668 -0.00019558221018887507 -0.998131540185281 0.06110147490002062
-47.32026666666667 54.64053333333334 1955.5600000000002 -9.85005727373091e-28 -9.849115375547622e-28 1.0
-46.100233333333335 58.12636666666666 1955.5600000000002 1.4773908489078734e-27 5.909845960582982e-27 1.0
-46.100233333333335 58.12636666666666 1955.5600000000002 1.4773908489078734e-27 5.909845960582982e-27 1.0
-45.46446666666666 76.6776 1961.97 0.0 0.0 1.0
-45.63933333333333 78.9508 1961.97 0.0 0.0 1.0
-47.03823333333333 82.62293333333332 1961.97 0.0 0.0 1.0
-46.6885 87.51913333333334 1961.97 0.0 0.0 1.0
-39.2099 109.53133333333334 2216.3 0.0 0.0 1.0
-49.07633333333333 96.30523333333333 1802.41 0.0 0.0 1.0
-51.091100000000004 96.81683333333335 1797.0 0.0 0.0 1.0
-45.78286666666667 126.29333333333334 1895.6733333333334 -0.6980142913882257 -0.3492140669267409 0.6251604469880342
-48.443000000000005 128.60966666666664 1848.8166666666668 -0.5332198616631304 0.7995599443865657 0.27637017650337037
-37.64170000000001 -147.02966666666666 2035.37 0.0 0.0 1.0
-52.380966666666666 -115.53133333333334 1643.96 0.0 0.0 1.0
-52.380966666666666 -114.945 1643.96 0.0 0.0 1.0
-52.234433333333335 -114.50533333333333 1643.96 0.0 0.0 1.0
-52.0879 -112.60066666666667 1643.96 0.0 0.0 1.0
-52.234433333333335 -111.72166666666668 1643.96 0.0 0.0 1.0
-46.21619999999999 -110.721 2021.62 0.0 0.0 1.0
-46.936933333333336 -103.69366666666667 2021.62 0.0 0.0 1.0
-45.13513333333333 -102.252 2021.62 0.0 0.0 1.0
-47.04826666666667 -99.03466666666667 2014.8100000000002 3.496992890823728e-27 1.1965689792747686e-27 1.0
-46.8687 -95.44333333333334 2014.8100000000002 -1.3746160537331487e-27 2.6805013047796524e-27 1.0
-46.68913333333334 -94.9046 2014.8100000000002 8.042078074529931e-27 3.093115776449708e-27 1.0
-46.32996666666667 -90.95396666666666 2014.8100000000002 5.563476400248969e-26 1.6690222568297044e-26 1.0
-45.61166666666667 -85.74636666666667 2014.8100000000002 5.888447410214744e-27 3.772387498954205e-27 1.0
-46.32996666666667 -82.8732 2014.8100000000002 2.2268780070477333e-26 8.351438402689753e-27 1.0
-46.62193333333334 -74.8993 2008.05 0.0 0.0 1.0
-46.91193333333333 -56.45483333333333 2001.34 0.0 0.0 1.0
-46.84446666666667 -34.222233333333335 1994.67 0.0 0.0 1.0
-47.3778 -33.6889 1994.67 0.0 0.0 1.0
-46.82066666666666 -3.9603966666666666 1974.92 0.0 0.0 1.0
-46.82066666666666 -3.9603966666666666 1974.92 0.0 0.0 1.0
-47.348733333333335 -0.44004333333333334 1974.92 0.0 0.0 1.0
-49.135799999999996 20.0 1846.91 0.0 0.0 1.0
-49.47356666666667 18.943 1856.4700000000003 0.9621602890754879 -0.25657951948995666 0.09173073805696809
-47.949533333333335 28.85383333333333 1887.7 0.0 0.0 1.0
-47.32026666666667 51.1547 1955.5600000000002 -1.18186872738029e-26 7.090911004896166e-26 1.0
-47.32026666666667 56.034866666666666 1955.5600000000002 -2.661155278708751e-26 8.869857894481252e-27 1.0
-46.100233333333335 63.006566666666664 1955.5600000000002 1.5321404219340846e-27 2.7724738105829824e-27 1.0
-47.3203 66.66666666666667 1955.5600000000002 1.0 0.0 0.0
-46.9717 68.75816666666667 1955.5600000000002 -1.7725017460926345e-26 5.9084647000424105e-27 1.0
-48.19173333333333 71.8954 1955.5600000000002 0.0 -1.0 0.0
-47.03823333333333 82.62293333333334 1961.97 0.0 0.0 1.0
-47.03823333333333 82.62293333333334 1961.97 0.0 0.0 1.0
-47.56283333333334 83.84696666666666 1961.97 0.0 0.0 1.0
-52.2189 99.26370000000001 1786.2699999999998 -4.426717087509165e-28 1.6157517369408455e-26 1.0
-51.19046666666667 100.23793333333333 1780.95 0.0 0.0 1.0
-49.761900000000004 103.41233333333332 1780.95 0.0 0.0 1.0
-47.600433333333335 117.698 1949.1899999999998 1.7153475316509533e-26 -9.551487300252036e-26 1.0
-47.369566666666664 125.495 1911.82 0.0 0.0 1.0
-49.28066666666666 129.605 1818.84 0.0 0.0 1.0
-45.854600000000005 130.11100000000002 1837.4633333333331 0.47431234909926506 0.8299197894399994 0.2937021256099516
-52.895 -104.83999999999999 1639.45 0.0 0.0 1.0
-45.53086666666667 -139.55533333333332 2216.3 0.0 0.0 1.0
-44.4746 -121.94366666666667 2028.47 0.0 0.0 1.0
-46.93696666666667 -119.54966666666667 2021.62 0.0 0.0 1.0
-47.117133333333335 -118.64866666666667 2021.62 0.0 0.0 1.0
-46.756766666666664 -106.57666666666667 2021.62 0.0 0.0 1.0
-47.58696666666666 -102.26700000000001 2014.8100000000002 -2.7825636750087578e-27 2.786699778148223e-27 1.0
-47.048266666666656 -100.29173333333334 2014.8100000000002 -6.828580290283635e-26 4.041181224148013e-26 1.0
-47.407399999999996 -89.15823333333333 2014.8100000000002 -3.7116930432548604e-27 -3.710315195211942e-27 1.0
-46.32996666666667 -82.8732 2014.8100000000002 2.2268780070477367e-26 8.35143840268976e-27 1.0
-48.590599999999995 -78.47873333333334 2008.05 0.0 0.0 1.0
-47.09029999999999 -52.1739 2001.34 0.0 0.0 1.0
-48.97776666666667 -47.733366666666676 1994.67 0.0 0.0 1.0
-46.844433333333335 -42.222233333333335 1994.67 0.0 0.0 1.0
-47.37776666666667 -40.44446666666666 1994.67 0.0 0.0 1.0
-47.37776666666667 -40.44446666666666 1994.67 0.0 0.0 1.0
-46.844433333333335 -36.53333333333333 1994.67 0.0 0.0 1.0
-47.02223333333333 -35.46666666666667 1994.67 0.0 0.0 1.0
-48.01773333333333 -29.678833333333333 1988.04 0.0 0.0 1.0
-47.947 -15.9823 1981.46 0.0 0.0 1.0
-49.0066 -12.2737 1981.46 0.0 0.0 1.0
-48.3002 -9.27152 1981.46 0.0 0.0 1.0
-47.064 -5.20971 1981.46 0.0 0.0 1.0
-46.292633333333335 4.488446666666667 1974.92 0.0 0.0 1.0
-49.135799999999996 20.0 1846.91 0.0 0.0 1.0
-48.69200000000001 27.0886 1893.67 0.0 0.0 1.0
-47.949533333333335 28.85383333333333 1887.7 0.0 0.0 1.0
-41.1852 42.172866666666664 2216.3 0.0 0.0 1.0
-48.5403 42.61436666666667 1955.5600000000002 2.9543579044252717e-27 9.848487493458993e-28 1.0
-53.64306666666667 38.563 1611.493333333333 -0.6818270785167937 0.5113900719913193 0.523060253957388
-47.32026666666667 54.64053333333334 1955.5600000000002 -9.85005727373091e-28 -9.849115375547622e-28 1.0
-51.091100000000004 96.81683333333335 1797.0 0.0 0.0 1.0
-51.19046666666667 100.23793333333333 1780.95 0.0 0.0 1.0
-43.753099999999996 162.66666666666666 2216.3 0.0 0.0 1.0
-43.753099999999996 162.66666666666666 2216.3 0.0 0.0 1.0
-52.011 -120.69766666666668 1648.4800000000002 8.358272579239995e-27 1.846031260281759e-26 1.0
-51.864066666666666 -120.11 1648.4800000000002 1.2473765916107356e-28 0.0 -1.0
-66.72946666666667 -95.9963 1499.87 0.6829132605713863 0.4941184215046372 0.5380301702186628
-53.6256 -106.009 1639.45 0.0 0.0 1.0
-52.895 -104.83999999999999 1639.45 0.0 0.0 1.0
-53.234700000000004 -101.00573333333334 1636.4633333333334 1.7400767320609994e-15 0.6933251825733627 0.7206248616371858
-47.117133333333335 -118.64866666666667 2021.62 0.0 0.0 1.0
-47.117133333333335 -118.64866666666667 2021.62 0.0 0.0 1.0
-47.11709999999999 -110.54066666666667 2021.62 0.0 0.0 1.0
-47.58700000000001 -94.1863 2014.8100000000002 1.3605637440478718e-26 6.430754159886537e-26 1.0
-47.407399999999996 -89.15823333333333 2014.8100000000002 -3.71169304325486e-27 -3.7103151952119424e-27 1.0
-46.62193333333334 -74.8993 2008.05 0.0 0.0 1.0
-49.23076666666666 -62.519499999999994 2001.34 0.0 0.0 1.0
-47.37776666666667 -40.44446666666666 1994.67 0.0 0.0 1.0
-48.726466666666674 -28.438533333333336 1988.04 0.0 0.0 1.0
-48.0177 -24.54043333333333 1988.04 0.0 0.0 1.0
-48.0177 -24.540433333333336 1988.04 0.0 0.0 1.0
-47.947 -15.9823 1981.46 0.0 0.0 1.0
-48.75686666666667 1.6721633333333334 1974.92 0.0 0.0 1.0
-44.938233333333336 9.777790000000001 2216.3 0.0 0.0 1.0
-48.87513333333333 11.805966666666668 1852.63 0.0 0.0 1.0
-49.19833333333333 26.4135 1893.67 0.0 0.0 1.0
-48.69200000000001 27.0886 1893.67 0.0 0.0 1.0
-54.838699999999996 40.215066666666665 1608.5999999999997 1.4555939804239864e-27 -4.229902283844893e-32 1.0
-48.19173333333333 71.8954 1955.5600000000002 0.0 -1.0 0.0
-47.56283333333334 83.84696666666666 1961.97 0.0 0.0 1.0
-42.681900000000006 109.23733333333332 2186.6066666666666 0.9442147773779184 1.8556547521758968e-16 0.32933031166469995
-40.950966666666666 98.70733333333334 1934.4866666666667 0.26891975450534783 0.960420275367289 0.07262961035420865
-48.443000000000005 128.60966666666664 1848.8166666666668 -0.5332198616631304 0.7995599443865657 0.27637017650337037
-49.28066666666666 129.60500000000002 1818.84 0.0 0.0 1.0
-43.753099999999996 162.66666666666666 2216.3 0.0 0.0 1.0
-46.91356666666667 -152.19766666666666 2216.3 0.0 0.0 1.0
-48.018 -111.802 2021.62 0.0 0.0 1.0
-47.83783333333333 -110.901 2021.62 0.0 0.0 1.0
-47.58696666666666 -102.26700000000001 2014.8100000000002 -2.782563675008758e-27 2.7866997781482222e-27 1.0
-47.58696666666666 -102.26700000000001 2014.8100000000002 -2.7825636750087578e-27 2.786699778148223e-27 1.0
-47.76656666666667 -97.77776666666666 2014.8100000000002 3.3400070139427337e-26 4.17495710212282e-26 1.0
-48.664433333333335 -95.80246666666666 2014.8100000000002 6.185198156208218e-28 -2.4743088967196825e-27 1.0
-47.407399999999996 -89.15823333333333 2014.8100000000002 -3.71169304325486e-27 -3.7103151952119424e-27 1.0
-48.411633333333334 -69.70916666666666 2008.05 0.0 0.0 1.0
-48.3389 -55.20623333333333 2001.34 0.0 0.0 1.0
-48.3389 -52.88736666666667 2001.34 0.0 0.0 1.0
-47.98216666666667 -50.390166666666666 2001.34 0.0 0.0 1.0
-48.549299999999995 -25.603566666666666 1988.04 0.0 0.0 1.0
-48.372099999999996 -25.072 1988.04 0.0 0.0 1.0
-48.4768 -16.5121 1981.46 0.0 0.0 1.0
-48.3002 -9.27152 1981.46 0.0 0.0 1.0
-48.476800000000004 -5.562913333333333 1981.46 0.0 0.0 1.0
-48.9329 0.7920783333333333 1974.92 0.0 0.0 1.0
-51.12629999999999 14.146366666666665 1856.47 -0.7050067805359168 -0.7050067805359097 0.07701219901270902
-51.51703333333334 15.273466666666666 1852.63 0.0 0.0 1.0
-50.7819 17.695466666666665 1846.91 0.0 0.0 1.0
-51.528200000000005 18.625633333333337 1841.2300000000002 8.264740652386105e-27 -1.1463139155392532e-26 1.0
-50.960433333333334 21.020133333333334 1835.5933333333335 -0.9757837489730915 0.19539864934743784 0.09831298527262654
-46.73016666666666 24.2963 1899.68 0.0 0.0 1.0
-48.88886666666667 42.265800000000006 1955.5600000000002 -2.953792909607081e-27 -1.772388755532913e-26 1.0
-49.23746666666667 42.78866666666667 1955.5600000000002 2.6265249486247236e-27 -1.641487828648697e-27 1.0
-48.36603333333333 51.328966666666666 1955.5600000000002 -2.954703208051918e-27 9.418981832109715e-32 1.0
-48.36603333333333 51.328966666666666 1955.5600000000002 -2.954703208051918e-27 9.418981832109715e-32 1.0
-49.06316666666667 71.8954 1955.5600000000002 0.0 1.0 0.0
-50.10893333333334 77.29846666666667 1955.5600000000002 1.418274617678002e-27 -1.4182344330966187e-27 1.0
-46.746900000000004 104.00033333333333 2162.9 -0.5999465240130825 -0.7998363814655709 0.018053564985383703
-53.57573333333334 93.65656666666666 1813.33 0.0 0.0 1.0
-51.177633333333326 99.8804 1791.62 0.0 0.0 1.0
-52.13573333333333 104.671 1791.62 0.0 0.0 1.0
-48.8165 118.04533333333332 1949.1899999999998 -7.92815930544e-27 -1.519118203683367e-26 1.0
-59.83143333333334 -92.50576666666666 1375.63 0.0 0.0 1.0
-53.6256 -106.009 1639.45 0.0 0.0 1.0
-62.16373333333333 -91.431 1453.6266666666668 -0.7621333626178767 -0.03855981634787193 0.6462707467834101
-60.5528 -85.82756666666667 1376.6866666666667 0.4854963027747865 -0.7282334546537566 0.4837038096966654
-53.8192 -101.15173333333333 1636.4633333333334 -1.370295185406788e-16 0.6603726566727972 0.7509380495879217
-48.018 -111.802 2021.62 0.0 0.0 1.0
-47.83783333333334 -110.0 2021.62 0.0 0.0 1.0
-49.0991 -106.03633333333335 2021.62 0.0 0.0 1.0
-48.411633333333334 -69.70916666666666 2008.05 0.0 0.0 1.0
-48.94853333333333 -68.63536666666666 2008.05 0.0 0.0 1.0
-48.444433333333336 -42.044466666666665 1994.67 0.0 0.0 1.0
-47.555566666666664 -34.5778 1994.67 0.0 0.0 1.0
-48.72646666666666 -28.438533333333336 1988.04 0.0 0.0 1.0
-48.90366666666667 -25.072 1988.04 0.0 0.0 1.0
-48.1949 -19.402 1988.04 0.0 0.0 1.0
-49.00659999999999 -17.0419 1981.46 0.0 0.0 1.0
-48.3002 -9.27152 1981.46 0.0 0.0 1.0
-48.58086666666667 -3.0803066666666665 1974.92 0.0 0.0 1.0
-48.9329 0.7920783333333334 1974.92 0.0 0.0 1.0
-48.9329 1.3201296666666666 1974.92 0.0 0.0 1.0
-48.75686666666667 1.6721633333333334 1974.92 0.0 0.0 1.0
-44.938233333333336 9.77779 2216.3 0.0 0.0 1.0
-44.938233333333336 9.77779 2216.3 0.0 0.0 1.0
-51.12629999999999 14.146366666666665 1856.47 -0.7050067805359146 -0.7050067805359121 0.07701219901270814
-51.528200000000005 18.625633333333337 1841.2300000000002 8.264740652386105e-27 -1.1463139155392532e-26 1.0
-52.65113333333333 21.95906666666667 1831.8400000000001 -0.11040175704714957 -0.9936158134243454 0.023217824057794482
-52.07546666666667 31.614233333333335 1881.76 0.0 0.0 1.0
-46.1405 37.6136 1913.89 -0.2672442070478885 -0.9620640092629829 0.0548942244701602
-44.79403333333334 104.048 2176.02 -0.31515250935829126 -0.9461899706115747 0.07350806322601323
-57.1072 72.85713333333334 1663.7633333333333 -0.15356759857863023 0.2149936014300866 0.9644660408800891
-49.85886666666667 122.38900000000001 1949.1899999999998 -6.30859293865409e-25 1.130836373095561e-25 1.0
-62.56866666666667 -104.60566666666666 1569.3566666666666 0.3554342581044683 0.8607485873614726 0.3643876473221277
-46.91356666666667 -152.19766666666666 2216.3 0.0 0.0 1.0
-48.19820000000001 -120.08999999999999 2021.62 0.0 0.0 1.0
-48.378366666666665 -119.36933333333333 2021.62 0.0 0.0 1.0
-49.0991 -106.03633333333335 2021.62 0.0 0.0 1.0
-47.946133333333336 -100.83033333333333 2014.8100000000002 6.957056937111213e-28 -8.341466972111183e-27 1.0
-48.30526666666666 -96.70033333333333 2014.8100000000002 -6.261931929940599e-27 -9.686795235703184e-32 1.0
-49.203166666666675 -94.54546666666666 2014.8100000000002 2.5053410909375055e-26 -1.1133098366634977e-26 1.0
-49.203166666666675 -94.54546666666666 2014.8100000000002 2.5053410909375055e-26 -1.1133098366634977e-26 1.0
-48.590599999999995 -78.47873333333334 2008.05 0.0 0.0 1.0
-49.84336666666667 -73.28856666666667 2008.05 0.0 0.0 1.0
-50.22220000000001 -47.555566666666664 1994.67 0.0 0.0 1.0
-49.68886666666666 -41.8667 1994.67 0.0 0.0 1.0
-49.435233333333336 -27.907 1988.04 0.0 0.0 1.0
-49.435233333333336 -25.072 1988.04 0.0 0.0 1.0
-49.0066 -17.041900000000002 1981.46 0.0 0.0 1.0
-50.242799999999995 -11.920500000000002 1981.46 0.0 0.0 1.0
-48.4768 -5.562913333333333 1981.46 0.0 0.0 1.0
-49.636966666666666 -2.0241996666666666 1974.92 0.0 0.0 1.0
-50.26316666666667 6.228073333333334 1968.42 0.0 0.0 1.0
-49.23746666666667 42.78866666666667 1955.5600000000002 2.6265249486247236e-27 -1.6414878286486977e-27 1.0
-54.838699999999996 40.215066666666665 1608.5999999999997 1.4555939804239864e-27 -4.229902283843341e-32 1.0
-55.125433333333326 40.93193333333334 1608.5999999999997 8.471556956528143e-25 1.3973702196335071e-24 1.0
-49.93460000000001 71.02396666666667 1955.5600000000002 0.9995120760870787 0.0 0.03123475237772124
-49.93460000000001 71.02396666666667 1955.5600000000002 0.9995120760870787 0.0 0.03123475237772124
-49.58603333333334 71.54683333333332 1955.5600000000002 2.9549229802914697e-27 2.9549229802915515e-27 1.0
-50.4575 74.33550000000001 1955.5600000000002 2.8363734389553657e-27 -1.4182545266361583e-27 1.0
-50.535533333333326 82.27323333333334 1961.97 0.0 0.0 1.0
-40.6521 86.7915 1574.743333333333 0.6103150628231516 -0.5329406585156043 0.5860800104014181
-46.08736666666667 103.86633333333334 2168.1366666666668 0.31515228905074977 0.9461900452395651 -0.07350804714874747
-52.2189 99.26370000000001 1786.2699999999998 -4.426717087509164e-28 1.6157517369408455e-26 1.0
-53.41266666666667 99.76190000000001 1780.95 0.0 0.0 1.0
-52.77446666666666 104.99033333333334 1791.62 0.0 0.0 1.0
-52.77446666666666 104.99033333333334 1791.62 0.0 0.0 1.0
-49.68513333333334 119.26166666666666 1949.1899999999998 -2.118912322383987e-26 -6.690168591490807e-27 1.0
-50.0326 120.65166666666669 1949.1899999999998 1.0 0.0 0.0
-50.7275 121.52033333333334 1949.1899999999998 3.71843281005924e-27 2.5295035380400794e-26 1.0
-59.240033333333336 -123.62833333333333 1826.3166666666666 -0.7536274704518541 -0.6571894272214991 0.012152881494444257
-58.11596666666666 -90.85413333333332 1275.01 -0.44454181139595844 -0.8539792590578961 0.2703738208845801
-59.4163 -90.50693333333334 1378.8 0.0 0.0 1.0
-49.203166666666675 -94.54546666666666 2014.8100000000002 2.505341090937506e-26 -1.1133098366634977e-26 1.0
-49.8434 -77.76286666666665 2008.05 0.0 0.0 1.0
-48.94853333333333 -68.63536666666666 2008.05 0.0 0.0 1.0
-49.23076666666666 -62.519499999999994 2001.34 0.0 0.0 1.0
-49.40913333333333 -53.24413333333334 2001.34 0.0 0.0 1.0
-49.23076666666666 -49.14156666666667 2001.34 0.0 0.0 1.0
-49.23076666666666 -49.14156666666667 2001.34 0.0 0.0 1.0
-50.22223333333333 -43.288900000000005 1994.67 0.0 0.0 1.0
-49.7896 -26.666700000000002 1988.04 0.0 0.0 1.0
-49.435233333333336 -25.072 1988.04 0.0 0.0 1.0
-49.96676666666667 -24.363200000000003 1988.04 0.0 0.0 1.0
-50.242799999999995 -11.920500000000002 1981.46 0.0 0.0 1.0
-49.636966666666666 -0.7920776666666667 1974.92 0.0 0.0 1.0
-50.693066666666674 2.552256666666667 1974.92 0.0 0.0 1.0
-50.26316666666667 6.228073333333334 1968.42 0.0 0.0 1.0
-51.51703333333333 15.273466666666666 1852.63 0.0 0.0 1.0
-51.51703333333333 15.273466666666666 1852.63 0.0 0.0 1.0
-52.592600000000004 16.7078 1846.91 0.0 0.0 1.0
-52.91403333333333 34.2977 1881.76 0.0 0.0 1.0
-50.6318 75.72983333333333 1955.5600000000002 -1.2290743653481054e-26 -8.036721417834139e-27 1.0
-51.32896666666667 79.04136666666666 1955.5600000000002 9.091268170530645e-28 9.091268170530684e-28 1.0
-50.535533333333326 82.27323333333334 1961.97 0.0 0.0 1.0
-50.36146666666667 95.8233 1802.41 0.0 0.0 1.0
-52.2954 104.03233333333333 1791.62 0.0 0.0 1.0
-50.901166666666676 116.65566666666666 1949.1899999999998 -2.934804411917663e-28 -2.1314156781640935e-27 1.0
-51.083333333333336 127.25 1870.0 0.0 0.0 1.0
-44.74073333333333 162.46933333333334 2216.3 0.0 0.0 1.0
-59.4163 -90.50693333333334 1378.8 0.0 0.0 1.0
-59.4163 -90.50693333333334 1378.8 0.0 0.0 1.0
-66.56013333333334 -69.35719999999999 1211.42 -0.6883203901812627 -0.722698533929876 0.0626248314674147
-48.49383333333333 -132.642 2216.3 0.0 0.0 1.0
-50.18016666666667 -107.47733333333333 2021.62 0.0 0.0 1.0
-49.639633333333336 -106.57666666666667 2021.62 0.0 0.0 1.0
-51.17846666666666 -103.524 2014.8100000000002 -2.0874397646091695e-27 -4.178401430644966e-27 1.0
-50.73826666666667 -75.43623333333333 2008.05 0.0 0.0 1.0
-50.738266666666675 -72.03576666666667 2008.05 0.0 0.0 1.0
-50.47936666666667 -62.87626666666667 2001.34 0.0 0.0 1.0
-51.01446666666667 -57.703466666666664 2001.34 0.0 0.0 1.0
-50.47936666666667 -54.31436666666667 2001.34 0.0 0.0 1.0
-50.93333333333334 -47.9111 1994.67 0.0 0.0 1.0
-51.56143333333333 -34.2857 1988.04 0.0 0.0 1.0
-49.96676666666667 -24.363200000000003 1988.04 0.0 0.0 1.0
-50.498333333333335 -20.28793333333333 1988.04 0.0 0.0 1.0
-50.77259999999999 -15.6291 1981.46 0.0 0.0 1.0
-50.69306666666666 0.79208 1974.92 0.0 0.0 1.0
-50.69306666666666 2.552256666666667 1974.92 0.0 0.0 1.0
-50.263166666666656 6.228073333333334 1968.42 0.0 0.0 1.0
-52.67690000000001 18.2974 1841.2300000000002 1.4813517694628201e-27 4.999562221936987e-27 1.0
-52.66036666666667 30.199766666666665 1887.7 0.0 0.0 1.0
-52.66036666666667 30.199766666666665 1887.7 0.0 0.0 1.0
-53.68253333333333 44.8302 1806.0366666666669 0.8553357052189346 0.5132226570021506 -0.07073426126906737
-54.30010000000001 45.84086666666667 1807.8499999999997 -4.564988019902162e-26 -3.1540431298066455e-26 1.0
-55.55553333333333 40.64516666666667 1608.5999999999997 7.368722437586534e-27 2.7289849068645955e-27 1.0
-49.93463333333333 58.47493333333333 1955.5600000000002 -4.1916066428866175e-28 1.1654709245254728e-27 1.0
-50.98036666666667 72.0697 1955.5600000000002 0.0 0.0 1.0
-51.67756666666667 77.82133333333333 1955.5600000000002 2.4819363782812142e-27 2.1273320612464798e-27 1.0
-51.4098 85.2459 1961.97 0.0 0.0 1.0
-46.746900000000004 104.00033333333333 2162.9 -0.5999465240130825 -0.7998363814655709 0.018053564985383703
-61.2574 67.3854 1361.0333333333333 3.3506421593330023e-15 -0.8434676112586075 0.5371800338412612
-53.57573333333334 93.65656666666666 1813.33 0.0 0.0 1.0
-52.6927 95.85586666666666 1797.0 0.0 0.0 1.0
-53.41266666666667 99.76190000000001 1780.95 0.0 0.0 1.0
-53.88886666666667 100.7143 1780.95 0.0 0.0 1.0
-52.77446666666666 104.99033333333334 1791.62 0.0 0.0 1.0
-48.903099999999995 125.15433333333333 1911.82 0.0 0.0 1.0
-60.72363333333334 -102.04733333333333 1381.99 0.0 0.0 1.0
-53.968266666666665 -118.42466666666667 1645.4666666666665 -0.6006171953021068 0.6864057092232224 0.4100075451173992
-49.08643333333333 -159.50633333333334 2216.3 0.0 0.0 1.0
-57.90833333333333 -90.9019 1274.1033333333335 -0.3634715641551573 -0.8921407459784022 0.26827842144999914
-60.32183333333334 -93.4866 1375.63 0.0 0.0 1.0
-66.584 -70.14493333333333 1228.76 -0.8596512827343852 -0.510811918074584 -0.008417627105718894
-48.9189 -112.883 2021.62 0.0 0.0 1.0
-50.18016666666667 -107.47733333333333 2021.62 0.0 0.0 1.0
-51.89673333333334 -87.90123333333334 2014.8100000000002 -6.186231552899543e-27 3.835454385102055e-26 1.0
-51.275200000000005 -75.7942 2008.05 0.0 0.0 1.0
-50.738266666666675 -72.03576666666667 2008.05 0.0 0.0 1.0
-50.93333333333334 -47.9111 1994.67 0.0 0.0 1.0
-50.04443333333334 -42.40003333333333 1994.67 0.0 0.0 1.0
-50.24280000000001 -11.920499999999999 1981.46 0.0 0.0 1.0
-50.69306666666666 2.552256666666667 1974.92 0.0 0.0 1.0
-45.8228 14.092830000000001 1893.67 0.0 0.0 1.0
-54.15383333333333 20.4308 1841.2300000000002 0.0 0.0 1.0
-52.06753333333333 25.400833333333335 1893.67 0.0 0.0 1.0
-53.081766666666674 32.1174 1881.76 0.0 0.0 1.0
-50.10893333333334 43.48583333333334 1955.5600000000002 3.281887323011982e-28 -2.2982001770395975e-27 1.0
-51.85183333333333 68.06099999999999 1955.5600000000002 -1.050815134905808e-26 3.282745472225633e-27 1.0
-50.9804 76.94986666666667 1955.5600000000002 0.0 0.0 1.0
-51.584666666666664 83.84696666666666 1961.97 0.0 0.0 1.0
-51.4098 85.2459 1961.97 0.0 0.0 1.0
-52.2189 99.26370000000001 1786.2699999999998 -4.426717087509164e-28 1.6157517369408455e-26 1.0
-54.047599999999996 100.07926666666667 1780.95 0.0 0.0 1.0
-56.17556666666667 127.31466666666667 1875.86 0.0 0.0 1.0
-60.689666666666675 -92.8736 1375.63 0.0 0.0 1.0
-51.7172 -104.24233333333335 2014.8100000000002 5.5623742966590885e-27 5.564440173835189e-27 1.0
-50.639766666666674 -96.52076666666666 2014.8100000000002 7.905981653606063e-28 -1.8775208436659673e-27 1.0
-51.812099999999994 -81.70023333333333 2008.05 0.0 0.0 1.0
-51.275200000000005 -75.7942 2008.05 0.0 0.0 1.0
-51.99106666666666 -72.57273333333333 2008.05 0.0 0.0 1.0
-51.19286666666667 -64.12486666666666 2001.34 0.0 0.0 1.0
-51.01446666666667 -57.703466666666664 2001.34 0.0 0.0 1.0
-51.37120000000001 -56.8116 2001.34 0.0 0.0 1.0
-51.37120000000001 -56.8116 2001.34 0.0 0.0 1.0
-50.93333333333334 -47.9111 1994.67 0.0 0.0 1.0
-51.82223333333334 -44.35556666666667 1994.67 0.0 0.0 1.0
-52.27020000000001 -22.237 1988.04 0.0 0.0 1.0
-52.18540000000001 -13.5099 1981.46 0.0 0.0 1.0
-51.84213333333333 7.105263333333333 1968.42 0.0 0.0 1.0
-53.663599999999995 13.457166666666666 1852.63 0.0 0.0 1.0
-53.6615 19.77436666666667 1841.2300000000002 4.997734764641352e-26 -1.9990126946968957e-26 1.0
-53.081766666666674 32.1174 1881.76 0.0 0.0 1.0
-58.9393 46.49566666666667 2010.3033333333333 -0.11222745881646183 -0.9426964406425007 0.3142107863959471
