ply
format ascii 1.0
comment VCGLIB generated
element vertex 572
property float x
property float y
property float z
property float nx
property float ny
property float nz
element face 0
property list uchar int vertex_indices
end_header
216.53166666666667 -223.744 1811.5600000000002 0.7124852670571292 -3.0727665277304553e-14 0.7016870700152107
293.6546666666666 -254.81366666666665 2157.7000000000003 -0.9719177333859488 0.08842569650512404 0.2180752524416828
292.3786666666667 -216.22333333333333 2152.5366666666664 -0.9707436956960737 0.0001453947063977613 0.2401180045867207
291.738 -211.5476666666667 2149.9466666666667 -0.9707899471594172 1.4357290971694128e-16 0.23993098694044449
292.3923333333334 -165.76 2152.5933333333332 -0.9707631847561615 -0.0003352832097696581 0.24003901080291903
295.596 -143.601 2165.5466666666666 -0.9707419855913006 6.875774347735641e-05 0.24012495222827526
370.087 -82.31883333333333 2601.74 0.0 0.0 1.0
371.4783333333333 -51.942033333333335 2601.74 0.0 0.0 1.0
371.94233333333335 -45.91303333333334 2601.74 0.0 0.0 1.0
225.39866666666668 -14.4471 1761.7300000000002 -0.9602173855371687 -0.2400097112095194 0.14275122079088162
210.82233333333332 14.825066666666666 1679.47 -0.9613516857952517 -0.2662238285848339 0.07019835690570288
252.7023333333333 34.3325 1926.1966666666667 0.9282488572870196 -0.37120841940100213 0.02362981826320367
192.36433333333332 75.93756666666667 1571.9800000000002 -0.9309454132951007 -0.34915648779635083 0.10691297626822711
192.36433333333335 75.93756666666667 1571.9799999999998 -0.9309454132951007 -0.34915648779635083 0.10691297626822707
176.13633333333334 106.57166666666666 1483.6466666666668 -0.9141842224365953 -0.37656459429837713 0.14988767050326865
369.85533333333336 227.71 2601.74 0.0 0.0 1.0
370.31899999999996 311.18833333333333 2601.74 0.0 0.0 1.0
370.31899999999996 311.18833333333333 2601.74 0.0 0.0 1.0
291.738 -211.5476666666667 2149.9466666666667 -0.9707899471594172 8.968324214639006e-17 0.23993098694044449
289.83433333333335 -182.5306666666667 2142.2466666666664 -0.9707359340723503 -7.337229706481544e-17 0.2401494249434742
289.83433333333335 -182.1496666666667 2142.2466666666664 -0.9707359340723507 -1.2960613040733277e-16 0.24014942494347408
368.23166666666674 -137.739 2601.74 0.0 0.0 1.0
369.15933333333334 -78.6087 2601.74 0.0 0.0 1.0
366.14466666666664 -22.95653333333333 2601.74 0.0 0.0 1.0
375.97333333333336 6.867073333333334 2568.27 -0.607558776793257 0.7811832341794225 0.1436143703758738
194.18366666666665 75.32443333333333 1591.4966666666667 0.9918125564642503 0.1272457549983443 -0.010787524032405007
194.18366666666665 75.32443333333333 1591.4966666666667 0.9918125564642503 0.12724575499834426 -0.010787524032405219
181.76866666666663 98.94146666666666 1512.3866666666665 -0.8469030471790077 -0.38492128415570237 0.3668662340456487
171.79966666666667 109.17433333333334 1454.79 -0.949600318095804 -0.3000160397778949 0.09082737334271418
170.57966666666667 112.13100000000001 1447.756666666667 0.8570297980552013 0.5139703684961319 -0.03652924244234416
369.15933333333334 207.30466666666666 2601.74 0.0 0.0 1.0
369.391 265.0433333333333 2601.74 0.0 0.0 1.0
284.2913333333333 -307.0853333333334 2132.11 -0.10256791875186298 0.9743582776560726 0.20026424744822272
323.669 -326.29766666666666 2352.83 -0.8243031380940119 0.4636807392195802 0.3248453610645351
318.02299999999997 -282.2386666666667 2328.4266666666667 0.6572553084538282 0.6548874847893442 0.3730118520577459
288.87933333333336 -235.226 2142.2666666666664 -0.9981962989633488 1.6201094713916847e-17 0.060034562844021255
287.944 -231.54333333333332 2134.6066666666666 -0.9707108178421526 -1.3458915150011894e-16 0.24025092741593918
289.2026666666667 -180.78566666666666 2139.693333333333 -0.9707359340723506 3.14299577570534e-16 0.24014942494347397
289.2026666666667 -180.78566666666666 2139.693333333333 -0.9707359340723506 3.14299577570534e-16 0.24014942494347397
289.8386666666667 -170.298 2142.2666666666664 -0.9707630513656393 4.582617243772433e-18 0.24003978441765253
367.0726666666667 -126.60866666666668 2601.74 0.0 0.0 1.0
370.551 -102.029 2601.74 0.0 0.0 1.0
252.56133333333332 65.9079 1930.3366666666668 -0.9932299942029332 0.10456656342365353 0.05059656539141823
187.59166666666667 90.1238 1555.64 -0.964731043071112 -0.24116565868637427 0.10551369392307061
181.131 101.80930000000001 1514.9433333333334 -0.976277590223087 0.19575560696415875 -0.09253004468979859
171.189 110.2 1451.256666666667 -0.9523763661939489 -0.3008931024123184 0.04942264699405625
368.0 228.63766666666666 2601.74 0.0 0.0 1.0
328.16499999999996 -325.234 2349.75 0.6835039540287218 0.7291096152197616 0.03495016196234803
287.317 -221.95899999999997 2132.0733333333333 -0.9707108178421525 -1.662013261033922e-16 0.2402509274159391
286.06766666666664 -211.01 2127.023333333333 -0.9707595252519221 1.299596505705798e-16 0.24005404419143284
370.087 -121.50733333333335 2601.74 0.0 0.0 1.0
369.15933333333334 -78.6087 2601.74 0.0 0.0 1.0
363.594 -12.7536 2601.74 0.0 0.0 1.0
251.67499999999998 59.066633333333336 1926.1866666666665 -0.9922301204143432 0.08261084001117523 0.09303137779902979
252.56133333333332 65.9079 1930.3366666666668 -0.9932299942029332 0.10456656342365353 0.05059656539141823
366.8403333333333 255.53599999999997 2601.74 0.0 0.0 1.0
368.46399999999994 337.15933333333334 2601.74 0.0 0.0 1.0
284.827 -201.06000000000003 2122.0066666666667 -0.9707415734636531 4.808074865764345e-05 0.24012662334183807
364.9853333333333 -35.24636666666667 2601.74 0.0 0.0 1.0
366.14466666666664 -22.95653333333333 2601.74 0.0 0.0 1.0
212.14133333333334 16.210066666666666 1700.2300000000002 -0.9886693087007031 -0.12373112320714383 0.08499180656494092
252.019 48.572 1926.1866666666665 -0.8238287207147781 0.06859011961374242 0.5626736482338807
190.34166666666667 82.15876666666668 1565.14 -0.9773736772399431 -0.2017279680373094 0.06361227829601515
181.388 102.198 1518.7900000000002 -0.9804681572610969 -0.1959706479436823 0.01666426540722004
181.388 102.198 1518.7900000000002 -0.9804681572610973 -0.19597064794368205 0.01666426540722
367.07233333333335 268.2896666666667 2601.74 0.0 0.0 1.0
366.14466666666664 307.71000000000004 2601.74 0.0 0.0 1.0
368.2316666666666 309.10133333333334 2601.74 0.0 0.0 1.0
285.50033333333334 -249.81566666666666 2117.0066666666667 -0.47008500335247067 0.5555755463431853 0.6858249790789038
292.69599999999997 -241.739 2157.7 -0.8507548009228969 1.5594998288661835e-15 0.5255628113809446
282.968 -222.00233333333333 2114.49 0.0 0.0 1.0
282.968 -222.00233333333333 2114.49 0.0 0.0 1.0
282.968 -222.00233333333335 2114.49 0.0 0.0 1.0
284.827 -201.06000000000003 2122.0066666666667 -0.9707415734636528 4.808074865794737e-05 0.2401266233418384
364.28966666666673 -108.98533333333334 2601.74 0.0 0.0 1.0
250.15600000000003 24.209099999999996 1899.6933333333334 0.866874446584303 -0.4919764026707719 0.08054758267188936
254.4223333333333 65.8231 1949.2299999999998 -0.9806744815337156 0.14004021593429006 0.13662466537801907
367.30466666666666 221.681 2601.74 0.0 0.0 1.0
365.913 335.768 2601.74 0.0 0.0 1.0
366.6086666666667 -146.55066666666667 2601.74 0.0 0.0 1.0
363.826 -56.8116 2601.74 0.0 0.0 1.0
249.984 31.16763333333333 1932.4033333333334 0.795956365256404 -0.31830440936124615 0.5149133593032932
194.18366666666665 75.32443333333333 1591.4966666666667 0.9918125564642505 0.12724575499834379 -0.010787524032404832
180.98499999999999 103.99633333333334 1529.1466666666668 0.7811759364804167 0.5863341059677805 -0.214421249979818
364.75333333333333 327.884 2601.74 0.0 0.0 1.0
297.558 -314.848 2219.0866666666666 -0.9476672678218095 0.31583965482147425 0.046605385326145075
346.3066666666667 -312.53066666666666 2469.3366666666666 0.714645271782006 0.6074187559221035 0.34687835111702575
346.3066666666667 -312.53066666666666 2469.3366666666666 0.714645271782006 0.6074187559221035 0.34687835111702586
318.02299999999997 -282.23866666666663 2328.4266666666667 0.6572553084538298 0.6548874847893426 0.3730118520577458
294.711 -262.92766666666665 2208.12 0.0 0.0 1.0
277.27833333333336 -238.13766666666666 2102.1133333333332 0.7733088350060285 -1.3230903464092886e-16 0.6340295306226825
280.52133333333336 -230.326 2104.596666666667 -0.9707550427667563 -9.02767728203296e-17 0.24007217027992492
278.693 -166.70733333333334 2097.2033333333334 -0.9707616887586993 4.164536705620391e-16 0.24004529497234126
278.693 -150.85633333333334 2097.2033333333334 -0.9707616887586984 1.2023739275642346e-16 0.24004529497234384
368.4636666666667 -151.88400000000001 2601.74 0.0 0.0 1.0
364.9853333333333 -35.24636666666667 2601.74 0.0 0.0 1.0
253.3123333333333 42.537866666666666 1966.3 -0.1489820592753913 0.5814913290983129 0.7997950863799687
174.77566666666667 110.08166666666666 1493.5133333333333 0.8752206234571916 0.37509455291022487 0.30543892458605076
173.84199999999998 110.57066666666667 1478.756666666667 -0.9206712385863538 -0.3792366822043909 0.09243381042927372
364.75333333333333 204.98566666666667 2601.74 0.0 0.0 1.0
362.8983333333333 227.71033333333332 2601.74 0.0 0.0 1.0
364.058 236.058 2601.74 0.0 0.0 1.0
364.75333333333333 327.884 2601.74 0.0 0.0 1.0
277.4866666666667 -180.85666666666665 2092.3266666666664 -0.9706993908957646 -0.00010321576235752789 0.24029707002187434
277.4866666666666 -137.27666666666667 2092.3266666666664 -0.9711811371734898 -0.0011911091485990847 0.23833963173883482
364.522 -129.15933333333334 2601.74 0.0 0.0 1.0
362.203 -62.37683333333333 2601.74 0.0 0.0 1.0
255.54866666666666 55.5131 1959.8466666666666 -0.9202721150923586 0.13141476416750048 0.3685503953901518
196.06133333333332 78.48396666666666 1621.6899999999998 -0.9453862216038125 -0.3152185922408527 0.08295861080901996
180.15266666666665 102.71263333333333 1512.3866666666665 -0.8676176813519378 -0.357197129589507 0.34590427811535424
173.842 110.57066666666667 1478.756666666667 -0.9206712385863538 -0.37923668220439066 0.09243381042927404
363.36266666666666 221.44899999999998 2601.74 0.0 0.0 1.0
364.058 236.058 2601.74 0.0 0.0 1.0
364.28966666666673 269.21733333333333 2601.74 0.0 0.0 1.0
364.28966666666673 326.029 2601.74 0.0 0.0 1.0
280.8063333333333 -304.52000000000004 2119.523333333333 0.12019286155537338 0.9662841358363448 0.227702975084076
276.2 -303.3086666666666 2104.576666666667 -0.6052299717805111 0.770257182543515 0.200998890540938
294.711 -262.92766666666665 2208.12 0.0 0.0 1.0
275.6836666666667 -182.50199999999998 2085.036666666667 -0.9707310484669099 6.047933094401758e-05 0.2401691651411237
274.48566666666665 -128.29366666666667 2080.193333333333 -0.9707702018342204 5.423623335760177e-16 0.240010864818131
363.826 -56.8116 2601.74 0.0 0.0 1.0
215.54166666666666 8.227656666666666 1716.3333333333333 -0.9649848285713545 -0.24596703847819532 0.09112901079996055
258.336 32.17126666666667 2017.0966666666666 -0.34813380566897006 0.8703667165816525 0.3482307166481917
259.97666666666663 36.742 2001.3533333333332 0.520368133990668 0.8330595760317576 0.1876932281912652
366.14466666666664 307.71000000000004 2601.74 0.0 0.0 1.0
276.2 -303.3086666666666 2104.576666666667 -0.6052299717805111 0.770257182543515 0.200998890540938
276.21 -237.04633333333334 2072.986666666667 0.4882722608510416 0.6626417122812677 0.5678874540156367
274.4943333333333 -170.98799999999997 2080.226666666667 -0.9707315439345091 5.828430010575435e-05 0.24016716306244773
274.48566666666665 -128.29366666666667 2080.193333333333 -0.9707702018342204 5.423623335760177e-16 0.240010864818131
274.48566666666665 -128.29366666666667 2080.193333333333 -0.9707702018342204 5.423623335760177e-16 0.240010864818131
364.05766666666665 -143.53600000000003 2601.74 0.0 0.0 1.0
363.826 -137.9706666666667 2601.74 0.0 0.0 1.0
361.04333333333335 -110.14466666666668 2601.74 0.0 0.0 1.0
364.28966666666673 -108.98533333333334 2601.74 0.0 0.0 1.0
363.3623333333333 -71.65216666666667 2601.74 0.0 0.0 1.0
363.594 -12.753599999999999 2601.74 0.0 0.0 1.0
248.65233333333333 19.8854 1940.7633333333333 -0.8274881840161795 -0.5516941883937299 -0.10438787193055134
259.757 39.3287 1996.8933333333334 -0.9497887009720724 -0.2849383911565703 0.12927310915611392
198.31966666666668 73.85336666666667 1640.9533333333331 -0.9437304897007888 -0.1640871584024787 0.2871378889253545
195.56466666666665 79.77969999999999 1618.76 -0.960656599818874 -0.22163609050021785 0.16738082510317273
184.90633333333335 102.53633333333333 1561.05 -0.9498131001817253 -0.2968967302802936 0.09852617049317788
182.99533333333332 104.37 1544.9233333333334 -0.9644219026463773 -1.071861743346958e-15 0.26436791351437106
182.99533333333332 104.37 1544.9233333333334 -0.9644219026463773 -1.071861743346958e-15 0.26436791351437106
174.77566666666667 110.08166666666666 1493.5133333333333 0.8752206234571919 0.3750945529102249 0.3054389245860505
174.77566666666667 110.08166666666666 1493.5133333333333 0.8752206234571916 0.3750945529102249 0.30543892458605076
361.507 247.42 2601.74 0.0 0.0 1.0
364.2896666666666 326.029 2601.74 0.0 0.0 1.0
362.20266666666674 336.69533333333334 2601.74 0.0 0.0 1.0
321.67966666666666 -330.70866666666666 2355.91 0.0 0.0 1.0
275.78733333333327 -282.34066666666666 2102.1133333333332 -0.8231176940930406 0.48016216977670656 0.30318567312173705
276.21 -237.04633333333334 2072.986666666667 0.48827226085104175 0.6626417122812679 0.5678874540156366
271.52233333333334 -150.788 2068.21 -0.9707472703631072 -4.2794234897918005e-16 0.2401035965631837
271.52233333333334 -150.78799999999998 2068.21 -0.9707472703631072 -4.2794234897918005e-16 0.2401035965631837
363.5943333333333 -86.02896666666668 2601.74 0.0 0.0 1.0
360.58 -31.304333333333332 2601.74 0.0 0.0 1.0
328.36766666666665 0.4144333333333334 2365.44 -0.6988476156000507 0.698924275136974 0.15204232237893292
182.99533333333332 104.37 1544.9233333333334 -0.9644219026463768 2.1010806808424676e-16 0.2643679135143722
364.058 236.058 2601.74 0.0 0.0 1.0
362.20266666666674 336.69533333333334 2601.74 0.0 0.0 1.0
361.971 338.31866666666673 2601.74 0.0 0.0 1.0
317.3736666666667 323.8383333333333 2266.67 0.0 0.0 1.0
364.7536666666667 382.37699999999995 2601.74 0.0 0.0 1.0
293.5303333333334 -323.14899999999994 2208.12 0.0 0.0 1.0
275.78733333333327 -282.34066666666666 2102.1133333333332 -0.8231176940930408 0.48016216977670645 0.3031856731217369
271.267 -268.73 2073.1866666666665 -0.9505173158389226 -0.3042349958500929 0.06291183982736623
306.731 -297.041 2241.22 -0.8514372565011207 -0.33656915434199963 0.4022136280477779
293.661 -270.06 2205.4133333333334 0.4043218193361378 -0.40432181933614064 0.820394863963341
323.58099999999996 -286.49600000000004 2349.773333333333 -0.1603473613078724 0.9619569080366566 0.22119591045531986
271.52233333333334 -150.78799999999998 2068.21 -0.9707472703631073 -1.3856046659013132e-16 0.24010359656318359
362.20266666666663 -56.11593333333334 2601.74 0.0 0.0 1.0
360.5796666666667 -27.826066666666666 2601.74 0.0 0.0 1.0
318.18199999999996 -0.5892633333333333 2301.6066666666666 -0.15856741349532139 -0.8985095895962878 0.4093127078175245
248.65233333333333 19.8854 1940.7633333333333 -0.8274881840161775 -0.551694188393732 -0.10438787193055626
258.88866666666667 53.963300000000004 1999.13 -0.9915311504698744 0.01711669697966933 0.12873615006047548
198.31966666666668 73.85336666666667 1640.9533333333331 -0.9437304897007888 -0.16408715840247862 0.287137888925355
186.85566666666668 99.98143333333333 1573.3733333333332 -0.9758971061542003 -0.19471911766957933 0.09853579762623417
185.31766666666667 102.53633333333333 1565.14 0.947741415437369 0.30325155770458645 -0.09911963586754038
174.69133333333335 112.45800000000001 1498.5 0.9990566609581811 -8.235937340771376e-17 0.04342566286298528
174.47966666666665 113.96433333333334 1497.256666666667 -0.9980150196702634 4.417871947249674e-16 0.06297634883480895
362.8983333333333 227.71033333333332 2601.74 0.0 0.0 1.0
362.8983333333333 227.71033333333332 2601.74 0.0 0.0 1.0
361.04333333333335 245.56499999999997 2601.74 0.0 0.0 1.0
361.5073333333333 322.3186666666667 2601.74 0.0 0.0 1.0
284.29133333333334 -307.0853333333334 2132.11 -0.10256791875186286 0.9743582776560726 0.20026424744822266
302.62600000000003 -309.6603333333333 2230.1133333333332 -0.6582892109109514 0.7314680357215863 0.177791528245418
269.76433333333335 -226.51066666666668 2061.1033333333335 -0.9707414355369096 -2.978669808706277e-16 0.24012718574068145
269.76433333333335 -226.51066666666668 2061.1033333333335 -0.9707414355369096 -4.644004345644012e-16 0.24012718574068134
268.0183333333334 -135.87266666666667 2054.043333333333 -0.9707792046869965 -0.00012127706805107587 0.23997441746810286
360.3476666666666 -54.02896666666667 2601.74 0.0 0.0 1.0
359.18833333333333 -51.0145 2601.74 0.0 0.0 1.0
262.72599999999994 13.0126 2056.36 0.0 0.0 1.0
259.757 39.3287 1996.8933333333334 -0.9497887009720724 -0.2849383911565703 0.12927310915611392
196.06133333333332 78.48396666666666 1621.6899999999998 -0.9453862216038124 -0.31521859224085297 0.0829586108090199
195.09099999999998 81.58716666666668 1620.2299999999998 -0.9723034391819142 -0.22432316925822088 0.06561354958367266
360.3476666666667 254.60866666666666 2601.74 0.0 0.0 1.0
360.3476666666667 254.60866666666666 2601.74 0.0 0.0 1.0
361.739 269.21733333333333 2601.74 0.0 0.0 1.0
362.20266666666674 336.69533333333334 2601.74 0.0 0.0 1.0
318.02299999999997 -285.3833333333333 2340.603333333333 -0.12104492008522624 0.9694626481819771 0.21328455429671714
265.12300000000005 -189.10433333333333 2042.3366666666668 -0.9707877803986876 6.7783799404940665e-06 0.23993975365212605
361.27566666666667 -132.63733333333334 2601.74 0.0 0.0 1.0
359.6523333333333 -30.376800000000003 2601.74 0.0 0.0 1.0
260.02099999999996 38.438633333333335 2005.8133333333333 0.9228982607164246 -0.13186541062027904 0.3617600224576282
186.89966666666666 101.55943333333333 1580.3 0.6361020599389782 -0.6302643310302004 0.445130365592421
357.1016666666667 299.3623333333333 2601.74 0.0 0.0 1.0
364.7536666666667 382.37699999999995 2601.74 0.0 0.0 1.0
293.5303333333333 -323.14899999999994 2208.12 0.0 0.0 1.0
321.67966666666666 -330.70866666666666 2355.91 0.0 0.0 1.0
265.6956666666667 -175.14133333333334 2044.6533333333334 -0.9707916208537782 2.2273906416506153e-15 0.2399242148681417
264.5463333333334 -161.10733333333334 2040.0033333333333 -0.9707800004656172 1.9571084703592124e-15 0.23997122889208325
265.13500000000005 -127.63100000000001 2042.3833333333332 -0.9707806978939187 -0.00012964893136628924 0.239968372473855
359.6523333333333 -30.376800000000003 2601.74 0.0 0.0 1.0
359.884 -12.985466666666667 2601.74 0.0 0.0 1.0
302.29866666666663 1.9690233333333336 2219.2866666666664 -0.3400597906641616 0.8920428418041223 0.2976892795507966
189.42100000000002 98.87913333333331 1598.5766666666666 0.9805679510419388 0.19617776050387872 -0.0008829909947462669
184.90633333333335 102.53633333333333 1561.05 -0.9498131001817253 -0.2968967302802935 0.098526170493178
359.884 204.75366666666665 2601.74 0.0 0.0 1.0
355.942 211.24633333333335 2601.74 0.0 0.0 1.0
362.203 236.058 2601.74 0.0 0.0 1.0
359.884 252.75333333333333 2601.74 0.0 0.0 1.0
361.739 269.21733333333333 2601.74 0.0 0.0 1.0
143.44533333333334 180.61866666666666 1343.0666666666666 -0.9212749503264694 -0.37872369911288445 0.0884354319897548
293.5303333333333 -323.14899999999994 2208.12 0.0 0.0 1.0
266.66333333333336 -260.48499999999996 2035.42 0.8299192432865198 -0.5187055045767138 0.2053744120978729
262.26366666666667 -201.27266666666665 2030.7700000000002 -0.970768209623859 -1.2070810159339657e-16 0.24001892255338417
262.84000000000003 -151.15666666666667 2033.1033333333332 -0.9707402911501527 6.7940703024371e-05 0.24013180239563792
360.81166666666667 -134.72433333333333 2601.74 0.0 0.0 1.0
357.5653333333334 -68.17393333333332 2601.74 0.0 0.0 1.0
358.7246666666667 -56.8116 2601.74 0.0 0.0 1.0
358.95666666666665 -48.000033333333334 2601.74 0.0 0.0 1.0
359.6523333333334 -30.3768 2601.74 0.0 0.0 1.0
260.02099999999996 38.438633333333335 2005.8133333333333 0.9228982607164244 -0.131865410620279 0.3617600224576282
200.07433333333333 79.25513333333333 1671.51 0.0 0.0 1.0
196.45666666666668 80.51143333333333 1639.45 0.0 0.0 1.0
191.69299999999998 91.44509999999998 1608.6333333333332 -0.5693614127479901 0.564379159201188 0.5977488990646262
181.14733333333334 105.94033333333334 1535.6866666666665 -0.801028758826763 -0.5722852109369617 0.17562051382253926
358.493 224.0 2601.74 0.0 0.0 1.0
359.884 252.75333333333333 2601.74 0.0 0.0 1.0
342.1846666666666 -363.47333333333336 2514.29 0.0 0.0 1.0
264.205 -265.276 2026.1866666666667 -0.7762852932178638 0.48518389948338575 0.40246456641020084
262.26366666666667 -201.27266666666665 2030.7699999999998 -0.9707682096238589 -3.698362570790581e-16 0.24001892255338417
261.13 -195.22266666666667 2026.1866666666665 -0.9707232099673099 -3.419893271140573e-16 0.2402008526853352
262.27133333333336 -129.749 2030.8033333333333 -0.9707706113696573 6.921588453041704e-05 0.24000919838652623
260.0113333333333 -82.2296 2021.6633333333332 -0.9707435147184889 9.373816564468196e-17 0.24011878025676128
357.1016666666667 -66.31886666666666 2601.74 0.0 0.0 1.0
357.79733333333337 -51.71013333333334 2601.74 0.0 0.0 1.0
357.79733333333337 -51.71013333333334 2601.74 0.0 0.0 1.0
276.65366666666665 5.923943333333334 2142.2666666666664 0.5288564564456236 0.8460918479363837 -0.06662907271884755
249.79233333333332 19.060100000000002 1961.97 0.0 0.0 1.0
249.79233333333332 19.060100000000002 1961.97 0.0 0.0 1.0
189.42100000000002 98.87913333333334 1598.5766666666666 0.9805679510419388 0.19617776050387872 -0.0008829909947462669
185.968 101.90476666666666 1570.61 -0.957320889001837 -0.2814963046174878 0.06554804320062377
358.493 224.0 2601.74 0.0 0.0 1.0
358.493 224.0 2601.74 0.0 0.0 1.0
356.6376666666667 245.33333333333334 2601.74 0.0 0.0 1.0
355.942 283.3623333333333 2601.74 0.0 0.0 1.0
358.9566666666667 308.6376666666667 2601.74 0.0 0.0 1.0
357.3333333333333 318.84066666666666 2601.74 0.0 0.0 1.0
359.18833333333333 321.15933333333334 2601.74 0.0 0.0 1.0
359.1886666666667 341.3333333333333 2601.74 0.0 0.0 1.0
261.82366666666667 -250.995 2021.6333333333332 -0.5633083595299454 -0.4338922988982798 0.7031508835523479
259.4386666666667 -186.81233333333333 2019.3499999999997 -0.9707598332410123 -3.1763782685420323e-16 0.24005279870453816
260.0 -182.52266666666665 2021.62 0.0 0.0 1.0
260.0 -182.52266666666665 2021.62 0.0 0.0 1.0
261.69866666666667 -137.045 2028.4866666666667 -0.9707434072714429 2.9484670383504626e-05 0.24011921282913543
357.10133333333334 -87.1884 2601.74 0.0 0.0 1.0
354.7823333333333 -36.869566666666664 2601.74 0.0 0.0 1.0
261.34433333333334 55.565266666666666 2028.6133333333335 -0.995477105810068 -0.031033235076441786 0.08979014494197393
204.331 73.31336666666667 1703.2633333333333 -0.9575177755854911 -0.28219898109476443 0.05935860937462673
189.42100000000002 98.87913333333334 1598.5766666666666 0.9805679510419388 0.19617776050387908 -0.0008829909947463421
160.19766666666666 149.78766666666664 1435.13 -0.8148999587271034 -0.5642785245230463 0.13239261319522086
160.19766666666666 149.78766666666664 1435.13 -0.8148999587271022 -0.5642785245230478 0.1323926131952211
355.4783333333333 281.507 2601.74 0.0 0.0 1.0
358.029 320.0 2601.74 0.0 0.0 1.0
352.0 356.6380000000001 2601.74 0.0 0.0 1.0
338.2273333333333 352.05766666666665 2445.84 0.3227513067708272 -0.7412761888493973 0.5885076089759894
342.1846666666666 -363.47333333333336 2514.29 0.0 0.0 1.0
275.78733333333327 -282.34066666666666 2102.1133333333332 -0.8231176940930406 0.48016216977670656 0.30318567312173705
257.75866666666667 -207.89666666666668 2012.5566666666666 -0.9707476453835084 4.1834564347255316e-16 0.2401020803374558
257.75866666666667 -207.89666666666668 2012.5566666666666 -0.9707476453835084 4.1834564347255316e-16 0.2401020803374558
259.4386666666667 -186.81233333333333 2019.3499999999997 -0.9707598332410123 -3.1763782685420323e-16 0.24005279870453816
357.5653333333333 -110.37666666666667 2601.74 0.0 0.0 1.0
357.79733333333337 -51.71013333333334 2601.74 0.0 0.0 1.0
357.3336666666667 -50.55073333333333 2601.74 0.0 0.0 1.0
355.2463333333333 -22.95653333333333 2601.74 0.0 0.0 1.0
357.79733333333326 -15.5362 2601.74 0.0 0.0 1.0
248.629 24.495933333333337 1936.5833333333333 0.27099069092436745 0.6773762152293452 0.683904604805306
200.07433333333333 79.25513333333333 1671.51 0.0 0.0 1.0
357.1016666666667 299.3623333333333 2601.74 0.0 0.0 1.0
359.1886666666667 341.3333333333333 2601.74 0.0 0.0 1.0
278.9306666666667 -248.02200000000002 2109.56 -0.26503070824416824 0.7235546928308638 0.6373596552732442
257.75866666666667 -207.89666666666665 2012.5566666666666 -0.9707476453835084 4.1834564347255316e-16 0.2401020803374558
253.48366666666664 -50.000433333333326 2003.8133333333335 -0.9576156469367892 -0.16496021991404183 0.23613639826961466
356.40599999999995 -31.304333333333332 2601.74 0.0 0.0 1.0
254.21266666666668 32.326033333333335 1992.46 -0.7586441662337726 0.6321639591444863 0.1575682639310089
186.66600000000003 103.56 1587.2966666666669 0.9660675041854936 0.25774068308627807 -0.016832042033879516
354.087 232.34766666666667 2601.74 0.0 0.0 1.0
356.6376666666667 245.33333333333334 2601.74 0.0 0.0 1.0
355.942 317.681 2601.74 0.0 0.0 1.0
356.4056666666667 329.2753333333333 2601.74 0.0 0.0 1.0
255.79066666666668 -297.7606666666666 2012.5733333333335 -0.7949659344376261 0.529977289625062 0.2952172684064827
342.1846666666667 -363.47333333333336 2514.29 0.0 0.0 1.0
257.6673333333333 -264.1673333333333 2021.6333333333332 -0.8978659484482562 -0.09690577859813251 0.42947177869029196
309.06733333333335 -293.73466666666667 2319.4 -0.7203142353835883 0.04742916380609652 0.6920244769691394
294.71099999999996 -262.92766666666665 2208.12 0.0 0.0 1.0
255.544 -189.10466666666665 2003.6066666666666 -0.9707282759870123 -2.3686743780819232e-05 0.24018037729635855
255.559 -139.28366666666668 2003.6666666666667 -0.9707438750693859 -5.8133894590853686e-05 0.24011731640121917
351.9996666666666 -149.33366666666666 2601.74 0.0 0.0 1.0
354.087 -70.029 2601.74 0.0 0.0 1.0
356.86966666666666 -53.333333333333336 2601.74 0.0 0.0 1.0
353.62300000000005 -25.043499999999998 2601.74 0.0 0.0 1.0
249.79233333333332 19.060100000000002 1961.97 0.0 0.0 1.0
262.2366666666667 58.1133 2044.716666666667 -0.9913963966004588 0.09911481186837681 0.0854952564527537
194.55733333333333 88.98633333333333 1639.45 0.0 0.0 1.0
191.436 96.40473333333334 1621.68 0.0 0.0 1.0
191.436 96.40473333333334 1621.68 0.0 0.0 1.0
191.436 96.40473333333334 1621.68 0.0 0.0 1.0
353.855 206.60866666666666 2601.74 0.0 0.0 1.0
355.942 243.942 2601.74 0.0 0.0 1.0
252.78666666666666 -194.98633333333336 1992.46 -0.9707765157123884 6.795993549859529e-17 0.23998532567912342
252.78666666666666 -194.98633333333336 1992.46 -0.9707765157123883 2.522355638183985e-16 0.23998532567912356
188.47033333333334 100.7829 1597.1533333333334 -0.8947377231929453 -0.4174315018755567 0.1587304253677326
353.855 206.60866666666666 2601.74 0.0 0.0 1.0
354.087 232.34766666666667 2601.74 0.0 0.0 1.0
354.551 310.7246666666667 2601.74 0.0 0.0 1.0
255.79066666666668 -297.7606666666667 2012.573333333333 -0.7949659344376262 0.5299772896250619 0.2952172684064826
276.2 -303.3086666666666 2104.5766666666664 -0.605229971780511 0.7702571825435153 0.2009988905409379
252.78666666666666 -194.9863333333333 1992.46 -0.9707765157123884 6.795993549859529e-17 0.23998532567912342
250.07666666666668 -153.25833333333335 1981.5 -0.970756379215731 -1.1364308368432777e-15 0.2400667661546762
250.61233333333334 -143.58 1983.6666666666667 -0.9707487678597502 -5.400592770553875e-16 0.24009754205067696
352.92733333333337 -94.8406 2601.74 0.0 0.0 1.0
354.087 -70.029 2601.74 0.0 0.0 1.0
353.6233333333333 -67.2464 2601.74 0.0 0.0 1.0
353.6233333333333 -67.2464 2601.74 0.0 0.0 1.0
354.5506666666667 -32.0 2601.74 0.0 0.0 1.0
265.11133333333333 65.52163333333334 2070.74 -0.9934956576183832 0.07641634304867999 0.08442109220143247
191.6386666666667 95.42016666666666 1624.6266666666668 -0.9976431325602946 -4.09829386634843e-17 0.06861617925301695
355.2463333333333 244.40599999999998 2601.74 0.0 0.0 1.0
357.1016666666667 299.3623333333333 2601.74 0.0 0.0 1.0
354.5506666666667 316.98533333333336 2601.74 0.0 0.0 1.0
250.06966666666665 -188.789 1981.4733333333334 -0.9707528769151206 -8.111099113439105e-05 0.24008091423939565
351.3039999999999 -103.18833333333333 2601.74 0.0 0.0 1.0
352.92733333333337 -98.78266666666666 2601.74 0.0 0.0 1.0
354.7823333333333 -36.869566666666664 2601.74 0.0 0.0 1.0
353.62300000000005 -34.55073333333333 2601.74 0.0 0.0 1.0
353.62300000000005 -25.043499999999998 2601.74 0.0 0.0 1.0
251.44133333333332 32.22513333333333 1977.1266666666668 0.7736264696375876 -0.623240237678835 -0.11434024494512632
265.33 42.279666666666664 2089.8799999999997 0.25243587610438295 0.8834917247517763 0.3946118355429094
261.091 51.34023333333334 2058.7566666666667 0.8321487351949991 0.2772070475844384 0.48029650767300236
205.36366666666666 72.6463 1719.55 0.9484257168867087 0.3161171335049403 -0.02363508943398196
356.86966666666666 222.14499999999998 2601.74 0.0 0.0 1.0
350.84066666666666 251.59400000000002 2601.74 0.0 0.0 1.0
354.5506666666667 316.98533333333336 2601.74 0.0 0.0 1.0
255.79066666666668 -297.7606666666667 2012.573333333333 -0.7949659344376261 0.529977289625062 0.2952172684064827
250.06966666666665 -188.789 1981.4733333333334 -0.9707528769151206 -8.11109911344188e-05 0.24008091423939565
248.995 -139.043 1977.1266666666668 -0.9707603528752099 -5.936407880458865e-05 0.24005068998339565
354.551 -131.71 2601.74 0.0 0.0 1.0
349.4493333333333 -113.39133333333332 2601.74 0.0 0.0 1.0
353.6233333333333 -68.4058 2601.74 0.0 0.0 1.0
276.65366666666665 5.923943333333334 2142.2666666666664 0.5288564564456235 0.8460918479363838 -0.06662907271884773
264.7486666666666 41.85863333333333 2087.4500000000003 -0.29248037780206904 0.8189744380946924 0.49369636250254234
271.433 76.86423333333335 2124.5399999999995 -0.9601824960572868 0.26205398210876835 0.09683638121148239
205.36366666666666 72.6463 1719.55 0.9484257168867087 0.31611713350494036 -0.023635089433982036
202.91466666666665 77.3487 1698.3933333333334 -0.9584645324415659 -0.2703357342746965 0.09090836499316766
193.19866666666667 95.65403333333332 1640.9533333333331 -0.9470188717377703 -0.23669733267124732 0.21709359566518205
181.14166666666665 110.67433333333334 1550.2866666666666 -0.9263476489720425 -0.37052218477813814 0.06777421214005082
351.76800000000003 211.24633333333335 2601.74 0.0 0.0 1.0
246.842 -224.56133333333332 1968.42 0.0 0.0 1.0
246.842 -224.56133333333332 1968.42 0.0 0.0 1.0
246.842 -224.56133333333332 1968.42 0.0 0.0 1.0
245.24933333333334 -168.3853333333333 1961.9833333333336 -0.9707270624706524 9.043589030669805e-06 0.24018528286577367
246.317 -135.118 1966.3 -0.9707426396043134 -0.0001516513252683027 0.24012227022066396
353.62300000000005 -25.043500000000005 2601.74 0.0 0.0 1.0
348.5216666666667 0.6956526666666667 2601.74 0.0 0.0 1.0
284.33566666666667 4.05337 2186.92 -0.3302675688942082 -0.9437562595137049 -0.01573072043518518
253.907 22.029799999999998 2026.2033333333331 -0.9206811650809017 -0.3877146761998085 0.044983576164541246
197.47799999999998 89.0493 1668.4133333333332 -0.9629238500166462 -0.26957834467176034 0.01025549380347975
190.2296666666667 99.68426666666666 1618.7666666666667 -0.9239253675558013 4.557393566147609e-16 0.3825727580302568
353.6233333333333 283.826 2601.74 0.0 0.0 1.0
278.3183333333333 311.29866666666663 2170.7833333333333 -0.33988438513845576 -0.9221267580926272 0.18482653150626172
312.1126666666667 344.9816666666666 2393.623333333333 -0.24267697569627103 -0.7123285691685363 0.6585559163907173
318.20966666666664 -305.93 2352.83 0.4122309587750471 -0.19947612687383762 0.888974078044359
244.71733333333336 -173.10366666666667 1959.8333333333333 -0.9707275914555328 -2.430220890005752e-17 0.24018314509336464
244.71733333333336 -173.10366666666667 1959.8333333333333 -0.9707275914555328 -2.430220890005752e-17 0.24018314509336464
349.2169999999999 -149.5653333333333 2601.74 0.0 0.0 1.0
351.30400000000003 -103.18833333333333 2601.74 0.0 0.0 1.0
348.98533333333336 -92.52173333333333 2601.74 0.0 0.0 1.0
348.05766666666665 -45.21736666666667 2601.74 0.0 0.0 1.0
262.726 13.012599999999999 2056.36 0.0 0.0 1.0
216.02666666666667 29.1285 1788.0733333333335 0.5253252283644556 -0.7415484248121736 0.41730005763529027
266.36 59.56296666666666 2082.64 -0.9981125551643941 -0.01665899154695548 0.059108419229776325
191.5913333333333 101.20646666666666 1640.9533333333331 -0.9162475742939166 -0.2915885981903046 0.2747116160738876
353.855 206.60866666666666 2601.74 0.0 0.0 1.0
352.23199999999997 230.26099999999997 2601.74 0.0 0.0 1.0
352.23199999999997 231.88400000000001 2601.74 0.0 0.0 1.0
161.96633333333332 149.49033333333333 1455.0666666666668 -0.9591177844577363 -0.27545925111243785 0.06492516086586443
244.71733333333336 -173.10366666666667 1959.8333333333333 -0.9707275914555326 4.197870009500051e-16 0.24018314509336497
246.317 -135.11800000000002 1966.3 -0.9707426396043134 -0.0001516513252681774 0.24012227022066396
349.2176666666667 -138.20266666666666 2601.74 0.0 0.0 1.0
351.30466666666666 -134.95633333333333 2601.74 0.0 0.0 1.0
351.76800000000003 -75.82606666666666 2601.74 0.0 0.0 1.0
351.07266666666663 -64.69566666666667 2601.74 0.0 0.0 1.0
233.37333333333333 -42.85516666666666 1909.8166666666666 -0.9644839413754173 0.10717293729960622 0.24142222006168984
250.32333333333335 23.1349 1996.8933333333334 -0.8157937521284738 0.4623001219093051 0.34750417446526866
193.90633333333335 99.1324 1657.6266666666668 -0.9976457421922136 -6.025011668047299e-05 0.06857819956568431
351.07233333333335 230.95666666666668 2601.74 0.0 0.0 1.0
350.84066666666666 251.59400000000002 2601.74 0.0 0.0 1.0
350.37699999999995 282.6666666666667 2601.74 0.0 0.0 1.0
350.84066666666666 314.8983333333333 2601.74 0.0 0.0 1.0
316.91866666666664 328.853 2353.043333333333 0.06787132654064952 -0.9757913100365021 0.20790575338566192
312.11266666666666 344.98166666666674 2393.6233333333334 -0.24267697569627086 -0.712328569168536 0.6585559163907174
257.1023333333333 -256.655 2019.3499999999997 -0.6997195212603474 0.05121131050827075 0.7125798153492813
242.61666666666667 -185.196 1951.3400000000001 -0.9707383675257394 -3.43737150548133e-05 0.24013958572444982
242.088 -164.17333333333332 1949.2033333333336 -0.9707486955364809 3.260914639553597e-05 0.24009783224940648
348.98533333333336 -22.028999999999996 2601.74 0.0 0.0 1.0
348.98533333333336 -20.869600000000002 2601.74 0.0 0.0 1.0
260.57733333333334 13.039233333333334 2061.103333333334 -0.8308382095269341 -0.5538081911942074 0.05481201470734859
249.41266666666664 24.85936666666667 1992.46 -0.8158533268711066 0.46233388217127075 0.3473193493455104
271.433 76.86423333333335 2124.5399999999995 -0.960182496057287 0.26205398210876785 0.09683638121148223
201.47833333333332 82.96256666666666 1701.63 0.9712690607584495 0.23312299748610593 -0.047854776736420926
193.90633333333335 99.1324 1657.6266666666668 -0.9976457421922136 -6.025011668052852e-05 0.06857819956568431
189.51566666666668 105.76786666666668 1627.58 0.8687964190490738 0.41714064277479596 -0.2668079204089269
350.14466666666664 236.7536666666667 2601.74 0.0 0.0 1.0
165.92733333333334 147.23133333333334 1492.3500000000001 -0.00030836593639691515 0.9999628393657525 0.008615381479155472
350.84066666666666 332.7536666666667 2601.74 0.0 0.0 1.0
346.89833333333337 342.7246666666667 2601.74 0.0 0.0 1.0
144.58466666666666 182.45933333333335 1362.0866666666668 -0.9311460075219418 -0.3493174401676167 0.10461567124810402
347.1306666666666 354.551 2601.74 0.0 0.0 1.0
279.02666666666664 310.681 2178.6666666666665 0.6552998823339408 -0.7489141512387799 0.0985375983440913
238.10833333333335 -258.276 1934.5 -0.4440855297167501 0.8881710594334793 0.11806867273330615
234.4956666666667 -218.45433333333335 1934.5 -0.7757392651506755 0.1551077735020989 0.6116945079880247
240.00766666666667 -187.85833333333335 1940.79 -0.9708422907569055 -0.0010874089666748996 0.23971663275547472
240.52266666666665 -162.58599999999998 1942.8733333333332 -0.970771291270972 8.625121912801574e-05 0.24000644284022202
238.4523333333333 -118.78433333333334 1934.5 -0.9707766789284412 1.995160525500709e-15 0.23998466544482924
348.9853333333333 -149.7973333333333 2601.74 0.0 0.0 1.0
349.68100000000004 -103.42033333333332 2601.74 0.0 0.0 1.0
351.76800000000003 -75.82606666666666 2601.74 0.0 0.0 1.0
347.59400000000005 -15.304333333333332 2601.74 0.0 0.0 1.0
205.26266666666666 74.24426666666666 1724.506666666667 0.8448794338130003 0.4697292310875132 -0.255994515139989
193.90633333333335 99.1324 1657.6266666666668 -0.9976457421922136 -6.025011668047299e-05 0.06857819956568431
348.98533333333336 239.53633333333335 2601.74 0.0 0.0 1.0
165.92733333333334 147.23133333333334 1492.3500000000001 -0.00030836593639647464 0.9999628393657527 0.00861538147915542
144.58466666666666 182.45933333333335 1362.0866666666668 -0.9311460075219417 -0.3493174401676167 0.10461567124810413
248.11766666666668 281.147 2019.5033333333333 -0.3092301234633747 0.945992433265502 -0.09733985282113938
237.418 -269.3686666666667 1932.4033333333334 -0.8518385085783313 -0.5111031051469903 -0.11465064854656878
309.586 -292.54266666666666 2316.3933333333334 -0.5303887128578542 0.22903104788375775 0.8162307225155498
240.52266666666665 -162.58599999999998 1942.8733333333332 -0.970771291270972 8.625121912796638e-05 0.24000644284022218
349.68100000000004 -103.42033333333332 2601.74 0.0 0.0 1.0
348.7536666666667 -62.6087 2601.74 0.0 0.0 1.0
348.5216666666667 0.6956526666666667 2601.74 0.0 0.0 1.0
276.65366666666665 5.923943333333334 2142.2666666666664 0.5288564564456236 0.8460918479363839 -0.06662907271884769
262.726 13.012599999999999 2056.36 0.0 0.0 1.0
270.78399999999993 67.44073333333334 2132.0899999999997 -0.9898703124472603 0.10702667263817642 0.09328481055115047
204.82233333333332 78.69940000000001 1731.17 -0.868077614810094 -0.4331765530334711 0.24248572858553571
200.60766666666666 88.37143333333334 1706.4733333333334 0.9806435222267934 0.18860909259113492 -0.05258224516485536
350.84066666666666 251.59400000000002 2601.74 0.0 0.0 1.0
350.37699999999995 282.6666666666667 2601.74 0.0 0.0 1.0
347.3623333333333 319.5363333333333 2601.74 0.0 0.0 1.0
347.1306666666666 354.551 2601.74 0.0 0.0 1.0
235.01066666666668 -267.183 1930.32 0.0 0.0 1.0
236.38700000000003 -258.409 1930.32 0.0 0.0 1.0
231.914 -235.52700000000002 1930.32 0.0 0.0 1.0
235.01066666666668 -207.82766666666666 1930.32 0.0 0.0 1.0
238.4523333333333 -191.37199999999999 1934.5 -0.9707766789284408 -1.3088018586369399e-17 0.23998466544483008
236.90733333333333 -120.13 1928.2533333333333 -0.970692558647345 6.882089799305903e-16 0.2403246899231759
236.90733333333333 -120.13 1928.2533333333333 -0.970692558647345 7.706622618729128e-16 0.2403246899231759
349.4493333333333 -113.39133333333332 2601.74 0.0 0.0 1.0
349.4493333333333 -113.39133333333332 2601.74 0.0 0.0 1.0
348.98533333333336 -92.52173333333333 2601.74 0.0 0.0 1.0
348.98533333333336 -92.52173333333333 2601.74 0.0 0.0 1.0
348.05766666666665 -45.21736666666667 2601.74 0.0 0.0 1.0
252.87966666666668 25.941033333333333 2035.37 0.0 0.0 1.0
270.89466666666664 49.200199999999995 2139.693333333333 -0.9674786602956608 -0.24196842769746157 0.07373141711734156
190.177 106.65599999999999 1639.46 -0.4450416696973328 0.442331178926943 0.7786405077968335
347.826 241.15966666666668 2601.74 0.0 0.0 1.0
347.5943333333333 314.4346666666666 2601.74 0.0 0.0 1.0
347.3623333333333 319.5363333333333 2601.74 0.0 0.0 1.0
144.87833333333333 183.4226666666667 1368.3233333333335 -0.9021737116510491 -0.415841662208983 0.11470965947573826
276.012 310.373 2160.31 -0.19554788776242105 -0.9780989724815773 0.07129813196808338
234.67100000000002 -281.33 1928.253333333333 0.9676807308613576 0.12116515811463362 0.22116285307140604
235.88733333333334 -118.67333333333333 1924.1299999999999 -0.9705150474408145 0.004892141775706293 0.2409908911967421
347.59400000000005 -148.63766666666666 2601.74 0.0 0.0 1.0
346.20266666666663 -121.27533333333334 2601.74 0.0 0.0 1.0
346.203 -61.44926666666667 2601.74 0.0 0.0 1.0
347.13033333333334 -22.26086666666667 2601.74 0.0 0.0 1.0
347.13033333333334 -20.6377 2601.74 0.0 0.0 1.0
206.88133333333334 79.05386666666668 1753.1866666666665 -0.9737450893156943 -0.21777801087610238 0.06628151335341301
200.37833333333333 86.04816666666666 1696.7866666666669 -0.9634920685198345 -0.25692743923258304 0.07530819921335208
188.9 108.46366666666667 1633.5033333333333 -0.9893298676797745 -0.1319443766747472 0.06178263818122319
346.6666666666667 212.8696666666667 2601.74 0.0 0.0 1.0
167.67733333333334 145.45233333333334 1511.1166666666668 -0.9983243761326768 -6.572509823792075e-05 0.05786566943804696
236.38699999999997 -258.40900000000005 1930.32 0.0 0.0 1.0
232.84666666666666 -171.768 1911.8333333333333 -0.9707670476523271 3.90820734577532e-05 0.24002361897316682
235.88733333333334 -118.67333333333335 1924.1299999999999 -0.9705150474408145 0.004892141775704877 0.24099089119674189
347.59400000000005 -148.63766666666666 2601.74 0.0 0.0 1.0
347.3623333333333 -138.6663333333333 2601.74 0.0 0.0 1.0
347.59400000000005 -15.304333333333332 2601.74 0.0 0.0 1.0
252.87966666666668 25.941033333333333 2035.37 0.0 0.0 1.0
253.54399999999998 23.118233333333333 2026.2033333333331 -0.9197204437391837 -0.3873100999164547 0.06407177124838181
270.89466666666664 49.200199999999995 2139.693333333333 -0.9674786602956608 -0.24196842769746196 0.07373141711734138
204.82233333333332 78.69940000000001 1731.17 -0.8680776148101378 -0.43317655303340125 0.24248572858550377
347.826 241.15966666666668 2601.74 0.0 0.0 1.0
167.67733333333334 145.45233333333334 1511.1166666666668 -0.9983243761326768 -6.572509823827655e-05 0.05786566943804675
345.0436666666667 300.98566666666665 2601.74 0.0 0.0 1.0
344.81166666666667 302.14500000000004 2601.74 0.0 0.0 1.0
344.116 337.85533333333336 2601.74 0.0 0.0 1.0
276.012 310.373 2160.31 -0.19554788776242105 -0.9780989724815773 0.07129813196808338
235.01066666666668 -267.183 1930.32 0.0 0.0 1.0
232.648 -209.92500000000004 1917.9866666666667 0.9995004111560687 -4.797693424227268e-17 0.0316058238122314
232.34133333333332 -204.60366666666664 1909.79 -0.9707953336139065 -2.8680825885106653e-16 0.2399091916402201
232.84666666666666 -179.58133333333333 1911.8333333333333 -0.9708409152608117 0.00026398767423002205 0.23972452433169478
230.346 -53.21543333333333 1901.7233333333334 -0.9707589220417814 0.00020056982535487177 0.24005639972311482
270.89466666666664 49.200199999999995 2139.693333333333 -0.9674786602956608 -0.24196842769746196 0.07373141711734138
343.884 231.65200000000002 2601.74 0.0 0.0 1.0
167.67733333333334 145.45233333333334 1511.1166666666668 -0.9983243761326768 -6.572509823706517e-05 0.05786566943804729
343.1886666666666 290.5506666666667 2601.74 0.0 0.0 1.0
347.3623333333333 319.5363333333333 2601.74 0.0 0.0 1.0
346.8983333333333 342.7246666666667 2601.74 0.0 0.0 1.0
237.39633333333336 279.79466666666667 1968.6499999999999 -0.25026256109987205 0.9554498124236587 0.15647461919214956
236.38699999999997 -258.40900000000005 1930.32 0.0 0.0 1.0
235.01066666666668 -207.82766666666666 1930.32 0.0 0.0 1.0
231.83966666666666 -194.5233333333333 1907.7600000000002 -0.9707953336139065 -8.724426656421074e-17 0.23990919164022048
231.83966666666666 -187.87766666666667 1907.7600000000002 -0.9707953336139065 4.1991188489337994e-16 0.23990919164022
229.84433333333334 -163.21733333333336 1899.6933333333334 -0.9707266556380179 1.1559072918302048e-05 0.24018692699690597
347.3623333333333 -137.04333333333332 2601.74 0.0 0.0 1.0
229.84433333333334 -88.55463333333331 1899.6933333333334 -0.9707275970343952 -1.0342619766346847e-05 0.2401831223230708
345.04333333333335 -47.072466666666664 2601.74 0.0 0.0 1.0
343.884 6.724636666666666 2601.74 0.0 0.0 1.0
252.69433333333333 30.043199999999995 2005.8133333333333 0.14219791719240915 -0.4739783438808276 0.8689788730907838
200.60766666666666 88.37143333333334 1706.4733333333334 0.9806435222267935 0.18860909259113504 -0.05258224516485543
188.73833333333332 116.15533333333333 1662.2300000000002 0.8229401953772598 0.532401512793015 -0.1982878312154998
346.8983333333333 342.7246666666667 2601.74 0.0 0.0 1.0
144.87833333333333 183.4226666666667 1368.3233333333335 -0.902173711651049 -0.4158416622089832 0.11470965947573825
229.84433333333334 -164.73633333333333 1899.6933333333334 -0.9707286892870665 2.456786594537626e-05 0.24017870678191652
228.35733333333337 -130.80033333333333 1893.6833333333334 -0.9707308897849534 9.922639783654302e-06 0.24016981392101297
229.84433333333334 -88.55463333333334 1899.6933333333334 -0.9707275970343952 -1.0342619766346847e-05 0.2401831223230708
230.346 -53.21543333333333 1901.7233333333334 -0.9707589220417814 0.00020056982535495422 0.24005639972311482
255.42933333333335 -1.9765799999999996 1968.4366666666667 -0.06661595339436434 0.3018008309078797 0.9510407842025879
346.20266666666674 -21.333333333333332 2601.74 0.0 0.0 1.0
248.35833333333335 21.3276 1994.6833333333334 -0.8157808669004899 0.46238018571565315 0.3474278933198131
230.46866666666665 18.720266666666664 1909.8166666666666 0.08265078606751174 0.9914051436053372 0.10141345470549337
236.26533333333336 19.361566666666665 1905.743333333333 -0.04646360146820193 0.9913840962060346 0.1224692105320694
256.8693333333334 40.9734 2080.2100000000005 0.11041493202164596 -0.9938334150396755 0.010182629190506658
272.08099999999996 54.952133333333336 2155.1466666666665 -0.9651037276517495 -0.1930854859512181 0.1768976822563814
272.58166666666665 59.76436666666667 2162.92 -0.9712040122119215 -0.16194644713880374 0.17474585809850882
274.9583333333333 71.6767 2178.6866666666665 -0.9906594226999089 0.08498653637851258 0.10663581410702098
278.3346666666667 79.00569999999999 2205.4933333333333 -0.9742347493707096 0.20882985074292587 0.08518653976584294
184.84033333333332 114.5 1615.8533333333332 0.950109558625318 0.3073941039431571 -0.05292155959329847
345.2753333333333 236.7536666666667 2601.74 0.0 0.0 1.0
341.5653333333333 264.5793333333333 2601.74 0.0 0.0 1.0
343.884 313.73900000000003 2601.74 0.0 0.0 1.0
279.02666666666664 310.681 2178.6666666666665 0.6552998823339407 -0.7489141512387799 0.09853759834409122
232.602 -280.6023333333333 1930.32 0.0 0.0 1.0
228.8563333333333 -188.881 1895.7 -0.9707044730292987 -0.0002959595838246328 0.24027637929858342
228.84966666666665 -164.56333333333336 1895.6733333333334 -0.9707287076883723 9.25429766167735e-17 0.2401786336659913
228.84966666666665 -164.56333333333336 1895.6733333333334 -0.9707287076883723 -1.6854442711497036e-17 0.2401786336659913
227.36933333333332 -132.38066666666666 1889.6899999999998 -0.9707326184420417 -7.582578581505236e-17 0.24016282704169056
342.26099999999997 -153.04366666666667 2601.74 0.0 0.0 1.0
345.2749999999999 -128.46366666666665 2601.74 0.0 0.0 1.0
228.35733333333334 -87.42246666666666 1893.6833333333334 -0.9707340347365045 4.962261667289414e-05 0.24015709721301723
347.13033333333334 -103.884 2601.74 0.0 0.0 1.0
227.37233333333333 -62.976933333333335 1889.7 -0.9707625944407672 -1.5592681586414013e-16 0.2400416322945476
228.8496666666667 -57.26983333333333 1895.6733333333334 -0.9707287076883722 -1.8042232269644604e-16 0.2401786336659918
341.797 -52.637699999999995 2601.74 0.0 0.0 1.0
343.884 6.724636666666666 2601.74 0.0 0.0 1.0
262.7283333333333 41.350533333333324 2089.8799999999997 -0.26760398971925986 -0.9365780889629284 0.22629535558840624
273.8583333333333 65.40393333333334 2170.7466666666664 -0.8888247279218311 -0.14820985602008163 0.43361785204623415
276.88533333333334 78.65026666666667 2189.3133333333335 -0.9717090195188737 0.2243373265942434 0.07385353940209709
205.72833333333335 86.0133 1763.4799999999998 0.9620979121802413 0.257310189367481 -0.09032759172086736
343.884 231.65200000000002 2601.74 0.0 0.0 1.0
344.116 337.85533333333336 2601.74 0.0 0.0 1.0
340.406 382.145 2601.74 0.0 0.0 1.0
