ply
format ascii 1.0
comment VCGLIB generated
element vertex 782
property float x
property float y
property float z
property float nx
property float ny
property float nz
element face 0
property list uchar int vertex_indices
end_header
-78.87546666666667 -130.52200000000002 1802.41 0.0 0.0 1.0
-79.35936666666667 -121.802 1797.0 0.0 0.0 1.0
-79.35933333333332 -115.87599999999999 1797.0 0.0 0.0 1.0
-79.19676666666668 -113.81533333333334 1802.41 0.0 0.0 1.0
-79.1992 -97.61763333333334 1797.0 0.0 0.0 1.0
-78.5714 -93.73013333333334 1780.95 0.0 0.0 1.0
-77.43743333333333 -92.17216666666667 1797.0 0.0 0.0 1.0
-78.72253333333333 -84.07186666666666 1791.62 0.0 0.0 1.0
-79.2016 -82.47503333333333 1791.62 0.0 0.0 1.0
-77.47723333333333 -46.74006666666666 1768.67 0.34004229784879425 0.9067954242330702 0.24918526092784443
-78.74136666666665 -36.73546666666667 1765.1899999999998 2.176003851755887e-26 1.0880019258779437e-26 1.0
-79.37066666666666 -36.2635 1765.1899999999998 0.0 0.0 1.0
-78.90193333333333 -20.784333333333333 1760.0 0.0 0.0 1.0
-78.90193333333333 -20.784333333333333 1760.0 0.0 0.0 1.0
-79.0588 5.725486666666668 1760.0 0.0 0.0 1.0
-79.21336666666667 8.259586666666666 1765.1899999999998 -7.071058495467132e-28 3.6718169735693067e-28 1.0
-80.0 23.313833333333335 1749.71 0.0 0.0 1.0
-78.91789999999999 40.73426666666667 1734.49 0.0 0.0 1.0
-79.06979999999999 42.55813333333334 1739.53 0.0 0.0 1.0
-80.77069999999999 49.0944 1729.4800000000002 -2.0985997752976647e-27 -4.93150526546632e-27 1.0
-79.218 54.03713333333334 1754.84 0.0 0.0 1.0
-79.22483333333334 60.07753333333333 1739.53 0.0 0.0 1.0
-78.28963333333333 65.69486666666667 1744.61 0.0 0.0 1.0
-79.22256666666667 84.9757 1744.61 0.0 0.0 1.0
-79.2446 106.44 1695.18 0.0 0.0 1.0
-78.39309999999999 -116.34366666666665 1804.2233333333334 0.34979784124407454 0.7869181415082604 0.5083318884608465
-80.16016666666667 -111.712 1797.0 0.0 0.0 1.0
-80.0 -87.75466666666667 1775.67 0.0 0.0 1.0
-80.63303333333333 -82.84866666666666 1775.67 0.0 0.0 1.0
-80.0 -81.8363 1791.62 0.0 0.0 1.0
-79.6835 -77.46786666666667 1775.67 0.0 0.0 1.0
-79.6835 -76.51833333333333 1775.67 0.0 0.0 1.0
-78.89546666666666 -58.61933333333334 1770.41 0.0 0.0 1.0
-80.63113333333332 -53.25443333333334 1770.41 0.0 0.0 1.0
-79.2157 -34.745066666666666 1760.0 0.0 0.0 1.0
-79.22253333333333 -4.120503333333333 1744.61 0.0 0.0 1.0
-79.37803333333333 -0.5442173333333333 1744.61 0.0 0.0 1.0
-79.0588 5.725486666666666 1760.0 0.0 0.0 1.0
-78.90196666666667 22.352933333333336 1760.0 0.0 0.0 1.0
-80.0 23.313833333333335 1749.71 0.0 0.0 1.0
-78.60056666666667 32.886300000000006 1744.61 0.0 0.0 1.0
-78.60193333333332 40.15343333333333 1742.9166666666667 0.21203832791368885 0.8481078586369933 0.4855438266662863
-79.06979999999999 42.55813333333334 1739.53 0.0 0.0 1.0
-78.61273333333334 44.007666666666665 1729.4800000000002 1.8888078721156695e-27 2.042396055267282e-31 1.0
-79.68813333333333 70.87723333333334 1749.71 0.0 0.0 1.0
-78.91156666666666 84.19823333333333 1744.61 0.0 0.0 1.0
-78.921 87.93836666666668 1729.4800000000002 1.8887261906267442e-26 -2.644576116218106e-26 1.0
-78.76686666666667 88.8632 1729.4800000000002 -7.555231510545022e-27 -1.510964615099493e-26 1.0
-80.15456666666667 100.09683333333334 1734.49 0.0 0.0 1.0
-79.5402 108.58233333333332 1719.54 0.0 0.0 1.0
-79.54673333333334 122.30400000000002 1695.18 0.0 0.0 1.0
-79.24453333333334 123.96600000000001 1695.18 0.0 0.0 1.0
-79.24453333333334 123.96600000000001 1695.18 0.0 0.0 1.0
-80.8008 -126.28633333333335 1797.0 0.0 0.0 1.0
-79.19676666666668 -113.81533333333334 1802.41 0.0 0.0 1.0
-80.15966666666667 -83.59283333333333 1791.62 0.0 0.0 1.0
-79.37066666666665 -36.8928 1765.1899999999998 3.8074304927846e-26 -2.175888597314587e-26 1.0
-79.37066666666665 -36.2635 1765.1899999999998 3.8074304927846e-26 2.175888597314587e-26 1.0
-80.6256 -22.756600000000002 1754.84 0.0 0.0 1.0
-80.15546666666667 -5.053446666666666 1744.61 0.0 0.0 1.0
-79.68903333333333 0.855198 1744.61 0.0 0.0 1.0
-78.90196666666667 22.352933333333336 1760.0 0.0 0.0 1.0
-80.0 40.73426666666667 1734.49 0.0 0.0 1.0
-79.218 54.03713333333334 1754.84 0.0 0.0 1.0
-81.9981 55.56199999999999 1724.5 0.0 0.0 1.0
-79.84496666666666 60.07753333333333 1739.53 0.0 0.0 1.0
-80.62013333333334 62.24803333333333 1739.53 0.0 0.0 1.0
-80.77159999999999 104.37666666666667 1731.1499999999999 0.8804012541377072 -0.4401371747262109 -0.1765584864479224
-81.21213333333333 118.56066666666668 1700.0 0.0 0.0 1.0
-81.02563333333332 -170.769 2301.54 0.0 0.0 1.0
-80.16016666666667 -121.32133333333333 1797.0 0.0 0.0 1.0
-80.96096666666666 -112.673 1797.0 0.0 0.0 1.0
-80.48046666666666 -110.59066666666668 1797.0 0.0 0.0 1.0
-80.80083333333334 -101.782 1797.0 0.0 0.0 1.0
-80.4805 -98.0981 1797.0 0.0 0.0 1.0
-80.4805 -98.0981 1797.0 0.0 0.0 1.0
-80.4805 -98.0981 1797.0 0.0 0.0 1.0
-81.8935 -40.9467 1770.41 0.0 0.0 1.0
-80.472 -40.511300000000006 1765.1899999999998 4.250971215035318e-24 -6.52911830565198e-25 1.0
-80.78433333333334 -28.784333333333333 1760.0 0.0 0.0 1.0
-80.6256 -22.756600000000002 1754.84 0.0 0.0 1.0
-80.9412 -20.313733333333335 1760.0 0.0 0.0 1.0
-79.6881 -8.34308 1749.71 0.0 0.0 1.0
-80.77746666666667 0.6997073333333333 1744.61 0.0 0.0 1.0
-80.4706 5.88235 1760.0 0.0 0.0 1.0
-80.15733333333333 7.78761 1765.1899999999998 9.51810804006715e-27 -6.798996369478703e-27 1.0
-78.90196666666667 14.196100000000001 1760.0 0.0 0.0 1.0
-81.87133333333334 25.9649 1749.71 0.0 0.0 1.0
-78.58406666666666 37.9941 1765.1899999999998 0.0 1.0 0.0
-81.23313333333333 50.94413333333333 1729.4800000000002 -3.1478656260793076e-27 -3.147559303475187e-28 1.0
-82.628 58.82123333333334 1734.49 0.0 0.0 1.0
-79.84496666666666 60.07753333333333 1739.53 0.0 0.0 1.0
-80.62013333333334 62.24803333333333 1739.53 0.0 0.0 1.0
-80.0 67.98450000000001 1739.53 0.0 0.0 1.0
-82.00966666666666 76.75363333333333 1734.49 0.0 0.0 1.0
-80.31099999999999 85.4422 1744.61 0.0 0.0 1.0
-80.30220000000001 105.98700000000001 1695.18 0.0 0.0 1.0
-81.80793333333334 109.60466666666667 1690.4000000000003 7.911028812065866e-26 -1.213869820608887e-25 1.0
-80.1515 114.621 1700.0 0.0 0.0 1.0
-79.54673333333334 121.09533333333333 1695.18 0.0 0.0 1.0
-88.8205 170.154 2301.54 0.0 0.0 1.0
-81.28126666666667 -125.96600000000001 1797.0 0.0 0.0 1.0
-81.12113333333333 -124.52466666666668 1797.0 0.0 0.0 1.0
-80.961 -123.24333333333334 1797.0 0.0 0.0 1.0
-81.2813 -121.161 1797.0 0.0 0.0 1.0
-80.96096666666666 -112.673 1797.0 0.0 0.0 1.0
-81.2813 -101.46166666666666 1797.0 0.0 0.0 1.0
-81.2813 -101.46166666666666 1797.0 0.0 0.0 1.0
-81.58733333333333 -94.20633333333332 1780.95 0.0 0.0 1.0
-81.42433333333334 -83.79823333333333 1775.67 0.0 0.0 1.0
-81.10783333333333 -77.15133333333334 1775.67 0.0 0.0 1.0
-81.10783333333333 -77.15133333333334 1775.67 0.0 0.0 1.0
-81.2623 -67.92899999999999 1770.41 0.0 0.0 1.0
-80.78893333333333 -63.510866666666665 1770.41 0.0 0.0 1.0
-80.63113333333334 -53.25443333333334 1770.41 0.0 0.0 1.0
-80.94396666666665 -43.185833333333335 1765.1899999999998 6.267070502404952e-25 -1.1130272448291473e-25 1.0
-80.78433333333334 -34.11763333333334 1760.0 0.0 0.0 1.0
-80.78433333333334 -28.784333333333333 1760.0 0.0 0.0 1.0
-80.78433333333334 -28.784333333333333 1760.0 0.0 0.0 1.0
-80.9412 -20.313733333333335 1760.0 0.0 0.0 1.0
-81.42433333333334 -12.106833333333332 1775.67 0.0 0.0 1.0
-81.24756666666667 -7.563353333333333 1749.71 0.0 0.0 1.0
-80.93293333333334 -5.208939999999999 1744.61 0.0 0.0 1.0
-80.15733333333333 7.78761 1765.1899999999998 9.518108040067138e-27 -6.798996369478696e-27 1.0
-82.50243333333333 29.1691 1754.84 0.0 0.0 1.0
-80.93293333333334 31.797833333333333 1744.61 0.0 0.0 1.0
-80.4651 33.10073333333333 1739.53 0.0 0.0 1.0
-80.77293333333334 41.816399999999994 1734.49 0.0 0.0 1.0
-82.77456666666667 57.572300000000006 1729.4800000000002 2.802596928649634e-44 -0.9995120760870788 0.03123475237772124
-80.0 67.98450000000001 1739.53 0.0 0.0 1.0
-80.30829999999999 96.8786 1729.4800000000002 -3.399609118716971e-26 -1.435477653134952e-25 1.0
-81.85506666666667 101.952 1734.49 0.0 0.0 1.0
-81.20443333333333 110.25333333333333 1688.8100000000002 0.5926026640829439 -0.7906762777827047 -0.15379566402693104
-81.44576666666667 -131.96766666666664 1802.41 0.0 0.0 1.0
-81.28126666666667 -125.96600000000001 1797.0 0.0 0.0 1.0
-81.28126666666667 -125.96600000000001 1797.0 0.0 0.0 1.0
-81.6016 -118.91866666666668 1797.0 0.0 0.0 1.0
-80.96096666666666 -112.673 1797.0 0.0 0.0 1.0
-81.6016 -108.98899999999999 1797.0 0.0 0.0 1.0
-81.58733333333333 -94.20633333333332 1780.95 0.0 0.0 1.0
-80.63303333333333 -82.84866666666666 1775.67 0.0 0.0 1.0
-80.0 -81.8363 1791.62 0.0 0.0 1.0
-81.42433333333334 -76.99306666666666 1775.67 0.0 0.0 1.0
-81.89909999999999 -74.30266666666667 1775.67 0.0 0.0 1.0
-84.13929999999999 -55.64180000000001 1786.2699999999998 5.605193857299268e-45 -0.9995120760870788 0.03123475237772124
-81.89346666666667 -52.93886666666666 1770.41 0.0 0.0 1.0
-80.15733333333333 -44.91639999999999 1765.1899999999998 1.3321654855474667e-27 3.5523642015218484e-27 1.0
-83.49206666666667 -41.82543333333333 1780.95 0.0 0.0 1.0
-77.62613333333333 -31.572699999999998 1775.67 0.0 0.0 1.0
-81.4076 -22.4438 1754.84 0.0 0.0 1.0
-81.09806666666667 -20.627466666666667 1760.0 0.0 0.0 1.0
-81.25493333333333 -20.4706 1760.0 0.0 0.0 1.0
-81.7154 -15.984433333333333 1749.71 0.0 0.0 1.0
-81.7154 -15.984433333333333 1749.71 0.0 0.0 1.0
-81.7154 -15.2047 1749.71 0.0 0.0 1.0
-81.42433333333334 -12.106833333333332 1775.67 0.0 0.0 1.0
-80.93293333333334 -3.9650133333333333 1744.61 0.0 0.0 1.0
-81.09806666666667 5.725490000000001 1760.0 0.0 0.0 1.0
-81.09806666666667 5.725490000000001 1760.0 0.0 0.0 1.0
-81.09163333333333 23.9376 1749.71 0.0 0.0 1.0
-82.6447 24.201766666666668 1746.3100000000002 -1.0115232506257657e-16 0.9859483273813286 0.16705057837062443
-80.77293333333334 41.816399999999994 1734.49 0.0 0.0 1.0
-80.92486666666666 44.93253333333333 1729.4800000000002 -1.8888078721156684e-27 -1.1332275411264025e-27 1.0
-82.158 49.24856666666667 1729.4800000000002 2.3125521141243755e-27 -4.933066650473931e-27 1.0
-79.37253333333334 54.039233333333335 1760.0 0.0 0.0 1.0
-81.2403 61.93796666666666 1739.53 0.0 0.0 1.0
-80.62013333333334 63.02323333333334 1739.53 0.0 0.0 1.0
-82.33236666666666 66.62783333333334 1744.61 0.0 0.0 1.0
-80.77973333333334 70.72126666666666 1749.71 0.0 0.0 1.0
-81.4035 71.50096666666667 1749.71 0.0 0.0 1.0
-81.4035 71.50096666666667 1749.71 0.0 0.0 1.0
-81.39943333333333 85.4422 1744.61 0.0 0.0 1.0
-80.15416666666665 88.55493333333334 1729.4800000000002 -2.8331607537928584e-27 -1.8887057578337906e-27 1.0
-80.77159999999999 104.37666666666667 1731.1499999999999 0.8804012541377071 -0.4401371747262108 -0.17655848644792227
-80.30220000000001 105.98700000000001 1695.18 0.0 0.0 1.0
-79.5402 108.58233333333332 1719.54 0.0 0.0 1.0
-83.03893333333333 112.97266666666667 1704.84 0.0 0.0 1.0
-82.7309 -129.07666666666668 1802.41 0.0 0.0 1.0
-81.76173333333332 -126.60666666666668 1797.0 0.0 0.0 1.0
-81.76173333333332 -126.60666666666668 1797.0 0.0 0.0 1.0
-83.04303333333333 -114.915 1797.0 0.0 0.0 1.0
-81.76176666666667 -101.94233333333334 1797.0 0.0 0.0 1.0
-82.21563333333334 -85.38083333333333 1775.67 0.0 0.0 1.0
-81.89910000000002 -77.1513 1775.67 0.0 0.0 1.0
-81.89909999999999 -74.30266666666667 1775.67 0.0 0.0 1.0
-81.5779 -70.29586666666667 1770.41 0.0 0.0 1.0
-81.5779 -70.29586666666667 1770.41 0.0 0.0 1.0
-81.88236666666666 -33.17646666666667 1760.0 0.0 0.0 1.0
-82.65883333333333 -24.789800000000003 1754.84 0.0 0.0 1.0
-81.8991 -9.8912 1775.67 0.0 0.0 1.0
-81.8991 -9.8912 1775.67 0.0 0.0 1.0
-81.8991 -9.8912 1775.67 0.0 0.0 1.0
-82.02136666666667 -4.275996666666667 1744.61 0.0 0.0 1.0
-82.33236666666666 -0.38872666666666666 1744.61 0.0 0.0 1.0
-82.65883333333333 17.5953 1754.84 0.0 0.0 1.0
-83.93313333333333 37.9941 1765.1899999999998 0.0 1.0 0.0
-81.69556666666666 46.47396666666666 1729.4800000000002 4.5335637148138756e-27 6.0443158991708985e-28 1.0
-82.158 49.24856666666667 1729.4800000000002 2.312552114124376e-27 -4.933066650473931e-27 1.0
-81.8497 51.71483333333333 1729.4800000000002 0.0 0.0 1.0
-81.2403 61.93796666666666 1739.53 0.0 0.0 1.0
-82.33236666666666 66.00586666666668 1744.61 0.0 0.0 1.0
-82.17686666666667 80.46646666666668 1744.61 0.0 0.0 1.0
-82.17686666666667 80.46646666666668 1744.61 0.0 0.0 1.0
-83.5641 92.08086666666667 1737.8500000000001 0.7956068192977263 0.39784617041524706 0.45686782965413236
-82.158 96.57030000000002 1729.4800000000002 1.6161661582473163e-26 -2.68652465904713e-26 1.0
-81.85506666666667 101.952 1734.49 0.0 0.0 1.0
-82.42426666666667 103.106 1700.0 0.0 0.0 1.0
-83.03893333333333 112.97266666666667 1704.84 0.0 0.0 1.0
-81.66666666666667 115.22699999999999 1700.0 0.0 0.0 1.0
-81.21213333333334 118.56066666666668 1700.0 0.0 0.0 1.0
-82.27273333333333 119.01533333333334 1700.0 0.0 0.0 1.0
-82.7309 -129.07666666666668 1802.41 0.0 0.0 1.0
-82.08210000000001 -121.80166666666668 1797.0 0.0 0.0 1.0
-82.56256666666667 -102.42266666666667 1797.0 0.0 0.0 1.0
-82.22223333333334 -94.36506666666666 1780.95 0.0 0.0 1.0
-83.32343333333334 -87.43816666666667 1775.67 0.0 0.0 1.0
-81.89910000000002 -77.1513 1775.67 0.0 0.0 1.0
-81.89910000000002 -74.30266666666667 1775.67 0.0 0.0 1.0
-84.1393 -69.49253333333333 1786.2699999999998 -3.676336973712412e-28 3.1857619037859446e-28 1.0
-82.68243333333334 -62.406299999999995 1770.41 0.0 0.0 1.0
-82.20906666666667 -54.201166666666666 1770.41 0.0 0.0 1.0
-81.57323333333333 -50.422799999999995 1765.1899999999998 5.8740627462037005e-28 2.6566212439754095e-27 1.0
-82.84023333333333 -40.9467 1770.41 0.0 0.0 1.0
-82.1896 -22.2874 1754.84 0.0 0.0 1.0
-82.3392 -15.516600000000002 1749.71 0.0 0.0 1.0
-82.18326666666667 -6.939573333333333 1749.71 0.0 0.0 1.0
-82.48786666666668 -1.0106886666666666 1744.61 0.0 0.0 1.0
-82.48786666666668 -1.0106886666666666 1744.61 0.0 0.0 1.0
-82.51723333333332 10.14748 1765.1899999999998 5.861884490259159e-26 -1.0072845453913e-26 1.0
-82.67456666666668 11.406066666666666 1765.1899999999998 -5.892095241524156e-26 -1.541009524706348e-26 1.0
-82.18323333333335 24.873266666666666 1749.71 0.0 0.0 1.0
-83.5659 31.705433333333332 1739.53 0.0 0.0 1.0
-82.628 58.82123333333334 1734.49 0.0 0.0 1.0
-83.24636666666667 76.59903333333334 1734.49 0.0 0.0 1.0
-82.48786666666668 84.82020000000001 1744.61 0.0 0.0 1.0
-82.48786666666668 84.8202 1744.61 0.0 0.0 1.0
-82.72726666666667 101.74233333333332 1700.0 0.0 0.0 1.0
-81.80793333333334 109.60466666666667 1690.4000000000003 7.911028812065872e-26 -1.2138698206088884e-25 1.0
-82.24226666666668 -123.56333333333333 1797.0 0.0 0.0 1.0
-82.72273333333334 -122.60233333333333 1797.0 0.0 0.0 1.0
-82.24223333333333 -119.23899999999999 1797.0 0.0 0.0 1.0
-83.04303333333333 -114.915 1797.0 0.0 0.0 1.0
-83.36336666666666 -105.786 1797.0 0.0 0.0 1.0
-83.36336666666666 -105.786 1797.0 0.0 0.0 1.0
-82.22223333333334 -94.36506666666666 1780.95 0.0 0.0 1.0
-82.68243333333334 -62.406299999999995 1770.41 0.0 0.0 1.0
-82.68243333333334 -62.406299999999995 1770.41 0.0 0.0 1.0
-82.84023333333333 -40.9467 1770.41 0.0 0.0 1.0
-81.88236666666666 -33.17646666666667 1760.0 0.0 0.0 1.0
-82.65883333333333 -24.789800000000003 1754.84 0.0 0.0 1.0
-82.1896 -22.2874 1754.84 0.0 0.0 1.0
-82.66666666666667 -20.313733333333335 1760.0 0.0 0.0 1.0
-82.02136666666667 -4.275996666666667 1744.61 0.0 0.0 1.0
-82.33236666666666 -0.38872666666666666 1744.61 0.0 0.0 1.0
-82.48783333333333 0.6997100000000002 1744.61 0.0 0.0 1.0
-83.7454 3.5122 1751.42 -0.9649446014476583 9.638736120543063e-18 0.2624536456919962
-82.67456666666668 10.14748 1765.1899999999998 -5.861884490259159e-26 -1.0072845453913e-26 1.0
-82.67456666666668 11.406066666666666 1765.1899999999998 -5.892095241524156e-26 -1.541009524706348e-26 1.0
-83.14653333333334 11.5634 1765.1899999999998 0.0 0.0 1.0
-82.65883333333333 17.595299999999998 1754.84 0.0 0.0 1.0
-83.27486666666668 25.49706666666667 1749.71 0.0 0.0 1.0
-82.50243333333333 29.1691 1754.84 0.0 0.0 1.0
-82.3256 42.713166666666666 1739.53 0.0 0.0 1.0
-83.83936666666666 47.063700000000004 1722.8466666666666 -2.2702033241053694e-16 -0.9928697327072599 0.11920442052967109
-81.99810000000001 55.56199999999999 1724.5 0.0 0.0 1.0
-83.1008 60.542633333333335 1739.53 0.0 0.0 1.0
-82.64333333333333 79.84453333333333 1744.61 0.0 0.0 1.0
-82.48783333333334 81.86586666666666 1744.61 0.0 0.0 1.0
-82.64333333333333 82.95429999999999 1744.61 0.0 0.0 1.0
-82.48786666666668 84.8202 1744.61 0.0 0.0 1.0
-81.85506666666667 101.952 1734.49 0.0 0.0 1.0
-82.8788 102.803 1700.0 0.0 0.0 1.0
-82.42426666666667 103.106 1700.0 0.0 0.0 1.0
-81.80793333333334 109.60466666666667 1690.4000000000003 7.911028812065866e-26 -1.213869820608887e-25 1.0
-82.7273 115.98466666666666 1700.0 0.0 0.0 1.0
-83.62606666666666 124.117 1695.18 0.0 0.0 1.0
-83.36336666666666 -103.38366666666667 1797.0 0.0 0.0 1.0
-82.99803333333334 -52.4655 1770.41 0.0 0.0 1.0
-83.92989999999999 -40.784533333333336 1763.46 0.9835325263532222 -6.2671572152669485e-15 0.1807312081662945
-82.84023333333333 -40.9467 1770.41 0.0 0.0 1.0
-82.66666666666667 -28.0 1760.0 0.0 0.0 1.0
-83.12806666666665 -24.477000000000004 1754.84 0.0 0.0 1.0
-83.12806666666667 -23.538600000000002 1754.84 0.0 0.0 1.0
-83.27486666666667 -14.892800000000001 1749.71 0.0 0.0 1.0
-83.27486666666667 -7.251463333333334 1749.71 0.0 0.0 1.0
-82.65883333333333 17.595299999999998 1754.84 0.0 0.0 1.0
-83.73176666666666 31.953333333333333 1744.61 0.0 0.0 1.0
-81.53523333333334 46.865199999999994 1721.1933333333334 -7.258376517440396e-17 -0.9928697327072598 0.11920442052967124
-83.23700000000001 48.940266666666666 1729.4800000000002 1.6788798202381174e-27 -2.581455980030048e-41 1.0
-82.77456666666667 50.94413333333333 1729.4800000000002 5.782835163763278e-27 -1.1193137252956744e-27 1.0
-81.99810000000001 55.56199999999999 1724.5 0.0 0.0 1.0
-82.77456666666666 57.572300000000006 1729.4800000000002 -1.401298464324817e-44 -0.9995120760870788 0.03123475237772124
-83.24636666666667 76.59903333333334 1734.49 0.0 0.0 1.0
-83.2653 79.37806666666667 1744.61 0.0 0.0 1.0
-82.8788 102.803 1700.0 0.0 0.0 1.0
-83.0303 119.46999999999998 1700.0 0.0 0.0 1.0
-84.49796666666667 -132.289 1802.41 0.0 0.0 1.0
-83.69476666666667 -129.71933333333334 1802.41 0.0 0.0 1.0
-82.56253333333332 -126.927 1797.0 0.0 0.0 1.0
-84.96496666666667 -92.33233333333334 1797.0 0.0 0.0 1.0
-84.11473333333333 -87.2799 1775.67 0.0 0.0 1.0
-84.63073333333334 -85.02993333333335 1791.62 0.0 0.0 1.0
-84.11473333333333 -87.2799 1775.67 0.0 0.0 1.0
-83.63996666666667 -77.94263333333333 1775.67 0.0 0.0 1.0
-83.78696666666667 -63.51083333333333 1770.41 0.0 0.0 1.0
-85.24186666666667 -56.4838 1782.7233333333334 -0.20669421379466338 -0.93010225961759 0.30362359697174257
-84.13929999999999 -55.64180000000001 1786.2699999999998 5.605193857299268e-45 -0.9995120760870788 0.03123475237772124
-83.49206666666667 -41.82543333333333 1780.95 0.0 0.0 1.0
-84.07843333333334 -28.4706 1760.0 0.0 0.0 1.0
-84.23526666666667 -20.313733333333335 1760.0 0.0 0.0 1.0
-83.14653333333335 11.5634 1765.1899999999998 1.6320028888169153e-26 0.0 -1.0
-82.50243333333333 29.1691 1754.84 0.0 0.0 1.0
-83.5659 31.705433333333332 1739.53 0.0 0.0 1.0
-84.79223333333333 36.251200000000004 1734.49 0.0 0.0 1.0
-80.7663 41.762433333333334 1719.54 0.0 0.0 1.0
-83.75366666666666 54.03713333333334 1754.84 0.0 0.0 1.0
-83.10983333333333 65.85036666666667 1744.61 0.0 0.0 1.0
-84.04276666666668 66.31683333333334 1744.61 0.0 0.0 1.0
-84.66473333333334 77.20116666666667 1744.61 0.0 0.0 1.0
-83.2653 79.37806666666667 1744.61 0.0 0.0 1.0
-83.10979999999999 80.93293333333334 1744.61 0.0 0.0 1.0
-85.0867 95.95373333333333 1729.4800000000002 -1.2087586182011949e-27 -6.043357439518043e-28 1.0
-84.31246666666667 104.02266666666667 1727.82 -6.902832450732856e-18 0.9922656103191673 0.12413282635117333
-84.09093333333334 116.89366666666666 1700.0 0.0 0.0 1.0
-83.62606666666666 124.117 1695.18 0.0 0.0 1.0
-84.49796666666667 -132.289 1802.41 0.0 0.0 1.0
-84.004 -114.755 1797.0 0.0 0.0 1.0
-83.52353333333333 -104.50466666666667 1797.0 0.0 0.0 1.0
-84.96496666666667 -100.0199 1797.0 0.0 0.0 1.0
-84.9501 -83.11376666666666 1791.62 0.0 0.0 1.0
-84.1393 -69.49253333333333 1786.2699999999998 -3.6763369737124123e-28 3.185761903785944e-28 1.0
-84.41813333333333 -61.617333333333335 1770.41 0.0 0.0 1.0
-84.26036666666666 -52.1499 1770.41 0.0 0.0 1.0
-85.03443333333333 -39.882 1765.1899999999998 3.481163581066913e-27 8.702540185338741e-27 1.0
-85.03443333333333 -39.882 1765.1899999999998 3.481163581066909e-27 8.70254018533873e-27 1.0
-84.0665 -24.946200000000005 1754.84 0.0 0.0 1.0
-83.89863333333334 -14.424966666666668 1749.71 0.0 0.0 1.0
-83.89863333333334 -14.424966666666668 1749.71 0.0 0.0 1.0
-84.36646666666667 -7.875243333333334 1749.71 0.0 0.0 1.0
-84.52239999999999 3.19688 1749.71 0.0 0.0 1.0
-84.52239999999999 3.19688 1749.71 0.0 0.0 1.0
-82.35296666666666 5.72549 1760.0 0.0 0.0 1.0
-85.64703333333334 21.882333333333335 1760.0 0.0 0.0 1.0
-84.77839999999999 57.41813333333334 1729.4800000000002 3.7772073643800313e-26 -2.8702202485776952e-25 1.0
-83.56586666666668 67.82943333333333 1739.53 0.0 0.0 1.0
-82.33916666666666 71.9688 1749.71 0.0 0.0 1.0
-83.24636666666667 76.59903333333334 1734.49 0.0 0.0 1.0
-85.58139999999999 91.55036666666666 1739.53 0.0 0.0 1.0
-84.24243333333334 115.985 1700.0 0.0 0.0 1.0
-84.09093333333334 116.89366666666666 1700.0 0.0 0.0 1.0
-84.39393333333334 117.65166666666666 1700.0 0.0 0.0 1.0
-84.09089999999999 119.31833333333333 1700.0 0.0 0.0 1.0
-86.97433333333333 -170.769 2301.54 0.0 0.0 1.0
-84.65863333333333 -130.36166666666665 1802.41 0.0 0.0 1.0
-85.12513333333334 -124.84466666666667 1797.0 0.0 0.0 1.0
-84.004 -114.755 1797.0 0.0 0.0 1.0
-85.44543333333333 -112.67266666666667 1797.0 0.0 0.0 1.0
-85.28526666666666 -101.46166666666666 1797.0 0.0 0.0 1.0
-84.96496666666667 -100.0199 1797.0 0.0 0.0 1.0
-84.11473333333333 -87.2799 1775.67 0.0 0.0 1.0
-84.9501 -83.11376666666666 1791.62 0.0 0.0 1.0
-85.10976666666667 -80.87823333333334 1791.62 0.0 0.0 1.0
-84.43126666666666 -77.62613333333333 1775.67 0.0 0.0 1.0
-84.43126666666666 -77.62613333333333 1775.67 0.0 0.0 1.0
-84.89150000000001 -63.353033333333336 1770.41 0.0 0.0 1.0
-84.0665 -24.946200000000005 1754.84 0.0 0.0 1.0
-86.0997 -18.2209 1754.84 0.0 0.0 1.0
-83.26530000000001 -0.6997079999999999 1744.61 0.0 0.0 1.0
-84.2478 8.416913333333333 1765.1899999999998 3.0848530697997287e-27 -2.6073478757865774e-27 1.0
-83.77583333333335 11.248733333333334 1765.1899999999998 -5.439457350720047e-27 2.7200047867136763e-27 1.0
-84.6784 24.717333333333332 1749.71 0.0 0.0 1.0
-84.83433333333333 25.497066666666665 1749.71 0.0 0.0 1.0
-84.83433333333333 25.497066666666665 1749.71 0.0 0.0 1.0
-83.5659 31.705433333333332 1739.53 0.0 0.0 1.0
-82.3256 42.713166666666666 1739.53 0.0 0.0 1.0
-84.62429999999999 49.094433333333335 1729.4800000000002 -1.6788798202381174e-27 2.581455980030048e-41 1.0
-85.11630000000001 59.76746666666667 1739.53 0.0 0.0 1.0
-85.11630000000001 59.76746666666667 1739.53 0.0 0.0 1.0
-84.04276666666668 66.31683333333334 1744.61 0.0 0.0 1.0
-84.8017 68.22783333333332 1737.8500000000001 0.3102659526275266 0.9308645673972397 0.19294091272843977
-85.42636666666665 92.32556666666666 1739.53 0.0 0.0 1.0
-84.09093333333334 116.89366666666666 1700.0 0.0 0.0 1.0
-84.5326 123.66366666666666 1695.18 0.0 0.0 1.0
-84.65863333333333 -131.16466666666665 1802.41 0.0 0.0 1.0
-85.44543333333333 -125.165 1797.0 0.0 0.0 1.0
-85.76576666666666 -124.044 1797.0 0.0 0.0 1.0
-84.97993333333334 -114.45800000000001 1802.41 0.0 0.0 1.0
-85.7143 -94.20633333333332 1780.95 0.0 0.0 1.0
-85.76576666666666 -92.4925 1797.0 0.0 0.0 1.0
-84.11473333333333 -75.09396666666667 1775.67 0.0 0.0 1.0
-84.89153333333333 -51.36093333333333 1770.41 0.0 0.0 1.0
-84.89153333333333 -51.36093333333334 1770.41 0.0 0.0 1.0
-84.24776666666666 -48.69223333333334 1765.1899999999998 -1.6116341558799252e-27 -1.2087202814330324e-27 1.0
-85.50636666666666 -46.33236666666667 1765.1899999999998 -2.8202192809410432e-27 -8.058135209553561e-28 1.0
-85.23809999999999 -42.46033333333333 1780.95 0.0 0.0 1.0
-85.82103333333333 -36.2635 1765.1899999999998 0.0 0.0 1.0
-85.17646666666667 -28.31373333333333 1760.0 0.0 0.0 1.0
-85.1462 -15.048733333333333 1749.71 0.0 0.0 1.0
-85.75316666666667 -5.519919999999999 1744.61 0.0 0.0 1.0
-84.52239999999999 3.19688 1749.71 0.0 0.0 1.0
-84.2478 8.416913333333333 1765.1899999999998 3.0848530697997297e-27 -2.6073478757865792e-27 1.0
-85.13119999999999 24.4898 1744.61 0.0 0.0 1.0
-84.83433333333333 25.49706666666667 1749.71 0.0 0.0 1.0
-84.79223333333334 36.251200000000004 1734.49 0.0 0.0 1.0
-84.86276666666667 54.039233333333335 1760.0 0.0 0.0 1.0
-85.256 58.82123333333334 1734.49 0.0 0.0 1.0
-85.11630000000001 61.31783333333333 1739.53 0.0 0.0 1.0
-86.9364 86.85933333333332 1729.4800000000002 -7.554904762507039e-26 4.986550842570396e-25 1.0
-84.54546666666667 116.13633333333333 1700.0 0.0 0.0 1.0
-84.69696666666667 118.10633333333334 1700.0 0.0 0.0 1.0
-84.69696666666667 118.10633333333334 1700.0 0.0 0.0 1.0
-85.76576666666666 -124.044 1797.0 0.0 0.0 1.0
-85.76576666666666 -100.34033333333333 1797.0 0.0 0.0 1.0
-85.7143 -94.20633333333335 1780.95 0.0 0.0 1.0
-85.76576666666666 -92.49249999999999 1797.0 0.0 0.0 1.0
-84.74776666666666 -86.80513333333334 1775.67 0.0 0.0 1.0
-85.58883333333334 -83.11376666666666 1791.62 0.0 0.0 1.0
-85.74849999999999 -80.87823333333334 1791.62 0.0 0.0 1.0
-87.1006 -70.45363333333333 1770.41 0.0 0.0 1.0
-86.84573333333333 -66.94526666666665 1786.2699999999998 1.4455991355293044e-28 2.5292651273345644e-27 1.0
-87.00493333333334 -66.46766666666666 1786.2699999999998 -1.3835952561257396e-28 1.5492177524327885e-27 1.0
-85.82103333333333 -36.2635 1765.1899999999998 0.0 0.0 1.0
-85.7869 -24.007800000000003 1754.84 0.0 0.0 1.0
-85.45806666666665 -8.031186666666667 1749.71 0.0 0.0 1.0
-85.75316666666667 -5.519919999999999 1744.61 0.0 0.0 1.0
-84.65116666666667 32.635666666666665 1739.53 0.0 0.0 1.0
-85.7198 35.47823333333333 1734.49 0.0 0.0 1.0
-85.37943333333334 47.2622 1724.5 0.0 0.0 1.0
-85.58139999999999 62.248066666666666 1739.53 0.0 0.0 1.0
-86.20153333333333 67.98446666666666 1739.53 0.0 0.0 1.0
-85.85743333333333 96.41616666666668 1729.4800000000002 1.510774037588955e-26 -1.0073278921428602e-26 1.0
-83.46516666666668 109.153 1690.4000000000003 0.0 1.0 0.0
-84.5326 123.66366666666666 1695.18 0.0 0.0 1.0
-85.9259 -124.84466666666667 1797.0 0.0 0.0 1.0
-85.76576666666666 -124.044 1797.0 0.0 0.0 1.0
-87.06830000000001 -123.133 1802.41 0.0 0.0 1.0
-85.9259 -101.622 1797.0 0.0 0.0 1.0
-86.24623333333334 -98.5785 1797.0 0.0 0.0 1.0
-86.34923333333332 -93.73013333333334 1780.95 0.0 0.0 1.0
-85.76576666666666 -92.49249999999999 1797.0 0.0 0.0 1.0
-86.94279999999999 -61.93293333333333 1770.41 0.0 0.0 1.0
-86.78500000000001 -57.83036666666666 1770.41 0.0 0.0 1.0
-87.07963333333333 -44.75910000000001 1765.1899999999998 -1.3598823455504593e-27 -4.759576205027511e-27 1.0
-86.27449999999999 -20.15686666666667 1760.0 0.0 0.0 1.0
-86.0997 -18.2209 1754.84 0.0 0.0 1.0
-86.39376666666665 -15.516566666666668 1749.71 0.0 0.0 1.0
-87.3943 14.080633333333333 1765.1899999999998 0.0 0.0 1.0
-86.74506666666667 22.509766666666668 1760.0 0.0 0.0 1.0
-85.70330000000001 49.55683333333334 1729.4800000000002 9.680855216339466e-27 7.319998555899015e-27 1.0
-86.62813333333334 51.2524 1729.4800000000002 4.31747523269526e-27 -2.1584041752607523e-27 1.0
-85.27133333333333 60.6977 1739.53 0.0 0.0 1.0
-85.58139999999999 62.24806666666666 1739.53 0.0 0.0 1.0
-86.6861 82.79886666666668 1744.61 0.0 0.0 1.0
-88.9662 85.7198 1734.49 0.0 0.0 1.0
-86.16573333333334 95.18303333333331 1729.4800000000002 -4.533629081381711e-26 9.067258162763421e-26 1.0
-86.16573333333334 95.18303333333331 1729.4800000000002 -4.533629081381711e-26 9.067258162763421e-26 1.0
-85.85743333333333 96.41616666666668 1729.4800000000002 1.5107740375889553e-26 -1.0073278921428601e-26 1.0
-87.2521 106.59100000000001 1695.18 0.0 0.0 1.0
-88.05316666666666 112.97266666666667 1704.84 0.0 0.0 1.0
-86.90763333333332 -131.48566666666667 1802.41 0.0 0.0 1.0
-87.06830000000001 -123.133 1802.41 0.0 0.0 1.0
-86.24623333333334 -123.40333333333332 1797.0 0.0 0.0 1.0
-87.6877 -117.47766666666666 1797.0 0.0 0.0 1.0
-86.4064 -110.43033333333334 1797.0 0.0 0.0 1.0
-87.36736666666667 -106.907 1797.0 0.0 0.0 1.0
-86.88690000000001 -100.34033333333333 1797.0 0.0 0.0 1.0
-87.04703333333333 -97.93793333333333 1797.0 0.0 0.0 1.0
-87.4382 -88.22946666666667 1775.67 0.0 0.0 1.0
-87.27993333333332 -80.79129999999999 1775.67 0.0 0.0 1.0
-86.7066 -83.11376666666666 1791.62 0.0 0.0 1.0
-87.10056666666667 -57.357 1770.41 0.0 0.0 1.0
-85.68046666666665 -51.51873333333333 1770.41 0.0 0.0 1.0
-86.66666666666667 -42.77776666666666 1780.95 0.0 0.0 1.0
-87.07963333333333 -38.6234 1765.1899999999998 -1.3776594487970797e-25 -8.700635098414375e-26 1.0
-86.46943333333333 -39.68443333333334 1770.41 0.0 0.0 1.0
-85.82103333333333 -36.2635 1765.1899999999998 0.0 0.0 1.0
-86.58823333333333 -27.68626666666667 1760.0 0.0 0.0 1.0
-87.89093333333334 -17.291 1772.1633333333332 -0.032003439437510744 -0.6080315476233954 0.7932675569811665
-88.546 -9.41642 1775.67 0.0 0.0 1.0
-86.54969999999999 -7.56335 1749.71 0.0 0.0 1.0
-85.75316666666667 -5.519919999999999 1744.61 0.0 0.0 1.0
-86.21963333333333 -5.053446666666667 1744.61 0.0 0.0 1.0
-86.74506666666667 22.509766666666668 1760.0 0.0 0.0 1.0
-85.7198 35.47823333333333 1734.49 0.0 0.0 1.0
-87.15256666666666 37.08453333333333 1744.61 0.0 0.0 1.0
-86.62813333333332 50.32756666666668 1729.4800000000002 -4.6855148752361955e-26 -3.325079684259213e-26 1.0
-86.8616 74.46393333333334 1749.71 0.0 0.0 1.0
-87.01753333333333 75.24366666666667 1749.71 0.0 0.0 1.0
-84.66473333333334 77.20116666666667 1744.61 0.0 0.0 1.0
-86.6861 82.79886666666668 1744.61 0.0 0.0 1.0
-86.474 94.87476666666667 1729.4800000000002 9.067258162763708e-26 -1.8134516325527969e-25 1.0
-86.81816666666667 100.68173333333333 1700.0 0.0 0.0 1.0
-86.81816666666667 100.68173333333333 1700.0 0.0 0.0 1.0
-87.1212 113.56066666666668 1700.0 0.0 0.0 1.0
-85.90906666666667 114.31833333333334 1700.0 0.0 0.0 1.0
-86.6478 121.09533333333333 1695.18 0.0 0.0 1.0
-87.2072 -105.94599999999998 1797.0 0.0 0.0 1.0
-87.68046666666665 -96.72066666666667 1795.2066666666667 -0.19375445471051964 0.9687319500448407 0.15497619250113756
-87.14286666666668 -93.5714 1780.95 0.0 0.0 1.0
-87.43820000000001 -88.22946666666667 1775.67 0.0 0.0 1.0
-86.94279999999999 -61.93293333333333 1770.41 0.0 0.0 1.0
-86.36009999999999 -55.904066666666665 1784.4966666666667 1.0833009982408224e-16 -0.9892397727857525 0.14630335586989443
-87.07963333333332 -38.6234 1765.1899999999998 4.712938753615168e-25 3.0451762022005795e-25 1.0
-87.84313333333334 -34.90193333333333 1760.0 0.0 0.0 1.0
-87.82010000000001 -24.477000000000004 1754.84 0.0 0.0 1.0
-87.30806666666668 0.5442173333333333 1744.61 0.0 0.0 1.0
-87.30806666666668 0.5442173333333333 1744.61 0.0 0.0 1.0
-88.47056666666667 14.980399999999998 1760.0 0.0 0.0 1.0
-88.75856666666668 29.0127 1754.84 0.0 0.0 1.0
-85.28126666666667 33.16403333333333 1742.9166666666667 0.11918251810178092 0.9534090483434733 0.27714024232455203
-87.88403333333333 41.19806666666667 1734.49 0.0 0.0 1.0
-86.62810000000002 57.41813333333332 1729.4800000000002 3.0226806546003663e-28 4.501445266291918e-26 1.0
-86.6861 66.6278 1744.61 0.0 0.0 1.0
-87.48536666666666 75.71153333333334 1749.71 0.0 0.0 1.0
-87.86126666666667 89.32563333333333 1729.4800000000002 -1.0911902010521808e-26 1.2590600310615057e-26 1.0
-86.9364 95.02889999999998 1729.4800000000002 3.0224193875878984e-26 4.533629081381849e-26 1.0
-89.27536666666667 99.63283333333334 1734.49 0.0 0.0 1.0
-86.6478 121.09533333333333 1695.18 0.0 0.0 1.0
-86.6478 121.09533333333333 1695.18 0.0 0.0 1.0
-84.70343333333334 121.71 1701.6133333333335 -1.3301600144534546e-15 -0.6399892867712875 0.7683838317000031
-87.52753333333334 -107.54766666666666 1797.0 0.0 0.0 1.0
-87.2072 -105.94599999999998 1797.0 0.0 0.0 1.0
-87.505 -83.43313333333333 1791.62 0.0 0.0 1.0
-85.99606666666666 -67.6134 1770.41 0.0 0.0 1.0
-87.57396666666666 -62.721900000000005 1770.41 0.0 0.0 1.0
-88.36293333333333 -58.461533333333335 1770.41 0.0 0.0 1.0
-87.07963333333332 -38.6234 1765.1899999999998 4.712938753615169e-25 3.045176202200581e-25 1.0
-86.0997 -18.2209 1754.84 0.0 0.0 1.0
-87.32946666666668 -14.5809 1749.71 0.0 0.0 1.0
-87.79726666666666 -7.56335 1749.71 0.0 0.0 1.0
-88.15686666666666 13.725499999999998 1760.0 0.0 0.0 1.0
-87.37253333333335 22.666633333333333 1760.0 0.0 0.0 1.0
-88.63196666666666 43.85353333333333 1729.4800000000002 -1.679000844572292e-27 6.716548036867635e-27 1.0
-88.18093333333333 46.0177 1765.1899999999998 0.0 1.0 0.0
-86.62813333333332 51.2524 1729.4800000000002 -8.634950465390519e-27 4.3168083505215054e-27 1.0
-86.42033333333332 54.560399999999994 1756.5600000000002 -0.24146065626838414 -0.9657397116345345 0.09509763849059003
-87.17349999999999 72.90446666666666 1749.71 0.0 0.0 1.0
-86.8616 74.46393333333334 1749.71 0.0 0.0 1.0
-87.46356666666667 82.1769 1744.61 0.0 0.0 1.0
-88.32369999999999 86.85933333333332 1729.4800000000002 3.022255978237107e-26 1.3601377419200658e-25 1.0
-88.06203333333333 91.86043333333333 1739.53 0.0 0.0 1.0
-86.93639999999999 95.02889999999998 1729.4800000000002 -2.7183697034479195e-42 3.022419387587899e-26 1.0
-87.2521 106.289 1695.18 0.0 0.0 1.0
-86.79886666666665 120.491 1695.18 0.0 0.0 1.0
-87.6877 -124.044 1797.0 0.0 0.0 1.0
-87.06830000000001 -123.133 1802.41 0.0 0.0 1.0
-88.4885 -117.47766666666666 1797.0 0.0 0.0 1.0
-88.32836666666667 -116.51666666666667 1797.0 0.0 0.0 1.0
-87.52753333333334 -107.54766666666666 1797.0 0.0 0.0 1.0
-88.32836666666667 -100.0199 1797.0 0.0 0.0 1.0
-88.32836666666667 -100.0199 1797.0 0.0 0.0 1.0
-88.64866666666667 -98.73873333333334 1797.0 0.0 0.0 1.0
-88.09523333333334 -94.04759999999999 1780.95 0.0 0.0 1.0
-87.84783333333333 -93.13316666666667 1797.0 0.0 0.0 1.0
-88.30340000000001 -84.87026666666667 1791.62 0.0 0.0 1.0
-88.546 -77.78436666666666 1775.67 0.0 0.0 1.0
-88.6785 -71.71596666666666 1770.41 0.0 0.0 1.0
-87.14283333333333 -56.74606666666667 1780.95 0.0 0.0 1.0
-88.41270000000002 -43.41266666666667 1780.95 0.0 0.0 1.0
-87.84313333333334 -34.901933333333325 1760.0 0.0 0.0 1.0
-88.47059999999999 -33.333333333333336 1760.0 0.0 0.0 1.0
-88.47056666666667 -27.215666666666667 1760.0 0.0 0.0 1.0
-87.82010000000001 -24.477000000000004 1754.84 0.0 0.0 1.0
-87.48540000000001 -15.360633333333334 1749.71 0.0 0.0 1.0
-87.30806666666666 0.5442173333333333 1744.61 0.0 0.0 1.0
-87.48536666666666 3.82066 1749.71 0.0 0.0 1.0
-89.2549 5.725486666666666 1760.0 0.0 0.0 1.0
-87.3943 14.080633333333333 1765.1899999999998 0.0 0.0 1.0
-87.3943 14.080633333333333 1765.1899999999998 0.0 0.0 1.0
-89.07136666666668 19.31573333333333 1754.84 0.0 0.0 1.0
-87.37253333333335 22.666633333333333 1760.0 0.0 0.0 1.0
-88.42106666666666 26.74466666666667 1749.71 0.0 0.0 1.0
-87.15256666666666 37.08453333333333 1744.61 0.0 0.0 1.0
-88.63196666666666 43.85353333333333 1729.4800000000002 -1.679000844572292e-27 6.716548036867635e-27 1.0
-88.18093333333333 46.0177 1765.1899999999998 0.0 1.0 0.0
-87.21586666666667 47.063700000000004 1722.8466666666666 1.1339214713593927e-16 -0.9928697327072598 0.11920442052967128
-87.39886666666666 49.094433333333335 1729.4800000000002 -1.8888078721156684e-27 5.6654026391187704e-27 1.0
-87.52943333333333 54.039233333333335 1760.0 0.0 0.0 1.0
-88.55196666666667 80.31096666666667 1744.61 0.0 0.0 1.0
-88.06203333333333 91.86043333333333 1739.53 0.0 0.0 1.0
-88.6364 99.4697 1700.0 0.0 0.0 1.0
-86.01156666666667 101.81116666666667 1729.4800000000002 0.0 0.0 1.0
-88.83533333333332 -130.3613333333333 1802.41 0.0 0.0 1.0
-88.83533333333332 -130.3613333333333 1802.41 0.0 0.0 1.0
-88.80883333333334 -124.52466666666668 1797.0 0.0 0.0 1.0
-89.28930000000001 -115.716 1797.0 0.0 0.0 1.0
-88.32836666666667 -100.0199 1797.0 0.0 0.0 1.0
-88.64866666666667 -98.73873333333334 1797.0 0.0 0.0 1.0
-88.22949999999999 -87.43816666666667 1775.67 0.0 0.0 1.0
-88.14373333333333 -81.67663333333333 1791.62 0.0 0.0 1.0
-88.546 -77.78436666666666 1775.67 0.0 0.0 1.0
-87.80096666666668 -68.3781 1786.2699999999998 -1.4453600678416703e-27 -1.2721938389791702e-28 1.0
-88.6785 -57.988166666666665 1770.41 0.0 0.0 1.0
-88.6785 -57.988166666666665 1770.41 0.0 0.0 1.0
-88.47059999999999 -34.274499999999996 1760.0 0.0 0.0 1.0
-87.82010000000001 -24.477000000000004 1754.84 0.0 0.0 1.0
-88.73296666666666 -15.204666666666668 1749.71 0.0 0.0 1.0
-88.546 -9.41642 1775.67 0.0 0.0 1.0
-87.77453333333334 1.166182 1744.61 0.0 0.0 1.0
-89.2549 5.725486666666666 1760.0 0.0 0.0 1.0
-88.42106666666666 26.74466666666667 1749.71 0.0 0.0 1.0
-87.88403333333333 41.19806666666667 1734.49 0.0 0.0 1.0
-88.81156666666668 41.35263333333334 1734.49 0.0 0.0 1.0
-89.96170000000001 47.2797 1719.54 0.0 0.0 1.0
-88.47786666666667 49.55683333333334 1729.4800000000002 7.554414601199338e-27 3.7772072858791225e-27 1.0
-88.96616666666667 58.82123333333334 1734.49 0.0 0.0 1.0
-88.8372 63.02323333333334 1739.53 0.0 0.0 1.0
-88.3965 66.00583333333333 1744.61 0.0 0.0 1.0
-88.3965 80.93293333333334 1744.61 0.0 0.0 1.0
-88.32369999999999 86.85933333333332 1729.4800000000002 3.022255978237104e-26 1.3601377419200647e-25 1.0
-88.78613333333334 88.70906666666667 1729.4800000000002 1.0911902010521808e-26 -1.2590600310615056e-26 1.0
-87.86126666666667 89.32563333333333 1729.4800000000002 -1.0911902010521808e-26 1.2590600310615056e-26 1.0
-89.89370000000001 93.60386666666666 1734.49 0.0 0.0 1.0
-90.40303333333333 110.20933333333333 1716.2533333333333 -0.3130503055710431 0.9390485011278795 0.14208243632257836
-95.5897 170.154 2301.54 0.0 0.0 1.0
-88.83533333333332 -130.3613333333333 1802.41 0.0 0.0 1.0
-89.28930000000001 -117.95800000000001 1797.0 0.0 0.0 1.0
-89.76973333333332 -101.622 1797.0 0.0 0.0 1.0
-89.12913333333334 -100.34033333333333 1797.0 0.0 0.0 1.0
-89.12913333333334 -98.89886666666666 1797.0 0.0 0.0 1.0
-88.64866666666667 -98.0981 1797.0 0.0 0.0 1.0
-89.04759999999999 -94.36506666666666 1780.95 0.0 0.0 1.0
-88.8088 -92.4925 1797.0 0.0 0.0 1.0
-88.8088 -92.4925 1797.0 0.0 0.0 1.0
-88.86253333333333 -86.96340000000002 1775.67 0.0 0.0 1.0
-88.86253333333333 -86.96340000000002 1775.67 0.0 0.0 1.0
-88.3034 -84.87026666666667 1791.62 0.0 0.0 1.0
-88.14373333333333 -81.67663333333333 1791.62 0.0 0.0 1.0
-89.17903333333334 -78.4174 1775.67 0.0 0.0 1.0
-89.07459999999999 -67.90050000000001 1786.2699999999998 5.241233031611403e-25 1.274894521202781e-25 1.0
-87.57396666666666 -62.721900000000005 1770.41 0.0 0.0 1.0
-88.6785 -57.98816666666667 1770.41 0.0 0.0 1.0
-88.6785 -57.357 1770.41 0.0 0.0 1.0
-88.96756666666666 -38.78073333333333 1765.1899999999998 1.5622943415711814e-27 2.9596136214907804e-28 1.0
-89.5969 -36.1062 1765.1899999999998 0.0 0.0 1.0
-89.5969 -36.1062 1765.1899999999998 0.0 0.0 1.0
-88.9412 -33.17646666666667 1760.0 0.0 0.0 1.0
-89.09803333333332 -20.15686666666667 1760.0 0.0 0.0 1.0
-88.3965 -5.675409999999999 1744.61 0.0 0.0 1.0
-88.08553333333334 24.4898 1744.61 0.0 0.0 1.0
-89.35673333333334 27.212500000000002 1749.71 0.0 0.0 1.0
-90.35746666666667 35.942033333333335 1734.49 0.0 0.0 1.0
-88.18093333333333 46.0177 1765.1899999999998 0.0 1.0 0.0
-89.96170000000001 47.2797 1719.54 0.0 0.0 1.0
-88.63196666666666 57.26396666666667 1729.4800000000002 -2.0043848714853936e-27 -1.2331147758173957e-26 1.0
-88.96616666666667 58.82123333333334 1734.49 0.0 0.0 1.0
-89.6124 63.79843333333333 1739.53 0.0 0.0 1.0
-89.45736666666666 68.29456666666665 1739.53 0.0 0.0 1.0
-89.45736666666666 68.29456666666665 1739.53 0.0 0.0 1.0
-89.36543333333333 70.47773333333333 1751.42 -0.10975242827702957 0.98784223869268 0.11010048111579684
-87.79726666666666 75.24366666666667 1749.71 0.0 0.0 1.0
-88.86296666666668 81.86586666666666 1744.61 0.0 0.0 1.0
-88.06203333333333 91.86043333333333 1739.53 0.0 0.0 1.0
-89.89370000000001 93.60386666666666 1734.49 0.0 0.0 1.0
-87.39883333333334 96.72446666666667 1729.4800000000002 1.5216247749532176e-27 -4.7207149035531265e-28 1.0
-88.6364 99.4697 1700.0 0.0 0.0 1.0
-88.91406666666667 106.89299999999999 1695.18 0.0 0.0 1.0
-88.91406666666667 106.89299999999999 1695.18 0.0 0.0 1.0
-88.48483333333333 113.56066666666668 1700.0 0.0 0.0 1.0
-88.46083333333333 121.69966666666666 1695.18 0.0 0.0 1.0
-90.28116666666666 -132.44966666666664 1802.41 0.0 0.0 1.0
-90.12049999999999 -132.1283333333333 1802.41 0.0 0.0 1.0
-89.15663333333333 -129.87966666666668 1802.41 0.0 0.0 1.0
-89.28930000000001 -125.32533333333333 1797.0 0.0 0.0 1.0
-89.28930000000001 -125.32533333333333 1797.0 0.0 0.0 1.0
-90.25023333333333 -121.80166666666668 1797.0 0.0 0.0 1.0
-91.72693333333332 -114.13666666666666 1802.41 0.0 0.0 1.0
-90.87176666666666 -159.07666666666668 2301.54 0.0 0.0 1.0
-89.12913333333334 -100.34033333333333 1797.0 0.0 0.0 1.0
-89.12913333333334 -98.89886666666666 1797.0 0.0 0.0 1.0
-90.28686666666665 -75.25223333333334 1775.67 0.0 0.0 1.0
-90.18903333333333 -67.1045 1786.2699999999998 1.3115558009573258e-27 -3.235332082953254e-27 1.0
-90.79363333333333 -56.428599999999996 1780.95 0.0 0.0 1.0
-90.25643333333333 -39.0533 1770.41 0.0 0.0 1.0
-88.88889999999999 -7.56335 1749.71 0.0 0.0 1.0
-89.82453333333335 3.82066 1749.71 0.0 0.0 1.0
-88.31373333333333 21.882333333333335 1760.0 0.0 0.0 1.0
-89.85340000000001 20.09776666666667 1754.84 0.0 0.0 1.0
-89.85340000000001 29.0127 1754.84 0.0 0.0 1.0
-90.3876 34.030966666666664 1739.53 0.0 0.0 1.0
-88.96753333333334 37.9941 1765.1899999999998 0.0 -1.0 0.0
-88.63199999999999 51.09826666666667 1729.4800000000002 -1.4164527506037285e-27 2.041954438506068e-31 1.0
-88.63199999999999 51.09826666666667 1729.4800000000002 -1.4164527506037285e-27 2.041954438506068e-31 1.0
-87.52943333333333 54.039233333333335 1760.0 0.0 0.0 1.0
-88.8372 63.02323333333334 1739.53 0.0 0.0 1.0
-89.32943333333333 66.9388 1744.61 0.0 0.0 1.0
-88.55196666666667 80.31096666666667 1744.61 0.0 0.0 1.0
-89.32943333333334 82.79883333333333 1744.61 0.0 0.0 1.0
-89.09443333333333 87.32176666666665 1729.4800000000002 6.377783252552821e-26 7.217223162671874e-26 1.0
-87.86126666666667 94.87476666666667 1729.4800000000002 9.06699668518811e-28 -6.34715914590066e-27 1.0
-88.05316666666666 112.97266666666667 1704.84 0.0 0.0 1.0
-88.05316666666666 112.97266666666667 1704.84 0.0 0.0 1.0
-90.25023333333333 -121.80166666666668 1797.0 0.0 0.0 1.0
-89.44946666666668 -108.028 1797.0 0.0 0.0 1.0
-89.44946666666668 -108.028 1797.0 0.0 0.0 1.0
-90.0 -94.20633333333335 1780.95 0.0 0.0 1.0
-89.97033333333333 -76.5183 1775.67 0.0 0.0 1.0
-91.04533333333332 -51.36093333333334 1770.41 0.0 0.0 1.0
-88.49556666666668 -48.06293333333334 1765.1899999999998 -6.28945246404074e-28 -7.968959445204706e-28 1.0
-90.85546666666669 -44.7591 1765.1899999999998 -4.144298811589542e-27 1.5544452637423448e-27 1.0
-90.35293333333334 -34.27446666666667 1760.0 0.0 0.0 1.0
-89.69696666666668 -24.3206 1754.84 0.0 0.0 1.0
-90.13646666666666 -15.828466666666666 1749.71 0.0 0.0 1.0
-89.66863333333333 -15.360633333333334 1749.71 0.0 0.0 1.0
-90.13646666666666 -7.56335 1749.71 0.0 0.0 1.0
-88.3965 -5.675409999999999 1744.61 0.0 0.0 1.0
-90.69813333333333 10.14748 1765.1899999999998 3.15630594457763e-27 2.239970858710469e-28 1.0
-90.98039999999999 12.627466666666665 1760.0 0.0 0.0 1.0
-89.07136666666668 19.31573333333333 1754.84 0.0 0.0 1.0
-89.85340000000001 29.0127 1754.84 0.0 0.0 1.0
-89.56533333333334 36.6444 1731.1499999999999 -0.9600238776893639 0.1919881675649011 0.20370247367508482
-89.58453333333334 41.198033333333335 1734.49 0.0 0.0 1.0
-88.96616666666667 58.82123333333334 1734.49 0.0 0.0 1.0
-89.48493333333334 66.16133333333333 1744.61 0.0 0.0 1.0
-89.7959 83.88726666666666 1744.61 0.0 0.0 1.0
-89.86513333333333 87.63006666666666 1729.4800000000002 0.0 0.0 1.0
-89.54546666666666 99.6212 1700.0 0.0 0.0 1.0
-90.45453333333334 102.5 1700.0 0.0 0.0 1.0
-89.5184 107.195 1695.18 0.0 0.0 1.0
-91.2994 110.20666666666666 1690.4000000000003 1.977158871230755e-27 -1.186229709059102e-26 1.0
-90.73073333333333 -118.27833333333335 1797.0 0.0 0.0 1.0
-90.73073333333333 -118.27833333333332 1797.0 0.0 0.0 1.0
-91.71116666666667 -82.6904 1775.67 0.0 0.0 1.0
-90.44509999999998 -78.4174 1775.67 0.0 0.0 1.0
-91.20313333333333 -47.41616666666667 1770.41 0.0 0.0 1.0
-90.85546666666669 -44.7591 1765.1899999999998 -4.144298811589542e-27 1.5544452637423452e-27 1.0
-90.15873333333333 -42.77776666666667 1780.95 0.0 0.0 1.0
-90.06886666666666 -38.30876666666666 1765.1899999999998 1.6923658549161708e-26 9.670710814189448e-27 1.0
-90.35293333333334 -34.27446666666667 1760.0 0.0 0.0 1.0
-90.60336666666667 -10.840746666666666 1775.67 0.0 0.0 1.0
-90.60336666666666 -10.840746666666666 1775.67 0.0 0.0 1.0
-90.57336666666667 -1.4771653333333334 1744.61 0.0 0.0 1.0
-90.72886666666666 -0.8552006666666667 1744.61 0.0 0.0 1.0
-89.91149999999999 14.080633333333333 1765.1899999999998 2.3207757207112755e-27 1.0442753208543691e-26 1.0
-89.85340000000001 20.09776666666667 1754.84 0.0 0.0 1.0
-91.19533333333334 24.4898 1744.61 0.0 0.0 1.0
-89.85340000000001 29.0127 1754.84 0.0 0.0 1.0
-90.3876 34.030966666666664 1739.53 0.0 0.0 1.0
-90.33826666666666 35.871433333333336 1731.1499999999999 0.9690102271888299 -0.1937852820050671 0.15318761073164183
-89.8651 56.49326666666666 1729.4800000000002 -6.013455875985666e-27 3.469297298031616e-27 1.0
-91.26100000000001 61.7009 1754.84 0.0 0.0 1.0
-90.41786666666667 67.4053 1744.61 0.0 0.0 1.0
-90.57339999999999 85.28670000000001 1744.61 0.0 0.0 1.0
-90.97586666666666 86.029 1734.49 0.0 0.0 1.0
-90.82126666666666 99.78743333333334 1734.49 0.0 0.0 1.0
-90.7271 120.793 1695.18 0.0 0.0 1.0
-95.38453333333332 -170.769 2301.54 0.0 0.0 1.0
-91.56626666666666 -131.64633333333333 1802.41 0.0 0.0 1.0
-90.89086666666667 -121.64166666666667 1797.0 0.0 0.0 1.0
-90.73073333333333 -118.27833333333332 1797.0 0.0 0.0 1.0
-90.89086666666667 -117.15733333333333 1797.0 0.0 0.0 1.0
-91.05103333333334 -100.981 1797.0 0.0 0.0 1.0
-90.0 -94.20633333333335 1780.95 0.0 0.0 1.0
-90.572 -59.0927 1770.41 0.0 0.0 1.0
-91.01280000000001 -36.892833333333336 1765.1899999999998 -5.0377205372704524e-26 -2.3777418616680823e-26 1.0
-90.35293333333334 -34.274466666666676 1760.0 0.0 0.0 1.0
-91.60783333333335 -30.98036666666667 1760.0 0.0 0.0 1.0
-90.98036666666667 -28.156833333333335 1760.0 0.0 0.0 1.0
-91.26100000000001 -24.320600000000002 1754.84 0.0 0.0 1.0
-90.13646666666666 -15.828466666666666 1749.71 0.0 0.0 1.0
-90.60336666666667 -10.840746666666666 1775.67 0.0 0.0 1.0
-90.69813333333333 10.14748 1765.1899999999998 3.15630594457763e-27 2.239970858710469e-28 1.0
-91.60783333333332 15.607833333333332 1760.0 0.0 0.0 1.0
-91.53993333333334 26.120866666666668 1749.71 0.0 0.0 1.0
-89.58453333333334 41.04346666666667 1734.49 0.0 0.0 1.0
-90.17340000000002 43.85353333333333 1729.4800000000002 2.518501266858437e-27 1.5111824589018243e-26 1.0
-91.40653333333334 56.030833333333334 1729.4800000000002 1.0545161213009787e-27 -2.770588901004613e-29 1.0
-91.26100000000001 61.7009 1754.84 0.0 0.0 1.0
-90.54263333333334 64.4186 1739.53 0.0 0.0 1.0
-89.45736666666666 68.29456666666665 1739.53 0.0 0.0 1.0
-90.41786666666667 82.33236666666667 1744.61 0.0 0.0 1.0
-90.57339999999999 85.28670000000001 1744.61 0.0 0.0 1.0
-90.57339999999999 85.28670000000001 1744.61 0.0 0.0 1.0
-90.97586666666666 86.029 1734.49 0.0 0.0 1.0
-89.86513333333333 87.63006666666666 1729.4800000000002 0.0 0.0 1.0
-90.82126666666666 99.78743333333334 1734.49 0.0 0.0 1.0
-90.1515 100.3788 1700.0 0.0 0.0 1.0
-90.60606666666666 101.74233333333332 1700.0 0.0 0.0 1.0
-90.72706666666666 105.23166666666667 1695.18 0.0 0.0 1.0
-90.72706666666666 106.28899999999999 1695.18 0.0 0.0 1.0
-90.12273333333333 106.742 1695.18 0.0 0.0 1.0
-90.30303333333332 114.16666666666667 1700.0 0.0 0.0 1.0
