ply
format ascii 1.0
comment VCGLIB generated
element vertex 774
property float x
property float y
property float z
property float nx
property float ny
property float nz
element face 0
property list uchar int vertex_indices
end_header
-69.67246666666666 62.658966666666664 1729.4800000000002 -2.2659977412343605e-26 1.510556268358352e-26 1.0
-69.0559 67.59153333333333 1729.4800000000002 -3.022419387587803e-26 -1.057683411634766e-25 1.0
-71.11110000000001 75.5556 1749.71 0.0 0.0 1.0
-69.7376 81.3994 1744.61 0.0 0.0 1.0
-69.2411 87.5312 1724.5 0.0 0.0 1.0
-68.86956666666667 102.72466666666666 1734.49 0.0 0.0 1.0
-70.60696666666666 -119.164 1786.2699999999998 0.0 1.0 0.0
-69.84126666666667 -107.53966666666668 1780.95 0.0 0.0 1.0
-68.62863333333333 -104.66466666666666 1797.0 0.0 0.0 1.0
-70.25946666666667 -84.39123333333333 1791.62 0.0 0.0 1.0
-69.62073333333333 -83.43313333333333 1791.62 0.0 0.0 1.0
-70.05916666666667 -79.28993333333334 1770.41 0.0 0.0 1.0
-71.42856666666667 -74.20633333333332 1780.95 0.0 0.0 1.0
-70.40313333333334 -71.50439999999999 1765.1899999999998 6.527550537503102e-26 2.103232204030413e-25 1.0
-69.49016666666667 -62.82353333333333 1760.0 0.0 0.0 1.0
-70.05916666666667 -54.83233333333334 1770.41 0.0 0.0 1.0
-71.11110000000001 -27.52436666666667 1749.71 0.0 0.0 1.0
-70.0 -25.793666666666667 1780.95 0.0 0.0 1.0
-70.98153333333333 -5.830903333333333 1744.61 0.0 0.0 1.0
-70.17543333333333 7.09552 1749.71 0.0 0.0 1.0
-71.55423333333334 18.6901 1754.84 0.0 0.0 1.0
-69.27113333333334 33.04176666666667 1744.61 0.0 0.0 1.0
-69.93116666666667 45.38836666666666 1765.1899999999998 -3.625904764015076e-26 -1.4503619056060162e-26 1.0
-69.93116666666667 45.38836666666666 1765.1899999999998 -3.625904764015077e-26 -1.4503619056060162e-26 1.0
-70.03829999999999 45.74710000000001 1719.54 0.0 0.0 1.0
-70.92863333333334 61.3881 1754.84 0.0 0.0 1.0
-70.04860000000001 81.2439 1744.61 0.0 0.0 1.0
-70.04860000000001 81.2439 1744.61 0.0 0.0 1.0
-68.71496666666667 93.91303333333333 1734.49 0.0 0.0 1.0
-70.19156666666667 105.82366666666667 1719.54 0.0 0.0 1.0
-70.60606666666666 121.89366666666666 1700.0 0.0 0.0 1.0
-70.60696666666666 -119.164 1786.2699999999998 0.0 1.0 0.0
-70.12936666666667 -117.413 1786.2699999999998 -7.874664110672362e-28 7.8730158293304005e-28 1.0
-70.4762 -112.30133333333333 1780.95 0.0 0.0 1.0
-70.79366666666668 -100.7145 1780.95 0.0 0.0 1.0
-70.79366666666668 -100.7145 1780.95 0.0 0.0 1.0
-69.2693 -97.13713333333334 1797.0 0.0 0.0 1.0
-71.3215 -86.07493333333332 1770.41 0.0 0.0 1.0
-70.23023333333333 -85.2853 1797.0 0.0 0.0 1.0
-70.05916666666667 -79.28993333333334 1770.41 0.0 0.0 1.0
-71.66176666666667 -77.0108 1765.1899999999998 1.3321374848216652e-27 -4.4400401481866405e-28 1.0
-70.43133333333333 -62.03923333333333 1760.0 0.0 0.0 1.0
-70.5882 -60.156866666666666 1760.0 0.0 0.0 1.0
-70.11763333333333 -58.7451 1760.0 0.0 0.0 1.0
-71.21566666666666 -53.09806666666666 1760.0 0.0 0.0 1.0
-71.3471 -43.343133333333334 1765.1899999999998 2.901953322191706e-26 -1.0156529217361426e-25 1.0
-68.77193333333334 -33.606233333333336 1749.71 0.0 0.0 1.0
-71.11113333333333 -25.029233333333334 1749.71 0.0 0.0 1.0
-71.11113333333333 -25.029233333333334 1749.71 0.0 0.0 1.0
-70.17546666666668 -21.910366666666665 1749.71 0.0 0.0 1.0
-69.39659999999999 -13.214666666666668 1775.67 0.0 0.0 1.0
-70.48733333333332 -1.94932 1749.71 0.0 0.0 1.0
-71.938 8.60465 1739.53 0.0 0.0 1.0
-69.58576666666666 9.38856 1770.41 0.0 0.0 1.0
-70.5973 49.2486 1729.4800000000002 0.0 1.0 0.0
-72.90943333333334 97.03273333333334 1729.4800000000002 -7.554986449516882e-26 -8.537738400885927e-25 1.0
-71.13656666666667 110.41066666666666 1714.61 0.0 0.0 1.0
-71.56306666666667 110.20666666666666 1690.4000000000003 0.0 0.0 1.0
-70.42733333333332 113.884 1704.84 0.0 0.0 1.0
-71.33903333333332 115.252 1704.84 0.0 0.0 1.0
-71.33396666666665 -112.89999999999999 1800.6066666666666 1.5099063607281287e-16 0.9498009186992072 0.3128549421667205
-70.8982 -84.55093333333333 1791.62 0.0 0.0 1.0
-72.11043333333333 -81.1834 1770.41 0.0 0.0 1.0
-71.42856666666667 -74.20633333333332 1780.95 0.0 0.0 1.0
-72.3582 -66.14926666666666 1786.2699999999998 7.08101761070722e-27 2.124107610209389e-26 1.0
-71.21566666666666 -53.09806666666666 1760.0 0.0 0.0 1.0
-71.52940000000001 -48.862766666666666 1760.0 0.0 0.0 1.0
-70.56046666666667 -47.27629999999999 1765.1899999999998 7.4016425489514145e-28 3.3757299680844156e-26 1.0
-71.3471 -43.343133333333334 1765.1899999999998 2.901953322191737e-26 -1.0156529217361539e-25 1.0
-71.1111 -27.524366666666666 1749.71 0.0 0.0 1.0
-70.0 -25.793666666666667 1780.95 0.0 0.0 1.0
-71.6035 -6.297373333333333 1744.61 0.0 0.0 1.0
-72.11593333333333 1.4685999999999997 1734.49 0.0 0.0 1.0
-70.17543333333333 7.09552 1749.71 0.0 0.0 1.0
-71.95263333333334 9.546350000000002 1770.41 0.0 0.0 1.0
-71.55423333333334 18.6901 1754.84 0.0 0.0 1.0
-72.15683333333334 21.7255 1760.0 0.0 0.0 1.0
-72.3137 22.666666666666668 1760.0 0.0 0.0 1.0
-71.11110000000001 25.029233333333334 1749.71 0.0 0.0 1.0
-71.80676666666666 39.342966666666676 1734.49 0.0 0.0 1.0
-71.343 40.42510000000001 1734.49 0.0 0.0 1.0
-72.42513333333333 46.6087 1734.49 0.0 0.0 1.0
-71.2139 47.861266666666666 1729.4800000000002 1.0 0.0 0.0
-71.2139 47.861266666666666 1729.4800000000002 1.0 0.0 0.0
-70.5973 49.2486 1729.4800000000002 0.0 1.0 0.0
-70.92863333333334 54.19356666666667 1754.84 0.0 0.0 1.0
-70.58823333333333 57.33336666666667 1760.0 0.0 0.0 1.0
-70.92863333333334 61.3881 1754.84 0.0 0.0 1.0
-72.86823333333334 91.86046666666668 1739.53 0.0 0.0 1.0
-70.95786666666667 105.97700000000002 1719.54 0.0 0.0 1.0
-70.95786666666667 105.97700000000002 1719.54 0.0 0.0 1.0
-71.56306666666667 110.20666666666666 1690.4000000000003 0.0 0.0 1.0
-71.33903333333332 115.252 1704.84 0.0 0.0 1.0
-71.2991 -133.4946666666667 1807.8499999999997 4.3162174629282523e-26 -3.4139871140760907e-25 1.0
-69.97013333333335 -128.71666666666667 1786.2699999999998 -5.311504428435951e-27 -5.310948444022707e-27 1.0
-71.94363333333332 -128.66066666666669 1807.8499999999997 8.640646076495516e-27 -1.730597653378351e-27 1.0
-71.7214 -121.55233333333332 1786.2699999999998 -4.7211725465330935e-27 1.5735045416777319e-27 1.0
-70.60696666666666 -119.164 1786.2699999999998 0.0 1.0 0.0
-71.4286 -112.46033333333332 1780.95 0.0 0.0 1.0
-71.19116666666666 -111.55166666666666 1797.0 0.0 0.0 1.0
-70.31746666666668 -107.06333333333333 1780.95 0.0 0.0 1.0
-70.79366666666668 -100.7145 1780.95 0.0 0.0 1.0
-72.24529999999999 -100.57333333333334 1775.67 0.0 0.0 1.0
-70.07006666666666 -95.85583333333334 1797.0 0.0 0.0 1.0
-71.3215 -86.07493333333332 1770.41 0.0 0.0 1.0
-70.23023333333333 -85.2853 1797.0 0.0 0.0 1.0
-71.6863 -67.84313333333334 1760.0 0.0 0.0 1.0
-71.52940000000001 -48.862766666666666 1760.0 0.0 0.0 1.0
-72.4927 -39.1789 1754.84 0.0 0.0 1.0
-71.759 -5.36443 1744.61 0.0 0.0 1.0
-71.2925 6.29738 1744.61 0.0 0.0 1.0
-70.90196666666667 15.7647 1760.0 0.0 0.0 1.0
-72.27053333333333 41.04346666666667 1734.49 0.0 0.0 1.0
-72.42513333333333 46.6087 1734.49 0.0 0.0 1.0
-71.5294 56.862766666666666 1760.0 0.0 0.0 1.0
-71.71066666666667 61.3881 1754.84 0.0 0.0 1.0
-71.89083333333333 71.34503333333333 1749.71 0.0 0.0 1.0
-71.11110000000001 75.5556 1749.71 0.0 0.0 1.0
-72.90943333333334 97.03273333333334 1729.4800000000002 -7.554986449516789e-26 -8.537738400885822e-25 1.0
-71.65216666666667 103.34266666666667 1734.49 0.0 0.0 1.0
-71.33903333333332 115.252 1704.84 0.0 0.0 1.0
-71.36363333333334 122.803 1700.0 0.0 0.0 1.0
-71.36363333333334 122.803 1700.0 0.0 0.0 1.0
-71.8806 -123.46300000000001 1786.2699999999998 3.147448364355381e-27 -2.0980060555703038e-27 1.0
-72.93169999999999 -117.18866666666668 1802.41 0.0 0.0 1.0
-71.33396666666665 -112.89999999999999 1800.6066666666666 1.5099063607281287e-16 0.9498009186992072 0.3128549421667205
-72.24529999999999 -100.57333333333334 1775.67 0.0 0.0 1.0
-72.63263333333333 -98.25826666666667 1797.0 0.0 0.0 1.0
-71.3215 -86.07493333333332 1770.41 0.0 0.0 1.0
-71.53693333333334 -84.23156666666667 1791.62 0.0 0.0 1.0
-71.21756666666667 -83.59283333333333 1791.62 0.0 0.0 1.0
-72.60573333333333 -76.22420000000001 1765.1899999999998 4.3510857168178105e-26 -5.801447622423778e-26 1.0
-72.29106666666667 -71.03243333333333 1765.1899999999998 2.1754660302541422e-26 7.252577809577485e-27 1.0
-71.21566666666668 -53.09806666666666 1760.0 0.0 0.0 1.0
-71.52940000000001 -48.862766666666666 1760.0 0.0 0.0 1.0
-70.56046666666667 -47.27629999999999 1765.1899999999998 7.4016425489514145e-28 3.3757299680844156e-26 1.0
-71.7349 -27.368399999999998 1749.71 0.0 0.0 1.0
-71.423 -26.900566666666666 1749.71 0.0 0.0 1.0
-73.56863333333332 -19.686266666666665 1760.0 0.0 0.0 1.0
-72.11593333333333 1.4685999999999997 1734.49 0.0 0.0 1.0
-71.938 8.60465 1739.53 0.0 0.0 1.0
-72.33626666666667 54.19356666666667 1754.84 0.0 0.0 1.0
-71.52940000000001 56.862766666666666 1760.0 0.0 0.0 1.0
-73.50723333333333 61.75843333333333 1734.49 0.0 0.0 1.0
-71.89083333333333 71.34503333333333 1749.71 0.0 0.0 1.0
-71.89083333333333 71.34503333333333 1749.71 0.0 0.0 1.0
-71.11110000000001 75.5556 1749.71 0.0 0.0 1.0
-71.56306666666667 110.20666666666666 1690.4000000000003 0.0 0.0 1.0
-73.48483333333333 114.318 1700.0 0.0 0.0 1.0
-71.94363333333332 -128.66066666666669 1807.8499999999997 8.640646076495518e-27 -1.73059765337835e-27 1.0
-71.94363333333332 -128.66066666666669 1807.8499999999997 8.640646076495516e-27 -1.730597653378351e-27 1.0
-71.8806 -123.46300000000001 1786.2699999999998 3.147448364355381e-27 -2.0980060555703038e-27 1.0
-71.4286 -113.57133333333333 1780.95 0.0 0.0 1.0
-71.4286 -112.46033333333332 1780.95 0.0 0.0 1.0
-72.11043333333333 -81.1834 1770.41 0.0 0.0 1.0
-72.76306666666667 -76.69616666666667 1765.1899999999998 -1.3050799040139168e-25 -7.251194967900252e-26 1.0
-72.29106666666667 -71.03243333333334 1765.1899999999998 2.175696539136784e-26 -1.4507460707981392e-26 1.0
-72.29106666666667 -71.03243333333333 1765.1899999999998 2.1754660302541422e-26 7.252577809577485e-27 1.0
-71.9764 -58.60373333333333 1765.1899999999998 3.1715948514060404e-28 5.618409528776875e-28 1.0
-73.15423333333334 -57.0746 1786.2699999999998 -2.065615947837385e-27 1.869068622473461e-27 1.0
-71.3471 -43.343133333333334 1765.1899999999998 2.901953322191706e-26 -1.0156529217361426e-25 1.0
-73.2747 -38.396899999999995 1754.84 0.0 0.0 1.0
-72.08706666666667 -10.524253333333332 1775.67 0.0 0.0 1.0
-73.79843333333334 -6.58915 1739.53 0.0 0.0 1.0
-72.51463333333332 -1.94932 1749.71 0.0 0.0 1.0
-73.19806666666666 0.6956519999999999 1734.49 0.0 0.0 1.0
-74.6823 11.495600000000001 1754.84 0.0 0.0 1.0
-72.35866666666666 25.497066666666665 1749.71 0.0 0.0 1.0
-72.4688 35.4275 1724.5 0.0 0.0 1.0
-72.29106666666667 45.860366666666664 1765.1899999999998 5.022221404251708e-28 -2.450738834053155e-27 1.0
-73.06360000000001 50.78996666666668 1729.4800000000002 1.5110136449687522e-25 -2.719197289481156e-25 1.0
-71.71066666666667 61.3881 1754.84 0.0 0.0 1.0
-72.5797 101.79700000000001 1734.49 0.0 0.0 1.0
-71.41056666666667 105.15733333333334 1721.1933333333334 0.6537012617115925 0.653417043771708 0.3817339745756381
-71.72416666666666 107.35633333333332 1719.54 0.0 0.0 1.0
-72.8788 116.74233333333332 1700.0 0.0 0.0 1.0
-72.8788 116.74233333333332 1700.0 0.0 0.0 1.0
-73.66963333333334 -99.62400000000001 1775.67 0.0 0.0 1.0
-72.63263333333333 -98.25826666666667 1797.0 0.0 0.0 1.0
-72.11043333333333 -81.1834 1770.41 0.0 0.0 1.0
-72.76306666666666 -76.69616666666667 1765.1899999999998 1.3050184610213246e-25 5.800218502164837e-26 1.0
-72.76306666666666 -76.69616666666667 1765.1899999999998 1.3050184610213255e-25 5.80021850216484e-26 1.0
-72.74159999999999 -76.44973333333333 1770.41 0.0 0.0 1.0
-72.3582 -66.14926666666666 1786.2699999999998 7.081017610707222e-27 2.1241076102093895e-26 1.0
-73.25493333333333 -62.98036666666667 1760.0 0.0 0.0 1.0
-73.56866666666667 -62.19606666666667 1760.0 0.0 0.0 1.0
-73.15423333333334 -57.0746 1786.2699999999998 -2.0656159478373855e-27 1.869068622473461e-27 1.0
-72.42603333333334 -54.83233333333333 1770.41 0.0 0.0 1.0
-73.58749999999999 -36.98923333333333 1754.84 0.0 0.0 1.0
-73.48836666666666 -4.418603333333333 1739.53 0.0 0.0 1.0
-73.19806666666666 0.6956519999999999 1734.49 0.0 0.0 1.0
-73.66183333333333 3.9420300000000004 1734.49 0.0 0.0 1.0
-71.938 8.60465 1739.53 0.0 0.0 1.0
-73.7255 14.1961 1760.0 0.0 0.0 1.0
-73.66183333333333 38.87923333333333 1734.49 0.0 0.0 1.0
-71.83046666666665 46.011533333333325 1729.4800000000002 -3.0035445853245713e-25 1.5867742634966444e-25 1.0
-73.0636 50.789966666666665 1729.4800000000002 -7.55506822484376e-26 1.359598644740578e-25 1.0
-73.62486666666666 66.31683333333334 1744.61 0.0 0.0 1.0
-70.75146666666666 68.05396666666667 1729.4800000000002 -3.022419387587805e-26 -1.1334726340865009e-25 1.0
-74.09136666666666 84.50923333333334 1744.61 0.0 0.0 1.0
-74.00576666666667 87.2238 1724.5 0.0 0.0 1.0
-72.86823333333334 91.86046666666668 1739.53 0.0 0.0 1.0
-72.8788 116.74233333333332 1700.0 0.0 0.0 1.0
-73.39373333333333 -133.1723333333333 1807.8499999999997 2.0770013906987048e-26 2.765092778169131e-26 1.0
-73.716 -132.85 1807.8499999999997 6.913804481275914e-27 1.0168953631383479e-40 1.0
-71.7214 -119.32333333333332 1786.2699999999998 -7.076820354792777e-26 3.9597030644591625e-25 1.0
-72.72006666666667 -100.09870000000001 1775.67 0.0 0.0 1.0
-72.63263333333333 -98.25826666666667 1797.0 0.0 0.0 1.0
-72.87833333333334 -89.0208 1775.67 0.0 0.0 1.0
-73.84616666666666 -85.91716666666666 1770.41 0.0 0.0 1.0
-71.42856666666667 -74.20633333333333 1780.95 0.0 0.0 1.0
-73.79103333333335 -65.99006666666666 1786.2699999999998 -3.541002952290632e-27 1.062115570481396e-26 1.0
-72.62746666666666 -57.490199999999994 1760.0 0.0 0.0 1.0
-73.2747 -38.396899999999995 1754.84 0.0 0.0 1.0
-74.98039999999999 -31.13723333333333 1760.0 0.0 0.0 1.0
-73.4503 -25.808933333333332 1749.71 0.0 0.0 1.0
-74.03923333333333 -21.098033333333333 1760.0 0.0 0.0 1.0
-73.56863333333332 -19.686266666666665 1760.0 0.0 0.0 1.0
-74.40233333333332 -5.986393333333333 1744.61 0.0 0.0 1.0
-74.33626666666667 16.912499999999998 1765.1899999999998 -6.164575952891123e-26 -2.8289280194394094e-25 1.0
-73.11826666666667 18.846500000000002 1754.84 0.0 0.0 1.0
-72.35866666666666 25.497066666666665 1749.71 0.0 0.0 1.0
-73.66183333333333 38.87923333333333 1734.49 0.0 0.0 1.0
-73.0636 50.789966666666665 1729.4800000000002 -7.555068224843761e-26 1.359598644740578e-25 1.0
-73.88236666666667 53.09806666666666 1760.0 0.0 0.0 1.0
-73.62486666666666 66.31683333333334 1744.61 0.0 0.0 1.0
-72.51463333333334 71.65693333333333 1749.71 0.0 0.0 1.0
-74.77426666666666 76.926 1724.5 0.0 0.0 1.0
-74.09136666666666 84.50923333333334 1744.61 0.0 0.0 1.0
-74.00576666666667 87.2238 1724.5 0.0 0.0 1.0
-73.04346666666667 93.60386666666666 1734.49 0.0 0.0 1.0
-74.023 94.94253333333332 1719.54 0.0 0.0 1.0
-73.50723333333333 101.488 1734.49 0.0 0.0 1.0
-73.19806666666666 103.03366666666666 1734.49 0.0 0.0 1.0
-73.52166666666666 110.35766666666666 1690.4000000000003 -2.1519215622117646e-27 2.624268111751427e-27 1.0
-73.716 -132.85 1807.8499999999997 6.913804481275914e-27 1.0179308542251455e-40 1.0
-74.23423333333334 -104.825 1797.0 0.0 0.0 1.0
-73.84616666666666 -85.91716666666667 1770.41 0.0 0.0 1.0
-73.23503333333333 -76.53886666666666 1765.1899999999998 -7.252577809577487e-27 2.9007238112118907e-26 1.0
-74.03923333333334 -67.21566666666666 1760.0 0.0 0.0 1.0
-74.03923333333334 -67.21566666666666 1760.0 0.0 0.0 1.0
-73.7255 -62.66663333333333 1760.0 0.0 0.0 1.0
-74.03923333333334 -61.725500000000004 1760.0 0.0 0.0 1.0
-74.66669999999999 -57.490199999999994 1760.0 0.0 0.0 1.0
-74.05669999999999 -37.45846666666666 1754.84 0.0 0.0 1.0
-73.58749999999999 -36.989233333333324 1754.84 0.0 0.0 1.0
-74.85379999999999 -33.1384 1749.71 0.0 0.0 1.0
-74.72866666666665 -6.58915 1739.53 0.0 0.0 1.0
-73.97103333333332 0.6956519999999999 1734.49 0.0 0.0 1.0
-73.66183333333333 1.3140106666666667 1734.49 0.0 0.0 1.0
-74.2802 5.0241533333333335 1734.49 0.0 0.0 1.0
-74.33626666666667 16.912499999999998 1765.1899999999998 -6.164575952891083e-26 -2.8289280194393906e-25 1.0
-74.4348 40.7343 1734.49 0.0 0.0 1.0
-74.02296666666666 45.74710000000001 1719.54 0.0 0.0 1.0
-73.88236666666667 53.09806666666666 1760.0 0.0 0.0 1.0
-73.4311 54.19356666666667 1754.84 0.0 0.0 1.0
-73.50723333333333 61.758433333333336 1734.49 0.0 0.0 1.0
-75.06743333333334 62.50483333333333 1729.4800000000002 -5.285640512211229e-26 3.019936865366334e-25 1.0
-74.77426666666666 76.926 1724.5 0.0 0.0 1.0
-74.24683333333333 80.62196666666667 1744.61 0.0 0.0 1.0
-74.023 94.94253333333332 1719.54 0.0 0.0 1.0
-72.50489999999999 109.90366666666667 1716.2533333333333 -1.0361433681406493e-17 0.9775346639748996 0.21077471557916988
-73.716 -132.85 1807.8499999999997 6.913804481275914e-27 1.018127323516459e-40 1.0
-73.71603333333333 -129.62733333333333 1807.8499999999997 -5.526925075669132e-28 1.0780822387795518e-26 1.0
-73.43339999999999 -111.55166666666666 1797.0 0.0 0.0 1.0
-74.23423333333334 -104.825 1797.0 0.0 0.0 1.0
-76.6467 -92.37523333333333 1791.62 0.0 0.0 1.0
-73.84616666666666 -85.91716666666667 1770.41 0.0 0.0 1.0
-74.03923333333334 -67.21566666666666 1760.0 0.0 0.0 1.0
-74.03923333333334 -62.35293333333334 1760.0 0.0 0.0 1.0
-73.15423333333332 -57.0746 1786.2699999999998 3.245888480598564e-27 9.838179232104795e-29 1.0
-75.43756666666667 -56.086533333333335 1765.1899999999998 -2.900723811212049e-26 -1.0151918779112679e-25 1.0
-72.42603333333334 -54.83233333333333 1770.41 0.0 0.0 1.0
-73.88233333333334 -53.254933333333334 1760.0 0.0 0.0 1.0
-74.05669999999999 -37.45846666666666 1754.84 0.0 0.0 1.0
-74.85379999999999 -33.1384 1749.71 0.0 0.0 1.0
-75.1657 -15.360633333333334 1749.71 0.0 0.0 1.0
-75.25223333333334 -9.41642 1775.67 0.0 0.0 1.0
-74.5419 -1.7933733333333333 1749.71 0.0 0.0 1.0
-74.5578 6.29738 1744.61 0.0 0.0 1.0
-74.4773 9.546350000000002 1770.41 0.0 0.0 1.0
-73.8643 15.4966 1765.1899999999998 -2.0396794636283552e-27 5.099468758051656e-28 1.0
-75.2941 20.627466666666667 1760.0 0.0 0.0 1.0
-74.86880000000001 32.26433333333333 1744.61 0.0 0.0 1.0
-74.89856666666667 40.11593333333334 1734.49 0.0 0.0 1.0
-74.58936666666666 40.8889 1734.49 0.0 0.0 1.0
-74.3363 46.0177 1765.1899999999998 4.532861118268147e-28 -1.2086349213383343e-27 1.0
-75.20773333333334 47.227066666666666 1734.49 0.0 0.0 1.0
-73.88236666666667 53.098066666666675 1760.0 0.0 0.0 1.0
-74.9951 54.35 1754.84 0.0 0.0 1.0
-73.9003 61.5445 1754.84 0.0 0.0 1.0
-74.4348 60.9855 1734.49 0.0 0.0 1.0
-75.06743333333334 62.50483333333333 1729.4800000000002 -5.285640512211229e-26 3.019936865366334e-25 1.0
-74.2802 62.5314 1734.49 0.0 0.0 1.0
-73.62486666666666 66.31683333333335 1744.61 0.0 0.0 1.0
-73.28886666666666 71.1015 1751.42 0.29711460600917994 0.8912168188371071 0.34271780332786445
-74.00046666666667 76.53800000000001 1726.1599999999999 0.8929147804697066 -0.44645739023483866 0.05812911080889419
-74.24683333333333 80.62196666666667 1744.61 0.0 0.0 1.0
-74.24683333333333 80.62196666666667 1744.61 0.0 0.0 1.0
-75.03876666666667 92.01549999999999 1739.53 0.0 0.0 1.0
-74.023 94.94253333333332 1719.54 0.0 0.0 1.0
-73.8164 102.26100000000001 1734.49 0.0 0.0 1.0
-73.52166666666666 110.35766666666666 1690.4000000000003 -2.1519215622117646e-27 2.624268111751427e-27 1.0
-74.8485 123.25733333333334 1700.0 0.0 0.0 1.0
-73.71603333333333 -129.62733333333333 1807.8499999999997 -5.526925075669135e-28 1.0780822387795518e-26 1.0
-75.86070000000001 -117.572 1786.2699999999998 -1.4165494680029109e-27 -5.666197872011567e-28 1.0
-75.51549999999999 -111.39133333333332 1797.0 0.0 0.0 1.0
-74.23423333333334 -104.825 1797.0 0.0 0.0 1.0
-73.66963333333334 -99.62400000000001 1775.67 0.0 0.0 1.0
-74.16173333333334 -85.4438 1770.41 0.0 0.0 1.0
-75.12293333333334 -77.0108 1765.1899999999998 7.253922566844234e-27 -5.0785720291673864e-26 1.0
-74.4773 -76.44973333333333 1770.41 0.0 0.0 1.0
-74.66666666666667 -60.9412 1760.0 0.0 0.0 1.0
-75.7771 -44.4966 1754.84 0.0 0.0 1.0
-74.98039999999999 -31.13723333333333 1760.0 0.0 0.0 1.0
-75.00973333333333 -26.276799999999998 1749.71 0.0 0.0 1.0
-76.72516666666667 -17.543866666666666 1749.71 0.0 0.0 1.0
-74.86879999999998 -6.1418833333333325 1744.61 0.0 0.0 1.0
-74.72866666666668 -6.58915 1739.53 0.0 0.0 1.0
-75.49076666666666 -5.053450000000001 1744.61 0.0 0.0 1.0
-74.7287 -3.64341 1739.53 0.0 0.0 1.0
-75.05316666666666 0.5410626666666667 1734.49 0.0 0.0 1.0
-75.15153333333333 18.846500000000002 1754.84 0.0 0.0 1.0
-75.7647 22.039233333333332 1760.0 0.0 0.0 1.0
-75.49076666666666 33.35276666666667 1744.61 0.0 0.0 1.0
-72.4688 35.4275 1724.5 0.0 0.0 1.0
-74.89856666666667 40.11593333333334 1734.49 0.0 0.0 1.0
-75.06743333333333 48.0154 1729.4800000000002 -4.7014444553486957e-26 3.357033481384548e-27 1.0
-75.06743333333334 48.78613333333333 1729.4800000000002 9.066277847986179e-26 -2.2664060791445083e-26 1.0
-74.45086666666667 49.71096666666667 1729.4800000000002 7.55414237004536e-27 -7.554414640449786e-27 1.0
-75.05316666666666 59.5942 1734.49 0.0 0.0 1.0
-73.9003 61.5445 1754.84 0.0 0.0 1.0
-75.89743333333332 115.55566666666668 1704.84 0.0 0.0 1.0
-74.69696666666668 116.13600000000001 1700.0 0.0 0.0 1.0
-74.8485 123.25733333333334 1700.0 0.0 0.0 1.0
-74.8485 123.25733333333334 1700.0 0.0 0.0 1.0
-76.65673333333335 -122.50733333333335 1786.2699999999998 -7.860239148278677e-27 -3.303843283507488e-26 1.0
-75.18069999999999 -118.95566666666667 1802.41 0.0 0.0 1.0
-77.4603 -107.69866666666667 1780.95 0.0 0.0 1.0
-75.88526666666667 -94.87636666666667 1775.67 0.0 0.0 1.0
-72.97406666666667 -83.27346666666666 1791.62 0.0 0.0 1.0
-74.65093333333333 -71.66173333333333 1765.1899999999998 -3.2233109995944886e-27 3.787130067719031e-26 1.0
-75.7647 -68.0 1760.0 0.0 0.0 1.0
-75.3831 -66.62689999999999 1786.2699999999998 4.721831560009729e-27 3.1478877066731227e-27 1.0
-75.3831 -65.99006666666666 1786.2699999999998 0.0 0.0 1.0
-75.3831 -65.99006666666666 1786.2699999999998 0.0 0.0 1.0
-74.98040000000002 -61.725500000000004 1760.0 0.0 0.0 1.0
-75.13723333333333 -52.31373333333334 1760.0 0.0 0.0 1.0
-77.6401 -51.83873333333333 1765.1899999999998 -3.581477738688784e-28 5.372216608033148e-28 1.0
-75.92156666666666 -49.8039 1760.0 0.0 0.0 1.0
-74.8387 -39.4917 1754.84 0.0 0.0 1.0
-76.85346666666668 -35.6342 1765.1899999999998 -1.740581790533437e-27 6.961958394805234e-27 1.0
-73.56863333333332 -19.686266666666665 1760.0 0.0 0.0 1.0
-76.04350000000001 -12.7399 1775.67 0.0 0.0 1.0
-75.25223333333334 -9.41642 1775.67 0.0 0.0 1.0
-74.72866666666668 -6.58915 1739.53 0.0 0.0 1.0
-75.49076666666666 -5.053450000000001 1744.61 0.0 0.0 1.0
-75.4161 10.039846666666667 1773.9166666666667 1.595812083849636e-16 -0.9954487759935986 0.09529813415196542
-74.6823 11.495600000000001 1754.84 0.0 0.0 1.0
-75.1798 31.331366666666668 1744.61 0.0 0.0 1.0
-74.89856666666667 40.5797 1734.49 0.0 0.0 1.0
-75.81933333333333 42.36333333333334 1737.8500000000001 -0.3633608963356267 -0.9083436531421478 0.20707647575363936
-75.06743333333333 48.0154 1729.4800000000002 -4.701444455348696e-26 3.3570334813845505e-27 1.0
-75.20773333333334 47.227066666666666 1734.49 0.0 0.0 1.0
-75.63350000000001 74.46393333333333 1749.71 0.0 0.0 1.0
-75.3216 75.55556666666666 1749.71 0.0 0.0 1.0
-75.3216 75.55556666666666 1749.71 0.0 0.0 1.0
-75.3216 75.55556666666666 1749.71 0.0 0.0 1.0
-75.08163333333333 87.2238 1724.5 0.0 0.0 1.0
-75.2077 93.91303333333333 1734.49 0.0 0.0 1.0
-74.43476666666668 103.343 1734.49 0.0 0.0 1.0
-75.45453333333333 114.318 1700.0 0.0 0.0 1.0
-75.1952 -97.93793333333333 1797.0 0.0 0.0 1.0
-75.88526666666667 -94.87636666666667 1775.67 0.0 0.0 1.0
-76.7968 -91.2112 1797.0 0.0 0.0 1.0
-76.7968 -90.8909 1797.0 0.0 0.0 1.0
-75.88526666666667 -90.44513333333333 1775.67 0.0 0.0 1.0
-77.47533333333332 -79.28993333333334 1770.41 0.0 0.0 1.0
-76.1791 -69.1741 1786.2699999999998 -2.83309893600578e-27 2.5497890424052043e-27 1.0
-75.7647 -68.0 1760.0 0.0 0.0 1.0
-75.3831 -65.99006666666666 1786.2699999999998 0.0 0.0 1.0
-75.13723333333334 -62.19606666666667 1760.0 0.0 0.0 1.0
-75.43756666666667 -56.086533333333335 1765.1899999999998 -2.900723811212049e-26 -1.0151918779112679e-25 1.0
-75.92156666666666 -49.8039 1760.0 0.0 0.0 1.0
-76.2463 -45.435 1754.84 0.0 0.0 1.0
-73.80953333333333 -41.34923333333334 1780.95 0.0 0.0 1.0
-75.6207 -38.866099999999996 1754.84 0.0 0.0 1.0
-74.6823 -37.6149 1754.84 0.0 0.0 1.0
-76.85346666666668 -35.6342 1765.1899999999998 -1.740581790533436e-27 6.96195839480523e-27 1.0
-75.72700000000002 -10.049466666666666 1775.67 0.0 0.0 1.0
-76.75363333333333 5.48792 1734.49 0.0 0.0 1.0
-76.2573 7.251463333333334 1749.71 0.0 0.0 1.0
-74.33626666666667 16.912499999999998 1765.1899999999998 -6.164575952891083e-26 -2.8289280194393906e-25 1.0
-76.23530000000001 20.4706 1760.0 0.0 0.0 1.0
-76.07843333333334 20.9412 1760.0 0.0 0.0 1.0
-76.42373333333335 30.7094 1744.61 0.0 0.0 1.0
-75.6715 46.6087 1734.49 0.0 0.0 1.0
-75.92156666666666 56.862766666666666 1760.0 0.0 0.0 1.0
-76.13529999999999 58.51206666666667 1734.49 0.0 0.0 1.0
-75.95723333333333 83.1098 1744.61 0.0 0.0 1.0
-75.77556666666668 107.24333333333334 1693.5866666666668 -0.2115932668730873 0.8468401607967003 0.48794470124778794
-75.90906666666666 114.318 1700.0 0.0 0.0 1.0
-75.89743333333332 115.55566666666668 1704.84 0.0 0.0 1.0
-76.8159 -119.32333333333334 1786.2699999999998 9.909919290798867e-26 -2.687533567708942e-25 1.0
-76.53883333333333 -72.13373333333332 1765.1899999999998 -1.8093910442386577e-17 3.618645179970261e-17 1.0
-76.2353 -67.68626666666667 1760.0 0.0 0.0 1.0
-75.43756666666667 -56.086533333333335 1765.1899999999998 -2.900723811212049e-26 -1.0151918779112679e-25 1.0
-76.2463 -45.435 1754.84 0.0 0.0 1.0
-78.09526666666666 -41.34923333333334 1780.95 0.0 0.0 1.0
-76.10136666666666 -33.29436666666667 1749.71 0.0 0.0 1.0
-76.7347 -15.315833333333332 1744.61 0.0 0.0 1.0
-76.25733333333334 -15.048733333333333 1749.71 0.0 0.0 1.0
-76.04353333333334 -9.41642 1775.67 0.0 0.0 1.0
-76.4237 -5.208939999999999 1744.61 0.0 0.0 1.0
-76.4341 -3.7984500000000003 1739.53 0.0 0.0 1.0
-76.72513333333332 -1.0136446666666667 1749.71 0.0 0.0 1.0
-76.2899 0.5410626666666667 1734.49 0.0 0.0 1.0
-76.2573 7.251463333333333 1749.71 0.0 0.0 1.0
-76.71553333333334 11.495600000000001 1754.84 0.0 0.0 1.0
-79.05606666666667 37.83676666666667 1765.1899999999998 0.0 0.0 1.0
-77.16813333333333 45.70303333333334 1765.1899999999998 -6.524862015905823e-26 8.699406433787245e-26 1.0
-76.60886666666667 50.789966666666665 1729.4800000000002 -3.77835105319011e-26 1.5112096937938972e-26 1.0
-75.63350000000001 75.08773333333333 1749.71 0.0 0.0 1.0
-76.0038 86.45530000000001 1724.5 0.0 0.0 1.0
-76.0038 86.45530000000001 1724.5 0.0 0.0 1.0
-77.53370000000001 97.341 1729.4800000000002 0.0 1.0 0.0
-76.62833333333333 108.42933333333333 1719.54 0.0 0.0 1.0
-76.62833333333333 108.73566666666666 1719.54 0.0 0.0 1.0
-76.36363333333334 116.13600000000001 1700.0 0.0 0.0 1.0
-77.42196666666666 -132.044 1807.8499999999997 3.072801991678094e-27 1.537673377616136e-27 1.0
-76.65673333333335 -122.50733333333335 1786.2699999999998 -7.860239148278677e-27 -3.303843283507488e-26 1.0
-76.8159 -119.32333333333334 1786.2699999999998 9.909919290798864e-26 -2.687533567708941e-25 1.0
-76.0199 -117.572 1786.2699999999998 -1.0624121010021871e-27 -4.249648404008667e-28 1.0
-78.25396666666666 -110.55566666666668 1780.95 0.0 0.0 1.0
-76.3163 -105.30533333333334 1797.0 0.0 0.0 1.0
-76.36006666666667 -101.04863333333333 1775.67 0.0 0.0 1.0
-77.1171 -97.77776666666666 1797.0 0.0 0.0 1.0
-76.67656666666666 -95.03463333333333 1775.67 0.0 0.0 1.0
-76.38153333333334 -77.32543333333332 1765.1899999999998 -1.4504003156139547e-26 1.0152226046969863e-25 1.0
-76.2353 -67.68626666666667 1760.0 0.0 0.0 1.0
-77.1765 -60.62746666666667 1760.0 0.0 0.0 1.0
-77.4902 -57.64706666666667 1760.0 0.0 0.0 1.0
-75.92156666666666 -49.8039 1760.0 0.0 0.0 1.0
-76.5591 -45.1222 1754.84 0.0 0.0 1.0
-77.02833333333334 -44.4966 1754.84 0.0 0.0 1.0
-76.54899999999999 -31.13723333333333 1760.0 0.0 0.0 1.0
-77.03703333333334 -27.368433333333332 1749.71 0.0 0.0 1.0
-74.92066666666666 -25.793666666666667 1780.95 0.0 0.0 1.0
-76.89016666666667 -15.7823 1744.61 0.0 0.0 1.0
-76.04353333333334 -9.41642 1775.67 0.0 0.0 1.0
-76.72513333333332 -1.0136446666666667 1749.71 0.0 0.0 1.0
-76.2573 7.251463333333333 1749.71 0.0 0.0 1.0
-76.67843333333333 10.039846666666667 1773.9166666666667 -1.7399641329969112e-16 -0.9954487759935987 0.09529813415196543
-76.39216666666665 13.568666666666667 1760.0 0.0 0.0 1.0
-78.90836666666667 19.4152 1749.71 0.0 0.0 1.0
-76.54903333333333 20.9412 1760.0 0.0 0.0 1.0
-77.34893333333332 25.497066666666665 1749.71 0.0 0.0 1.0
-76.599 35.78743333333333 1734.49 0.0 0.0 1.0
-75.6715 46.6087 1734.49 0.0 0.0 1.0
-77.22543333333334 50.32753333333333 1729.4800000000002 -4.1977441699141256e-27 4.029928827355684e-26 1.0
-76.60886666666667 50.789966666666665 1729.4800000000002 -3.77835105319011e-26 1.5112096937938972e-26 1.0
-76.71553333333334 54.35 1754.84 0.0 0.0 1.0
-76.30059999999999 62.35066666666666 1729.4800000000002 -6.798238152277762e-26 4.30486488142182e-25 1.0
-76.72513333333332 73.06043333333334 1749.71 0.0 0.0 1.0
-74.77426666666666 76.926 1724.5 0.0 0.0 1.0
-77.37196666666667 93.91303333333333 1734.49 0.0 0.0 1.0
-76.13526666666667 100.8695 1734.49 0.0 0.0 1.0
-76.65716666666667 115.55566666666668 1704.84 0.0 0.0 1.0
-77.1212 119.621 1700.0 0.0 0.0 1.0
-75.60906666666666 124.04866666666668 1698.3933333333334 -0.9350667183420251 -1.2349378663098005e-16 0.3544717650943102
-76.6467 -92.37523333333333 1791.62 0.0 0.0 1.0
-77.47536666666667 -86.70613333333334 1770.41 0.0 0.0 1.0
-77.47536666666667 -86.70613333333334 1770.41 0.0 0.0 1.0
-77.63313333333333 -85.6016 1770.41 0.0 0.0 1.0
-78.73766666666667 -69.8225 1770.41 0.0 0.0 1.0
-77.49023333333334 -60.31373333333334 1760.0 0.0 0.0 1.0
-77.4902 -57.64706666666667 1760.0 0.0 0.0 1.0
-74.92066666666666 -25.793666666666667 1780.95 0.0 0.0 1.0
-77.97273333333334 -17.54386666666667 1749.71 0.0 0.0 1.0
-77.04566666666666 -15.315833333333332 1744.61 0.0 0.0 1.0
-76.04350000000001 -12.7399 1775.67 0.0 0.0 1.0
-77.2093 -6.4341099999999996 1739.53 0.0 0.0 1.0
-76.72513333333332 -1.0136446666666667 1749.71 0.0 0.0 1.0
-76.75363333333333 5.48792 1734.49 0.0 0.0 1.0
-76.75363333333333 5.48792 1734.49 0.0 0.0 1.0
-77.02836666666667 18.846500000000002 1754.84 0.0 0.0 1.0
-76.54903333333334 20.4706 1760.0 0.0 0.0 1.0
-77.19296666666666 24.8733 1749.71 0.0 0.0 1.0
-79.3762 28.46003333333333 1749.71 0.0 0.0 1.0
-77.51216666666667 33.19726666666667 1744.61 0.0 0.0 1.0
-77.51216666666666 33.50823333333333 1744.61 0.0 0.0 1.0
-77.16813333333333 45.70303333333334 1765.1899999999998 -6.524862015905823e-26 8.699406433787245e-26 1.0
-77.37956666666668 49.71096666666667 1729.4800000000002 6.1558119956788655e-27 -1.492203155715213e-27 1.0
-77.67846666666667 59.188633333333335 1736.17 -0.8648524537991396 -0.43237960412578164 0.25510411814323924
-77.82313333333333 65.69486666666667 1744.61 0.0 0.0 1.0
-77.0797 87.22379999999998 1724.5 0.0 0.0 1.0
-78.77393333333333 94.63600000000001 1719.54 0.0 0.0 1.0
-77.53370000000001 97.341 1729.4800000000002 0.0 1.0 0.0
-78.14493333333333 98.8599 1734.49 0.0 0.0 1.0
-78.16093333333333 105.97699999999999 1719.54 0.0 0.0 1.0
-76.93486666666666 108.58233333333334 1719.54 0.0 0.0 1.0
-76.93486666666666 108.73566666666666 1719.54 0.0 0.0 1.0
-76.65716666666667 115.55566666666668 1704.84 0.0 0.0 1.0
-77.42423333333333 118.56033333333335 1700.0 0.0 0.0 1.0
-77.1212 119.621 1700.0 0.0 0.0 1.0
-77.42196666666668 -132.044 1807.8499999999997 -6.1456039833561874e-27 -3.075346755232272e-27 1.0
-78.38873333333333 -127.53266666666666 1807.8499999999997 5.541583894506149e-27 1.3850521318130317e-26 1.0
-78.38873333333333 -127.53266666666666 1807.8499999999997 5.5415838945061514e-27 1.3850521318130323e-26 1.0
-76.8159 -119.32333333333332 1786.2699999999998 -1.1320541773580128e-25 3.252021028979983e-25 1.0
-78.55856666666666 -110.91066666666666 1797.0 0.0 0.0 1.0
-78.55856666666666 -110.91066666666666 1797.0 0.0 0.0 1.0
-78.07806666666666 -105.46533333333333 1797.0 0.0 0.0 1.0
-76.36006666666667 -101.04863333333333 1775.67 0.0 0.0 1.0
-77.30959999999999 -94.7181 1775.67 0.0 0.0 1.0
-77.30959999999999 -94.7181 1775.67 0.0 0.0 1.0
-77.63313333333333 -85.6016 1770.41 0.0 0.0 1.0
-77.64013333333334 -77.16813333333333 1765.1899999999998 2.417440535733907e-27 9.67078666302737e-27 1.0
-77.14283333333333 -74.36506666666666 1780.95 0.0 0.0 1.0
-76.1791 -69.1741 1786.2699999999998 -2.83309893600578e-27 2.5497890424052043e-27 1.0
-77.33336666666666 -60.62746666666667 1760.0 0.0 0.0 1.0
-77.49023333333334 -60.31373333333334 1760.0 0.0 0.0 1.0
-77.45273333333333 -57.0746 1786.2699999999998 1.4936607722112025e-27 5.9104879163521426e-27 1.0
-77.473 -54.41306666666666 1772.1633333333332 -7.802692344898374e-18 0.9927782603277389 0.11996385214150343
-77.96076666666666 -46.98036666666667 1760.0 0.0 0.0 1.0
-77.65396666666668 -44.4966 1754.84 0.0 0.0 1.0
-77.6608 -33.29436666666667 1749.71 0.0 0.0 1.0
-77.20116666666667 -15.626833333333332 1744.61 0.0 0.0 1.0
-77.66763333333331 -5.208939999999999 1744.61 0.0 0.0 1.0
-77.99036666666667 0.3864733333333334 1734.49 0.0 0.0 1.0
-76.265 6.615406666666668 1746.3100000000002 3.9991314735495476e-17 -0.9829478596068387 0.18388448899875834
-77.19296666666666 24.8733 1749.71 0.0 0.0 1.0
-77.21063333333333 42.67250000000001 1737.8500000000001 -0.35073578315108833 -0.8767829058327188 0.32899262371203186
-78.00766666666667 45.74710000000001 1719.54 0.0 0.0 1.0
-77.2174 58.357466666666674 1734.49 0.0 0.0 1.0
-76.30059999999999 62.35066666666666 1729.4800000000002 -6.798238152277789e-26 4.304864881421836e-25 1.0
-77.82313333333333 65.69486666666667 1744.61 0.0 0.0 1.0
-78.2896 84.5092 1744.61 0.0 0.0 1.0
-77.0797 87.22379999999998 1724.5 0.0 0.0 1.0
-78.44959999999999 91.86046666666665 1739.53 0.0 0.0 1.0
-78.14493333333333 98.8599 1734.49 0.0 0.0 1.0
-77.1315 107.54433333333333 1693.5866666666668 -0.1758717102453752 0.7038750787524584 0.6882071018571281
-77.58946666666667 110.65866666666666 1690.4000000000003 0.0 0.0 1.0
-78.03033333333333 116.742 1700.0 0.0 0.0 1.0
-78.03033333333333 116.742 1700.0 0.0 0.0 1.0
-77.42196666666668 -132.044 1807.8499999999997 -6.1456039833561874e-27 -3.075346755232272e-27 1.0
-78.08956666666667 -124.09966666666668 1786.2699999999998 2.8354893852913055e-26 -4.2520223451466014e-26 1.0
-77.61196666666667 -123.14433333333334 1786.2699999999998 -2.3921134884150607e-27 1.8901825548339625e-28 1.0
-77.63313333333333 -85.6016 1770.41 0.0 0.0 1.0
-78.4221 -80.07886666666667 1770.41 0.0 0.0 1.0
-77.64013333333334 -73.54966666666667 1765.1899999999998 -3.116965001688209e-27 1.618469074409233e-27 1.0
-78.73766666666667 -69.8225 1770.41 0.0 0.0 1.0
-77.64703333333334 -62.666666666666664 1760.0 0.0 0.0 1.0
-77.6401 -51.83873333333333 1765.1899999999998 -3.581477738688783e-28 5.372216608033146e-28 1.0
-77.96076666666666 -46.98036666666667 1760.0 0.0 0.0 1.0
-77.96076666666666 -46.98036666666667 1760.0 0.0 0.0 1.0
-78.7451 -30.980366666666665 1760.0 0.0 0.0 1.0
-79.37623333333333 -24.8733 1749.71 0.0 0.0 1.0
-77.97273333333334 -17.543866666666666 1749.71 0.0 0.0 1.0
-77.2093 -4.728683333333334 1739.53 0.0 0.0 1.0
-78.1065 9.70414 1770.41 0.0 0.0 1.0
-77.34893333333333 25.49706666666667 1749.71 0.0 0.0 1.0
-79.84363333333333 28.6999 1754.84 0.0 0.0 1.0
-79.84363333333333 28.6999 1754.84 0.0 0.0 1.0
-78.44510000000001 31.486866666666668 1744.61 0.0 0.0 1.0
-77.97863333333333 32.8863 1744.61 0.0 0.0 1.0
-77.82313333333333 33.50823333333333 1744.61 0.0 0.0 1.0
-77.16813333333333 45.70303333333334 1765.1899999999998 -6.524862015905773e-26 8.699406433787178e-26 1.0
-77.99613333333333 50.01926666666666 1729.4800000000002 -2.098654237229548e-26 1.0745738571944914e-25 1.0
-78.6087 58.975833333333334 1734.49 0.0 0.0 1.0
-80.94116666666666 72.86276666666667 1760.0 0.0 0.0 1.0
-78.1287 74.46393333333334 1749.71 0.0 0.0 1.0
-78.1287 74.46393333333334 1749.71 0.0 0.0 1.0
-78.1287 74.46393333333334 1749.71 0.0 0.0 1.0
-78.44959999999999 91.86046666666665 1739.53 0.0 0.0 1.0
-77.75099999999999 -118.95566666666667 1802.41 0.0 0.0 1.0
-78.73013333333334 -108.016 1780.95 0.0 0.0 1.0
-78.73013333333334 -108.016 1780.95 0.0 0.0 1.0
-77.94263333333333 -94.08506666666666 1775.67 0.0 0.0 1.0
-79.36126666666667 -92.05586666666666 1791.62 0.0 0.0 1.0
-78.4221 -80.07886666666667 1770.41 0.0 0.0 1.0
-78.4221 -80.07886666666667 1770.41 0.0 0.0 1.0
-78.89873333333334 -76.53883333333333 1765.1899999999998 -7.251809528029886e-27 7.25180952802994e-27 1.0
-78.89873333333334 -76.53883333333333 1765.1899999999998 -7.25180952802989e-27 7.251809528029946e-27 1.0
-78.2745 -58.7451 1760.0 0.0 0.0 1.0
-78.11763333333333 -57.80393333333333 1760.0 0.0 0.0 1.0
-77.65396666666668 -44.809400000000004 1754.84 0.0 0.0 1.0
-77.97273333333334 -17.543866666666666 1749.71 0.0 0.0 1.0
-77.15136666666666 -9.574679999999999 1775.67 0.0 0.0 1.0
-79.0616 11.8084 1754.84 0.0 0.0 1.0
-79.0616 11.8084 1754.84 0.0 0.0 1.0
-78.90836666666667 19.4152 1749.71 0.0 0.0 1.0
-78.28960000000001 33.19726666666667 1744.61 0.0 0.0 1.0
-79.22883333333334 35.100699999999996 1731.1499999999999 -5.590385121228523e-17 0.9867114382579398 0.16248242246762562
-79.07246666666667 40.88886666666667 1734.49 0.0 0.0 1.0
-78.7561 66.9388 1744.61 0.0 0.0 1.0
-78.7561 66.9388 1744.61 0.0 0.0 1.0
-78.6006 84.04273333333333 1744.61 0.0 0.0 1.0
-78.6006 84.04273333333333 1744.61 0.0 0.0 1.0
-78.2896 84.5092 1744.61 0.0 0.0 1.0
-78.46743333333333 109.195 1719.54 0.0 0.0 1.0
-78.6364 117.19666666666667 1700.0 0.0 0.0 1.0
-78.88556666666666 -119.32366666666667 1786.2699999999998 8.497398479904126e-28 -5.10176174480587e-27 1.0
-78.73013333333334 -108.016 1780.95 0.0 0.0 1.0
-80.6406 -97.6176 1797.0 0.0 0.0 1.0
-77.9179 -91.2112 1797.0 0.0 0.0 1.0
-77.9179 -90.8909 1797.0 0.0 0.0 1.0
-77.33333333333333 -67.37253333333332 1760.0 0.0 0.0 1.0
-79.05883333333334 -61.4118 1760.0 0.0 0.0 1.0
-79.05603333333333 -57.1878 1765.1899999999998 -1.3338927786962792e-33 -1.6998229195271908e-28 1.0
-79.0643 -32.9825 1749.71 0.0 0.0 1.0
-78.6006 -15.626799999999998 1744.61 0.0 0.0 1.0
-78.6006 -15.626799999999998 1744.61 0.0 0.0 1.0
-78.13953333333333 -5.658916666666666 1739.53 0.0 0.0 1.0
-77.66763333333331 -5.208939999999999 1744.61 0.0 0.0 1.0
-79.84403333333334 -3.0409400000000004 1749.71 0.0 0.0 1.0
-78.9052 18.3773 1754.84 0.0 0.0 1.0
-79.06706666666666 31.331366666666668 1744.61 0.0 0.0 1.0
-78.757 30.989866666666668 1742.9166666666667 -0.4423702547030071 0.8847405094060082 0.146774618957072
-79.07246666666667 40.88886666666667 1734.49 0.0 0.0 1.0
-78.45853333333334 48.78613333333333 1729.4800000000002 0.0 0.0 1.0
-78.76683333333334 49.24856666666667 1729.4800000000002 1.4166569639881356e-27 -9.444039360578355e-28 1.0
-76.71553333333334 54.35 1754.84 0.0 0.0 1.0
-78.7561 66.9388 1744.61 0.0 0.0 1.0
-79.37803333333333 78.2896 1744.61 0.0 0.0 1.0
-77.5337 97.341 1729.4800000000002 0.0 -1.0 0.0
-79.0909 120.98466666666667 1700.0 0.0 0.0 1.0
-79.5224 -124.09966666666668 1786.2699999999998 -3.397347333856887e-27 -6.793746350244417e-27 1.0
-80.3213 -118.795 1802.41 0.0 0.0 1.0
-79.8408 -117.413 1786.2699999999998 0.0 0.0 1.0
-79.04759999999999 -109.44433333333332 1780.95 0.0 0.0 1.0
-80.00003333333332 -84.23153333333333 1791.62 0.0 0.0 1.0
-78.89873333333334 -76.53883333333334 1765.1899999999998 1.4503619056059795e-26 -1.4503619056059904e-26 1.0
-80.63683333333334 -65.83083333333333 1786.2699999999998 -1.573834008175421e-27 -3.147173825224146e-27 1.0
-80.31463333333333 -51.83873333333333 1765.1899999999998 0.0 0.0 1.0
-81.2586 -44.60176666666667 1765.1899999999998 1.6038819749099485e-27 -1.83689178840481e-27 1.0
-79.21336666666667 -35.6342 1765.1899999999998 -2.1757272381668207e-28 8.70244799350664e-28 1.0
-80.00003333333333 -28.616 1749.71 0.0 0.0 1.0
-80.00003333333333 -28.616 1749.71 0.0 0.0 1.0
-79.21569999999998 13.568666666666667 1760.0 0.0 0.0 1.0
-79.84406666666666 15.984399999999999 1749.71 0.0 0.0 1.0
-79.84313333333334 20.627466666666667 1760.0 0.0 0.0 1.0
-79.68626666666667 21.254933333333337 1760.0 0.0 0.0 1.0
-79.69080000000001 34.5507 1734.49 0.0 0.0 1.0
-79.22883333333334 35.100699999999996 1731.1499999999999 -5.590385121228523e-17 0.9867114382579398 0.16248242246762562
-79.69083333333333 39.652166666666666 1734.49 0.0 0.0 1.0
-80.61656666666666 66.66666666666667 1729.4800000000002 -1.2089710230101618e-26 4.6091797610509524e-27 1.0
-79.8445 77.04566666666666 1744.61 0.0 0.0 1.0
-79.37803333333333 80.0 1744.61 0.0 0.0 1.0
-80.15546666666667 80.77743333333335 1744.61 0.0 0.0 1.0
-80.31006666666667 91.2403 1739.53 0.0 0.0 1.0
-79.99996666666667 94.48276666666668 1719.54 0.0 0.0 1.0
-79.99996666666667 94.48276666666668 1719.54 0.0 0.0 1.0
-79.07246666666667 99.0145 1734.49 0.0 0.0 1.0
-79.38696666666667 109.50166666666667 1719.54 0.0 0.0 1.0
-78.6364 117.19666666666667 1700.0 0.0 0.0 1.0
-81.45013333333333 -127.37133333333334 1807.8499999999997 1.6594885358355536e-27 -3.1350387814002144e-27 1.0
-78.88556666666666 -119.32366666666667 1786.2699999999998 8.497398479904124e-28 -5.10176174480587e-27 1.0
-80.16016666666667 -105.30533333333334 1797.0 0.0 0.0 1.0
-80.16016666666667 -105.30533333333334 1797.0 0.0 0.0 1.0
-80.9538 -91.87236666666666 1788.0533333333333 5.972542703693277e-17 -0.9992752329240213 0.03806584905979542
-80.63683333333334 -65.83083333333333 1786.2699999999998 -1.5738340081754215e-27 -3.147173825224147e-27 1.0
-81.09803333333333 -52.9412 1760.0 0.0 0.0 1.0
-80.9412 -50.90193333333334 1760.0 0.0 0.0 1.0
-79.8436 -44.4966 1754.84 0.0 0.0 1.0
-79.6881 -20.194933333333335 1749.71 0.0 0.0 1.0
-80.62376666666667 -17.232000000000003 1749.71 0.0 0.0 1.0
-79.68346666666667 -13.056399999999998 1775.67 0.0 0.0 1.0
-79.84403333333334 -3.0409400000000004 1749.71 0.0 0.0 1.0
-79.53623333333333 0.231884 1734.49 0.0 0.0 1.0
-80.61836666666666 5.487923333333334 1734.49 0.0 0.0 1.0
-80.0 11.8084 1754.84 0.0 0.0 1.0
-80.472 16.283199999999997 1765.1899999999998 2.3568380966096657e-26 1.0877714292044568e-26 1.0
-79.84313333333334 20.627466666666667 1760.0 0.0 0.0 1.0
-79.68626666666667 21.254933333333337 1760.0 0.0 0.0 1.0
-79.8445 32.5753 1744.61 0.0 0.0 1.0
-80.94396666666667 37.67943333333333 1765.1899999999998 3.263890523192527e-26 -1.3054640106076298e-25 1.0
-80.62746666666666 56.70590000000001 1760.0 0.0 0.0 1.0
-80.92753333333333 59.5942 1734.49 0.0 0.0 1.0
-80.30916666666667 60.21256666666667 1734.49 0.0 0.0 1.0
-80.0 61.75846666666666 1734.49 0.0 0.0 1.0
-81.2296 85.6868 1724.5 0.0 0.0 1.0
-80.15456666666667 94.06760000000001 1734.49 0.0 0.0 1.0
-80.61833333333334 99.32369999999999 1734.49 0.0 0.0 1.0
-80.613 104.75099999999999 1719.54 0.0 0.0 1.0
-79.38696666666667 109.50166666666667 1719.54 0.0 0.0 1.0
-78.55856666666666 -110.91066666666666 1797.0 0.0 0.0 1.0
-80.4762 -107.69833333333334 1780.95 0.0 0.0 1.0
-80.64063333333333 -105.145 1797.0 0.0 0.0 1.0
-80.94956666666667 -94.40156666666667 1775.67 0.0 0.0 1.0
-80.15780000000001 -79.7633 1770.41 0.0 0.0 1.0
-80.47616666666667 -74.5238 1780.95 0.0 0.0 1.0
-80.31373333333335 -61.25493333333333 1760.0 0.0 0.0 1.0
-80.1592 -57.0746 1786.2699999999998 4.7214361215692e-29 1.1961960104076513e-27 1.0
-82.36686666666667 -54.51676666666666 1770.41 0.0 0.0 1.0
-81.2586 -44.60176666666667 1765.1899999999998 1.6038819749099485e-27 -1.83689178840481e-27 1.0
-80.46780000000001 -33.13843333333333 1749.71 0.0 0.0 1.0
-81.88236666666667 -22.039199999999997 1760.0 0.0 0.0 1.0
-81.09160000000001 -21.130599999999998 1749.71 0.0 0.0 1.0
-80.62376666666667 -17.232 1749.71 0.0 0.0 1.0
-80.7797 -14.8928 1749.71 0.0 0.0 1.0
-80.46783333333333 -2.8849933333333335 1749.71 0.0 0.0 1.0
-80.77973333333334 -2.261206666666667 1749.71 0.0 0.0 1.0
-80.61836666666666 5.487923333333334 1734.49 0.0 0.0 1.0
-81.1013 16.7552 1765.1899999999998 0.0 1.0 0.0
-80.1564 18.0645 1754.84 0.0 0.0 1.0
-80.4678 27.21246666666667 1749.71 0.0 0.0 1.0
-80.4678 27.212466666666668 1749.71 0.0 0.0 1.0
-80.4678 27.212466666666668 1749.71 0.0 0.0 1.0
-79.69083333333333 39.652166666666666 1734.49 0.0 0.0 1.0
-80.30916666666667 46.6087 1734.49 0.0 0.0 1.0
-80.62746666666666 56.70590000000001 1760.0 0.0 0.0 1.0
-81.69556666666666 68.05396666666667 1729.4800000000002 0.0 0.0 1.0
-80.15593333333334 71.9688 1749.71 0.0 0.0 1.0
-81.8488 76.3037 1727.82 1.8142648081113522e-16 0.9901855047046568 0.13975931551343412
-80.31006666666667 91.2403 1739.53 0.0 0.0 1.0
-79.69869999999999 110.207 1690.4000000000003 -3.5167170289988576e-27 1.298499188095349e-26 1.0
-81.3636 124.16666666666667 1700.0 0.0 0.0 1.0
-81.75123333333333 -122.02999999999999 1786.2699999999998 1.9136770574443601e-25 1.4888014199956289e-25 1.0
-79.8408 -117.413 1786.2699999999998 0.0 0.0 1.0
-80.9524 -112.93633333333332 1780.95 0.0 0.0 1.0
-80.94956666666667 -94.40156666666667 1775.67 0.0 0.0 1.0
-81.10453333333334 -69.8225 1770.41 0.0 0.0 1.0
-81.09803333333333 -52.9412 1760.0 0.0 0.0 1.0
-81.2512 -44.0274 1754.84 0.0 0.0 1.0
-82.65883333333333 -39.0225 1754.84 0.0 0.0 1.0
-80.77973333333334 -28.771933333333333 1749.71 0.0 0.0 1.0
-80.77746666666667 -14.849366666666667 1744.61 0.0 0.0 1.0
-80.77973333333334 -2.5730999999999997 1749.71 0.0 0.0 1.0
-80.77973333333334 -2.2612066666666664 1749.71 0.0 0.0 1.0
-81.2367 0.5410633333333333 1734.49 0.0 0.0 1.0
-81.1013 16.7552 1765.1899999999998 0.0 1.0 0.0
-80.1564 18.0645 1754.84 0.0 0.0 1.0
-80.77743333333335 32.88626666666667 1744.61 0.0 0.0 1.0
-80.94396666666667 37.679433333333336 1765.1899999999998 0.0 0.0 1.0
-80.77069999999999 47.398833333333336 1729.4800000000002 -9.066441328000123e-28 -1.9637556806058503e-27 1.0
-80.92753333333333 59.5942 1734.49 0.0 0.0 1.0
-82.31213333333334 62.96723333333333 1729.4800000000002 1.748570923167479e-27 -3.372182182977393e-27 1.0
-79.53353333333332 67.2498 1744.61 0.0 0.0 1.0
-80.94116666666666 72.86276666666667 1760.0 0.0 0.0 1.0
-81.39940000000001 76.2682 1744.61 0.0 0.0 1.0
-82.4592 76.4649 1724.5 0.0 0.0 1.0
-81.7104 84.97573333333334 1744.61 0.0 0.0 1.0
-81.2296 85.6868 1724.5 0.0 0.0 1.0
-80.6139 86.06466666666667 1722.8466666666666 -0.44394801148455804 -0.8878960229691162 -0.1206267611043823
-81.2403 91.55040000000001 1739.53 0.0 0.0 1.0
-80.76626666666667 94.78926666666666 1719.54 0.0 0.0 1.0
-80.613 104.75099999999999 1719.54 0.0 0.0 1.0
-80.613 104.75099999999999 1719.54 0.0 0.0 1.0
-81.65726666666666 110.50833333333333 1690.4000000000003 2.97143253571245e-27 8.4186402015248e-27 1.0
-81.66666666666667 116.43900000000001 1700.0 0.0 0.0 1.0
-81.51513333333332 122.197 1700.0 0.0 0.0 1.0
-81.9335 -128.016 1807.8499999999997 1.7317163799333483e-25 8.311172359847833e-26 1.0
-80.64063333333333 -105.145 1797.0 0.0 0.0 1.0
-81.60156666666667 -98.89886666666666 1797.0 0.0 0.0 1.0
-81.60156666666666 -98.89886666666666 1797.0 0.0 0.0 1.0
-82.24223333333333 -97.13713333333334 1797.0 0.0 0.0 1.0
-80.94956666666667 -94.40156666666667 1775.67 0.0 0.0 1.0
-81.42013333333334 -79.6055 1770.41 0.0 0.0 1.0
-82.03920000000001 -63.137233333333334 1760.0 0.0 0.0 1.0
-81.72550000000001 -60.9412 1760.0 0.0 0.0 1.0
-81.88236666666667 -57.1765 1760.0 0.0 0.0 1.0
-82.50983333333333 -31.607833333333332 1760.0 0.0 0.0 1.0
-81.88236666666667 -22.039199999999997 1760.0 0.0 0.0 1.0
-80.62376666666667 -17.232 1749.71 0.0 0.0 1.0
-81.23673333333333 5.178746666666666 1734.49 0.0 0.0 1.0
-82.03320000000001 11.495600000000001 1754.84 0.0 0.0 1.0
-81.7255 14.352966666666667 1760.0 0.0 0.0 1.0
-80.77973333333334 15.984399999999999 1749.71 0.0 0.0 1.0
-81.55946666666667 19.4152 1749.71 0.0 0.0 1.0
-81.41176666666667 21.56866666666667 1760.0 0.0 0.0 1.0
-81.55490000000002 33.19726666666667 1744.61 0.0 0.0 1.0
-79.84453333333335 34.88063333333333 1727.82 -9.62911599839446e-16 -0.958291089308912 0.2857939610123679
-81.7255 56.235299999999995 1760.0 0.0 0.0 1.0
-82.33236666666667 80.77743333333333 1744.61 0.0 0.0 1.0
