ply
format ascii 1.0
comment VCGLIB generated
element vertex 574
property float x
property float y
property float z
property float nx
property float ny
property float nz
element face 0
property list uchar int vertex_indices
end_header
31.68626666666667 -2.823526666666666 1760.0 0.0 0.0 1.0
31.797866666666664 112.109 1744.61 0.0 0.0 1.0
16.2944 161.88066666666666 1504.78 0.8329100089121754 0.41645500445610917 -0.36445321553991256
14.54813 225.543 1695.3566666666666 -0.500500833767937 -0.8408357084760902 0.2061412786152046
12.508126666666668 204.5776666666667 1404.7333333333336 0.28981143837022966 -0.9094670903432935 0.2981257147115661
110.66666666666667 -429.86666666666673 2992.0 0.0 0.0 1.0
107.46666666666665 -375.2 2992.0 0.0 0.0 1.0
11.287723333333334 -80.62243333333333 1406.9099999999999 -0.8148329720844355 -0.4690481150976536 0.3406480490585317
33.187733333333334 -46.351166666666664 1727.82 -0.21827553946655107 -0.8731139584576236 0.43592178704102985
31.997666666666664 -40.546033333333334 1742.9166666666667 0.6128765204360072 0.36771540160270494 0.6994052860269315
13.666233333333333 -8.2958 1453.6066666666668 0.901993478561659 -0.20044356872652905 0.38240049736946086
13.6631 -8.538946666666666 1473.8966666666668 -0.7019908214182965 -0.7025546767176755 0.11672965718525725
29.629633333333334 92.31966666666666 1749.71 0.0 0.0 1.0
22.399 116.48066666666666 1595.74 0.7061509992198188 0.7066479945563543 0.04471440584793582
23.351366666666667 123.53166666666665 1617.3 0.0 0.0 1.0
20.56736666666667 141.41866666666667 1591.49 0.0 0.0 1.0
16.918966666666666 163.636 1512.3933333333334 -0.9638466182152005 -0.18360224259276853 0.1931059633207314
112.0 390.40000000000003 2992.0 0.0 0.0 1.0
115.46666666666668 420.8 2992.0 0.0 0.0 1.0
21.58096666666667 -118.52 1571.99 -0.9334208454972647 0.3111232299353536 0.1786836897586474
109.33333333333333 -154.13333333333335 2992.0 0.0 0.0 1.0
109.33333333333333 -154.13333333333335 2992.0 0.0 0.0 1.0
13.6631 -8.538946666666666 1473.8966666666668 -0.7019908214182966 -0.7025546767176754 0.11672965718525719
33.09806666666666 5.490196666666667 1760.0 0.0 0.0 1.0
32.9412 22.5882 1760.0 0.0 0.0 1.0
111.46666666666665 98.93333333333334 2992.0 0.0 0.0 1.0
30.293599999999998 110.60166666666667 1742.9166666666667 -0.7907475933502338 0.1757426166259568 0.5863725576050393
22.399 116.48066666666666 1595.74 0.7061509992198188 0.7066479945563542 0.04471440584793582
18.679866666666666 162.193 1535.6733333333332 -0.21505347008144884 -0.6989434353031106 0.6820777662793399
16.107733333333336 172.28433333333336 1531.74 0.700467734692376 0.20009172567966693 0.6850607666254607
106.93333333333334 -418.1333333333334 2992.0 0.0 0.0 1.0
112.8 -388.26666666666665 2992.0 0.0 0.0 1.0
27.95896666666667 -184.698 1742.9166666666667 0.8104361988782718 -0.1157792591292372 0.5742720006262044
28.532533333333333 -176.793 1744.61 0.0 0.0 1.0
19.491866666666667 -151.34366666666668 1590.0966666666666 -0.863434802756787 -0.2464859895820673 0.44014202063436025
12.593433333333332 -99.32786666666668 1479.9733333333334 0.9206358243284487 -7.81957731638945e-16 0.3904224365518427
12.593433333333332 -99.32786666666668 1479.9733333333334 0.9206358243284487 -7.81957731638945e-16 0.3904224365518427
107.73333333333335 -144.26666666666665 2992.0 0.0 0.0 1.0
29.299833333333336 -48.3992 1708.0966666666666 0.9079195642517373 0.4190392096130944 0.009391786612172055
14.882493333333334 -33.010733333333334 1637.9899999999998 -0.1733934451823115 0.8931870291921341 0.41491160992522064
108.26666666666665 45.866666666666674 2992.0 0.0 0.0 1.0
26.382133333333332 111.46233333333333 1680.9233333333334 -0.8310343417855383 -0.2596874283039186 0.49187840199989896
16.2944 161.88066666666666 1504.78 0.8329100089121748 0.4164550044561095 -0.36445321553991356
61.943266666666666 225.33633333333333 2115.15 -0.9608638596450294 -0.25751348322077794 0.1021148823020398
107.46666666666665 397.59999999999997 2992.0 0.0 0.0 1.0
101.86666666666667 442.6666666666667 2992.0 0.0 0.0 1.0
105.86666666666667 -408.26666666666665 2992.0 0.0 0.0 1.0
26.312600000000003 -184.6096666666667 1663.7633333333333 0.06896972702214707 -0.3586767239443832 0.9309104062448841
21.982533333333333 -146.812 1591.4966666666667 0.9305562226980668 -0.1550438910355342 0.3317024393194412
17.244666666666667 -126.08800000000001 1565.1733333333334 -0.8703585967915503 0.4583833560525731 0.17989055529689071
107.19999999999999 -136.26666666666665 2992.0 0.0 0.0 1.0
29.7765 -39.339200000000005 1744.61 0.0 0.0 1.0
14.085266666666667 -6.818296666666666 1470.2766666666666 0.711702810290045 -0.6468663070455315 -0.2739399398308473
103.2 28.26666666666667 2992.0 0.0 0.0 1.0
106.93333333333332 42.666666666666664 2992.0 0.0 0.0 1.0
29.071600000000004 54.84263333333333 1758.28 -0.6985286689752377 0.16435506420151122 0.6964518012691187
111.46666666666665 98.93333333333334 2992.0 0.0 0.0 1.0
26.767800000000005 112.74933333333333 1721.1933333333334 -0.5843342217244141 0.730036689619609 0.35440083116573773
18.158666666666665 133.07833333333335 1573.36 0.34333156220029104 -0.6375891338475759 0.6896401487707959
19.944766666666666 138.70366666666666 1592.9033333333334 0.8107101836003143 -0.18708471084312475 0.5547506729833583
20.56736666666667 145.10666666666665 1591.49 0.0 0.0 1.0
16.303833333333333 149.22833333333332 1570.63 0.3574433900724613 -0.8933671512443369 0.2722670673641678
16.5729 175.55000000000004 1530.43 0.0 0.0 1.0
82.01813333333332 270.6803333333333 2197.7533333333336 0.7792145075053364 -0.561335933293999 0.27879512421520425
13.535433333333335 205.96266666666665 1503.5233333333333 -0.9050709937966117 0.3933379697613793 0.1616531401860464
107.46666666666665 -375.2 2992.0 0.0 0.0 1.0
102.13333333333333 -355.7333333333333 2992.0 0.0 0.0 1.0
31.06086666666667 -194.5103333333333 1760.01 -0.4184964080735503 0.8970647825928666 0.14189972607848572
23.25896666666667 -172.8853333333333 1662.2299999999998 0.8598685062761701 -0.4584844738860901 0.22453983860282653
24.674533333333333 -118.36366666666667 1600.006666666667 -0.7428285825955397 0.35246921439533097 0.5691846359334023
27.591499999999996 -111.75333333333333 1729.4800000000002 6.345982745556272e-27 -3.8522810470553555e-27 1.0
106.66666666666667 -179.73333333333335 2992.0 0.0 0.0 1.0
28.527133333333335 -64.8062 1739.53 0.0 0.0 1.0
33.704766666666664 -23.92963333333333 1754.84 0.0 0.0 1.0
13.328666666666669 -10.507869999999999 1458.3533333333335 0.6371458397338561 -0.6697714841319576 0.38138083060572714
32.28066666666667 81.55946666666667 1749.71 0.0 0.0 1.0
16.93873333333333 84.2559 1566.6433333333334 -0.9550357150204105 -0.24313596233132753 0.16968113288363126
29.629633333333334 92.31966666666666 1749.71 0.0 0.0 1.0
18.461499999999997 157.31233333333333 1587.2699999999998 -5.174182850728894e-28 1.1207189667819781e-28 1.0
111.73333333333333 374.6666666666667 2992.0 0.0 0.0 1.0
14.945066666666667 -87.50916666666667 1439.6233333333332 -0.5963791588720941 0.7951722118294584 0.10969527062394469
102.66666666666667 -165.0666666666667 2992.0 0.0 0.0 1.0
109.33333333333333 -154.13333333333333 2992.0 0.0 0.0 1.0
106.66666666666667 -141.6 2992.0 0.0 0.0 1.0
27.134500000000003 -27.290433333333336 1749.71 0.0 0.0 1.0
31.68626666666667 -2.823526666666666 1760.0 0.0 0.0 1.0
103.2 21.600000000000005 2992.0 0.0 0.0 1.0
27.709166666666665 39.5655 1761.7300000000002 0.602392741227406 0.050189616749746924 0.7966203535480654
27.98733333333333 117.721 1706.4633333333331 -0.7757221195949606 -8.321864580198457e-15 0.6310746335981994
27.98733333333333 117.721 1706.4633333333331 -0.7757221195949606 -8.321864580198457e-15 0.6310746335981994
24.7403 121.95066666666666 1623.1599999999999 -0.11336749536981947 0.9642499062450484 0.23952020645446423
20.56736666666667 145.10666666666665 1591.49 0.0 0.0 1.0
14.331366666666666 178.15900000000002 1531.74 0.6197772517664065 0.12395545035328093 0.7749265800839429
19.225866666666665 195.78733333333335 1613.01 -0.42635353676899457 0.8522114526301136 0.30324627234418106
55.99973333333333 203.328 1906.0033333333333 0.8760667584029457 0.45351454774542616 -0.16380350974450014
107.2 -427.4666666666667 2992.0 0.0 0.0 1.0
19.287899999999997 -165.175 1614.4399999999998 -0.9675453215851841 0.2218951680663 0.12090734083359313
106.66666666666667 -179.73333333333332 2992.0 0.0 0.0 1.0
106.13333333333333 -149.6 2992.0 0.0 0.0 1.0
6.28379 -13.451966666666666 1423.6433333333334 -0.6641645558479601 -0.7472052569213522 0.02386936916590051
101.33333333333333 -8.0 2992.0 0.0 0.0 1.0
102.93333333333334 50.666666666666664 2992.0 0.0 0.0 1.0
29.647066666666664 43.29410000000001 1760.0 0.0 0.0 1.0
19.423333333333332 124.60366666666665 1614.3933333333334 0.7049478442013114 -0.7046211012839524 0.08097926019243432
17.247433333333333 161.40966666666665 1585.87 -0.6351319000194321 -0.10585115977547413 0.7651163320383987
31.06086666666667 -194.51033333333336 1760.0100000000002 -0.4184964080735502 0.8970647825928666 0.1418997260784857
25.965100000000003 -182.83899999999997 1708.0866666666668 -0.11127766972964788 0.44505713323324514 0.8885614375932286
23.25896666666667 -172.8853333333333 1662.2300000000002 0.8598685062761703 -0.45848447388609 0.22453983860282642
24.45726666666667 -168.99300000000002 1653.0466666666664 -0.8411491204232946 0.42048994244523613 0.34008288035936185
27.591499999999996 -111.75333333333333 1729.4800000000002 6.34598274555627e-27 -3.8522810470553555e-27 1.0
106.66666666666667 -179.73333333333332 2992.0 0.0 0.0 1.0
106.13333333333333 -132.53333333333333 2992.0 0.0 0.0 1.0
105.06666666666666 -122.66666666666667 2992.0 0.0 0.0 1.0
28.246666666666666 -44.579566666666665 1712.9966666666667 -0.748808210088444 -0.6551712033452584 0.10018462362691655
27.134500000000003 -27.290433333333336 1749.71 0.0 0.0 1.0
29.960800000000003 49.2549 1760.0 0.0 0.0 1.0
26.096933333333336 99.1449 1626.0966666666666 -0.6261033165705265 8.686917932014932e-05 0.779740103773772
30.293599999999998 110.60166666666667 1742.9166666666667 -0.7907475933502338 0.17574261662595675 0.5863725576050393
13.423866666666667 167.12133333333335 1536.9866666666667 0.061590276410180445 0.7378574910324885 0.6721405811130278
15.788533333333334 205.40166666666664 1507.3099999999997 -0.30623896166959425 0.6483039895478774 0.6970793609710693
104.0 -409.06666666666666 2992.0 0.0 0.0 1.0
102.93333333333332 -393.8666666666666 2992.0 0.0 0.0 1.0
16.10376666666667 -159.85733333333334 1621.7066666666667 0.6438792984103323 0.6660670654941057 0.3765290338641748
27.444100000000002 -177.57033333333334 1744.61 0.0 0.0 1.0
12.178289999999999 -140.18766666666667 1543.5966666666666 -0.49489674913274795 0.8661523272114467 0.06969471833670528
25.019666666666666 -136.28866666666667 1632.0033333333333 0.4441066017928047 -0.7894662591248027 0.4236889802054532
27.5915 -111.75333333333333 1729.4800000000002 0.0 0.0 1.0
106.13333333333333 -149.6 2992.0 0.0 0.0 1.0
105.06666666666666 -122.66666666666667 2992.0 0.0 0.0 1.0
104.26666666666667 -120.8 2992.0 0.0 0.0 1.0
26.666666666666668 -35.9184 1744.61 0.0 0.0 1.0
30.2534 87.9532 1749.71 0.0 0.0 1.0
26.767800000000005 112.74933333333333 1721.1933333333334 -0.5843342217244145 0.730036689619609 0.3544008311657375
19.423333333333332 124.60366666666665 1614.3933333333334 0.7049478442013113 -0.7046211012839524 0.08097926019243427
6.666666666666667 205.513 1438.46 0.0 0.0 1.0
7.609400000000001 203.61133333333336 1398.1366666666665 -0.0851106064817902 0.8599838327391082 0.5031739183340641
107.2 -427.4666666666667 2992.0 0.0 0.0 1.0
104.0 -409.0666666666666 2992.0 0.0 0.0 1.0
100.8 -364.5333333333333 2992.0 0.0 0.0 1.0
21.518633333333337 -173.65766666666664 1665.3066666666666 0.7780050761703521 -0.611245174026466 0.1452151461884044
27.444100000000002 -177.57033333333334 1744.61 0.0 0.0 1.0
27.444100000000002 -177.57033333333334 1744.61 0.0 0.0 1.0
26.4637 -169.31733333333332 1741.2233333333334 0.1520595595843612 0.5572830363506452 0.8162802874839105
12.178289999999999 -140.18766666666667 1543.5966666666666 -0.49489674913274817 0.8661523272114469 0.06969471833670536
18.914533333333335 -137.46333333333334 1590.0833333333333 0.065674364857208 -0.5248090911899043 0.8486826825174584
15.168433333333333 -103.52066666666667 1512.3933333333334 -0.4797140163937226 0.8636155222045115 0.15505706137687525
105.06666666666666 -129.06666666666666 2992.0 0.0 0.0 1.0
21.19626666666667 -31.901200000000003 1704.8500000000001 -0.1898842893077836 -0.7600665464127744 0.6214843535425776
25.629733333333334 -31.693033333333336 1742.9166666666667 0.20381135347461435 0.6114340604238437 0.7645974901531244
16.8693 147.602 1563.7766666666666 -0.7806781592336695 0.6249113101284808 0.005240817592205043
15.724833333333335 169.15666666666667 1534.3633333333335 0.15028672022569875 0.7426324833499091 0.6526184922275414
13.535433333333335 205.96266666666665 1503.5233333333333 -0.9050709937966118 0.3933379697613792 0.1616531401860464
102.93333333333334 -410.1333333333334 2992.0 0.0 0.0 1.0
104.26666666666665 -377.0666666666666 2992.0 0.0 0.0 1.0
17.405133333333332 -151.40066666666667 1581.6766666666665 0.47949318463617696 0.2663865011061833 0.836136662224461
23.458933333333334 -123.26233333333333 1610.0566666666666 0.7241532423774683 0.6860454954756904 0.0703111633505933
15.168433333333333 -103.52066666666667 1512.3933333333334 -0.4797140163937226 0.8636155222045115 0.15505706137687525
6.731393333333334 -97.3462 1452.43 0.0 0.0 1.0
6.731393333333334 -97.3462 1452.43 0.0 0.0 1.0
103.73333333333333 -141.6 2992.0 0.0 0.0 1.0
104.26666666666667 -120.8 2992.0 0.0 0.0 1.0
103.2 28.26666666666667 2992.0 0.0 0.0 1.0
31.118 88.17683333333333 1682.4766666666667 0.12128348470653881 -0.6064264188219248 0.7858354248137801
29.629633333333334 92.31966666666666 1749.71 0.0 0.0 1.0
26.767800000000005 112.74933333333333 1721.1933333333334 -0.5843342217244142 0.7300366896196091 0.3544008311657377
24.843333333333334 122.621 1704.84 0.0 0.0 1.0
17.901833333333332 134.99 1594.3166666666668 0.7891135708846518 -0.26304607689458054 0.5550734489020748
13.571653333333336 144.12 1562.4066666666668 0.7069587819021608 -0.7068829152900045 0.022930869205445757
77.30839999999999 244.83766666666668 1932.74 -0.042258397758710195 -0.9353213236953527 0.35126663556284415
11.355383333333334 208.13766666666666 1534.3633333333335 -0.777588695046002 -0.19080261387770123 0.5991245144993589
102.93333333333332 -393.8666666666666 2992.0 0.0 0.0 1.0
101.86666666666667 -388.5333333333333 2992.0 0.0 0.0 1.0
12.593433333333332 -99.32786666666668 1479.9733333333334 0.920635824328449 -1.405725716202598e-15 0.3904224365518424
102.66666666666667 -165.0666666666667 2992.0 0.0 0.0 1.0
5.287653333333334 -50.282999999999994 1428.1766666666665 -0.7785471361978988 -0.6228581464848632 0.07689009087971707
24.65116666666667 -50.387633333333326 1739.53 0.0 0.0 1.0
24.8062 -47.286833333333334 1739.53 0.0 0.0 1.0
21.55716666666667 -30.687699999999996 1721.2033333333331 -0.2240899470604392 0.8217225422825724 0.5239806858378615
104.26666666666667 43.20000000000001 2992.0 0.0 0.0 1.0
25.99546666666667 60.541633333333344 1746.3266666666666 -0.9785194564380648 -0.17253968823657098 0.1128261022786011
28.33926666666667 59.175000000000004 1756.5600000000002 -0.7844673645540282 1.0194383503403815e-14 0.6201701008188459
28.33926666666667 59.175000000000004 1756.5600000000002 -0.7844673645540229 2.2146457380467437e-14 0.6201701008188527
18.9747 152.633 1588.6766666666665 -0.3723428017679001 0.37231773661799933 0.8501413652865506
100.26666666666665 -441.06666666666666 2992.0 0.0 0.0 1.0
102.13333333333333 -391.4666666666667 2992.0 0.0 0.0 1.0
101.86666666666667 -385.59999999999997 2992.0 0.0 0.0 1.0
101.86666666666667 -385.59999999999997 2992.0 0.0 0.0 1.0
6.62616 -161.38833333333335 1527.9233333333332 -0.9286527171550752 -0.3526391368558575 0.11510764561075847
28.32603333333333 -190.36299999999997 1746.3266666666666 -0.4404578186062381 0.7877283296649421 0.43067503836641674
11.338766666666666 -102.93933333333335 1496.0533333333333 -0.44234256130680305 0.8865686349503648 0.1353850581814112
101.33333333333333 49.333333333333336 2992.0 0.0 0.0 1.0
101.33333333333333 49.333333333333336 2992.0 0.0 0.0 1.0
99.73333333333333 69.06666666666666 2992.0 0.0 0.0 1.0
25.231733333333334 91.60893333333333 1736.2333333333333 -0.9751463011079092 0.17447781052189631 0.13655469626141714
24.843333333333334 122.621 1704.84 0.0 0.0 1.0
18.360699999999998 123.56333333333333 1615.8466666666666 0.8221523787320817 -0.5478271127622317 0.1547608499194053
102.66666666666667 401.3333333333333 2992.0 0.0 0.0 1.0
98.66666666666667 -442.40000000000003 2992.0 0.0 0.0 1.0
100.53333333333335 -410.1333333333334 2992.0 0.0 0.0 1.0
17.8952 -166.13833333333335 1605.743333333333 -0.9682777862626434 0.1793039134535733 0.1740351552145373
99.2 -181.6 2992.0 0.0 0.0 1.0
100.26666666666667 -142.13333333333333 2992.0 0.0 0.0 1.0
97.06666666666666 -9.6 2992.0 0.0 0.0 1.0
25.880066666666664 23.126833333333337 1765.1899999999998 -7.830749370352728e-28 5.17798199405251e-29 1.0
101.33333333333333 49.333333333333336 2992.0 0.0 0.0 1.0
23.287633333333332 53.1861 1724.506666666667 -0.4552740028941245 -0.6802208815963046 0.5744781410368083
23.639333333333337 58.82293333333333 1727.82 -0.717903918821399 0.35899076922358764 0.59643909240855
25.374433333333332 111.22266666666667 1674.6633333333332 -0.3472889208094769 -0.7432422718389183 0.5718228141957193
13.264233333333335 161.796 1550.26 0.0 0.0 1.0
13.112446666666665 201.5726666666667 1471.4833333333336 0.5431294499881748 -0.839371170707675 0.021597183621241783
12.894686666666667 204.73733333333334 1467.88 -0.7537361870168516 -0.6204701837943846 0.21656064139972472
98.13333333333333 -357.3333333333333 2992.0 0.0 0.0 1.0
15.463966666666666 -167.56066666666666 1598.5933333333332 -0.9420997295356367 -0.3140222645888141 0.1176355258898984
6.28379 -13.451966666666666 1423.6433333333334 -0.6641645558479601 -0.7472052569213522 0.023869369165900572
25.709866666666667 5.509673333333333 1765.2 0.2587391306776696 -0.7770883253074446 0.5737488971031098
25.880066666666668 23.126833333333334 1765.1899999999998 4.788970610362757e-28 5.823972834575952e-29 1.0
24.254133333333332 55.74896666666666 1727.82 0.8256881696195463 -0.41288872142830474 0.38439816631667617
25.17186666666667 59.633500000000005 1737.8733333333332 -0.9785613119596064 -0.17111097014977478 0.11462458126552501
16.0 122.52266666666667 1617.3 0.0 0.0 1.0
10.428030000000001 163.868 1548.9233333333334 -0.327056440545211 -0.16356767219546572 0.9307414793112283
10.649183333333333 205.18966666666665 1531.74 -0.7468902114408263 -0.353785802598694 0.5630191985478609
96.53333333333335 440.8 2992.0 0.0 0.0 1.0
97.33333333333333 -433.06666666666666 2992.0 0.0 0.0 1.0
19.710166666666666 -155.517 1734.49 0.0 0.0 1.0
100.8 -179.19999999999996 2992.0 0.0 0.0 1.0
103.2 21.600000000000005 2992.0 0.0 0.0 1.0
100.0 73.60000000000001 2992.0 0.0 0.0 1.0
100.0 73.60000000000001 2992.0 0.0 0.0 1.0
24.146333333333335 54.61383333333333 1731.1500000000003 -0.7464232349490284 0.3732519690387309 0.5509403978080916
30.439766666666667 90.92869999999999 1726.1766666666665 0.06424989168450795 -0.9512085188884446 0.3017851968082273
16.084433333333333 133.0943333333333 1597.1533333333334 0.9410588709505425 -0.31369609301341944 0.12650281670147095
10.427673333333333 158.897 1548.9233333333334 -0.43497974733759265 0.03480089824544998 0.8997674793453216
10.871373333333333 194.5103333333333 1523.9666666666665 -0.9806658346401448 -0.015031421082198373 0.19511170428705174
96.80000000000001 -434.40000000000003 2992.0 0.0 0.0 1.0
97.86666666666667 -372.8 2992.0 0.0 0.0 1.0
97.33333333333333 -355.4666666666667 2992.0 0.0 0.0 1.0
14.838066666666668 -161.84033333333335 1585.8766666666668 0.9541738905523207 -0.19741877228804303 0.22489556451057355
17.771066666666666 -151.58866666666668 1654.573333333333 -0.9702226692150492 -0.13861664158754142 0.19862879654324175
11.59238 -133.651 1547.6033333333332 -0.6518806126777477 -0.6394728656061972 0.4075857222331061
102.66666666666667 -165.0666666666667 2992.0 0.0 0.0 1.0
100.26666666666667 -132.79999999999998 2992.0 0.0 0.0 1.0
100.26666666666667 -132.79999999999998 2992.0 0.0 0.0 1.0
4.37718 -49.99103333333333 1423.6333333333334 -0.7601056647867956 -0.6081044852516239 0.22901596751292483
4.37718 -49.99103333333333 1423.6333333333332 -0.7601056647867956 -0.6081044852516239 0.2290159675129248
99.73333333333333 69.06666666666666 2992.0 0.0 0.0 1.0
22.56573333333333 122.02766666666666 1746.3100000000002 0.7696649144322999 -0.06413645097216816 0.6352184153097382
96.53333333333335 359.4666666666667 2992.0 0.0 0.0 1.0
11.355383333333334 208.13766666666666 1534.3633333333335 -0.7775886950460019 -0.19080261387770106 0.599124514499359
5.128206666666666 207.56433333333334 1438.46 0.0 0.0 1.0
98.13333333333333 -410.6666666666667 2992.0 0.0 0.0 1.0
94.39999999999999 -402.40000000000003 2992.0 0.0 0.0 1.0
26.044700000000002 -177.41466666666665 1744.61 0.0 0.0 1.0
18.914533333333335 -137.46333333333334 1590.0833333333333 0.06567436485720807 -0.5248090911899042 0.8486826825174584
99.2 -181.6 2992.0 0.0 0.0 1.0
6.28379 -13.451966666666666 1423.6433333333334 -0.6641645558479603 -0.7472052569213522 0.023869369165900396
100.0 25.599999999999998 2992.0 0.0 0.0 1.0
25.880066666666664 23.126833333333337 1765.1899999999998 -7.830749370352728e-28 5.177981994052505e-29 1.0
23.639333333333337 58.82293333333334 1727.82 -0.717903918821399 0.35899076922358764 0.59643909240855
22.8776 119.06466666666667 1746.3100000000002 0.8931481986400759 -0.07442635694938893 0.44356173488842554
13.9713 129.765 1600.006666666667 0.7492387375674584 -0.6556951070931748 0.09330187920075066
9.511706666666667 150.696 1581.6766666666665 0.4240955005827838 0.6365643386052489 0.6441497102393977
7.268885333333333 207.289 1494.7633333333333 0.09546860596618313 0.9069570206118993 0.41026175551428207
5.128206666666666 207.56433333333334 1438.46 0.0 0.0 1.0
23.69633333333333 -163.386 1726.1666666666667 -0.05365138154568117 0.9923939545624711 0.11079606584216012
19.864766666666664 -100.32853333333333 1734.49 0.0 0.0 1.0
100.26666666666667 -142.13333333333333 2992.0 0.0 0.0 1.0
27.134500000000003 -27.29043333333333 1749.71 0.0 0.0 1.0
97.06666666666666 -9.6 2992.0 0.0 0.0 1.0
21.977 50.836099999999995 1717.9166666666667 -0.7770064441391723 0.62148891875975 0.10006252857606746
14.331366666666668 178.159 1531.74 0.6197772517664065 0.12395545035328095 0.7749265800839429
5.746963666666667 203.41899999999998 1517.5 -0.2542175702627969 -0.5315462891860248 0.8079801788548077
94.13333333333333 404.26666666666665 2992.0 0.0 0.0 1.0
96.53333333333335 -412.0 2992.0 0.0 0.0 1.0
96.53333333333335 -412.0 2992.0 0.0 0.0 1.0
98.13333333333333 -357.3333333333333 2992.0 0.0 0.0 1.0
17.771066666666666 -151.58866666666668 1654.573333333333 -0.9702226692150491 -0.13861664158754144 0.19862879654324173
17.77106666666667 -151.58866666666668 1654.573333333333 -0.9702226692150491 -0.13861664158754144 0.19862879654324173
6.562416666666667 -117.45333333333333 1487.33 -0.8437848888509322 0.42180957459251417 0.3318188423355465
19.864766666666664 -100.32853333333333 1734.49 0.0 0.0 1.0
21.39536666666667 -44.96123333333333 1739.53 0.0 0.0 1.0
99.46666666666665 50.666666666666664 2992.0 0.0 0.0 1.0
11.6929 140.29766666666663 1590.0833333333333 -0.6554790695473381 0.2808944545767479 0.7010317359245495
14.055433333333333 166.774 1584.47 -0.6967303976522562 -0.30484526997100314 0.64933513254993
13.423866666666667 167.12133333333335 1536.9866666666667 0.061590276410180445 0.7378574910324885 0.6721405811130278
11.164353333333333 184.02866666666668 1585.8700000000001 0.6763284969414874 0.676264759177379 0.29196873072236723
96.53333333333335 359.4666666666667 2992.0 0.0 0.0 1.0
9.210376666666667 194.105 1518.8033333333333 -0.9445679110549597 -0.2778162701043749 0.1749559415126064
96.53333333333335 440.8 2992.0 0.0 0.0 1.0
20.979000000000003 -175.42066666666665 1663.7733333333333 0.7552819335522087 -0.5933925768012336 0.27827046312325193
14.613233333333332 -166.67066666666668 1591.5199999999998 -0.915993587223585 -0.3982147416555715 0.048793111127033516
19.605233333333334 -173.25699999999998 1673.11 0.7639801275618204 -0.6002263742583047 0.2367755568789862
24.240433333333332 -162.79466666666667 1737.8500000000001 0.11900865777311466 0.43615479577278166 0.8919674509192836
17.405133333333335 -151.40066666666667 1581.6766666666665 0.479493184636177 0.2663865011061832 0.8361366622244611
7.98341 -112.533 1530.4399999999998 -0.6227843264461079 0.6237515030831057 0.4723068336734439
4.37718 -49.99103333333333 1423.6333333333332 -0.7601056647867956 -0.6081044852516237 0.22901596751292472
22.693633333333334 -51.114733333333334 1737.8500000000001 -0.47688455401139157 0.6131330988057274 0.6298007028372089
19.1902 -32.75833333333333 1701.6133333333335 -0.4322413331348344 -0.5042908005628645 0.747568203174457
25.62973333333333 -31.693033333333332 1742.9166666666667 0.2038113534746143 0.6114340604238439 0.7645974901531243
21.78956666666667 37.6008 1765.1899999999998 4.915635693821891e-28 -1.4229922965921384e-28 1.0
21.977 50.836099999999995 1717.9166666666667 -0.7770064441391723 0.62148891875975 0.10006252857606746
19.131266666666665 61.302099999999996 1703.243333333333 -0.9603628947133601 0.06981942103801819 0.26986729869269355
27.41031666666667 76.9828 1497.256666666667 -0.039318647365549846 0.5176764588713524 0.8546725267023392
23.645633333333333 85.22806666666666 1751.42 -0.0799236703590824 0.9589644748085572 0.2720282025295923
12.965683333333333 133.21866666666668 1573.36 0.5076339396431098 0.3722501540775877 0.7770055380186345
96.53333333333335 359.4666666666667 2992.0 0.0 0.0 1.0
93.60000000000001 430.1333333333334 2992.0 0.0 0.0 1.0
4.4871799999999995 207.56433333333334 1438.46 0.0 0.0 1.0
95.46666666666665 -432.2666666666667 2992.0 0.0 0.0 1.0
96.0 -409.3333333333333 2992.0 0.0 0.0 1.0
6.4218866666666665 -130.107 1531.7833333333335 -0.530102526532244 0.8334430117242217 0.15608990221084204
4.914113333333334 -121.73833333333333 1491.0433333333333 -0.6299129727893553 0.6801216731379314 0.3750255410498572
8.824983333333334 -112.37033333333333 1535.6866666666665 0.9609768632877077 0.19246989685392119 0.19869274528970515
-1.15381 -46.6745 1535.6766666666665 -0.33478863332596437 -0.932634282636216 0.13457290160862062
21.533266666666666 46.5225 1763.46 -0.9181818796884056 -0.33388592766603187 0.21321872131325556
26.546999999999997 95.70213333333334 1544.9333333333332 0.34162432968724876 0.22772194042440058 0.9118308698520158
4.4871799999999995 207.56433333333334 1438.46 0.0 0.0 1.0
93.59999999999998 -438.40000000000003 2992.0 0.0 0.0 1.0
94.93333333333332 -354.1333333333334 2992.0 0.0 0.0 1.0
24.712100000000003 -181.21633333333332 1737.8733333333332 -0.6453748626544255 -0.7018061350704993 0.30159481996743476
3.5215266666666665 -133.691 1521.36 0.15768560647349453 -0.34684405179897027 0.9245725786777149
21.55716666666667 -30.687699999999996 1721.2033333333331 -0.2240899470604392 0.8217225422825724 0.5239806858378615
21.175833333333333 -29.099266666666665 1709.72 0.6429627858944005 0.7598315746061761 -0.09620204876409934
19.5806 -29.225366666666662 1716.2733333333333 -0.9983223736250912 3.175289921237699e-05 0.057900235848540725
16.500433333333334 -21.584533333333336 1729.49 -0.25181956533818195 0.7871010289796803 0.563079813784882
92.8 -9.333333333333334 2992.0 0.0 0.0 1.0
22.0907 19.881666666666664 1770.41 0.0 0.0 1.0
11.164353333333333 184.02866666666668 1585.8700000000001 0.6763284969414876 0.6762647591773789 0.29196873072236745
93.60000000000001 430.1333333333334 2992.0 0.0 0.0 1.0
93.60000000000001 438.6666666666667 2992.0 0.0 0.0 1.0
95.2 -433.06666666666666 2992.0 0.0 0.0 1.0
90.13333333333333 -381.8666666666666 2992.0 0.0 0.0 1.0
94.93333333333332 -354.1333333333334 2992.0 0.0 0.0 1.0
92.8 -185.0666666666667 2992.0 0.0 0.0 1.0
2.6564366666666666 -48.91253333333333 1418.0166666666667 -0.7980097466511342 -0.5984569806012925 0.07092028355397767
21.453333333333333 -49.099199999999996 1737.8500000000001 -0.9359215945808266 0.04679406751371108 0.3490860696773867
4.5600613333333335 -13.111733333333333 1413.6333333333334 -0.7470720331395247 -0.6507920928306302 0.13547335239782474
21.04773333333333 115.551 1749.72 0.8976219556920362 2.0914144565744856e-05 0.44076617862785555
10.71658 130.08666666666667 1583.1000000000001 0.91119649436445 0.3504694910034154 0.2165458023923428
10.649183333333333 205.18966666666665 1531.74 -0.7468902114408262 -0.3537858025986941 0.5630191985478609
93.60000000000001 -372.8 2992.0 0.0 0.0 1.0
1.309429 -158.92333333333332 1478.7866666666669 0.9695653905309454 0.23139017280860164 0.0800096332461346
6.562416666666667 -117.45333333333333 1487.33 -0.8437848888509324 0.42180957459251395 0.3318188423355462
-1.4490720000000001 -95.13003333333332 1408.0133333333333 0.7025559496265227 -0.7025686696341312 -0.11319188174468094
18.318833333333334 -75.43963333333333 1734.49 0.0 0.0 1.0
2.6564366666666666 -48.91253333333333 1418.0166666666667 -0.7980097466511347 -0.5984569806012922 0.07092028355397827
9.774393333333334 -38.080466666666666 1648.5566666666666 -0.027515671193520035 0.9392129778843715 0.342230726283221
11.688160000000002 -32.897533333333335 1669.9566666666667 -0.6581829719512499 -0.74046964993475 -0.13601423807428709
91.2 -5.333333333333333 2992.0 0.0 0.0 1.0
22.0907 19.881666666666664 1770.41 0.0 0.0 1.0
22.0907 19.881666666666664 1770.41 0.0 0.0 1.0
20.73063333333333 30.89536666666667 1768.67 -0.855793964300645 0.21391459376999936 0.47101723666847106
24.850733333333334 69.84406666666666 1700.006666666667 -0.3624078969052108 0.802963542479391 0.47319136267443573
20.057033333333333 111.92233333333333 1751.42 0.9119161126951703 -0.03799379742775213 0.40861409026604617
7.406200000000001 197.15233333333336 1597.1533333333334 -0.5302259907448129 -0.17673923532123534 0.8292307528286361
8.649573333333334 198.11266666666666 1516.22 -0.6785527870142736 -0.19957591418354334 0.7069197760092476
93.60000000000001 430.1333333333334 2992.0 0.0 0.0 1.0
91.2 -395.73333333333335 2992.0 0.0 0.0 1.0
91.2 -395.73333333333335 2992.0 0.0 0.0 1.0
91.2 -395.73333333333335 2992.0 0.0 0.0 1.0
19.9109 -23.673933333333334 1680.9066666666668 0.4970144834633524 0.1443355749309785 0.8556540451823978
21.3018 15.621333333333334 1770.41 0.0 0.0 1.0
20.73063333333333 30.89536666666667 1768.67 -0.855793964300645 0.21391459376999936 0.47101723666847106
21.533266666666666 46.5225 1763.46 -0.9181818796884056 -0.33388592766603187 0.21321872131325556
21.533266666666666 46.5225 1763.46 -0.9181818796884056 -0.33388592766603187 0.21321872131325556
18.846533333333333 86.4907 1754.84 0.0 0.0 1.0
13.527259999999998 62.262499999999996 1431.5833333333333 -0.8641987811000806 -0.4572429800067198 0.20997457936547775
21.730966666666664 122.14166666666667 1748.01 0.8196500362529208 0.0862711861759741 0.5663312639316109
13.755466666666665 121.83633333333334 1615.8466666666666 -0.17828900302460154 0.9815800110965506 0.06865648706559985
11.063813333333334 135.74466666666666 1591.49 0.0 0.0 1.0
9.02997 175.52 1583.07 0.0 0.0 1.0
92.26666666666667 434.6666666666667 2992.0 0.0 0.0 1.0
88.26666666666667 -419.4666666666667 2992.0 0.0 0.0 1.0
89.33333333333333 -373.06666666666666 2992.0 0.0 0.0 1.0
5.075456666666667 -123.27266666666667 1498.5233333333333 -0.8031526396728467 0.5954644846152798 0.019180327119161962
88.0 -118.66666666666667 2992.0 0.0 0.0 1.0
17.126066666666667 -14.858266666666665 1754.84 0.0 0.0 1.0
85.33333333333333 12.533333333333331 2992.0 0.0 0.0 1.0
8.586776666666667 125.79533333333332 1605.7266666666667 -0.4106095439142586 0.8899072183732389 0.19865785948139367
10.959070000000002 141.40366666666668 1567.8766666666668 0.680195239046703 -0.7304958337031087 -0.06091201622503103
9.773313333333334 142.15866666666665 1588.676666666667 -0.388587093179628 0.582921844880941 0.7135840481504665
9.516910000000001 173.95600000000002 1581.6766666666665 -0.8549699099279272 0.1221426806859579 0.5040908833461285
25.965100000000003 -182.83899999999997 1708.0866666666668 -0.11127766972964796 0.4450571332332451 0.8885614375932286
8.824983333333334 -112.37033333333333 1535.6866666666667 0.9609768632877076 0.19246989685392127 0.19869274528970512
3.3638033333333333 -100.23266666666666 1454.79 0.6600781330767675 -0.7481195244437502 0.06792669121888728
16.309166666666666 -92.44443333333334 1734.49 0.0 0.0 1.0
17.85506666666667 -76.9855 1734.49 0.0 0.0 1.0
1.8124233333333335 -50.26239999999999 1520.0833333333333 0.030299669536099597 0.9991413206812808 0.02825865059179242
16.5214 -23.168733333333336 1732.82 -2.6255256592588968e-17 0.763862039521172 0.6453795662852639
89.06666666666666 -20.26666666666667 2992.0 0.0 0.0 1.0
19.587 69.38053333333333 1765.1899999999998 -6.044028252854641e-28 -6.044028252854642e-28 1.0
11.5117 121.87033333333333 1614.3933333333334 -0.6979837598129602 -0.6976602447446801 0.1615204443411326
91.73333333333333 -437.6000000000001 2992.0 0.0 0.0 1.0
87.2 -363.73333333333335 2992.0 0.0 0.0 1.0
21.602433333333334 -191.938 1756.5600000000002 0.41103030932766954 0.7633312765431511 0.4983768123267813
19.710166666666666 -155.51700000000002 1734.49 0.0 0.0 1.0
0.26336299999999996 -112.21233333333333 1469.07 -0.8972501457775641 -0.425029280094099 0.11955035326100857
17.85506666666667 -76.9855 1734.49 0.0 0.0 1.0
0.41020666666666666 -49.46020000000001 1516.22 -0.1520474365192779 -0.9883396189941427 -0.008147059250393728
89.06666666666666 -20.26666666666667 2992.0 0.0 0.0 1.0
90.13333333333333 -10.133333333333335 2992.0 0.0 0.0 1.0
20.039466666666666 11.518763333333334 1770.41 0.0 0.0 1.0
19.587 69.38053333333335 1765.1899999999998 1.2088056505709281e-27 1.2088056505709283e-27 1.0
13.695696666666668 121.36333333333334 1654.58 -0.13274771188983225 0.904585979494 0.405095359996748
10.915766666666668 121.07900000000001 1611.493333333333 -0.6291356166051204 -0.6288440126113287 0.4568846503459903
4.731646666666666 178.36266666666666 1561.0433333333333 -0.23222056500201238 0.6039970146640729 0.7624048894564056
86.93333333333334 -420.8 2992.0 0.0 0.0 1.0
86.39999999999999 -408.8 2992.0 0.0 0.0 1.0
3.8172666666666664 -146.0763333333333 1502.2666666666667 -0.9870658746877702 1.5330510905516159e-15 0.1603151865135285
2.19684 -133.48666666666665 1494.756666666667 0.7608581383999742 -0.1408996552592544 0.6334368006189324
19.710166666666666 -155.51700000000002 1734.49 0.0 0.0 1.0
9.209636666666666 -138.00699999999998 1542.2699999999998 4.932205732248378e-30 1.927599089067289e-28 1.0
-1.4490720000000001 -95.13003333333332 1408.0133333333333 0.7025559496265226 -0.7025686696341312 -0.11319188174468116
88.0 -186.13333333333333 2992.0 0.0 0.0 1.0
17.85506666666667 -76.9855 1734.49 0.0 0.0 1.0
85.06666666666666 -109.86666666666666 2992.0 0.0 0.0 1.0
90.13333333333333 -10.133333333333333 2992.0 0.0 0.0 1.0
20.730633333333333 30.89536666666667 1768.67 -0.855793964300645 0.21391459376999936 0.47101723666847106
19.587 69.38053333333333 1765.1899999999998 -6.044028252854641e-28 -6.044028252854642e-28 1.0
18.764300000000002 74.4228 1761.7300000000002 -0.7952529936217201 -0.5301123334023232 -0.29419991521147065
18.846533333333337 86.4907 1754.84 0.0 0.0 1.0
18.999366666666663 115.111 1754.8500000000001 0.9395895585318547 -0.14835702559755276 0.30848282683767286
11.5117 121.87033333333333 1614.3933333333334 -0.69798375981296 -0.6976602447446804 0.1615204443411325
3.989500000000001 159.58 1570.5999999999997 7.443871422485941e-26 1.488284633685595e-25 1.0
13.81453 219.33166666666668 1674.7166666666665 -0.5111773763867343 -0.7996409781708709 0.31507458783644865
86.39999999999999 -408.8 2992.0 0.0 0.0 1.0
90.39999999999999 -387.4666666666667 2992.0 0.0 0.0 1.0
8.587016666666667 -145.02333333333334 1540.9466666666667 0.23139361996700333 -0.4049776499593475 0.8845620926040016
88.0 -118.66666666666667 2992.0 0.0 0.0 1.0
12.671866666666666 -32.0847 1682.5133333333333 -0.22895843866210797 -0.9635701074418312 0.13824138819451906
17.6726 6.311636666666668 1770.41 0.0 0.0 1.0
18.454266666666665 37.683166666666665 1761.7300000000002 -0.1960042019392255 -0.9800834911121107 0.031917131319469286
17.451133333333335 53.22796666666667 1772.1633333333332 0.8614399625933981 -0.11485300011085958 0.4947019094491349
86.93333333333334 -424.2666666666667 2992.0 0.0 0.0 1.0
86.93333333333334 -420.8 2992.0 0.0 0.0 1.0
85.86666666666667 -419.2 2992.0 0.0 0.0 1.0
86.93333333333332 -367.4666666666667 2992.0 0.0 0.0 1.0
85.59999999999998 -362.40000000000003 2992.0 0.0 0.0 1.0
2.740183333333334 -146.767 1499.75 0.0 0.0 1.0
2.740183333333334 -146.767 1499.75 0.0 0.0 1.0
17.1438 -158.29566666666668 1732.82 -0.6190463207465631 -0.3097234989884111 0.7217014666359761
7.98341 -112.533 1530.4399999999998 -0.6227843264461076 0.6237515030831059 0.47230683367344367
88.0 -118.66666666666667 2992.0 0.0 0.0 1.0
17.126066666666667 -14.858266666666665 1754.84 0.0 0.0 1.0
81.60000000000001 25.866666666666664 2992.0 0.0 0.0 1.0
23.851433333333336 60.68430000000001 1754.84 0.0 0.0 1.0
18.764300000000002 74.4228 1761.7300000000002 -0.7952529936217201 -0.5301123334023232 -0.29419991521147065
18.846533333333337 86.4907 1754.84 0.0 0.0 1.0
8.018146666666668 132.45666666666668 1592.9033333333334 0.6454081594763895 -0.3520252716190441 0.677883851277516
7.089006666666666 135.98133333333334 1576.1233333333332 0.5663947678782044 0.41533972247724804 0.7118215238756957
7.19577 149.98233333333334 1583.07 0.0 0.0 1.0
6.678273333333333 158.05100000000002 1561.0433333333333 -0.9975761787675007 0.05867888604338511 0.03739727113492397
6.678273333333333 158.05100000000002 1561.0433333333333 -0.9975761787675008 0.058678886043385114 0.03739727113492407
7.95449 173.9286666666667 1578.8999999999999 -0.816484718598892 0.26888010308163 0.5109365855576405
8.700266666666666 185.74699999999999 1587.2699999999998 -1.5037271914973552e-25 -1.601794597990165e-25 1.0
87.46666666666665 -371.73333333333335 2992.0 0.0 0.0 1.0
-4.362583333333333 -153.47766666666666 1436.2166666666665 0.9452435065366729 0.2581537195719642 0.19967816711251826
55.886066666666665 29.40263333333333 2459.3533333333335 -0.20386201954625155 -0.435307030972848 0.8768968387285517
17.6726 6.311636666666668 1770.41 0.0 0.0 1.0
15.474366666666668 33.28976666666667 1753.14 -0.06905601415643903 -0.8287312173455481 0.5553699994650338
17.7308 49.97129999999999 1768.67 0.34966813197808444 0.9323991098443929 0.09145543964325466
16.4706 118.11766666666666 1760.0 0.0 0.0 1.0
7.477956666666667 151.81666666666666 1583.07 0.0 0.0 1.0
5.361183333333333 154.84799999999998 1562.4000000000003 -1.220216750192432e-27 6.300073764246637e-28 1.0
14.407910000000001 -189.43566666666666 1756.5600000000002 0.07493783369615019 0.7497114827680288 0.6575081852621242
8.587016666666665 -145.02333333333334 1540.9466666666667 0.23139361996700325 -0.4049776499593474 0.8845620926040016
4.39102 -127.78633333333333 1493.5133333333333 0.7412335671201011 -0.152048863885271 0.6537996191231752
-2.131113333333333 -115.282 1453.64 0.5788447487283652 -0.7400521769174531 0.3424347124771884
15.227066666666666 -94.29953333333333 1734.49 0.0 0.0 1.0
15.456766666666667 -84.8593 1724.533333333333 0.0043987834909102455 0.9066076495693868 0.42195168022662544
15.756466666666666 -70.73446666666666 1732.82 -0.6068291654559518 -0.6068146271434103 0.513355989773994
17.829466666666665 -43.565866666666665 1739.53 0.0 0.0 1.0
11.688160000000002 -32.897533333333335 1669.9566666666667 -0.6581829719512491 -0.7404696499347501 -0.13601423807428892
17.0414 69.58583333333333 1770.41 0.0 0.0 1.0
18.6285 85.3223 1756.5600000000002 0.7719566284937464 0.44114157715866203 0.45768665331920716
6.374736666666666 124.476 1607.1633333333332 -0.39863452388277215 0.8971524900665669 0.1902838036620937
7.355616666666665 204.179 1614.4066666666665 -0.3456312598902791 -0.7365678185485254 0.5813835918439091
89.33333333333333 432.26666666666665 2992.0 0.0 0.0 1.0
84.53333333333333 -416.8 2992.0 0.0 0.0 1.0
86.39999999999999 -408.8 2992.0 0.0 0.0 1.0
3.8833033333333336 -130.226 1525.2433333333336 -0.4133804113646958 0.9092683854829614 0.04845243710241737
14.144966666666667 -97.70049999999999 1734.49 0.0 0.0 1.0
15.227066666666666 -94.29953333333333 1734.49 0.0 0.0 1.0
15.227066666666666 -94.29953333333333 1734.49 0.0 0.0 1.0
16.772966666666665 -76.36716666666668 1734.49 0.0 0.0 1.0
-3.7486866666666665 -48.047599999999996 1493.5266666666666 0.24782455789894076 0.9687716165979822 -0.008033889240389476
4.127533333333333 -47.69883333333333 1621.7366666666665 -0.786035816018535 -0.6113407021396208 0.09170737071528628
17.829466666666665 -43.565866666666665 1739.53 0.0 0.0 1.0
14.826233333333334 -32.062999999999995 1696.8 -0.6430993631790388 -0.7502963456709958 0.15322729114444356
83.2 37.86666666666667 2992.0 0.0 0.0 1.0
83.2 37.86666666666667 2992.0 0.0 0.0 1.0
17.0414 69.58583333333333 1770.41 0.0 0.0 1.0
13.333763333333332 120.28966666666668 1626.0966666666666 -0.06882966436689028 0.9972283333338643 0.028251168105137406
10.267563333333333 120.50433333333335 1623.1666666666667 0.31624636898046227 -0.9478081090260352 -0.040595844259782514
6.913583333333334 148.43033333333335 1583.07 0.0 0.0 1.0
7.19577 149.98233333333334 1583.07 0.0 0.0 1.0
4.268983333333334 160.68566666666666 1544.9233333333334 -0.991740610647313 -0.11018955137326458 0.06564163283354046
85.60000000000001 408.5333333333333 2992.0 0.0 0.0 1.0
84.53333333333335 -416.8 2992.0 0.0 0.0 1.0
-0.5909589999999999 -147.20166666666668 1479.9733333333334 -0.852310770856625 -0.30990831539665614 0.4213350043964926
-1.9617496666666667 -139.87133333333335 1466.6733333333334 0.8773095018222461 0.3850477993040837 0.2864720409804148
80.53333333333333 -199.46666666666667 2992.0 0.0 0.0 1.0
88.0 -186.13333333333333 2992.0 0.0 0.0 1.0
9.42565 -81.9484 1677.7699999999998 -0.885151289889745 0.14752603559191468 0.44129724996769915
-3.7486866666666665 -48.047599999999996 1493.5266666666666 0.24782455789894137 0.9687716165979822 -0.008033889240388522
80.80000000000001 12.799999999999999 2992.0 0.0 0.0 1.0
17.0414 69.58583333333333 1770.41 0.0 0.0 1.0
79.2 156.0 2992.0 0.0 0.0 1.0
15.244866666666667 104.678 1763.46 0.9770025721432712 -5.542804094713692e-16 0.21322751704560186
16.4706 118.11766666666666 1760.0 0.0 0.0 1.0
16.4706 118.11766666666666 1760.0 0.0 0.0 1.0
4.268983333333334 160.68566666666666 1544.9233333333334 -0.991740610647313 -0.11018955137326458 0.06564163283354046
5.06078 174.48066666666668 1577.506666666667 0.12136079239381088 0.9094820868663749 0.3976353753613102
7.336860000000001 178.48300000000003 1583.07 0.0 0.0 1.0
4.945756666666667 192.08433333333335 1585.8700000000001 0.8088051678222412 0.35387548875842023 0.46968749074254185
-1.3730866666666666 199.67533333333336 1400.323333333333 -0.2572361360602668 0.6689860107591981 0.6973430201222911
-0.6700100000000001 -155.96533333333335 1508.57 -0.6410464189611135 -0.15263843191690013 0.7521708568131861
2.740183333333333 -146.76699999999997 1499.75 0.0 0.0 1.0
12.736266666666666 -81.60019999999999 1711.3433333333332 -0.9851326560909852 -0.09850464564448323 0.14074972358613985
12.736266666666666 -81.60019999999999 1711.3433333333332 -0.9851326560909852 -0.09850464564448323 0.14074972358613985
13.043466666666667 -30.9115 1692.0100000000002 0.2725697626327254 0.95539293903446 -0.11371040647819508
16.568066666666667 5.838263333333334 1770.41 0.0 0.0 1.0
80.80000000000001 12.799999999999999 2992.0 0.0 0.0 1.0
14.031366666666665 60.7329 1779.1899999999998 0.7458375590950482 0.37287962385878454 0.5519847113408777
5.361553333333333 146.596 1583.07 0.0 0.0 1.0
6.180276666666667 163.707 1542.2733333333333 0.12981692332247077 0.7735667812125532 0.6202757462802633
0.8039586666666665 208.107 1491.0333333333335 -0.08188659476845425 -0.7779271653506509 0.6229959157223489
80.53333333333333 -394.6666666666667 2992.0 0.0 0.0 1.0
82.66666666666667 -361.8666666666666 2992.0 0.0 0.0 1.0
15.100399999999999 -209.79899999999998 1802.41 0.0 0.0 1.0
-1.1758336666666667 -109.80399999999999 1466.6733333333334 -0.8886842345640833 -0.4447709674876507 0.1114410952806392
-0.06994000000000004 -105.16066666666666 1458.3400000000001 0.8320437843211813 0.2469180016174732 0.4967239086753534
10.850213333333334 -87.22326666666667 1690.4333333333334 -0.9619200114795309 -0.24027790241457384 0.1302935958766664
12.736266666666666 -81.60019999999999 1711.3433333333332 -0.9851326560909853 -0.0985046456444832 0.14074972358613985
16.568066666666667 5.838263333333334 1770.41 0.0 0.0 1.0
83.2 37.86666666666667 2992.0 0.0 0.0 1.0
79.19999999999999 156.0 2992.0 0.0 0.0 1.0
5.79718 187.13833333333332 1585.87 -0.5292486155723376 -0.6351033268924143 0.5626185804654439
5.455913333333334 191.03866666666667 1590.0833333333333 -0.4509595985164229 -0.6764923895018395 0.5822314723990777
1.5088333333333335 209.01733333333334 1544.9366666666667 0.27461367922824514 -0.9614214115365493 0.016006143189281785
1.2374800000000001 207.4226666666667 1542.2733333333333 -0.7069926060062395 0.7070509370711107 0.015505722794192238
1.8609733333333331 207.52633333333333 1437.3100000000002 -0.44218913603937854 -0.22116357022557065 0.8692269227157123
15.100399999999999 -209.79899999999998 1802.41 0.0 0.0 1.0
15.199766666666667 -197.37233333333336 1768.6933333333334 0.433414695842734 -0.8689736940074055 -0.23882298999609322
-0.33581466666666665 -154.443 1489.8066666666666 0.9656821203843176 0.0002096522105693078 0.25972677647096554
-0.5909589999999999 -147.20166666666668 1479.9733333333334 -0.852310770856625 -0.30990831539665614 0.4213350043964926
16.10376666666667 -159.85733333333334 1621.7066666666667 0.6438792984103322 0.6660670654941058 0.37652903386417474
2.5330133333333333 -139.7413333333333 1496.006666666667 0.5165346402784184 0.5166535627034026 0.6828331139731919
-1.1758336666666667 -109.80399999999999 1466.6733333333334 -0.8886842345640833 -0.4447709674876509 0.11144109528063899
-1.4490720000000001 -95.13003333333334 1408.0133333333335 0.7025559496265217 -0.7025686696341321 -0.11319188174468181
76.53333333333333 -164.53333333333333 2992.0 0.0 0.0 1.0
11.236350000000002 -81.37226666666668 1703.2366666666667 -0.9698098398070055 -0.20416605996075993 0.13336076849512193
85.06666666666668 -109.86666666666667 2992.0 0.0 0.0 1.0
12.265366666666665 -36.12806666666666 1688.8100000000002 0.8827366745209702 -0.053496143538102274 0.4668127312769111
82.93333333333334 -9.6 2992.0 0.0 0.0 1.0
82.93333333333334 34.666666666666664 2992.0 0.0 0.0 1.0
14.862333333333334 52.17496666666667 1773.9166666666667 -0.8938911167126719 0.4469455583563344 0.034617038112998905
14.005966666666666 72.79923333333333 1775.67 0.0 0.0 1.0
15.526266666666666 91.14283333333333 1760.01 -0.14735092046389428 -0.8845230406066 0.4426134847409173
15.244866666666667 104.678 1763.46 0.9770025721432711 -1.1019119962130654e-16 0.21322751704560164
14.552633333333333 107.13900000000001 1765.1899999999998 4.532380955018774e-27 1.1582751329492411e-27 1.0
4.173296666666666 139.62866666666665 1587.2699999999998 1.688004568533807e-27 -3.214116467307184e-27 1.0
1.2399733333333334 157.669 1539.6366666666665 -0.661907784266613 -0.6899380794056771 0.293024797096199
4.573436666666667 160.8443333333333 1578.89 0.0 0.0 1.0
4.573436666666667 160.8443333333333 1578.89 0.0 0.0 1.0
4.79718 181.446 1583.07 0.0 0.0 1.0
2.985533333333333 208.45399999999998 1594.3166666666666 -0.6933274660191467 -0.6933274660191511 0.19645368341400915
78.93333333333334 -392.0 2992.0 0.0 0.0 1.0
78.93333333333334 -392.0 2992.0 0.0 0.0 1.0
80.53333333333333 -360.8 2992.0 0.0 0.0 1.0
80.53333333333333 -360.8 2992.0 0.0 0.0 1.0
-1.2481196666666665 -143.75900000000001 1470.2933333333333 0.6997411843819639 -0.6997327213708671 -0.14400136639159675
-1.1758336666666667 -109.80399999999999 1466.6733333333334 -0.8886842345640833 -0.4447709674876509 0.11144109528063899
5.927513333333334 -110.96633333333334 1494.756666666667 0.1314314718088504 -0.2365766492559307 0.9626823241573492
80.53333333333333 -199.46666666666667 2992.0 0.0 0.0 1.0
