ply
format ascii 1.0
comment VCGLIB generated
element vertex 801
property float x
property float y
property float z
property float nx
property float ny
property float nz
element face 0
property list uchar int vertex_indices
end_header
-101.26966666666665 -116.746 1780.95 0.0 0.0 1.0
-101.26966666666665 -116.746 1780.95 0.0 0.0 1.0
-101.746 -109.92066666666666 1780.95 0.0 0.0 1.0
-100.41536666666667 -104.05533333333334 1775.67 0.0 0.0 1.0
-101.36500000000001 -101.52300000000001 1775.67 0.0 0.0 1.0
-101.20666666666666 -99.62400000000001 1775.67 0.0 0.0 1.0
-101.20666666666666 -99.62400000000001 1775.67 0.0 0.0 1.0
-100.92433333333334 -85.34906666666666 1765.1899999999998 -2.1465331632021718e-26 5.800710077349984e-28 1.0
-100.767 -83.93313333333333 1765.1899999999998 2.0302301255551462e-25 -6.526167655129115e-26 1.0
-100.60966666666667 -81.8879 1765.1899999999998 -1.305325715045381e-25 -7.251809528029768e-26 1.0
-100.60966666666667 -81.8879 1765.1899999999998 -1.305325715045381e-25 -7.251809528029768e-26 1.0
-101.08166666666666 -79.84266666666667 1765.1899999999998 7.251809528030054e-27 -2.900723811212065e-26 1.0
-100.767 -79.528 1765.1899999999998 1.0 0.0 0.0
-100.767 -79.528 1765.1899999999998 1.0 0.0 0.0
-100.23516666666667 -74.90193333333333 1760.0 0.0 0.0 1.0
-100.39223333333335 -72.0784 1760.0 0.0 0.0 1.0
-100.52493333333332 -55.432433333333336 1744.61 0.0 0.0 1.0
-100.21366666666667 -47.9689 1744.61 0.0 0.0 1.0
-99.99996666666668 -34.186033333333334 1739.53 0.0 0.0 1.0
-107.077 2.564103333333333 2301.54 0.0 0.0 1.0
-106.46166666666666 9.74356 2301.54 0.0 0.0 1.0
-107.077 11.79486666666667 2301.54 0.0 0.0 1.0
-107.48733333333332 13.641033333333334 2301.54 0.0 0.0 1.0
-107.69233333333334 57.12819999999999 2301.54 0.0 0.0 1.0
-107.69233333333334 64.51283333333335 2301.54 0.0 0.0 1.0
-100.36933333333333 50.923233333333336 1744.61 0.0 0.0 1.0
-100.36933333333333 50.923233333333336 1744.61 0.0 0.0 1.0
-100.30996666666665 62.403099999999995 1739.53 0.0 0.0 1.0
-100.09666666666668 73.8164 1734.49 0.0 0.0 1.0
-99.78756666666668 82.93716666666667 1734.49 0.0 0.0 1.0
-100.406 83.55553333333334 1734.49 0.0 0.0 1.0
-100.25133333333333 84.48306666666667 1734.49 0.0 0.0 1.0
-109.33333333333333 131.385 2301.54 0.0 0.0 1.0
-99.58569999999999 115.48 1690.4000000000003 -3.873678598410167e-27 -1.9368392992050836e-27 1.0
-101.17433333333334 -121.075 1786.2699999999998 0.0 -1.0 0.0
-101.11133333333333 -112.30166666666666 1780.95 0.0 0.0 1.0
-101.746 -109.92066666666666 1780.95 0.0 0.0 1.0
-101.20666666666666 -103.58033333333333 1775.67 0.0 0.0 1.0
-101.20666666666666 -102.47266666666667 1775.67 0.0 0.0 1.0
-101.61733333333332 -88.91520000000001 1770.41 0.0 0.0 1.0
-101.45966666666668 -88.28403333333334 1770.41 0.0 0.0 1.0
-100.92433333333334 -85.34906666666666 1765.1899999999998 -2.1465331632021715e-26 5.800710077349988e-28 1.0
-100.23516666666667 -74.90193333333333 1760.0 0.0 0.0 1.0
-100.6449 -65.29813333333333 1754.84 0.0 0.0 1.0
-101.58366666666666 -62.795700000000004 1754.84 0.0 0.0 1.0
-101.58366666666666 -62.0137 1754.84 0.0 0.0 1.0
-100.52466666666668 -56.6764 1744.61 0.0 0.0 1.0
-100.62 -42.09303333333333 1739.53 0.0 0.0 1.0
-100.62 -40.69766666666667 1739.53 0.0 0.0 1.0
-101.395 -36.0465 1739.53 0.0 0.0 1.0
-99.7876 -26.666666666666668 1734.49 0.0 0.0 1.0
-102.19633333333333 -16.724466666666668 1729.4800000000002 -1.4357799365863911e-27 2.4942150524549014e-27 1.0
-107.077 2.564103333333333 2301.54 0.0 0.0 1.0
-106.66666666666667 8.102566666666666 2301.54 0.0 0.0 1.0
-108.51266666666668 37.64103333333333 2301.54 0.0 0.0 1.0
-108.10233333333333 38.2564 2301.54 0.0 0.0 1.0
-107.69233333333334 57.12819999999999 2301.54 0.0 0.0 1.0
-100.30996666666665 62.403099999999995 1739.53 0.0 0.0 1.0
-109.53833333333334 117.84633333333333 2301.54 0.0 0.0 1.0
-100.65500000000002 92.40846666666665 1729.4800000000002 9.449310854432574e-26 1.5495498370971107e-25 1.0
-100.07673333333334 109.96166666666666 1719.54 0.0 0.0 1.0
-100.96866666666666 112.36466666666666 1704.84 0.0 0.0 1.0
-100.20903333333335 112.82033333333334 1704.84 0.0 0.0 1.0
-99.90516666666667 114.492 1704.84 0.0 0.0 1.0
-99.73633333333333 115.932 1690.4000000000003 0.0 0.0 1.0
-99.53063333333334 119.06099999999999 1685.63 0.0 0.0 1.0
-108.30766666666666 169.33333333333334 2301.54 0.0 0.0 1.0
-101.17433333333334 -121.075 1786.2699999999998 0.0 -1.0 0.0
-102.38100000000001 -117.06366666666668 1780.95 0.0 0.0 1.0
-102.06366666666668 -111.82533333333333 1780.95 0.0 0.0 1.0
-101.20666666666666 -100.4153 1775.67 0.0 0.0 1.0
-101.61733333333335 -88.91520000000001 1770.41 0.0 0.0 1.0
-101.61733333333332 -88.91520000000001 1770.41 0.0 0.0 1.0
-101.39633333333332 -80.15733333333333 1765.1899999999998 1.4503619056059783e-26 7.251809528030489e-27 1.0
-101.39633333333332 -80.15733333333333 1765.1899999999998 1.4503619056059783e-26 7.251809528030489e-27 1.0
-109.12833333333333 -87.89743333333332 2301.54 0.0 0.0 1.0
-102.053 -62.3265 1754.84 0.0 0.0 1.0
-101.676 -56.68616666666667 1749.71 0.0 0.0 1.0
-101.67599999999999 -56.68616666666666 1749.71 0.0 0.0 1.0
-100.52493333333332 -55.432433333333336 1744.61 0.0 0.0 1.0
-101.395 -36.0465 1739.53 0.0 0.0 1.0
-102.19666666666667 -20.4239 1729.4800000000002 1.0853985845351912e-27 8.552193656918623e-29 1.0
-106.872 15.282066666666665 2301.54 0.0 0.0 1.0
-108.30766666666666 41.743599999999994 2301.54 0.0 0.0 1.0
-107.69233333333334 57.12819999999999 2301.54 0.0 0.0 1.0
-109.12833333333333 61.64106666666667 2301.54 0.0 0.0 1.0
-100.50100000000002 91.17533333333334 1729.4800000000002 6.971759456597225e-27 -2.3968791403603026e-30 1.0
-102.28633333333333 101.05633333333333 1724.5 0.0 0.0 1.0
-100.44163333333331 103.66933333333333 1724.5 0.0 0.0 1.0
-108.718 168.718 2301.54 0.0 0.0 1.0
-102.69833333333334 -118.01566666666668 1780.95 0.0 0.0 1.0
-102.38100000000001 -117.06366666666668 1780.95 0.0 0.0 1.0
-102.53966666666668 -104.36533333333334 1780.95 0.0 0.0 1.0
-102.53966666666668 -104.36533333333334 1780.95 0.0 0.0 1.0
-102.63099999999999 -95.19290000000001 1775.67 0.0 0.0 1.0
-101.77533333333334 -87.33730000000001 1770.41 0.0 0.0 1.0
-109.53833333333334 -97.53846666666668 2301.54 0.0 0.0 1.0
-109.53866666666666 -87.07689999999998 2301.54 0.0 0.0 1.0
-102.053 -62.3265 1754.84 0.0 0.0 1.0
-101.67599999999999 -56.68616666666666 1749.71 0.0 0.0 1.0
-101.61333333333334 -49.05733333333333 1744.61 0.0 0.0 1.0
-102.63566666666667 -44.72866666666666 1739.53 0.0 0.0 1.0
-101.395 -36.0465 1739.53 0.0 0.0 1.0
-101.70533333333333 -34.031 1739.53 0.0 0.0 1.0
-102.19666666666666 -18.420033333333333 1729.4800000000002 -2.068467874363393e-25 -9.589829528734201e-26 1.0
-108.51266666666668 36.6154 2301.54 0.0 0.0 1.0
-108.51266666666668 37.64103333333333 2301.54 0.0 0.0 1.0
-109.128 38.05126666666667 2301.54 0.0 0.0 1.0
-109.12833333333333 61.64106666666667 2301.54 0.0 0.0 1.0
-110.359 70.25643333333333 2301.54 0.0 0.0 1.0
-110.359 72.51283333333335 2301.54 0.0 0.0 1.0
-100.77496666666667 65.81396666666667 1739.53 0.0 0.0 1.0
-102.72433333333333 70.57003333333333 1734.49 0.0 0.0 1.0
-102.41566666666665 74.744 1734.49 0.0 0.0 1.0
-101.488 80.15456666666667 1734.49 0.0 0.0 1.0
-101.27166666666666 92.10019999999999 1729.4800000000002 -6.136864281184544e-27 1.41811171746188e-27 1.0
-101.33353333333334 106.59066666666666 1709.71 0.0 0.0 1.0
-108.71766666666667 169.94866666666667 2301.54 0.0 0.0 1.0
-103.721 -128.23866666666666 1786.2699999999998 -8.52897208461156e-28 1.4172912101304858e-26 1.0
-102.925 -127.28333333333332 1786.2699999999998 1.0 0.0 0.0
-103.72133333333333 -125.53233333333333 1786.2699999999998 -1.978668118283156e-25 7.345452840703798e-25 1.0
-102.12933333333332 -120.438 1786.2699999999998 5.680461423001402e-26 3.547687445500873e-26 1.0
-102.69833333333334 -118.01566666666668 1780.95 0.0 0.0 1.0
-102.69833333333334 -117.53966666666668 1780.95 0.0 0.0 1.0
-101.90466666666667 -111.03166666666668 1780.95 0.0 0.0 1.0
-102.53966666666668 -104.36533333333334 1780.95 0.0 0.0 1.0
-102.63100000000001 -95.1929 1775.67 0.0 0.0 1.0
-102.63100000000001 -95.1929 1775.67 0.0 0.0 1.0
-103.26400000000001 -91.71116666666667 1775.67 0.0 0.0 1.0
-109.74333333333334 -98.97443333333332 2301.54 0.0 0.0 1.0
-109.53833333333334 -97.53846666666668 2301.54 0.0 0.0 1.0
-109.74333333333334 -83.38459999999999 2301.54 0.0 0.0 1.0
-109.94833333333334 -82.97433333333333 2301.54 0.0 0.0 1.0
-102.053 -62.3265 1754.84 0.0 0.0 1.0
-100.99133333333333 -48.2799 1744.61 0.0 0.0 1.0
-102.63566666666667 -44.72866666666666 1739.53 0.0 0.0 1.0
-102.32566666666666 -33.410833333333336 1739.53 0.0 0.0 1.0
-102.19666666666666 -18.420033333333333 1729.4800000000002 -2.068467874363393e-25 -9.589829528734201e-26 1.0
-103.20866666666667 -9.606136666666666 1724.5 0.0 0.0 1.0
-109.94866666666667 -2.1538466666666665 2301.54 0.0 0.0 1.0
-110.15366666666667 0.717949 2301.54 0.0 0.0 1.0
-110.35866666666668 3.3846166666666666 2301.54 0.0 0.0 1.0
-109.33333333333333 10.7692 2301.54 0.0 0.0 1.0
-109.74366666666667 21.4359 2301.54 0.0 0.0 1.0
-109.128 38.05126666666667 2301.54 0.0 0.0 1.0
-109.94866666666667 59.589733333333335 2301.54 0.0 0.0 1.0
-109.128 64.51283333333335 2301.54 0.0 0.0 1.0
-110.359 86.87180000000001 2301.54 0.0 0.0 1.0
-102.72466666666666 73.0435 1734.49 0.0 0.0 1.0
-100.86956666666667 78.91786666666667 1734.49 0.0 0.0 1.0
-110.56400000000001 108.0 2301.54 0.0 0.0 1.0
-110.56400000000001 110.66666666666667 2301.54 0.0 0.0 1.0
-111.58966666666667 126.87166666666667 2301.54 0.0 0.0 1.0
-100.96866666666666 112.36466666666666 1704.84 0.0 0.0 1.0
-101.48366666666665 119.66199999999999 1685.63 0.0 0.0 1.0
-109.74333333333334 170.154 2301.54 0.0 0.0 1.0
-103.72133333333333 -125.53233333333333 1786.2699999999998 -1.9786681182831703e-25 7.345452840703849e-25 1.0
-103.264 -91.71116666666667 1775.67 0.0 0.0 1.0
-103.353 -81.97236666666667 1770.41 0.0 0.0 1.0
-103.353 -81.97236666666667 1770.41 0.0 0.0 1.0
-109.53833333333334 -97.53846666666668 2301.54 0.0 0.0 1.0
-111.17966666666666 -94.05129999999998 2301.54 0.0 0.0 1.0
-111.17933333333333 -89.7436 2301.54 0.0 0.0 1.0
-110.15366666666667 -83.38459999999999 2301.54 0.0 0.0 1.0
-110.56400000000001 -78.2564 2301.54 0.0 0.0 1.0
-102.32566666666666 -33.410833333333336 1739.53 0.0 0.0 1.0
-103.03399999999999 -31.149766666666665 1734.49 0.0 0.0 1.0
-103.03399999999999 -31.149766666666665 1734.49 0.0 0.0 1.0
-103.12133333333334 -16.724466666666668 1729.4800000000002 3.579745294398501e-26 2.826097796407078e-26 1.0
-103.12133333333334 -15.953766666666667 1729.4800000000002 3.0145909789056723e-26 -1.506969540741774e-26 1.0
-103.58366666666667 -12.562633333333332 1729.4800000000002 -6.296253371627026e-28 -3.776390670895876e-27 1.0
-109.94866666666667 -2.1538466666666665 2301.54 0.0 0.0 1.0
-109.94866666666667 -2.1538466666666665 2301.54 0.0 0.0 1.0
-110.56433333333332 27.794866666666667 2301.54 0.0 0.0 1.0
-110.56433333333332 27.794866666666667 2301.54 0.0 0.0 1.0
-110.56433333333332 30.666666666666668 2301.54 0.0 0.0 1.0
-110.56433333333332 30.666666666666668 2301.54 0.0 0.0 1.0
-111.17933333333333 43.38463333333333 2301.54 0.0 0.0 1.0
-109.94866666666667 59.589733333333335 2301.54 0.0 0.0 1.0
-110.359 60.0 2301.54 0.0 0.0 1.0
-110.56400000000001 61.64103333333333 2301.54 0.0 0.0 1.0
-110.97433333333333 78.6667 2301.54 0.0 0.0 1.0
-110.97466666666666 87.6923 2301.54 0.0 0.0 1.0
-102.41566666666665 74.74399999999999 1734.49 0.0 0.0 1.0
-102.41566666666665 74.74399999999999 1734.49 0.0 0.0 1.0
-110.154 101.23066666666666 2301.54 0.0 0.0 1.0
-110.154 101.23066666666666 2301.54 0.0 0.0 1.0
-110.154 102.05133333333333 2301.54 0.0 0.0 1.0
-110.359 103.077 2301.54 0.0 0.0 1.0
-110.76933333333334 105.53833333333334 2301.54 0.0 0.0 1.0
-110.76933333333334 117.84633333333333 2301.54 0.0 0.0 1.0
-110.97433333333333 132.00033333333332 2301.54 0.0 0.0 1.0
-102.28633333333333 101.05633333333333 1724.5 0.0 0.0 1.0
-111.17966666666666 139.795 2301.54 0.0 0.0 1.0
-109.949 168.10266666666666 2301.54 0.0 0.0 1.0
-104.995 -122.50733333333334 1786.2699999999998 -3.395454469545517e-27 5.088438624454089e-27 1.0
-103.49233333333332 -105.79366666666665 1780.95 0.0 0.0 1.0
-103.49233333333332 -105.79366666666665 1780.95 0.0 0.0 1.0
-104.44466666666666 -101.82533333333333 1780.95 0.0 0.0 1.0
-103.73899999999999 -92.66073333333333 1775.67 0.0 0.0 1.0
-103.353 -81.97236666666667 1770.41 0.0 0.0 1.0
-110.97433333333333 -90.35896666666667 2301.54 0.0 0.0 1.0
-110.769 -82.7692 2301.54 0.0 0.0 1.0
-110.56400000000001 -78.2564 2301.54 0.0 0.0 1.0
-110.97433333333333 -77.64103333333334 2301.54 0.0 0.0 1.0
-101.92433333333334 -47.03593333333333 1744.61 0.0 0.0 1.0
-103.56599999999999 -40.07750000000001 1739.53 0.0 0.0 1.0
-103.12133333333333 -16.724466666666668 1729.4800000000002 -5.464027642318524e-26 -3.9557539895068363e-26 1.0
-103.66966666666667 -5.7636866666666675 1724.5 0.0 0.0 1.0
-110.35866666666668 3.3846166666666666 2301.54 0.0 0.0 1.0
-110.35866666666668 3.3846166666666666 2301.54 0.0 0.0 1.0
-111.58966666666667 41.128233333333334 2301.54 0.0 0.0 1.0
-112.205 52.6154 2301.54 0.0 0.0 1.0
-110.359 60.0 2301.54 0.0 0.0 1.0
-110.56400000000001 62.666666666666664 2301.54 0.0 0.0 1.0
-111.17933333333333 63.28203333333334 2301.54 0.0 0.0 1.0
-110.359 72.51283333333335 2301.54 0.0 0.0 1.0
-110.97433333333333 80.71796666666667 2301.54 0.0 0.0 1.0
-102.72433333333333 70.57003333333334 1734.49 0.0 0.0 1.0
-102.879 71.80676666666666 1734.49 0.0 0.0 1.0
-110.359 104.30766666666666 2301.54 0.0 0.0 1.0
-111.17966666666666 109.43599999999999 2301.54 0.0 0.0 1.0
-110.76933333333334 117.84633333333333 2301.54 0.0 0.0 1.0
-101.42566666666666 94.56646666666666 1729.4800000000002 -4.305890199948927e-28 1.0486129859889591e-27 1.0
-110.97433333333333 132.00033333333332 2301.54 0.0 0.0 1.0
-102.28633333333333 101.05633333333333 1724.5 0.0 0.0 1.0
-103.83966666666667 110.71600000000001 1714.61 0.0 0.0 1.0
-102.33633333333334 114.18833333333333 1704.84 0.0 0.0 1.0
-103.13633333333333 118.00966666666666 1685.63 0.0 0.0 1.0
-102.53533333333333 119.81233333333334 1685.63 0.0 0.0 1.0
-109.74333333333334 170.154 2301.54 0.0 0.0 1.0
-105.07933333333334 -101.19033333333334 1780.95 0.0 0.0 1.0
-104.92066666666666 -97.38100000000001 1780.95 0.0 0.0 1.0
-103.73899999999999 -92.66073333333333 1775.67 0.0 0.0 1.0
-104.372 -81.10783333333335 1775.67 0.0 0.0 1.0
-104.372 -81.10783333333333 1775.67 0.0 0.0 1.0
-105.72000000000001 -74.39843333333333 1770.41 0.0 0.0 1.0
-110.97466666666666 -94.87180000000001 2301.54 0.0 0.0 1.0
-110.97466666666666 -94.87180000000001 2301.54 0.0 0.0 1.0
-111.17966666666666 -87.48716666666667 2301.54 0.0 0.0 1.0
-111.38466666666666 -76.82053333333333 2301.54 0.0 0.0 1.0
-102.63566666666667 -44.72866666666667 1739.53 0.0 0.0 1.0
-103.56599999999999 -40.0775 1739.53 0.0 0.0 1.0
-103.56599999999999 -40.07750000000001 1739.53 0.0 0.0 1.0
-103.03399999999999 -31.149766666666665 1734.49 0.0 0.0 1.0
-104.27066666666667 -23.729466666666667 1734.49 0.0 0.0 1.0
-102.505 -19.499033333333333 1729.4800000000002 -8.006462510952685e-27 7.082050701545823e-27 1.0
-103.58366666666666 -16.570333333333334 1729.4800000000002 -7.159490588797022e-26 1.1304391185628604e-25 1.0
-103.66966666666667 -7.454366666666666 1724.5 0.0 0.0 1.0
-103.66966666666667 -6.993273333333334 1724.5 0.0 0.0 1.0
-103.66966666666667 -6.993273333333334 1724.5 0.0 0.0 1.0
-104.521 2.3754833333333334 1719.54 0.0 0.0 1.0
-111.795 12.205133333333334 2301.54 0.0 0.0 1.0
-111.795 12.205133333333334 2301.54 0.0 0.0 1.0
-110.56433333333332 29.230766666666664 2301.54 0.0 0.0 1.0
-111.795 70.25643333333333 2301.54 0.0 0.0 1.0
-110.359 72.51283333333335 2301.54 0.0 0.0 1.0
-110.97433333333333 84.41026666666666 2301.54 0.0 0.0 1.0
-110.97466666666666 87.69229999999999 2301.54 0.0 0.0 1.0
-110.97466666666666 87.69229999999999 2301.54 0.0 0.0 1.0
-111.17966666666666 106.35866666666668 2301.54 0.0 0.0 1.0
-111.17966666666666 109.43599999999999 2301.54 0.0 0.0 1.0
-111.17966666666666 109.43599999999999 2301.54 0.0 0.0 1.0
-111.58966666666667 118.66666666666667 2301.54 0.0 0.0 1.0
-102.96733333333333 91.17536666666666 1729.4800000000002 -6.05531055974435e-26 -3.3301588999631907e-25 1.0
-112.20533333333333 134.05166666666665 2301.54 0.0 0.0 1.0
-111.17966666666666 139.795 2301.54 0.0 0.0 1.0
-101.09233333333333 115.932 1690.4000000000003 -3.7957251168281644e-27 -6.642518954449318e-27 1.0
-110.76933333333334 168.718 2301.54 0.0 0.0 1.0
-104.51733333333334 -125.214 1786.2699999999998 -8.512937934399125e-28 2.5491375584573902e-27 1.0
-104.28566666666666 -115.79366666666665 1780.95 0.0 0.0 1.0
-104.92066666666666 -97.38100000000001 1780.95 0.0 0.0 1.0
-104.372 -81.10783333333333 1775.67 0.0 0.0 1.0
-111.795 -93.23076666666668 2301.54 0.0 0.0 1.0
-111.58966666666667 -91.58973333333334 2301.54 0.0 0.0 1.0
-110.97433333333333 -83.17946666666667 2301.54 0.0 0.0 1.0
-110.97433333333333 -79.28203333333333 2301.54 0.0 0.0 1.0
-112.20533333333333 -76.82053333333333 2301.54 0.0 0.0 1.0
-104.34100000000001 -38.062000000000005 1739.53 0.0 0.0 1.0
-103.49766666666666 -31.613533333333333 1734.49 0.0 0.0 1.0
-103.58366666666667 -17.341033333333332 1729.4800000000002 6.808232372170683e-32 -1.888603660112448e-27 1.0
-104.04633333333334 -16.570333333333334 1729.4800000000002 2.0417337104564268e-30 5.6670385594842644e-27 1.0
-103.58366666666667 -12.562633333333332 1729.4800000000002 -6.296253371627026e-28 -3.776390670895876e-27 1.0
-103.58366666666667 -12.562633333333332 1729.4800000000002 -6.296253371627026e-28 -3.776390670895876e-27 1.0
-103.82333333333334 -8.22286 1724.5 0.0 0.0 1.0
-103.66966666666667 -6.993273333333334 1724.5 0.0 0.0 1.0
-104.59166666666665 -1.3064366666666667 1724.5 0.0 0.0 1.0
-104.06133333333332 3.44828 1719.54 0.0 0.0 1.0
-112.0 13.230766666666666 2301.54 0.0 0.0 1.0
-113.23066666666666 34.76923333333333 2301.54 0.0 0.0 1.0
-112.61533333333334 36.0 2301.54 0.0 0.0 1.0
-111.58966666666667 41.128233333333334 2301.54 0.0 0.0 1.0
-112.205 41.33333333333333 2301.54 0.0 0.0 1.0
-112.205 52.6154 2301.54 0.0 0.0 1.0
-112.0 58.564099999999996 2301.54 0.0 0.0 1.0
-111.58966666666667 63.48716666666667 2301.54 0.0 0.0 1.0
-111.58966666666667 63.48716666666667 2301.54 0.0 0.0 1.0
-111.795 77.84616666666666 2301.54 0.0 0.0 1.0
-112.41033333333333 83.17946666666667 2301.54 0.0 0.0 1.0
-112.205 97.74360000000001 2301.54 0.0 0.0 1.0
-112.61533333333334 99.58973333333334 2301.54 0.0 0.0 1.0
-111.795 107.38433333333334 2301.54 0.0 0.0 1.0
-112.20533333333333 108.82033333333334 2301.54 0.0 0.0 1.0
-102.96733333333333 91.17536666666666 1729.4800000000002 -6.05531055974435e-26 -3.3301588999631907e-25 1.0
-113.02566666666667 126.46166666666666 2301.54 0.0 0.0 1.0
-112.20533333333333 134.05166666666665 2301.54 0.0 0.0 1.0
-111.17966666666666 139.795 2301.54 0.0 0.0 1.0
-104.45066666666666 110.25766666666668 1714.61 0.0 0.0 1.0
-104.31133333333332 112.365 1704.84 0.0 0.0 1.0
-103.437 118.911 1685.63 0.0 0.0 1.0
-103.437 118.911 1685.63 0.0 0.0 1.0
-103.13633333333333 119.36166666666668 1685.63 0.0 0.0 1.0
-113.23066666666666 -168.513 2301.54 0.0 0.0 1.0
-113.23066666666666 -168.513 2301.54 0.0 0.0 1.0
-105.791 -128.398 1786.2699999999998 1.2368523372920101e-26 -5.303172294883422e-27 1.0
-105.63166666666666 -123.78133333333334 1786.2699999999998 1.0602645453076698e-26 -7.411834985703285e-30 1.0
-105.313 -123.622 1786.2699999999998 1.0 0.0 0.0
-105.47233333333334 -122.985 1786.2699999999998 -8.485077995269699e-26 -4.2425389976348493e-26 1.0
-105.39666666666666 -114.52366666666667 1780.95 0.0 0.0 1.0
-105.873 -103.254 1780.95 0.0 0.0 1.0
-105.07933333333334 -101.66666666666667 1780.95 0.0 0.0 1.0
-105.873 -90.23809999999999 1780.95 0.0 0.0 1.0
-105.63799999999999 -86.64686666666667 1775.67 0.0 0.0 1.0
-112.205 -89.53846666666668 2301.54 0.0 0.0 1.0
-105.19833333333334 -24.34783333333333 1734.49 0.0 0.0 1.0
-104.27066666666667 -23.729466666666667 1734.49 0.0 0.0 1.0
-104.04633333333334 -16.570333333333334 1729.4800000000002 2.0417337104564226e-30 5.6670385594842644e-27 1.0
-103.66966666666667 -5.7636866666666675 1724.5 0.0 0.0 1.0
-104.74533333333333 -1.76753 1724.5 0.0 0.0 1.0
-111.795 12.205133333333334 2301.54 0.0 0.0 1.0
-112.61533333333334 41.948699999999995 2301.54 0.0 0.0 1.0
-112.615 45.23080000000001 2301.54 0.0 0.0 1.0
-112.615 45.230799999999995 2301.54 0.0 0.0 1.0
-112.615 45.230799999999995 2301.54 0.0 0.0 1.0
-113.43566666666668 91.1795 2301.54 0.0 0.0 1.0
-112.41000000000001 97.74360000000001 2301.54 0.0 0.0 1.0
-112.61533333333334 99.58973333333334 2301.54 0.0 0.0 1.0
-111.795 109.641 2301.54 0.0 0.0 1.0
-112.82066666666667 119.69233333333334 2301.54 0.0 0.0 1.0
-105.791 -128.398 1786.2699999999998 1.2368523372920104e-26 -5.3031722948834226e-27 1.0
-105.47233333333332 -122.98500000000001 1786.2699999999998 4.242538997634851e-26 -1.4063142939805163e-41 1.0
-105.55533333333334 -101.508 1780.95 0.0 0.0 1.0
-105.55533333333334 -101.508 1780.95 0.0 0.0 1.0
-105.55533333333334 -97.5397 1780.95 0.0 0.0 1.0
-105.39666666666666 -97.06353333333334 1780.95 0.0 0.0 1.0
-106.19033333333334 -89.60316666666667 1780.95 0.0 0.0 1.0
-105.63799999999999 -86.64686666666667 1775.67 0.0 0.0 1.0
-112.41033333333333 -88.51283333333333 2301.54 0.0 0.0 1.0
-112.20533333333333 -76.82053333333333 2301.54 0.0 0.0 1.0
-114.25666666666666 -67.17946666666667 2301.54 0.0 0.0 1.0
-104.34100000000001 -38.062000000000005 1739.53 0.0 0.0 1.0
-103.80666666666666 -30.5314 1734.49 0.0 0.0 1.0
-104.59166666666665 -1.3064366666666667 1724.5 0.0 0.0 1.0
-105.05266666666667 -1.1527376666666667 1724.5 0.0 0.0 1.0
-105.44066666666667 4.674333333333333 1719.54 0.0 0.0 1.0
-106.00433333333335 11.392593333333332 1716.253333333333 0.8439809780582739 0.28135767509340853 0.45665519524235254
-112.0 21.230766666666668 2301.54 0.0 0.0 1.0
-113.231 21.846166666666665 2301.54 0.0 0.0 1.0
-113.231 23.692333333333334 2301.54 0.0 0.0 1.0
-113.231 23.692333333333334 2301.54 0.0 0.0 1.0
-112.61533333333334 41.948699999999995 2301.54 0.0 0.0 1.0
-112.82033333333334 46.46156666666667 2301.54 0.0 0.0 1.0
-112.41033333333333 62.87180000000001 2301.54 0.0 0.0 1.0
-113.641 66.35896666666666 2301.54 0.0 0.0 1.0
-112.61566666666666 68.61540000000001 2301.54 0.0 0.0 1.0
-113.84633333333333 78.05126666666666 2301.54 0.0 0.0 1.0
-113.02566666666667 99.99986666666666 2301.54 0.0 0.0 1.0
-113.02566666666667 99.99986666666666 2301.54 0.0 0.0 1.0
-113.231 108.82033333333334 2301.54 0.0 0.0 1.0
-113.02566666666667 126.46166666666666 2301.54 0.0 0.0 1.0
-113.02566666666667 134.25666666666666 2301.54 0.0 0.0 1.0
-104.99066666666668 106.743 1709.71 0.0 0.0 1.0
-104.45066666666666 110.25766666666668 1714.61 0.0 0.0 1.0
-104.45066666666666 110.25766666666668 1714.61 0.0 0.0 1.0
-104.767 112.06099999999999 1704.84 0.0 0.0 1.0
-104.767 112.06099999999999 1704.84 0.0 0.0 1.0
-113.02566666666667 169.94866666666667 2301.54 0.0 0.0 1.0
-105.791 -128.398 1786.2699999999998 1.2368523372920104e-26 -5.3031722948834226e-27 1.0
-105.791 -123.14433333333334 1786.2699999999998 7.070898329391265e-27 -5.303173747043619e-27 1.0
-106.19033333333334 -118.80933333333333 1780.95 0.0 0.0 1.0
-106.90566666666666 -120.43766666666666 1786.2699999999998 3.8993691027998604e-26 -1.417884808886386e-26 1.0
-106.349 -113.73 1780.95 0.0 0.0 1.0
-106.349 -97.85713333333332 1780.95 0.0 0.0 1.0
-106.271 -85.6973 1775.67 0.0 0.0 1.0
-104.23366666666668 -42.6422 1742.9166666666667 0.8265278500043314 0.4591165133176378 0.3256742857001036
-105.58800000000001 -15.491333333333335 1729.4800000000002 1.6468032391619713e-25 -7.943009739047021e-26 1.0
-105.58800000000001 -15.491333333333335 1729.4800000000002 1.6468032391619713e-25 -7.943009739047018e-26 1.0
-105.05266666666667 -1.1527376666666667 1724.5 0.0 0.0 1.0
-113.02566666666667 28.820533333333334 2301.54 0.0 0.0 1.0
-113.02566666666667 28.820533333333334 2301.54 0.0 0.0 1.0
-113.23066666666666 34.76923333333333 2301.54 0.0 0.0 1.0
-112.61533333333334 36.0 2301.54 0.0 0.0 1.0
-113.641 53.64103333333333 2301.54 0.0 0.0 1.0
-114.46166666666666 60.6154 2301.54 0.0 0.0 1.0
-113.846 65.7436 2301.54 0.0 0.0 1.0
-113.846 65.7436 2301.54 0.0 0.0 1.0
-113.641 66.35896666666666 2301.54 0.0 0.0 1.0
-114.05133333333333 82.35896666666667 2301.54 0.0 0.0 1.0
-113.641 89.33333333333333 2301.54 0.0 0.0 1.0
-114.051 91.79486666666668 2301.54 0.0 0.0 1.0
-113.641 119.282 2301.54 0.0 0.0 1.0
-114.66666666666667 121.74366666666667 2301.54 0.0 0.0 1.0
-113.02566666666667 126.46166666666666 2301.54 0.0 0.0 1.0
-114.05133333333333 135.48733333333334 2301.54 0.0 0.0 1.0
-113.641 139.795 2301.54 0.0 0.0 1.0
-104.767 112.06099999999999 1704.84 0.0 0.0 1.0
-105.69033333333333 116.95766666666667 1685.63 0.0 0.0 1.0
-114.66666666666667 -167.48733333333334 2301.54 0.0 0.0 1.0
-105.873 -103.254 1780.95 0.0 0.0 1.0
-106.34933333333333 -91.66666666666667 1780.95 0.0 0.0 1.0
-106.98233333333333 -73.4517 1770.41 0.0 0.0 1.0
-106.98233333333333 -73.4517 1770.41 0.0 0.0 1.0
-114.05133333333333 -80.10256666666668 2301.54 0.0 0.0 1.0
-115.077 -68.41026666666666 2301.54 0.0 0.0 1.0
-116.10266666666666 -58.76919999999999 2301.54 0.0 0.0 1.0
-103.72133333333333 -32.94573333333334 1739.53 0.0 0.0 1.0
-105.58800000000001 -15.491333333333335 1729.4800000000002 1.6468032391619713e-25 -7.943009739047021e-26 1.0
-114.25666666666666 37.846133333333334 2301.54 0.0 0.0 1.0
-113.64133333333332 39.28203333333333 2301.54 0.0 0.0 1.0
-115.48733333333332 74.7692 2301.54 0.0 0.0 1.0
-114.46166666666666 99.58973333333334 2301.54 0.0 0.0 1.0
-114.66699999999999 109.02566666666667 2301.54 0.0 0.0 1.0
-115.69266666666668 120.51299999999999 2301.54 0.0 0.0 1.0
-115.07733333333334 131.38466666666667 2301.54 0.0 0.0 1.0
-114.05166666666666 132.82066666666665 2301.54 0.0 0.0 1.0
-104.93900000000001 120.26266666666668 1685.63 0.0 0.0 1.0
-106.74633333333334 -121.552 1786.2699999999998 -1.6524269160717876e-26 -1.4168956157048864e-26 1.0
-106.90566666666666 -120.43766666666666 1786.2699999999998 3.8993691027998604e-26 -1.417884808886386e-26 1.0
-107.30133333333333 -98.49203333333334 1780.95 0.0 0.0 1.0
-106.984 -96.11113333333334 1780.95 0.0 0.0 1.0
-107.30166666666666 -92.4603 1780.95 0.0 0.0 1.0
-107.53699999999999 -83.95646666666666 1775.67 0.0 0.0 1.0
-107.69533333333334 -75.4105 1775.67 0.0 0.0 1.0
-107.77133333333332 -68.56013333333333 1770.41 0.0 0.0 1.0
-107.29766666666667 -65.08876666666666 1770.41 0.0 0.0 1.0
-107.29766666666667 -65.08876666666667 1770.41 0.0 0.0 1.0
-115.69233333333334 -69.02566666666665 2301.54 0.0 0.0 1.0
-114.66666666666667 -66.56406666666668 2301.54 0.0 0.0 1.0
-115.89733333333334 -53.84616666666667 2301.54 0.0 0.0 1.0
-106.74399999999999 -26.666666666666668 1734.49 0.0 0.0 1.0
-106.74399999999999 -26.666666666666668 1734.49 0.0 0.0 1.0
-106.89866666666667 -24.9662 1734.49 0.0 0.0 1.0
-107.43733333333334 -19.03663333333333 1729.4800000000002 1.5102297322000309e-27 -1.2085103219183444e-26 1.0
-107.12633333333333 1.4559433333333331 1719.54 0.0 0.0 1.0
-106.28466666666668 17.497600000000002 1714.61 0.0 0.0 1.0
-106.896 18.4145 1714.61 0.0 0.0 1.0
-106.25933333333334 21.602966666666664 1712.9766666666667 -0.9969749646719157 -9.53078572638559e-18 0.0777233543887087
-115.282 55.28203333333334 2301.54 0.0 0.0 1.0
-115.282 55.28203333333334 2301.54 0.0 0.0 1.0
-115.48733333333332 74.7692 2301.54 0.0 0.0 1.0
-116.10233333333333 103.282 2301.54 0.0 0.0 1.0
-115.89766666666667 136.718 2301.54 0.0 0.0 1.0
-115.48700000000001 140.82033333333334 2301.54 0.0 0.0 1.0
-116.30766666666666 149.02566666666667 2301.54 0.0 0.0 1.0
-105.69033333333333 116.95766666666667 1685.63 0.0 0.0 1.0
-114.46166666666666 169.33333333333334 2301.54 0.0 0.0 1.0
-114.46166666666666 169.33333333333334 2301.54 0.0 0.0 1.0
-108.81566666666667 -126.00999999999999 1786.2699999999998 1.4171444031232931e-25 5.393467399224334e-25 1.0
-108.254 -114.68233333333335 1780.95 0.0 0.0 1.0
-107.14266666666667 -114.206 1780.95 0.0 0.0 1.0
-107.30133333333333 -89.44443333333334 1780.95 0.0 0.0 1.0
-107.69533333333334 -85.06426666666665 1775.67 0.0 0.0 1.0
-108.80333333333333 -74.61919999999999 1775.67 0.0 0.0 1.0
-107.77133333333332 -68.56013333333333 1770.41 0.0 0.0 1.0
-107.92899999999999 -63.03746666666667 1770.41 0.0 0.0 1.0
-115.282 -79.28206666666667 2301.54 0.0 0.0 1.0
-114.87166666666667 -78.25643333333333 2301.54 0.0 0.0 1.0
-115.077 -67.17946666666667 2301.54 0.0 0.0 1.0
-115.89733333333334 -53.84616666666667 2301.54 0.0 0.0 1.0
-116.30766666666666 -49.5385 2301.54 0.0 0.0 1.0
-106.89866666666667 -24.9662 1734.49 0.0 0.0 1.0
-106.66666666666667 -11.946033333333332 1729.4800000000002 -1.3604809068610075e-27 -1.7232889389942145e-26 1.0
-107.89300000000001 8.352493333333333 1719.54 0.0 0.0 1.0
-107.04866666666668 16.427866666666667 1714.61 0.0 0.0 1.0
-107.27633333333331 21.257133333333332 1709.71 0.0 0.0 1.0
-115.69233333333334 55.0769 2301.54 0.0 0.0 1.0
-115.69200000000001 87.89743333333335 2301.54 0.0 0.0 1.0
-115.69200000000001 89.74360000000001 2301.54 0.0 0.0 1.0
-115.48733333333332 99.38460000000002 2301.54 0.0 0.0 1.0
-116.10233333333333 103.282 2301.54 0.0 0.0 1.0
-116.30766666666666 121.94866666666667 2301.54 0.0 0.0 1.0
-115.48700000000001 140.82033333333334 2301.54 0.0 0.0 1.0
-115.48700000000001 140.82033333333334 2301.54 0.0 0.0 1.0
-106.14066666666668 120.26266666666668 1685.63 0.0 0.0 1.0
-105.81566666666667 120.60000000000001 1684.0533333333333 2.1198183170341904e-16 0.9997247582264136 0.02346077128184678
-107.54233333333333 -128.87566666666666 1786.2699999999998 1.7714285615993396e-27 1.7714285615993658e-27 1.0
-108.01966666666665 -127.92033333333332 1786.2699999999998 4.881807904445716e-25 -8.496186444189625e-26 1.0
-107.93633333333332 -95.4762 1780.95 0.0 0.0 1.0
-107.93633333333332 -93.5714 1780.95 0.0 0.0 1.0
-108.645 -87.12163333333335 1775.67 0.0 0.0 1.0
-108.32866666666666 -82.84866666666666 1775.67 0.0 0.0 1.0
-106.98233333333333 -73.4517 1770.41 0.0 0.0 1.0
-107.771 -64.29979999999999 1770.41 0.0 0.0 1.0
-107.92900000000002 -63.03746666666667 1770.41 0.0 0.0 1.0
-117.33333333333333 -59.17946666666666 2301.54 0.0 0.0 1.0
-116.30766666666666 -49.5385 2301.54 0.0 0.0 1.0
-107.51666666666665 -31.304366666666667 1734.49 0.0 0.0 1.0
-107.82600000000001 -30.5314 1734.49 0.0 0.0 1.0
-107.36233333333332 -25.120800000000003 1734.49 0.0 0.0 1.0
-107.43733333333334 -19.03663333333333 1729.4800000000002 1.5102297322000309e-27 -1.2085103219183447e-26 1.0
-106.20433333333334 -15.645466666666666 1729.4800000000002 1.4176787129984684e-27 -4.246907293345346e-27 1.0
-107.97333333333334 -9.759836666666667 1724.5 0.0 0.0 1.0
-107.666 -8.069163333333334 1724.5 0.0 0.0 1.0
-107.12633333333333 1.4559433333333331 1719.54 0.0 0.0 1.0
-115.28233333333333 42.974333333333334 2301.54 0.0 0.0 1.0
-116.92333333333333 44.20513333333333 2301.54 0.0 0.0 1.0
-115.69233333333334 55.0769 2301.54 0.0 0.0 1.0
-115.89733333333334 60.0 2301.54 0.0 0.0 1.0
-116.30766666666666 64.51283333333335 2301.54 0.0 0.0 1.0
-117.33333333333333 77.23076666666667 2301.54 0.0 0.0 1.0
-116.923 82.5641 2301.54 0.0 0.0 1.0
-116.923 96.51283333333333 2301.54 0.0 0.0 1.0
-116.51266666666668 99.38460000000002 2301.54 0.0 0.0 1.0
-116.10266666666666 109.02566666666667 2301.54 0.0 0.0 1.0
-115.69266666666668 120.51299999999999 2301.54 0.0 0.0 1.0
-116.10266666666666 121.12833333333333 2301.54 0.0 0.0 1.0
-116.51299999999999 130.15366666666668 2301.54 0.0 0.0 1.0
-116.51299999999999 130.15366666666668 2301.54 0.0 0.0 1.0
-116.308 135.89766666666665 2301.54 0.0 0.0 1.0
-115.89766666666667 136.718 2301.54 0.0 0.0 1.0
-115.89766666666667 136.718 2301.54 0.0 0.0 1.0
-117.128 149.641 2301.54 0.0 0.0 1.0
-106.44133333333333 116.80733333333335 1685.63 0.0 0.0 1.0
-116.718 -167.282 2301.54 0.0 0.0 1.0
-108.09533333333333 -104.36500000000001 1780.95 0.0 0.0 1.0
-108.73 -99.28566666666666 1780.95 0.0 0.0 1.0
-108.25366666666666 -94.36506666666666 1780.95 0.0 0.0 1.0
-107.61899999999999 -90.23809999999999 1780.95 0.0 0.0 1.0
-108.48666666666668 -86.01383333333335 1775.67 0.0 0.0 1.0
-108.32866666666666 -82.84866666666666 1775.67 0.0 0.0 1.0
-108.32866666666666 -82.84866666666666 1775.67 0.0 0.0 1.0
-108.32866666666666 -82.21563333333334 1775.67 0.0 0.0 1.0
-108.80333333333333 -74.61919999999999 1775.67 0.0 0.0 1.0
-108.08666666666666 -63.826433333333334 1770.41 0.0 0.0 1.0
-115.282 -76.61540000000001 2301.54 0.0 0.0 1.0
-115.89733333333334 -53.84616666666667 2301.54 0.0 0.0 1.0
-116.718 -50.153866666666666 2301.54 0.0 0.0 1.0
-116.30766666666666 -49.5385 2301.54 0.0 0.0 1.0
-107.82600000000001 -30.5314 1734.49 0.0 0.0 1.0
-107.36233333333332 -25.120800000000003 1734.49 0.0 0.0 1.0
-108.36266666666667 -20.11563333333333 1729.4800000000002 -1.699825000981466e-26 -7.556048468969557e-27 1.0
-108.04599999999999 4.82759 1719.54 0.0 0.0 1.0
-108.04599999999999 4.82759 1719.54 0.0 0.0 1.0
-107.27633333333334 21.257133333333336 1709.71 0.0 0.0 1.0
-117.33333333333333 50.564099999999996 2301.54 0.0 0.0 1.0
-117.33333333333333 50.564099999999996 2301.54 0.0 0.0 1.0
-117.33333333333333 77.23076666666667 2301.54 0.0 0.0 1.0
-116.923 82.5641 2301.54 0.0 0.0 1.0
-116.51299999999999 97.74360000000001 2301.54 0.0 0.0 1.0
-117.53866666666666 110.25666666666666 2301.54 0.0 0.0 1.0
-116.923 122.15366666666667 2301.54 0.0 0.0 1.0
-117.94866666666667 126.05133333333333 2301.54 0.0 0.0 1.0
-116.51299999999999 130.15366666666668 2301.54 0.0 0.0 1.0
-107.806 112.97266666666667 1704.84 0.0 0.0 1.0
-107.806 112.97266666666667 1704.84 0.0 0.0 1.0
-108.32433333333334 115.32933333333334 1690.4000000000003 5.535432462041827e-26 7.90776066005978e-26 1.0
-106.44133333333333 116.80733333333335 1685.63 0.0 0.0 1.0
-106.14066666666668 120.26266666666668 1685.63 0.0 0.0 1.0
-118.56400000000001 -169.33333333333334 2301.54 0.0 0.0 1.0
-108.81566666666667 -126.00999999999999 1786.2699999999998 1.417144403123309e-25 5.3934673992243905e-25 1.0
-108.97500000000001 -120.597 1786.2699999999998 0.0 -1.0 0.0
-110.0 -105.31733333333334 1780.95 0.0 0.0 1.0
-108.09533333333333 -96.11113333333334 1780.95 0.0 0.0 1.0
-108.40266666666666 -69.03353333333334 1770.41 0.0 0.0 1.0
-108.87599999999999 -67.92896666666667 1770.41 0.0 0.0 1.0
-117.94866666666667 -68.41023333333334 2301.54 0.0 0.0 1.0
-117.94833333333334 -57.538466666666665 2301.54 0.0 0.0 1.0
-117.94833333333334 -57.538466666666665 2301.54 0.0 0.0 1.0
-108.13533333333334 -30.067633333333333 1734.49 0.0 0.0 1.0
-108.13533333333334 -30.067633333333333 1734.49 0.0 0.0 1.0
-108.20800000000001 -17.803433333333334 1729.4800000000002 2.265834402537525e-26 2.2661610563834833e-26 1.0
-108.28066666666666 -4.687796666666666 1724.5 0.0 0.0 1.0
-108.89533333333333 -3.6119099999999995 1724.5 0.0 0.0 1.0
-107.89266666666667 0.9961716666666666 1719.54 0.0 0.0 1.0
-107.89299999999999 8.352493333333333 1719.54 0.0 0.0 1.0
-107.27633333333334 21.257133333333336 1709.71 0.0 0.0 1.0
-117.53833333333334 59.79486666666666 2301.54 0.0 0.0 1.0
-116.923 82.5641 2301.54 0.0 0.0 1.0
-117.94833333333334 88.10256666666668 2301.54 0.0 0.0 1.0
-118.15366666666667 88.71796666666667 2301.54 0.0 0.0 1.0
-117.33333333333333 95.48716666666667 2301.54 0.0 0.0 1.0
-116.51266666666668 99.38460000000002 2301.54 0.0 0.0 1.0
-117.74333333333334 103.48733333333332 2301.54 0.0 0.0 1.0
-117.94866666666667 104.51299999999999 2301.54 0.0 0.0 1.0
-116.923 109.641 2301.54 0.0 0.0 1.0
-117.94833333333334 115.58999999999999 2301.54 0.0 0.0 1.0
-117.94833333333334 115.58999999999999 2301.54 0.0 0.0 1.0
-117.128 142.05133333333333 2301.54 0.0 0.0 1.0
-117.128 149.641 2301.54 0.0 0.0 1.0
-117.128 149.641 2301.54 0.0 0.0 1.0
-109.771 -126.16933333333333 1786.2699999999998 -6.364548904654299e-26 8.488780811576365e-26 1.0
-110.47633333333333 -117.53966666666668 1780.95 0.0 0.0 1.0
-109.36500000000001 -115.0 1780.95 0.0 0.0 1.0
-110.0 -111.82533333333333 1780.95 0.0 0.0 1.0
-110.31733333333334 -109.92066666666666 1780.95 0.0 0.0 1.0
-109.75266666666668 -87.43816666666667 1775.67 0.0 0.0 1.0
-109.75266666666668 -86.9634 1775.67 0.0 0.0 1.0
-116.923 -69.64103333333333 2301.54 0.0 0.0 1.0
-118.15366666666667 -66.35896666666666 2301.54 0.0 0.0 1.0
-118.15366666666667 -59.17946666666666 2301.54 0.0 0.0 1.0
-117.12833333333333 -48.51283333333333 2301.54 0.0 0.0 1.0
-108.59899999999999 -25.42996666666667 1734.49 0.0 0.0 1.0
-108.20833333333333 -19.190766666666665 1729.4800000000002 -1.6354204023389466e-26 2.2655080193417646e-26 1.0
-108.20833333333333 -19.190766666666665 1729.4800000000002 -1.6354204023389466e-26 2.2655080193417646e-26 1.0
-107.97333333333331 -6.378480000000001 1724.5 0.0 0.0 1.0
-108.50600000000001 0.5364 1719.54 0.0 0.0 1.0
-108.11833333333334 16.427866666666667 1714.61 0.0 0.0 1.0
-107.96566666666666 18.4145 1714.61 0.0 0.0 1.0
-116.92333333333333 44.20513333333334 2301.54 0.0 0.0 1.0
-117.33333333333333 50.564099999999996 2301.54 0.0 0.0 1.0
-118.359 95.07690000000001 2301.54 0.0 0.0 1.0
-117.94866666666667 103.48733333333332 2301.54 0.0 0.0 1.0
-117.94866666666667 104.51299999999999 2301.54 0.0 0.0 1.0
-117.94866666666667 104.51299999999999 2301.54 0.0 0.0 1.0
-117.12833333333333 121.74333333333334 2301.54 0.0 0.0 1.0
-118.56400000000001 126.25666666666666 2301.54 0.0 0.0 1.0
-117.128 142.05133333333333 2301.54 0.0 0.0 1.0
-108.32433333333334 115.32933333333334 1690.4000000000003 5.535432462041854e-26 7.907760660059818e-26 1.0
-119.79466666666667 -167.692 2301.54 0.0 0.0 1.0
-109.61200000000001 -125.37333333333333 1786.2699999999998 -5.656718663513142e-26 -2.830333064716661e-26 1.0
-110.47633333333333 -117.53966666666668 1780.95 0.0 0.0 1.0
-110.476 -111.03133333333334 1780.95 0.0 0.0 1.0
-110.29566666666666 -72.9783 1770.41 0.0 0.0 1.0
-110.29566666666666 -72.9783 1770.41 0.0 0.0 1.0
-109.98 -59.0927 1770.41 0.0 0.0 1.0
-109.98 -59.0927 1770.41 0.0 0.0 1.0
-118.76933333333334 -64.30766666666666 2301.54 0.0 0.0 1.0
-118.15366666666667 -59.17946666666666 2301.54 0.0 0.0 1.0
-117.94833333333334 -57.538466666666665 2301.54 0.0 0.0 1.0
-117.74333333333334 -55.28206666666667 2301.54 0.0 0.0 1.0
-118.56400000000001 -51.3846 2301.54 0.0 0.0 1.0
-119.17933333333333 -41.33333333333333 2301.54 0.0 0.0 1.0
-119.17933333333333 -41.33333333333333 2301.54 0.0 0.0 1.0
-108.599 -25.42996666666667 1734.49 0.0 0.0 1.0
-109.133 -17.495166666666666 1729.4800000000002 -1.888195335447879e-27 -1.1896151707672807e-40 1.0
-109.28733333333334 -11.7919 1729.4800000000002 0.0 1.0 0.0
-109.11899999999999 0.229885 1719.54 0.0 0.0 1.0
-108.50599999999999 4.36782 1719.54 0.0 0.0 1.0
-108.81233333333334 5.440616666666667 1719.54 0.0 0.0 1.0
-108.96566666666666 8.352493333333333 1719.54 0.0 0.0 1.0
-109.47766666666666 31.377 1704.84 0.0 0.0 1.0
-109.78166666666668 34.567933333333336 1704.84 0.0 0.0 1.0
-118.769 58.974333333333334 2301.54 0.0 0.0 1.0
-118.56400000000001 65.12819999999999 2301.54 0.0 0.0 1.0
-119.58966666666667 72.10256666666668 2301.54 0.0 0.0 1.0
-119.58966666666667 72.10256666666668 2301.54 0.0 0.0 1.0
-118.97433333333333 76.6154 2301.54 0.0 0.0 1.0
-118.56400000000001 87.89743333333335 2301.54 0.0 0.0 1.0
-117.94833333333334 115.58999999999999 2301.54 0.0 0.0 1.0
-117.74366666666667 120.51266666666668 2301.54 0.0 0.0 1.0
-117.94866666666667 122.56400000000001 2301.54 0.0 0.0 1.0
-118.56400000000001 126.25666666666666 2301.54 0.0 0.0 1.0
-118.56400000000001 126.25666666666666 2301.54 0.0 0.0 1.0
-118.56400000000001 140.41033333333334 2301.54 0.0 0.0 1.0
-106.08066666666666 107.76233333333333 1711.3433333333332 -0.08604034316775869 -0.7745513605955437 0.6266316694415996
-120.0 145.94866666666667 2301.54 0.0 0.0 1.0
-117.94833333333334 149.641 2301.54 0.0 0.0 1.0
-108.41399999999999 112.365 1704.84 0.0 0.0 1.0
-118.97433333333333 -169.33333333333334 2301.54 0.0 0.0 1.0
-110.24866666666667 -126.806 1786.2699999999998 -2.1257142739192063e-26 1.0628571369596035e-26 1.0
-110.24866666666667 -126.806 1786.2699999999998 -2.1257142739192063e-26 1.0628571369596035e-26 1.0
-110.24866666666667 -120.91533333333332 1786.2699999999998 -7.872465654592895e-27 2.047533600248696e-26 1.0
-110.31733333333334 -111.82533333333333 1780.95 0.0 0.0 1.0
-110.476 -111.03133333333334 1780.95 0.0 0.0 1.0
-110.31733333333334 -108.33333333333333 1780.95 0.0 0.0 1.0
-110.0 -105.31733333333334 1780.95 0.0 0.0 1.0
-110.0 -105.31733333333334 1780.95 0.0 0.0 1.0
-110.95233333333333 -99.44440000000002 1780.95 0.0 0.0 1.0
-109.04733333333333 -93.73013333333331 1780.95 0.0 0.0 1.0
-111.11133333333333 -89.12696666666666 1780.95 0.0 0.0 1.0
-110.06933333333332 -87.43816666666667 1775.67 0.0 0.0 1.0
-109.75266666666668 -86.9634 1775.67 0.0 0.0 1.0
-109.91133333333335 -82.37389999999999 1775.67 0.0 0.0 1.0
-110.06933333333332 -75.25223333333334 1775.67 0.0 0.0 1.0
-110.296 -67.14003333333334 1770.41 0.0 0.0 1.0
-109.98 -59.0927 1770.41 0.0 0.0 1.0
-118.97433333333333 -62.256400000000006 2301.54 0.0 0.0 1.0
-109.971 -10.835713333333333 1724.5 0.0 0.0 1.0
-108.72966666666666 17.34476666666667 1714.61 0.0 0.0 1.0
-110.32400000000001 25.37143333333334 1709.71 0.0 0.0 1.0
-118.56400000000001 88.51283333333333 2301.54 0.0 0.0 1.0
-118.359 95.07690000000001 2301.54 0.0 0.0 1.0
-118.76933333333334 99.58973333333334 2301.54 0.0 0.0 1.0
-118.76933333333334 99.58973333333334 2301.54 0.0 0.0 1.0
-120.0 111.69266666666668 2301.54 0.0 0.0 1.0
-119.795 114.56433333333332 2301.54 0.0 0.0 1.0
-118.56400000000001 140.41033333333334 2301.54 0.0 0.0 1.0
-109.32566666666666 112.517 1704.84 0.0 0.0 1.0
-120.0 167.48733333333334 2301.54 0.0 0.0 1.0
-119.79466666666667 -167.692 2301.54 0.0 0.0 1.0
-110.24866666666667 -120.91533333333332 1786.2699999999998 -7.872465654592895e-27 2.047533600248696e-26 1.0
-110.79366666666665 -114.04766666666667 1780.95 0.0 0.0 1.0
-110.476 -111.03133333333334 1780.95 0.0 0.0 1.0
-110.79333333333334 -110.55533333333334 1780.95 0.0 0.0 1.0
-110.79333333333334 -108.492 1780.95 0.0 0.0 1.0
-109.91133333333335 -82.6904 1775.67 0.0 0.0 1.0
-119.79466666666667 -51.79486666666666 2301.54 0.0 0.0 1.0
-120.205 -41.743599999999994 2301.54 0.0 0.0 1.0
-109.90366666666667 -17.80346666666667 1729.4800000000002 -6.785595007404133e-26 1.055366782358715e-25 1.0
-109.971 -10.835713333333333 1724.5 0.0 0.0 1.0
-109.11899999999999 0.229885 1719.54 0.0 0.0 1.0
-109.73200000000001 6.360156666666668 1719.54 0.0 0.0 1.0
-109.73200000000001 7.8927233333333335 1719.54 0.0 0.0 1.0
-110.47633333333334 23.3905 1709.71 0.0 0.0 1.0
-110.38933333333334 35.4796 1704.84 0.0 0.0 1.0
-118.769 58.974333333333334 2301.54 0.0 0.0 1.0
-121.23066666666666 92.20513333333334 2301.54 0.0 0.0 1.0
-120.61533333333334 112.51299999999999 2301.54 0.0 0.0 1.0
-119.58966666666667 132.82033333333334 2301.54 0.0 0.0 1.0
-120.205 136.92333333333332 2301.54 0.0 0.0 1.0
-120.205 146.76933333333332 2301.54 0.0 0.0 1.0
-110.23733333333332 113.42833333333333 1704.84 0.0 0.0 1.0
-120.0 167.48733333333334 2301.54 0.0 0.0 1.0
-119.79466666666667 -167.692 2301.54 0.0 0.0 1.0
-111.11133333333333 -89.76190000000001 1780.95 0.0 0.0 1.0
-111.58766666666668 -88.96823333333333 1780.95 0.0 0.0 1.0
-111.58766666666668 -88.96823333333333 1780.95 0.0 0.0 1.0
-111.81 -76.67656666666666 1775.67 0.0 0.0 1.0
-110.29566666666666 -72.9783 1770.41 0.0 0.0 1.0
-111.71600000000001 -63.98423333333333 1770.41 0.0 0.0 1.0
-111.622 -51.20943333333333 1765.1899999999998 9.69249491909838e-19 9.693521775218528e-19 1.0
-119.79466666666667 -51.79486666666666 2301.54 0.0 0.0 1.0
-109.90366666666667 -17.80346666666667 1729.4800000000002 -6.785595007404133e-26 1.055366782358715e-25 1.0
-110.43200000000002 -9.913533333333334 1724.5 0.0 0.0 1.0
-111.50833333333333 -2.6897233333333332 1724.5 0.0 0.0 1.0
-109.73200000000001 7.8927233333333335 1719.54 0.0 0.0 1.0
-111.32766666666667 11.843366666666666 1714.61 0.0 0.0 1.0
-111.149 40.3419 1704.84 0.0 0.0 1.0
-120.205 66.35896666666666 2301.54 0.0 0.0 1.0
-120.205 86.25643333333333 2301.54 0.0 0.0 1.0
-119.38466666666666 101.84633333333333 2301.54 0.0 0.0 1.0
-120.61533333333334 112.51299999999999 2301.54 0.0 0.0 1.0
-109.62966666666667 112.97266666666667 1704.84 0.0 0.0 1.0
-110.23733333333332 114.18799999999999 1704.84 0.0 0.0 1.0
-108.32433333333331 115.32933333333334 1690.4000000000003 -5.6145100686424285e-25 -8.224071086462148e-25 1.0
-120.61533333333334 167.89733333333334 2301.54 0.0 0.0 1.0
-111.68166666666667 -125.214 1786.2699999999998 -2.5900809357517484e-26 -1.4356648243784486e-26 1.0
-111.90466666666667 -115.95266666666667 1780.95 0.0 0.0 1.0
-112.38100000000001 -112.61899999999999 1780.95 0.0 0.0 1.0
-111.90466666666667 -105.79333333333334 1780.95 0.0 0.0 1.0
-111.58766666666668 -88.96823333333333 1780.95 0.0 0.0 1.0
-111.96833333333332 -86.33036666666668 1775.67 0.0 0.0 1.0
-111.40033333333334 -66.19330000000001 1770.41 0.0 0.0 1.0
-111.716 -63.98423333333333 1770.41 0.0 0.0 1.0
-111.622 -51.20943333333333 1765.1899999999998 9.692495218908284e-19 9.693522075060194e-19 1.0
-122.05133333333333 -39.4872 2301.54 0.0 0.0 1.0
-122.25666666666666 -30.051299999999998 2301.54 0.0 0.0 1.0
-111.137 -15.028866666666667 1729.4800000000002 -6.301704476775986e-28 4.197199550595305e-28 1.0
-111.137 -15.028866666666667 1729.4800000000002 -6.301704476775981e-28 4.197199550595304e-28 1.0
-111.20066666666666 -8.37656 1724.5 0.0 0.0 1.0
-111.20066666666666 -8.37656 1724.5 0.0 0.0 1.0
-109.88533333333334 1.9157116666666667 1719.54 0.0 0.0 1.0
-110.47633333333333 23.390500000000003 1709.71 0.0 0.0 1.0
-110.93366666666667 24.9143 1709.71 0.0 0.0 1.0
-110.54133333333334 36.39126666666667 1704.84 0.0 0.0 1.0
-110.693 39.12633333333334 1704.84 0.0 0.0 1.0
-120.0 61.64103333333333 2301.54 0.0 0.0 1.0
-121.43599999999999 68.2051 2301.54 0.0 0.0 1.0
-120.82066666666667 71.89743333333334 2301.54 0.0 0.0 1.0
-122.46166666666666 76.61540000000001 2301.54 0.0 0.0 1.0
-120.205 86.25643333333333 2301.54 0.0 0.0 1.0
-121.02566666666667 113.12833333333333 2301.54 0.0 0.0 1.0
-120.61566666666666 113.74366666666667 2301.54 0.0 0.0 1.0
-121.84633333333333 144.30766666666668 2301.54 0.0 0.0 1.0
-113.27366666666667 -123.30333333333333 1786.2699999999998 -3.541469831350696e-27 3.536834037548692e-27 1.0
-112.38100000000001 -112.61899999999999 1780.95 0.0 0.0 1.0
-113.651 -97.5397 1780.95 0.0 0.0 1.0
-113.13599999999998 -69.0335 1770.41 0.0 0.0 1.0
-111.87366666666667 -65.24656666666665 1770.41 0.0 0.0 1.0
-111.622 -51.20943333333333 1765.1899999999998 9.69249616643633e-19 9.693523022688622e-19 1.0
-121.02566666666667 -41.1282 2301.54 0.0 0.0 1.0
-122.46166666666666 -31.897433333333336 2301.54 0.0 0.0 1.0
-111.137 -15.028866666666667 1729.4800000000002 -6.301704476775979e-28 4.197199550595303e-28 1.0
-111.66166666666668 -6.993273333333334 1724.5 0.0 0.0 1.0
-111.02199999999999 11.2321 1714.61 0.0 0.0 1.0
-110.78133333333334 24.1524 1709.71 0.0 0.0 1.0
-110.93366666666667 24.9143 1709.71 0.0 0.0 1.0
-111.90866666666666 30.00946666666667 1704.84 0.0 0.0 1.0
-111.149 34.5679 1704.84 0.0 0.0 1.0
-122.25633333333333 92.0 2301.54 0.0 0.0 1.0
-121.23066666666666 92.20513333333334 2301.54 0.0 0.0 1.0
-121.231 99.58973333333334 2301.54 0.0 0.0 1.0
-122.25633333333333 122.359 2301.54 0.0 0.0 1.0
-121.846 124.205 2301.54 0.0 0.0 1.0
-122.66666666666667 125.43599999999999 2301.54 0.0 0.0 1.0
-122.87166666666667 134.46166666666667 2301.54 0.0 0.0 1.0
-121.84633333333333 144.30766666666668 2301.54 0.0 0.0 1.0
-121.846 146.97466666666665 2301.54 0.0 0.0 1.0
-122.46133333333334 149.436 2301.54 0.0 0.0 1.0
-110.23733333333332 113.42833333333333 1704.84 0.0 0.0 1.0
-120.82033333333334 167.48733333333334 2301.54 0.0 0.0 1.0
-113.01566666666668 -118.80966666666666 1780.95 0.0 0.0 1.0
-113.016 -116.42866666666667 1780.95 0.0 0.0 1.0
-112.69833333333334 -112.46033333333332 1780.95 0.0 0.0 1.0
-112.69833333333334 -112.46033333333332 1780.95 0.0 0.0 1.0
-113.551 -81.42436666666667 1775.67 0.0 0.0 1.0
-113.13599999999998 -69.0335 1770.41 0.0 0.0 1.0
-112.82066666666667 -56.725833333333334 1770.41 0.0 0.0 1.0
-122.05133333333333 -50.153866666666666 2301.54 0.0 0.0 1.0
-122.25666666666666 -30.051299999999998 2301.54 0.0 0.0 1.0
-123.69233333333334 -26.97436666666667 2301.54 0.0 0.0 1.0
