ply
format ascii 1.0
comment VCGLIB generated
element vertex 735
property float x
property float y
property float z
property float nx
property float ny
property float nz
element face 0
property list uchar int vertex_indices
end_header
19.8165 -96.6361 1829.97 0.0 0.0 1.0
19.9796 -89.62279999999998 1829.97 0.0 0.0 1.0
19.8165 -79.5107 1829.97 0.0 0.0 1.0
18.8379 -70.051 1829.97 0.0 0.0 1.0
20.7951 -66.2997 1829.97 0.0 0.0 1.0
19.6534 -58.30786666666666 1829.97 0.0 0.0 1.0
19.6534 -58.30786666666666 1829.97 0.0 0.0 1.0
20.7951 -54.71970000000001 1829.97 0.0 0.0 1.0
20.1427 -49.0112 1829.97 0.0 0.0 1.0
20.1427 -49.0112 1829.97 0.0 0.0 1.0
20.3058 -48.3588 1829.97 0.0 0.0 1.0
20.6504 -25.447166666666664 1824.39 0.0 0.0 1.0
18.6992 -20.2439 1824.39 0.0 0.0 1.0
19.5122 -11.7886 1824.39 0.0 0.0 1.0
20.3252 -10.0 1824.39 0.0 0.0 1.0
20.9756 0.5691066666666666 1824.39 0.0 0.0 1.0
19.6748 9.349593333333333 1824.39 0.0 0.0 1.0
19.187 12.2764 1824.39 0.0 0.0 1.0
15.096666666666666 22.267500000000002 1693.5866666666668 -0.7683630999493807 -0.04519196367444408 0.6384166610102104
17.5032 46.37563333333333 1835.5933333333335 0.00021076808006417866 0.9250405217166225 0.3798683834686103
17.548333333333332 51.1038 1858.3966666666668 -0.14027640778236494 -0.9087042667555932 0.39316546771029515
23.3877 54.340133333333334 1907.7866666666666 -0.7640049807505911 0.6366358707369774 -0.10483872127825593
22.893866666666668 70.05356666666665 1924.12 0.0 0.0 1.0
-14.226996666666667 44.7834 1196.8666666666668 0.8833897984328775 0.17270521628258423 0.435655107043985
-15.199533333333335 55.77269999999999 1259.8366666666668 0.5761339088087588 -0.7825380731441619 0.23601670110516138
-4.654183333333333 83.14576666666666 1356.9233333333334 -0.9195436809899362 -0.04608275995686906 0.39027656602239913
27.022233333333332 121.86633333333333 1994.67 0.0 0.0 1.0
17.099133333333334 128.88533333333334 1881.7733333333333 0.7574472521737783 -0.5681554489616758 0.32167226487459144
19.4903 -134.80133333333333 1829.97 0.0 0.0 1.0
0.20256666666666648 -106.97266666666667 1663.8100000000002 0.715079357085694 0.6946240218507073 0.0784791777343439
19.1641 -124.85199999999999 1829.97 0.0 0.0 1.0
19.1641 -124.85199999999999 1829.97 0.0 0.0 1.0
19.1641 -117.18666666666667 1829.97 0.0 0.0 1.0
19.3272 -110.82566666666666 1829.97 0.0 0.0 1.0
20.4689 -110.33633333333331 1829.97 0.0 0.0 1.0
18.6748 -106.58533333333334 1829.97 0.0 0.0 1.0
18.8379 -92.0693 1829.97 0.0 0.0 1.0
19.3272 -74.2915 1829.97 0.0 0.0 1.0
19.4903 -74.1284 1829.97 0.0 0.0 1.0
19.9796 -49.3374 1829.97 0.0 0.0 1.0
19.9796 -49.3374 1829.97 0.0 0.0 1.0
18.2114 -29.512199999999996 1824.39 0.0 0.0 1.0
19.3496 -24.471533333333337 1824.39 0.0 0.0 1.0
19.8374 -14.878033333333335 1824.39 0.0 0.0 1.0
19.8374 -14.878033333333335 1824.39 0.0 0.0 1.0
19.3496 -11.1382 1824.39 0.0 0.0 1.0
19.3496 -11.1382 1824.39 0.0 0.0 1.0
19.6748 2.5203266666666666 1824.39 0.0 0.0 1.0
19.187 8.69919 1824.39 0.0 0.0 1.0
20.0 10.813 1824.39 0.0 0.0 1.0
19.6748 11.626 1824.39 0.0 0.0 1.0
18.5366 15.853666666666667 1824.39 0.0 0.0 1.0
19.187 21.382099999999998 1824.39 0.0 0.0 1.0
16.58926 35.137166666666666 1917.9866666666667 -0.08298069476073176 -0.9680767226500087 0.23651990055858857
26.90216666666667 34.84043333333333 1979.28 -0.24195401555529134 -0.9678160622211621 0.06921216701847717
19.250400000000003 75.39416666666666 1877.8266666666666 -0.8188742814989407 -0.47766759402449527 0.31824295863136337
-10.410006666666666 51.80073333333333 1284.1566666666668 -0.9397555608860029 0.3417350513411303 0.008754454221100643
-10.065406666666666 53.429833333333335 1290.6000000000001 0.6747803811232893 -0.7359857794931309 0.05473910517168727
28.8 103.2 1994.67 0.0 0.0 1.0
28.8 103.2 1994.67 0.0 0.0 1.0
28.8 103.19999999999999 1994.67 0.0 0.0 1.0
-12.804833333333333 76.5524 1227.91 0.9215586106223546 0.06583706397306405 0.38261626755171063
13.155033333333334 114.95100000000001 1716.2533333333333 -0.8090691583412918 0.5391834434585475 0.23385532134440962
29.6889 135.91099999999997 1994.67 0.0 0.0 1.0
19.4903 -134.80133333333333 1829.97 0.0 0.0 1.0
19.4903 -134.80133333333333 1829.97 0.0 0.0 1.0
19.001 -133.17033333333333 1829.97 0.0 0.0 1.0
19.001 -132.02866666666665 1829.97 0.0 0.0 1.0
-10.621833333333333 -114.99933333333333 1714.62 0.24898127986315574 0.877081364096696 0.41077561153503733
18.8379 -65.8104 1829.97 0.0 0.0 1.0
20.1427 -54.06730000000001 1829.97 0.0 0.0 1.0
19.4903 -51.6208 1829.97 0.0 0.0 1.0
16.9106 -40.7317 1824.39 0.0 0.0 1.0
19.187 -11.4634 1824.39 0.0 0.0 1.0
19.3496 -11.1382 1824.39 0.0 0.0 1.0
19.6534 -3.01733 1829.97 0.0 0.0 1.0
19.1641 -1.54944 1829.97 0.0 0.0 1.0
18.8618 2.5203266666666666 1824.39 0.0 0.0 1.0
19.187 17.642300000000002 1824.39 0.0 0.0 1.0
19.187 20.569100000000002 1824.39 0.0 0.0 1.0
19.187 20.569100000000002 1824.39 0.0 0.0 1.0
19.187 21.382099999999998 1824.39 0.0 0.0 1.0
16.87796666666667 37.404066666666665 1820.6899999999998 -0.3311496088809921 -0.9106486571268553 0.2471011125248548
-11.362566666666666 40.94986666666667 1275.01 -0.9982528215855702 -0.05728095427285685 0.014498154159702948
17.18873333333333 44.41766666666667 1802.41 0.0 0.0 1.0
17.18873333333333 44.41766666666666 1802.41 0.0 0.0 1.0
17.482366666666667 51.1581 1807.8499999999997 9.602638708887734e-28 -1.3445760271798317e-27 1.0
22.34396666666667 54.24216666666667 1966.2700000000002 0.3176068565088862 -0.7713358633971039 0.5515132550863923
23.130266666666667 61.48393333333333 1951.3133333333335 0.565875801407479 -0.5144298547323966 0.644318633861732
34.31113333333334 61.77776666666667 1994.67 0.0 0.0 1.0
22.893866666666668 70.05356666666665 1924.12 0.0 0.0 1.0
-10.829383333333332 53.934400000000004 1308.4766666666667 -0.7975097528701849 -0.21266775217564077 0.5645800397299721
-13.250833333333333 55.69756666666666 1233.81 0.0 0.0 1.0
7.515646666666668 87.57663333333333 1753.14 -0.5661058149703174 -0.566154220768955 0.5991607501850318
-3.3167833333333334 75.8566 1431.5833333333333 0.4759109254696777 -0.7724626882533768 0.4204880334503723
-13.418803333333335 76.4358 1292.4466666666667 -0.03228227512590537 -0.5102363056516461 0.859428162854613
10.513 100.42876666666666 1673.07 -0.9889642354397633 8.493347037998986e-17 0.1481544498860703
26.133333333333336 127.55533333333334 1994.67 0.0 0.0 1.0
-12.804833333333335 76.55239999999999 1227.91 0.9215586106223544 0.06583706397306413 0.38261626755171074
13.155033333333334 114.95100000000001 1716.253333333333 -0.8090691583412918 0.5391834434585475 0.23385532134440962
-16.607733333333332 82.30516666666666 1175.64 0.0 0.0 1.0
-16.607733333333332 82.30516666666666 1175.64 0.0 0.0 1.0
28.0889 145.689 1994.67 0.0 0.0 1.0
28.0889 145.689 1994.67 0.0 0.0 1.0
18.5117 -122.406 1829.97 0.0 0.0 1.0
18.5117 -122.406 1829.97 0.0 0.0 1.0
18.6748 -118.32833333333333 1829.97 0.0 0.0 1.0
18.6748 -118.32833333333333 1829.97 0.0 0.0 1.0
19.1641 -95.4944 1829.97 0.0 0.0 1.0
18.8379 -92.0693 1829.97 0.0 0.0 1.0
19.3272 -90.43829999999998 1829.97 0.0 0.0 1.0
18.5117 -84.7299 1829.97 0.0 0.0 1.0
18.5117 -84.7299 1829.97 0.0 0.0 1.0
18.3486 -73.3129 1829.97 0.0 0.0 1.0
18.5117 -66.4628 1829.97 0.0 0.0 1.0
19.3272 -62.22220000000001 1829.97 0.0 0.0 1.0
19.1641 -45.25993333333334 1829.97 0.0 0.0 1.0
19.4903 -38.2467 1829.97 0.0 0.0 1.0
18.2114 -29.512199999999996 1824.39 0.0 0.0 1.0
18.0224 -24.872599999999995 1829.97 0.0 0.0 1.0
18.0224 -24.872599999999995 1829.97 0.0 0.0 1.0
18.8618 -22.520300000000002 1824.39 0.0 0.0 1.0
18.2114 -21.382099999999998 1824.39 0.0 0.0 1.0
19.187 -9.837396666666667 1824.39 0.0 0.0 1.0
17.8862 -5.284553333333333 1824.39 0.0 0.0 1.0
19.6534 -3.01733 1829.97 0.0 0.0 1.0
19.001 -1.54944 1829.97 0.0 0.0 1.0
19.450033333333334 9.847596666666666 1826.25 0.939450069522677 0.31314788330895765 0.13918322475412298
1.2834216666666667 13.903766666666668 1600.0 0.0 0.0 1.0
26.0792 35.1543 1977.1000000000001 0.7070908430321058 0.707090843032103 0.00671411947282792
17.01 37.51723333333334 1826.25 1.1713722940326363e-16 0.9882505852366591 0.15284233961635368
-13.250833333333333 55.69756666666666 1233.81 0.0 0.0 1.0
-13.250833333333333 55.69756666666666 1233.81 0.0 0.0 1.0
9.68342 75.15826666666666 1671.51 0.0 0.0 1.0
-13.204933333333335 58.49046666666666 1234.66 1.871443555773505e-16 -0.31368394503209684 0.9495274522777636
-3.7549733333333335 74.14479999999999 1428.16 0.0 0.0 1.0
9.683406666666665 100.4841 1671.51 0.0 0.0 1.0
9.98136 100.9311 1671.51 0.0 0.0 1.0
11.406559999999999 107.20633333333335 1729.4800000000002 1.1312359167300032e-24 -2.996583448022226e-24 1.0
-16.7576 81.95096666666666 1217.0866666666668 -0.5117612794928748 0.04264677329107328 0.8580685552679783
13.155033333333334 114.95100000000001 1716.2533333333333 -0.8090691583412918 0.5391834434585475 0.23385532134440973
27.555566666666664 146.04466666666667 1994.67 0.0 0.0 1.0
18.3486 -132.35466666666665 1829.97 0.0 0.0 1.0
17.37 -128.44033333333334 1829.97 0.0 0.0 1.0
18.5117 -120.61200000000001 1829.97 0.0 0.0 1.0
18.5117 -119.30700000000002 1829.97 0.0 0.0 1.0
18.93846666666667 -111.75600000000001 1831.8400000000001 -1.761081426048134e-16 0.9733010015521152 0.22953248218422068
18.6748 -111.152 1829.97 0.0 0.0 1.0
18.0224 -108.21600000000001 1829.97 0.0 0.0 1.0
18.5117 -106.42199999999998 1829.97 0.0 0.0 1.0
19.8165 -98.104 1829.97 0.0 0.0 1.0
17.8593 -95.3313 1829.97 0.0 0.0 1.0
18.0224 -80.4893 1829.97 0.0 0.0 1.0
18.1855 -79.3476 1829.97 0.0 0.0 1.0
18.3486 -73.3129 1829.97 0.0 0.0 1.0
17.8593 -70.051 1829.97 0.0 0.0 1.0
18.1855 -67.1152 1829.97 0.0 0.0 1.0
18.8379 -65.8104 1829.97 0.0 0.0 1.0
18.1855 -61.7329 1829.97 0.0 0.0 1.0
17.5331 -58.14476666666667 1829.97 0.0 0.0 1.0
18.5117 -43.62896666666666 1829.97 0.0 0.0 1.0
18.5117 -43.62896666666666 1829.97 0.0 0.0 1.0
17.8862 -5.284553333333333 1824.39 0.0 0.0 1.0
18.2114 2.3577266666666667 1824.39 0.0 0.0 1.0
17.2358 5.447153333333333 1824.39 0.0 0.0 1.0
19.187 8.69919 1824.39 0.0 0.0 1.0
18.2114 11.626 1824.39 0.0 0.0 1.0
19.176366666666667 45.542233333333336 1854.5500000000002 -0.9179483840402874 0.3059827946800959 0.25247830322145126
17.482366666666667 51.1581 1807.8499999999997 9.602638708887736e-28 -1.3445760271798311e-27 1.0
17.482366666666667 51.1581 1807.8499999999997 9.602638708887736e-28 -1.3445760271798313e-27 1.0
-11.687966666666668 47.49093333333334 1273.1966666666667 0.9835458494244477 -0.16354099130110217 0.07675875353465894
-11.687966666666668 47.49093333333334 1273.1966666666667 0.9835458494244474 -0.16354099130110392 0.07675875353465951
21.066566666666667 78.72233333333332 1905.7433333333336 -0.8215605150537589 -0.5477517713717323 0.15813385805617905
23.201766666666668 75.81353333333333 1913.89 -0.9880142716731448 -0.13171342031999622 0.08049455806322048
9.534453333333333 73.96646666666666 1671.51 0.0 0.0 1.0
-12.87053 75.33926666666666 1342.7166666666667 -0.017429401333852516 -0.8582804930881297 0.5128847932562834
28.799999999999997 133.95533333333333 1994.67 0.0 0.0 1.0
19.1641 -124.85199999999999 1829.97 0.0 0.0 1.0
18.5117 -122.406 1829.97 0.0 0.0 1.0
18.0224 -110.33633333333334 1829.97 0.0 0.0 1.0
18.0224 -108.21600000000001 1829.97 0.0 0.0 1.0
17.8593 -107.56366666666668 1829.97 0.0 0.0 1.0
17.8593 -91.90620000000001 1829.97 0.0 0.0 1.0
17.5331 -86.68706666666667 1829.97 0.0 0.0 1.0
17.8593 -84.0775 1829.97 0.0 0.0 1.0
17.5331 -81.4679 1829.97 0.0 0.0 1.0
17.5331 -81.4679 1829.97 0.0 0.0 1.0
17.6962 -80.3262 1829.97 0.0 0.0 1.0
18.0224 -73.14983333333333 1829.97 0.0 0.0 1.0
18.0224 -73.14983333333333 1829.97 0.0 0.0 1.0
17.8593 -70.051 1829.97 0.0 0.0 1.0
17.6962 -57.1662 1829.97 0.0 0.0 1.0
15.772366666666665 -36.50406666666667 1824.39 0.0 0.0 1.0
22.653366666666667 -30.56886666666667 1848.8166666666666 0.27242608914493266 0.6810928075210123 0.6796297620736914
17.561 -21.382099999999998 1824.39 0.0 0.0 1.0
16.748 -0.2439023333333333 1824.39 0.0 0.0 1.0
17.2358 2.0325233333333332 1824.39 0.0 0.0 1.0
17.0732 24.14633333333333 1824.39 0.0 0.0 1.0
26.550133333333335 35.19246666666666 1979.28 -0.2422553383230282 -0.9690213532921078 -0.04806212560766481
26.0792 35.1543 1977.1000000000001 0.7070908430321058 0.707090843032103 0.00671411947282792
17.01 37.51723333333334 1826.25 1.1713722940326363e-16 0.9882505852366591 0.15284233961635368
-6.189139999999999 27.5401 1312.2966666666666 0.18889189193308192 0.9759292679666112 0.10900420674494839
8.491623333333333 49.6834 1671.51 0.0 0.0 1.0
-11.687966666666668 47.49093333333334 1273.1966666666667 0.9835458494244474 -0.16354099130110322 0.07675875353465927
-12.195646666666667 53.89236666666667 1296.1833333333334 0.6206280673357056 0.6216389642227493 0.4778972694996427
9.534453333333333 73.96646666666666 1671.51 0.0 0.0 1.0
9.534453333333333 73.96646666666666 1671.51 0.0 0.0 1.0
28.0889 101.06666666666668 1994.67 0.0 0.0 1.0
22.004966666666665 98.12463333333334 1936.5833333333333 0.9383421707448356 -0.31278507519054144 0.1472394897434691
8.789573333333331 101.676 1671.51 0.0 0.0 1.0
12.314566666666666 109.43 1737.8500000000001 1.7030250132421748e-15 -0.9469787003150824 0.32129634474976076
-16.378700000000002 80.78616666666666 1177.9633333333334 0.9966692870912885 -4.760095130726427e-15 0.0815495687845299
26.84443333333333 145.689 1994.67 0.0 0.0 1.0
17.6962 -132.51766666666666 1829.97 0.0 0.0 1.0
17.6962 -132.51766666666666 1829.97 0.0 0.0 1.0
17.8593 -106.74833333333333 1829.97 0.0 0.0 1.0
17.37 -104.302 1829.97 0.0 0.0 1.0
17.0438 -91.4169 1829.97 0.0 0.0 1.0
17.2069 -69.7248 1829.97 0.0 0.0 1.0
17.6962 -68.25690000000002 1829.97 0.0 0.0 1.0
16.8807 -60.1019 1829.97 0.0 0.0 1.0
17.5331 -58.14476666666666 1829.97 0.0 0.0 1.0
16.2283 -49.6636 1829.97 0.0 0.0 1.0
16.3914 -19.9796 1829.97 0.0 0.0 1.0
17.8862 -5.284553333333333 1824.39 0.0 0.0 1.0
17.2358 5.447153333333333 1824.39 0.0 0.0 1.0
18.2114 11.3008 1824.39 0.0 0.0 1.0
16.0976 14.715433333333332 1824.39 0.0 0.0 1.0
17.0732 24.14633333333333 1824.39 0.0 0.0 1.0
14.140416666666667 35.5434 1784.5199999999998 0.8488217551323753 -0.2371026647354937 0.47252931590465563
16.546166666666668 45.863466666666675 1802.41 0.0 0.0 1.0
16.546166666666668 45.863466666666675 1802.41 0.0 0.0 1.0
8.491623333333331 49.6834 1671.51 0.0 0.0 1.0
15.7565 79.76703333333332 1732.82 -0.43019294236336125 -0.8962378732748675 0.108128196361986
-3.7549733333333335 74.14479999999999 1428.16 0.0 0.0 1.0
12.314566666666666 109.43 1737.8500000000001 -9.579515699487233e-16 -0.9469787003150821 0.32129634474976143
-16.607733333333336 82.30516666666666 1175.64 0.0 0.0 1.0
26.133333333333336 145.511 1994.67 0.0 0.0 1.0
16.5545 -134.638 1829.97 0.0 0.0 1.0
16.5545 -130.39766666666665 1829.97 0.0 0.0 1.0
16.5545 -129.58233333333334 1829.97 0.0 0.0 1.0
17.0438 -128.27733333333333 1829.97 0.0 0.0 1.0
17.8593 -119.95933333333333 1829.97 0.0 0.0 1.0
16.7176 -91.58 1829.97 0.0 0.0 1.0
17.0438 -91.4169 1829.97 0.0 0.0 1.0
17.5331 -83.262 1829.97 0.0 0.0 1.0
17.5331 -80.8155 1829.97 0.0 0.0 1.0
17.0438 -57.81856666666666 1829.97 0.0 0.0 1.0
17.37 -57.1662 1829.97 0.0 0.0 1.0
16.9106 -40.7317 1824.39 0.0 0.0 1.0
16.554533333333335 -38.736 1829.97 0.0 0.0 1.0
21.349566666666664 -37.47356666666667 1924.1299999999999 0.9189184660385581 -0.3937577879872315 -0.023316457122504974
21.349566666666664 -37.47356666666667 1924.1299999999999 0.9189184660385579 -0.39375778798723227 -0.02331645712250528
15.575933333333333 -32.0489 1829.97 0.0 0.0 1.0
16.58536666666667 -30.0 1824.39 0.0 0.0 1.0
17.561 -22.0325 1824.39 0.0 0.0 1.0
16.748 -0.24390233333333333 1824.39 0.0 0.0 1.0
17.2358 5.447153333333333 1824.39 0.0 0.0 1.0
16.4228 23.6585 1824.39 0.0 0.0 1.0
16.8202 45.959633333333336 1831.8400000000001 -0.6555966894043573 0.43706073768806514 0.6157685380186382
-15.918566666666669 35.800900000000006 1222.1833333333334 -0.9566348355272141 -0.27516591875447916 0.095569391605385
-5.52109 52.948433333333334 1361.0333333333333 0.6659784130600757 -3.533649101082008e-17 0.7459710137384584
17.869899999999998 75.24373333333334 1873.9066666666665 -0.8247478460959705 -0.4810937749814486 0.297220070039284
13.437666666666667 85.48683333333332 1732.82 -0.9248754546100038 0.36995177725455936 -0.08798338460261615
22.560466666666667 100.56400000000001 1947.08 -0.7009010356915434 -0.7011700955900825 0.13076022031457601
-3.7549733333333335 74.14479999999999 1428.16 0.0 0.0 1.0
8.342643333333333 100.782 1671.51 0.0 0.0 1.0
8.49162 101.229 1671.51 0.0 0.0 1.0
8.49162 101.229 1671.51 0.0 0.0 1.0
-12.828776666666664 95.22053333333332 1383.0633333333335 0.5092197033523667 0.6494361760474133 0.5647370600187674
25.599999999999998 145.333 1994.67 0.0 0.0 1.0
16.7176 -102.997 1829.97 0.0 0.0 1.0
15.902099999999999 -102.18133333333333 1829.97 0.0 0.0 1.0
15.575933333333333 -95.3313 1829.97 0.0 0.0 1.0
16.7176 -91.58 1829.97 0.0 0.0 1.0
16.0652 -88.31799999999998 1829.97 0.0 0.0 1.0
16.3914 -79.1845 1829.97 0.0 0.0 1.0
16.0652 -76.738 1829.97 0.0 0.0 1.0
16.3914 -72.17130000000002 1829.97 0.0 0.0 1.0
17.2069 -69.7248 1829.97 0.0 0.0 1.0
16.065233333333335 -61.243599999999994 1829.97 0.0 0.0 1.0
16.0652 -53.41490000000001 1829.97 0.0 0.0 1.0
16.7176 -24.872599999999995 1829.97 0.0 0.0 1.0
15.935 0.24390233333333333 1824.39 0.0 0.0 1.0
16.2602 1.3821156666666665 1824.39 0.0 0.0 1.0
15.7724 19.430899999999998 1824.39 0.0 0.0 1.0
15.7724 19.430899999999998 1824.39 0.0 0.0 1.0
7.746739999999999 36.573566666666665 1671.51 0.0 0.0 1.0
18.216233333333335 52.5734 1899.6933333333334 -0.5885947621387049 -0.3084343475434267 0.7472780334242015
8.044693333333333 48.044666666666664 1671.51 0.0 0.0 1.0
22.126099999999997 63.18016666666667 1955.5733333333335 0.8274348441391165 -0.20694283643426822 0.5220404593065713
15.571633333333333 72.09113333333333 1848.8166666666668 -0.6475037891127402 -0.755439298729261 0.10025122951907672
17.869899999999998 75.24373333333334 1873.9066666666665 -0.8247478460959705 -0.48109377498144873 0.2972200700392841
-3.079776666666666 57.98486666666667 1470.2766666666666 5.624029880810427e-05 0.9975980476877347 0.06926855048756748
22.560466666666667 100.56400000000001 1947.08 -0.7009010356915434 -0.7011700955900825 0.13076022031457601
14.474533333333333 100.0174 1856.4700000000003 0.11789445458676977 0.7074062734935779 0.6969054898618732
8.044693333333333 100.484 1671.51 0.0 0.0 1.0
11.406559999999999 107.20633333333335 1729.4800000000002 1.1312359167300032e-24 -2.996583448022226e-24 1.0
11.956999999999999 107.77300000000001 1731.1500000000003 0.3635277128373761 -0.9086620809203232 0.20537970858089727
15.555543333333333 110.87266666666666 1780.95 0.0 0.0 1.0
-16.938233333333333 80.5772 1173.3433333333335 -0.9506419245407348 -2.678038372504664e-14 0.31029007606671544
6.216763333333333 122.781 1835.58 0.0 0.0 1.0
25.244466666666668 145.15533333333335 1994.67 0.0 0.0 1.0
25.244466666666668 145.15533333333335 1994.67 0.0 0.0 1.0
15.902099999999999 -130.72400000000002 1829.97 0.0 0.0 1.0
16.0652 -129.41899999999998 1829.97 0.0 0.0 1.0
16.8807 -126.157 1829.97 0.0 0.0 1.0
16.8807 -121.59033333333333 1829.97 0.0 0.0 1.0
16.7176 -117.51299999999999 1829.97 0.0 0.0 1.0
15.412799999999999 -112.783 1829.97 0.0 0.0 1.0
16.228333333333335 -97.7778 1829.97 0.0 0.0 1.0
15.412799999999999 -92.8848 1829.97 0.0 0.0 1.0
16.0652 -88.318 1829.97 0.0 0.0 1.0
16.0652 -88.318 1829.97 0.0 0.0 1.0
16.0652 -76.738 1829.97 0.0 0.0 1.0
16.0652 -76.738 1829.97 0.0 0.0 1.0
15.738999999999999 -53.578 1829.97 0.0 0.0 1.0
15.902099999999999 -53.2518 1829.97 0.0 0.0 1.0
15.902133333333333 -49.0112 1829.97 0.0 0.0 1.0
15.249733333333333 -30.4179 1829.97 0.0 0.0 1.0
16.3914 -19.9796 1829.97 0.0 0.0 1.0
16.3914 -19.9796 1829.97 0.0 0.0 1.0
14.796766666666665 -16.504099999999998 1824.39 0.0 0.0 1.0
16.0976 14.715433333333332 1824.39 0.0 0.0 1.0
16.0976 14.715433333333332 1824.39 0.0 0.0 1.0
16.4228 23.6585 1824.39 0.0 0.0 1.0
1.3138499999999997 30.077133333333336 1551.6033333333335 -0.8214096986008234 0.5348701455578272 0.1979899856948653
5.769976666666666 34.69786666666667 1749.71 0.0 0.0 1.0
12.081793333333332 63.23216666666667 1845.0166666666667 0.6514092140339706 3.995314015008845e-14 0.7587265883515911
-3.3354199999999996 57.36766666666667 1467.8700000000001 -0.8809364358458354 0.4404794500590362 0.17299956668999297
-12.254166666666668 52.246766666666666 1273.1966666666667 -0.9843509464866331 -0.1640107769625485 -0.06444904336769394
-4.578096666666667 72.30806666666666 1427.0266666666666 -0.4225641251645644 -0.42251986602602754 0.8018207548681028
22.560466666666667 100.56400000000001 1947.08 -0.7009010356915434 -0.7011700955900825 0.13076022031457601
-4.459013333333334 74.3316 1429.3 0.70713486629149 0.7070608013670245 0.005030312628235406
14.474533333333333 100.0174 1856.4700000000003 0.11789445458676977 0.7074062734935779 0.6969054898618732
7.448793333333334 97.50463333333333 1671.51 0.0 0.0 1.0
7.746743333333332 99.88813333333333 1671.51 0.0 0.0 1.0
8.044693333333333 100.484 1671.51 0.0 0.0 1.0
-8.70136 91.72250000000001 1436.1666666666667 -0.40198599915953154 -0.45558366786116944 0.7942611523031179
-9.953016666666667 92.19446666666666 1354.8766666666668 -0.5681276651454049 -0.312471781739581 0.7613096227639069
17.274133333333335 133.10566666666668 1928.2699999999998 -0.8405565494972757 0.5379444283304957 0.06387862808021287
15.412833333333333 -135.12733333333333 1829.97 0.0 0.0 1.0
15.412799999999999 -129.74533333333332 1829.97 0.0 0.0 1.0
15.249733333333333 -118.32833333333333 1829.97 0.0 0.0 1.0
15.412799999999999 -112.783 1829.97 0.0 0.0 1.0
15.412799999999999 -92.8848 1829.97 0.0 0.0 1.0
15.575899999999999 -54.2304 1829.97 0.0 0.0 1.0
15.738999999999999 -53.578 1829.97 0.0 0.0 1.0
15.249733333333333 -49.50050000000001 1829.97 0.0 0.0 1.0
14.923533333333333 -47.7064 1829.97 0.0 0.0 1.0
14.923533333333333 -44.118233333333336 1829.97 0.0 0.0 1.0
14.923533333333333 -44.118233333333336 1829.97 0.0 0.0 1.0
15.284566666666668 -38.943099999999994 1824.39 0.0 0.0 1.0
21.349566666666664 -37.47356666666666 1924.1299999999999 0.9189184660385579 -0.39375778798723227 -0.02331645712250528
15.249733333333333 -30.4179 1829.97 0.0 0.0 1.0
13.821133333333334 -17.9675 1824.39 0.0 0.0 1.0
13.170733333333333 -12.2764 1824.39 0.0 0.0 1.0
15.284566666666668 -1.7073173333333334 1824.39 0.0 0.0 1.0
15.7724 0.8943096666666666 1824.39 0.0 0.0 1.0
15.2846 17.3171 1824.39 0.0 0.0 1.0
15.7724 19.430899999999998 1824.39 0.0 0.0 1.0
10.966209999999998 30.192833333333336 1673.07 -0.4053518551520957 0.038604630091918474 0.9133452556729139
18.03046666666667 51.7311 1964.1200000000001 0.11024553270291926 -0.8820378216966451 0.4580995564456344
8.044693333333333 48.044666666666664 1671.51 0.0 0.0 1.0
15.636000000000001 74.045 1856.4700000000003 -0.9473826479488874 -0.2960608013319008 0.12171327076398564
8.789573333333333 73.37056666666666 1671.51 0.0 0.0 1.0
22.004966666666665 98.12463333333334 1936.5833333333333 0.9383421707448356 -0.31278507519054155 0.14723948974346918
-0.39904100000000003 81.23326666666667 1450.11 0.9209352533886404 0.2511652037753147 0.2979837235127205
7.448793333333334 97.50463333333333 1671.51 0.0 0.0 1.0
17.3442 136.50033333333332 1974.9333333333334 -0.7909935794126964 -0.5273079570379458 0.31028289635807876
-3.6833466666666665 101.25423333333333 1476.3166666666666 -3.7857389870606e-15 -0.4438304627081006 0.8961107746100999
24.711133333333333 143.73333333333335 1994.67 0.0 0.0 1.0
14.923533333333333 -130.56066666666666 1829.97 0.0 0.0 1.0
15.412799999999999 -112.783 1829.97 0.0 0.0 1.0
14.434266666666668 -108.379 1829.97 0.0 0.0 1.0
15.412799999999999 -102.34466666666667 1829.97 0.0 0.0 1.0
15.412799999999999 -102.01833333333332 1829.97 0.0 0.0 1.0
15.575899999999999 -92.23239999999998 1829.97 0.0 0.0 1.0
14.923533333333333 -89.13349999999998 1829.97 0.0 0.0 1.0
14.923533333333333 -85.87156666666665 1829.97 0.0 0.0 1.0
15.738999999999999 -78.2059 1829.97 0.0 0.0 1.0
15.412799999999999 -72.49746666666667 1829.97 0.0 0.0 1.0
14.434266666666668 -70.8665 1829.97 0.0 0.0 1.0
14.271166666666668 -46.564699999999995 1829.97 0.0 0.0 1.0
13.983699999999999 -34.390233333333335 1824.39 0.0 0.0 1.0
14.3089 -31.9512 1824.39 0.0 0.0 1.0
14.3089 -31.9512 1824.39 0.0 0.0 1.0
14.597333333333333 -25.035700000000002 1829.97 0.0 0.0 1.0
13.983699999999999 -23.1707 1824.39 0.0 0.0 1.0
13.3333 -6.74797 1824.39 0.0 0.0 1.0
15.284566666666668 1.5447156666666668 1824.39 0.0 0.0 1.0
11.339033333333333 25.748066666666663 1766.9300000000003 -0.99002408142056 9.652881363735893e-17 0.14089825480600182
20.001 37.844766666666665 1934.4866666666667 -0.9772540554257665 -2.301408286214576e-16 0.21207194805983426
20.001 37.844766666666665 1934.4866666666667 -0.9772540554257665 -7.054626883159135e-17 0.21207194805983426
14.613 37.23423333333333 1852.63 0.0 0.0 1.0
15.514866666666665 37.9287 1822.54 7.379786559518976e-17 0.9977684213487135 0.06676958408808895
13.374366666666667 40.77946666666667 1841.2300000000002 2.618825215053085e-28 -2.666434290390918e-28 1.0
12.601639999999998 56.926433333333335 1691.996666666667 -0.7304607245563788 0.29217784353808257 0.6172999575781664
-3.153366666666667 56.943466666666666 1473.8966666666668 0.8620893778381102 0.4312891839896389 0.26606680437862085
-3.153366666666667 56.943466666666666 1473.8966666666665 0.8620893778381105 0.4312891839896388 0.2660668043786207
-0.8655499999999999 70.65716666666667 1497.2766666666666 0.17161933814864794 0.9838495136683936 0.050861942824524865
13.23297 86.044 1809.6766666666665 0.08455826247860049 0.7187181178478166 0.6901406866167884
21.64336666666667 101.90599999999999 1966.2700000000002 -0.7008671101916394 -0.7014000889826645 0.12970431383238787
6.9839433333333325 88.27053333333333 1703.2266666666667 -0.7823302148151761 0.31293208592607097 0.5385470681242249
22.933333333333334 119.19966666666666 1994.67 0.0 0.0 1.0
11.406559999999999 107.20633333333335 1729.4800000000002 1.1312359167300032e-24 -2.996583448022226e-24 1.0
-13.832433333333332 85.93296666666667 1293.38 -0.9425663962655426 0.23564159906638593 0.23673112473949173
-3.6833466666666665 101.25423333333333 1476.3166666666666 2.7894918852025467e-15 -0.4438304627081017 0.8961107746100994
14.434266666666668 -131.37633333333335 1829.97 0.0 0.0 1.0
15.249733333333333 -129.256 1829.97 0.0 0.0 1.0
13.1295 -119.95933333333333 1829.97 0.0 0.0 1.0
14.2712 -107.72666666666667 1829.97 0.0 0.0 1.0
14.1081 -107.23733333333332 1829.97 0.0 0.0 1.0
13.7819 -96.96229999999998 1829.97 0.0 0.0 1.0
13.945 -83.58819999999999 1829.97 0.0 0.0 1.0
14.1081 -70.21410000000002 1829.97 0.0 0.0 1.0
14.1081 -62.87460000000001 1829.97 0.0 0.0 1.0
13.945 -62.22220000000001 1829.97 0.0 0.0 1.0
14.434266666666668 -48.0326 1829.97 0.0 0.0 1.0
14.308933333333334 -37.4797 1824.39 0.0 0.0 1.0
15.249733333333333 -30.4179 1829.97 0.0 0.0 1.0
13.983733333333333 -3.00813 1824.39 0.0 0.0 1.0
13.4959 5.447156666666667 1824.39 0.0 0.0 1.0
13.821100000000001 9.674796666666667 1824.39 0.0 0.0 1.0
13.821100000000001 9.674796666666667 1824.39 0.0 0.0 1.0
11.0914 26.037366666666667 1765.1899999999998 1.0 0.0 0.0
11.0914 26.037366666666667 1765.1899999999998 1.0 0.0 0.0
11.0914 26.037366666666667 1765.1899999999998 1.0 0.0 0.0
17.045533333333335 44.01396666666667 1839.3466666666666 0.67556580784929 0.1351131615698579 0.7248139573956436
22.21466666666667 58.22273333333334 1947.08 -0.7338377544647066 0.6671217402961342 0.1281824237033083
22.21466666666667 58.22273333333334 1947.08 -0.7338377544647064 0.6671217402961341 0.1281824237033083
-2.4941466666666665 53.443733333333334 1512.3933333333334 0.9985188143240649 7.750748060441922e-16 0.054407512724471405
-3.3354199999999996 57.36766666666667 1467.8700000000001 -0.8809364358458354 0.44047945005903616 0.17299956668999306
15.441766666666666 72.23683333333334 1852.6433333333334 -0.8469279167080722 0.42482227531425637 0.3197485548010226
16.643466666666665 84.22103333333332 1895.6733333333334 -0.9423836161279089 -0.3141278720426366 0.11505129316809465
19.3912 79.4883 1899.6933333333334 -0.8215854149794616 -0.5476964331198445 0.1581961536853082
2.027443 84.4341 1626.1133333333335 -0.828613167710678 -0.5063755231303626 0.23871331733049092
21.643366666666665 101.90599999999999 1966.2700000000002 -0.7008671101916392 -0.7014000889826647 0.12970431383238795
21.64336666666667 101.90599999999999 1966.2700000000002 -0.7008671101916392 -0.7014000889826647 0.12970431383238795
21.866133333333334 103.36166666666666 1970.5866666666668 -0.6521292425984397 -0.6526251583722744 0.38575621006997296
13.665186666666665 99.6742 1846.9233333333334 -0.6139094849974271 0.7857966237641877 -0.07509201229822693
9.154823333333333 88.95209999999999 1580.3 -0.1669236856596443 -0.8858915398947304 0.4328194343011224
5.041696666666667 99.39760000000001 1741.2233333333334 -0.059504548659018934 0.9510835921039482 0.3031488240444568
22.933333333333334 119.19966666666666 1994.67 0.0 0.0 1.0
22.04443333333333 122.222 1994.67 0.0 0.0 1.0
14.108066666666668 -134.638 1829.97 0.0 0.0 1.0
13.7819 -132.35466666666665 1829.97 0.0 0.0 1.0
14.434266666666668 -108.379 1829.97 0.0 0.0 1.0
13.5233 -105.33666666666666 1828.11 0.9993402072702248 -5.8194070324253215e-15 0.03632010645777716
14.108066666666668 -89.78590000000001 1829.97 0.0 0.0 1.0
13.945 -83.58819999999999 1829.97 0.0 0.0 1.0
13.714800000000002 -74.2047 1831.8400000000001 -0.1614530511542505 0.9686853101850256 0.1886310740697931
13.945 -70.5403 1829.97 0.0 0.0 1.0
14.1081 -70.21409999999999 1829.97 0.0 0.0 1.0
13.7819 -64.9949 1829.97 0.0 0.0 1.0
13.7819 -64.5056 1829.97 0.0 0.0 1.0
14.271166666666668 -46.564699999999995 1829.97 0.0 0.0 1.0
14.271166666666668 -46.564699999999995 1829.97 0.0 0.0 1.0
14.434266666666668 -45.0968 1829.97 0.0 0.0 1.0
14.108066666666668 -38.736 1829.97 0.0 0.0 1.0
14.146300000000002 -36.01626666666667 1824.39 0.0 0.0 1.0
14.3089 -31.9512 1824.39 0.0 0.0 1.0
13.983699999999999 -23.1707 1824.39 0.0 0.0 1.0
13.658499999999998 -21.7073 1824.39 0.0 0.0 1.0
14.796766666666665 -16.504099999999998 1824.39 0.0 0.0 1.0
13.4959 5.284553333333333 1824.39 0.0 0.0 1.0
-1.8753433333333336 17.55067 1508.57 -0.42221220508750146 0.24750282200267187 0.8720545894471649
20.001 37.844766666666665 1934.4866666666667 -0.9772540554257665 -2.301408286214576e-16 0.21207194805983426
15.577133333333336 37.404066666666665 1820.6899999999998 0.3417103348020233 0.9396902462465571 -0.014706739902980293
22.893866666666668 70.05356666666665 1924.12 0.0 0.0 1.0
20.502466666666667 106.516 1957.6966666666667 2.6982971849106424e-15 0.649105207523803 0.7606986456971517
22.577799999999996 120.08866666666667 1994.67 0.0 0.0 1.0
-12.168696666666667 84.35133333333334 1337.7333333333333 0.9038742993190095 0.3444523415271323 0.25370028665148475
-19.172733333333337 83.245 1212.1633333333332 0.44797181443708856 -0.8620220946906463 0.2371479743432211
13.1295 -127.95100000000001 1829.97 0.0 0.0 1.0
13.7819 -106.585 1829.97 0.0 0.0 1.0
13.4557 -106.09566666666667 1829.97 0.0 0.0 1.0
13.4557 -106.09566666666667 1829.97 0.0 0.0 1.0
13.7819 -96.96229999999998 1829.97 0.0 0.0 1.0
13.7819 -96.96229999999998 1829.97 0.0 0.0 1.0
13.4557 -89.78590000000001 1829.97 0.0 0.0 1.0
13.945 -83.58819999999999 1829.97 0.0 0.0 1.0
13.945 -70.5403 1829.97 0.0 0.0 1.0
13.4557 -64.9949 1829.97 0.0 0.0 1.0
13.4557 -64.1794 1829.97 0.0 0.0 1.0
13.1295 -57.003099999999996 1829.97 0.0 0.0 1.0
13.944966666666668 -52.436299999999996 1829.97 0.0 0.0 1.0
13.2926 -47.54330000000001 1829.97 0.0 0.0 1.0
13.821100000000001 9.674796666666667 1824.39 0.0 0.0 1.0
8.320613333333332 26.357633333333336 1744.6166666666666 -0.7681272838300343 0.6400588182954863 0.017469543728431434
-5.123493333333333 35.4105 1473.8966666666665 0.9983352992246428 -1.0231881889341607e-05 0.05767694701829606
14.8621 49.579366666666665 1928.253333333333 4.6515509334016505e-15 0.9317816833299137 0.36301913807797026
-3.778203333333334 48.771433333333334 1513.6633333333332 0.44218814695513403 -0.5053483026237278 0.7410079188022906
21.864966666666664 58.75516666666666 1970.5866666666668 0.22618338193894086 -0.549306007155008 0.8044277396000746
-2.7028199999999996 52.63476666666666 1516.22 0.9985118100827398 8.008212122289172e-17 0.05453590675225459
-2.7028199999999996 52.63476666666666 1516.22 0.9985118100827398 8.008212122289172e-17 0.05453590675225459
15.1152 70.39013333333334 1843.1233333333332 -0.8677500802666401 -1.0793448858957011e-16 0.49700080301468313
13.962933333333332 71.37776666666667 1843.1233333333332 0.9993581838842801 -2.4218562939543933e-16 0.035822064478668585
16.8025 78.16093333333333 1875.86 0.0 0.0 1.0
13.798833333333333 77.94186666666667 1843.1233333333332 -0.5345603831582414 0.5345603831582473 0.6545917762357102
8.155326666666667 80.1524 1621.7066666666667 -0.08204013735492537 -0.9572051366650591 0.27753872199174395
20.502466666666667 106.516 1957.6966666666667 2.6982971849106424e-15 0.649105207523803 0.7606986456971517
-23.013499999999997 66.28596666666668 1139.8533333333332 0.9959409283744379 -0.0002737973485855745 0.09000884525242142
21.333333333333332 120.97766666666666 1994.67 0.0 0.0 1.0
-3.6833466666666665 101.25423333333333 1476.3166666666666 -3.7857389870606e-15 -0.4438304627081006 0.8961107746100999
-13.832433333333332 85.93296666666667 1293.38 -0.9425663962655426 0.2356415990663858 0.23673112473949173
-17.970466666666667 83.30116666666667 1214.62 0.9958688808526415 -0.08298907340438752 0.03685085948507326
13.6188 -133.49633333333333 1829.97 0.0 0.0 1.0
12.4771 -116.04466666666667 1829.97 0.0 0.0 1.0
13.455666666666668 -111.96733333333333 1829.97 0.0 0.0 1.0
12.9664 -88.8073 1829.97 0.0 0.0 1.0
12.9664 -88.8073 1829.97 0.0 0.0 1.0
12.9664 -88.8073 1829.97 0.0 0.0 1.0
13.4557 -64.1794 1829.97 0.0 0.0 1.0
13.2926 -62.22220000000001 1829.97 0.0 0.0 1.0
13.1295 -57.003099999999996 1829.97 0.0 0.0 1.0
13.1295 -57.003099999999996 1829.97 0.0 0.0 1.0
12.8033 -51.131499999999996 1829.97 0.0 0.0 1.0
13.170733333333333 -44.63413333333333 1824.39 0.0 0.0 1.0
12.8033 -44.118233333333336 1829.97 0.0 0.0 1.0
13.821133333333334 -19.9187 1824.39 0.0 0.0 1.0
13.008099999999999 -7.3983766666666675 1824.39 0.0 0.0 1.0
12.3577 -4.634146666666667 1824.39 0.0 0.0 1.0
11.869900000000001 -4.14634 1824.39 0.0 0.0 1.0
13.008099999999999 5.284553333333333 1824.39 0.0 0.0 1.0
12.682899999999998 5.77236 1824.39 0.0 0.0 1.0
12.3577 6.0975633333333334 1824.39 0.0 0.0 1.0
6.306924333333334 27.497766666666667 1748.01 0.1732031419268749 0.9814906824554593 0.0817111490543105
13.004133333333334 34.48556666666667 1846.91 0.0 0.0 1.0
13.622266666666667 36.904 1852.63 0.0 0.0 1.0
-1.4362533333333334 31.986633333333334 1473.8966666666665 -0.1689061303661595 0.9455578963781496 0.2781923502213147
14.597366666666668 40.6932 1829.97 0.0 0.0 1.0
14.271166666666668 44.60756666666666 1829.97 0.0 0.0 1.0
-2.8429966666666666 52.04793333333333 1518.7900000000002 0.9985214116501566 0.0013896706311622346 0.054342058221196386
-4.51874 53.61426666666667 1491.04 0.9983961019056617 3.703814435898881e-14 0.056614695085108885
-4.51874 53.61426666666667 1491.04 0.9983961019056617 3.703814435898881e-14 0.056614695085108885
15.571633333333333 72.09113333333333 1848.8166666666668 -0.6475037891127402 -0.7554392987292609 0.10025122951907674
14.975533333333333 76.852 1856.4700000000003 -0.9543732279117801 -0.2982453850479622 0.014880596185716419
16.8025 78.16093333333333 1875.86 0.0 0.0 1.0
13.798833333333333 77.94186666666667 1843.1233333333332 -0.5345603831582497 0.5345603831582438 0.654591776235706
6.9839433333333325 88.27053333333333 1703.2266666666667 -0.782330214815176 0.312932085926071 0.5385470681242248
21.333333333333332 120.97766666666666 1994.67 0.0 0.0 1.0
-16.7576 81.95096666666666 1217.0866666666668 -0.5117612794928749 0.042646773291073053 0.8580685552679782
17.155166666666666 133.48066666666668 1936.6266666666663 -0.25797917508130047 0.9059342299222086 0.3357527606433446
11.9878 -121.101 1829.97 0.0 0.0 1.0
12.4771 -120.28566666666666 1829.97 0.0 0.0 1.0
12.4771 -119.30700000000002 1829.97 0.0 0.0 1.0
12.314 -118.00200000000001 1829.97 0.0 0.0 1.0
12.4771 -116.04466666666667 1829.97 0.0 0.0 1.0
12.314 -110.82566666666666 1829.97 0.0 0.0 1.0
11.8247 -85.0561 1829.97 0.0 0.0 1.0
12.9664 -62.87460000000001 1829.97 0.0 0.0 1.0
12.314 -48.84810000000001 1829.97 0.0 0.0 1.0
12.8033 -48.19570000000001 1829.97 0.0 0.0 1.0
12.1509 -26.014300000000002 1829.97 0.0 0.0 1.0
12.032499999999999 -12.1138 1824.39 0.0 0.0 1.0
12.032499999999999 -12.1138 1824.39 0.0 0.0 1.0
12.032499999999999 -3.3333333333333335 1824.39 0.0 0.0 1.0
11.869900000000001 3.170733333333333 1824.39 0.0 0.0 1.0
12.3577 3.9837399999999996 1824.39 0.0 0.0 1.0
14.215566666666666 16.487033333333333 1822.54 -0.837688205807756 -0.20942205145193893 0.5044015010051457
14.796766666666665 23.1707 1824.39 0.0 0.0 1.0
13.622266666666667 36.903999999999996 1852.63 0.0 0.0 1.0
-5.236283333333334 40.86796666666667 1506.05 0.9621180225531571 0.14253560938857204 0.2324059180284158
19.4712 53.72143333333333 1985.8466666666666 -0.9108460904524139 -3.30157696924825e-16 0.4127461683741633
19.4712 53.72143333333333 1985.8466666666666 -0.9108460904524139 -3.30157696924825e-16 0.4127461683741633
-5.2632699999999994 39.019466666666666 1476.3166666666666 0.9983371017392583 -2.1488958128791842e-14 0.05764573957247596
-4.674893333333333 46.94649999999999 1477.53 0.0 0.0 1.0
-3.0537966666666665 52.451766666666664 1522.6533333333334 0.9985213560276763 0.0012841513940032691 0.05434567610994867
-1.1015209999999998 65.866 1651.5266666666666 0.6539266611610354 0.752010096895841 0.08282955987743103
14.5453 77.43939999999999 1854.5500000000002 0.9724631425857297 0.22881349848229002 -0.04426984554503772
-3.8731066666666667 60.576366666666665 1472.6833333333334 0.9361592515444306 0.22289635269257446 0.27188797638755424
4.999996666666667 91.74243333333334 1700.0 0.0 0.0 1.0
21.155533333333334 118.31099999999999 1994.67 0.0 0.0 1.0
20.8 120.8 1994.67 0.0 0.0 1.0
-12.402736666666668 81.84976666666667 1294.3066666666666 0.42340259498667976 -0.1058506487466702 0.89973656295521
-13.358133333333333 96.59516666666667 1421.3833333333334 -0.5313202602855082 -0.5319747283729843 0.6593190952661916
3.6269633333333338 112.41466666666668 1660.6866666666665 -0.9716583330564107 -4.039207842899709e-16 0.23638968632754964
3.6269633333333338 112.41466666666668 1660.6866666666665 -0.9716583330564107 3.853203199410559e-17 0.23638968632754964
13.852633333333332 125.16766666666668 1883.74 -0.93187212278552 1.1642160112623283e-15 0.36278691648846567
11.6616 -116.371 1829.97 0.0 0.0 1.0
11.0092 -103.32333333333334 1829.97 0.0 0.0 1.0
11.8247 -85.0561 1829.97 0.0 0.0 1.0
11.1723 -82.7727 1829.97 0.0 0.0 1.0
11.3354 -75.2701 1829.97 0.0 0.0 1.0
11.6616 -74.12843333333332 1829.97 0.0 0.0 1.0
11.9878 -61.4067 1829.97 0.0 0.0 1.0
12.314 -48.84810000000001 1829.97 0.0 0.0 1.0
11.6616 -32.7013 1829.97 0.0 0.0 1.0
11.6616 -32.7013 1829.97 0.0 0.0 1.0
12.1509 -26.014300000000002 1829.97 0.0 0.0 1.0
12.1509 -26.014300000000002 1829.97 0.0 0.0 1.0
12.032499999999999 -12.1138 1824.39 0.0 0.0 1.0
11.5447 -7.723580000000001 1824.39 0.0 0.0 1.0
11.869900000000001 -4.14634 1824.39 0.0 0.0 1.0
11.707299999999998 5.934959999999999 1824.39 0.0 0.0 1.0
11.869900000000001 10.487796666666666 1824.39 0.0 0.0 1.0
-1.2257866666666666 21.503966666666667 1624.6266666666668 -0.438230824384624 -0.8326476624502949 0.338602443545868
-1.4131806666666666 20.56543333333333 1585.87 -0.3712711883159452 0.9281858441185497 0.025074758311928128
13.553533333333334 35.28693333333334 1854.5500000000002 0.6476024496535556 0.6476024496535533 0.40152476188328795
13.004133333333334 34.48556666666667 1846.91 0.0 0.0 1.0
13.622266666666667 36.903999999999996 1852.63 0.0 0.0 1.0
-4.935416666666666 50.85353333333333 1496.0266666666666 0.9874894109360153 0.08961797044088413 0.12974314110309895
-5.175303333333333 53.54006666666667 1526.5366666666669 0.3342172391660888 0.9357731172642616 -0.11237219429077813
-3.018936666666667 67.54643333333334 1502.2633333333333 0.3527461898953681 -0.19240744777346083 0.9157234842219587
13.798966666666667 91.68253333333332 1899.68 0.0 0.0 1.0
3.259263333333333 87.33333333333333 1662.22 0.0 0.0 1.0
3.259263333333333 87.33333333333333 1662.22 0.0 0.0 1.0
20.266666666666666 120.089 1994.67 0.0 0.0 1.0
10.8461 -127.95099999999998 1829.97 0.0 0.0 1.0
11.3354 -110.01033333333334 1829.97 0.0 0.0 1.0
11.4985 -98.91949999999999 1829.97 0.0 0.0 1.0
11.4985 -98.91949999999999 1829.97 0.0 0.0 1.0
11.3354 -98.104 1829.97 0.0 0.0 1.0
12.6402 -89.949 1829.97 0.0 0.0 1.0
10.682993333333334 -45.0968 1829.97 0.0 0.0 1.0
11.661593333333334 -39.0622 1829.97 0.0 0.0 1.0
11.4985 -32.212 1829.97 0.0 0.0 1.0
11.219500000000002 -4.14634 1824.39 0.0 0.0 1.0
11.5447 -3.3333333333333335 1824.39 0.0 0.0 1.0
10.2439 -0.7317063333333333 1824.39 0.0 0.0 1.0
11.056899999999999 2.5203266666666666 1824.39 0.0 0.0 1.0
10.406496666666667 8.373986666666667 1824.39 0.0 0.0 1.0
-1.4492633333333333 21.235133333333334 1626.0966666666666 -0.17780366249774 -0.9116732078568655 0.37045623179852516
7.444606666666666 25.5067 1739.5433333333333 -0.7991390093827127 0.5990792871883123 0.049808145365592714
9.558803333333334 31.624666666666666 1833.71 0.8636710466175965 -0.17273538248676076 0.473534381931891
13.004133333333334 34.48556666666667 1846.91 0.0 0.0 1.0
-9.95216 61.8182 1431.58 0.0 0.0 1.0
20.638066666666667 105.99333333333334 1970.5866666666668 -0.8895994694437787 -0.3812155251200387 0.2515700844154579
-23.013499999999997 66.28596666666668 1139.8533333333332 0.9959409283744379 -0.00027379734858644947 0.09000884525242163
20.266666666666666 120.089 1994.67 0.0 0.0 1.0
10.55712 111.589 1716.2533333333333 -0.7618909382009907 0.6015299529694931 0.24017475714098946
-14.058066666666667 83.81403333333334 1298.0600000000002 0.9686198623297526 -0.24215496558243868 0.05600477608257601
1.8467233333333333 112.94566666666667 1657.62 0.0 0.0 1.0
11.6616 -133.82233333333332 1829.97 0.0 0.0 1.0
11.6616 -133.82233333333332 1829.97 0.0 0.0 1.0
10.8461 -127.95099999999998 1829.97 0.0 0.0 1.0
10.193696666666666 -122.89466666666665 1829.97 0.0 0.0 1.0
11.3354 -120.93766666666666 1829.97 0.0 0.0 1.0
10.8461 -106.42166666666667 1829.97 0.0 0.0 1.0
10.8461 -106.42166666666667 1829.97 0.0 0.0 1.0
11.0092 -103.32333333333334 1829.97 0.0 0.0 1.0
11.0092 -97.1254 1829.97 0.0 0.0 1.0
10.8461 -96.1468 1829.97 0.0 0.0 1.0
10.5199 -84.24059999999999 1829.97 0.0 0.0 1.0
11.1723 -82.7727 1829.97 0.0 0.0 1.0
11.1723 -73.31293333333333 1829.97 0.0 0.0 1.0
10.3568 -65.4842 1829.97 0.0 0.0 1.0
11.8247 -61.7329 1829.97 0.0 0.0 1.0
10.682993333333334 -45.0968 1829.97 0.0 0.0 1.0
11.6616 -32.7013 1829.97 0.0 0.0 1.0
9.918693333333334 -25.12196666666667 1824.39 0.0 0.0 1.0
10.5691 -24.308933333333332 1824.39 0.0 0.0 1.0
11.219500000000002 -4.14634 1824.39 0.0 0.0 1.0
11.707299999999998 5.934959999999999 1824.39 0.0 0.0 1.0
10.406496666666667 8.373986666666667 1824.39 0.0 0.0 1.0
4.7226143333333335 25.32523333333333 1737.8500000000001 -0.2911131931737304 -0.9460994143065381 0.1419471979611427
18.03046666666667 51.7311 1964.1200000000001 0.1102455327029192 -0.8820378216966449 0.45809955644563455
19.491666666666664 60.5763 1961.9833333333336 0.180921132395884 0.6623513655126791 0.7270200908201095
2.51852 61.555566666666664 1662.22 0.0 0.0 1.0
2.370373333333333 62.0 1662.22 0.0 0.0 1.0
2.370373333333333 62.74073333333333 1662.22 0.0 0.0 1.0
-15.162333333333331 55.11053333333333 1232.9666666666667 -0.4239658426760585 2.399268013913695e-15 0.9056781791806511
-9.95216 61.8182 1431.58 0.0 0.0 1.0
13.672066666666666 91.56073333333335 1893.6833333333334 -0.7989214591631083 -0.5992148510547853 0.0516339458503931
3.259263333333333 87.33333333333333 1662.22 0.0 0.0 1.0
4.999996666666667 91.74243333333334 1700.0 0.0 0.0 1.0
4.999996666666667 91.74243333333334 1700.0 0.0 0.0 1.0
-13.418803333333335 76.43580000000001 1292.4466666666667 -0.03228227512590543 -0.5102363056516461 0.859428162854613
-14.074366666666668 68.43436666666666 1243.2333333333333 -0.3723867362571717 -0.7820199663397251 0.49977283930376487
-4.115483333333334 99.88886666666667 1646.9733333333334 0.4452653402417355 0.07421706399120792 0.8923175467242234
16.888900000000003 145.86666666666667 1994.67 0.0 0.0 1.0
10.683 -127.13566666666668 1829.97 0.0 0.0 1.0
11.3354 -120.77466666666665 1829.97 0.0 0.0 1.0
11.0092 -115.88166666666666 1829.97 0.0 0.0 1.0
11.0092 -115.88166666666666 1829.97 0.0 0.0 1.0
10.8461 -106.42166666666667 1829.97 0.0 0.0 1.0
10.8461 -96.1468 1829.97 0.0 0.0 1.0
9.70439 -92.0693 1829.97 0.0 0.0 1.0
10.8461 -83.4251 1829.97 0.0 0.0 1.0
11.1723 -73.31293333333333 1829.97 0.0 0.0 1.0
10.081290000000001 -47.07316666666666 1824.39 0.0 0.0 1.0
9.918696666666667 -23.6585 1824.39 0.0 0.0 1.0
9.593496666666667 -16.8293 1824.39 0.0 0.0 1.0
9.756096666666666 -8.861793333333333 1824.39 0.0 0.0 1.0
10.731699999999998 -7.073173333333333 1824.39 0.0 0.0 1.0
10.4065 -5.934959999999999 1824.39 0.0 0.0 1.0
-1.14082 16.613200000000003 1600.0 0.0 0.0 1.0
-1.14082 16.6132 1600.0 0.0 0.0 1.0
-0.7137793333333334 17.788133333333334 1602.8666666666668 -0.9987782283622957 5.2667061506088926e-17 0.04941710786229767
-1.4131806666666666 20.56543333333333 1585.8700000000001 -0.3712711883159452 0.9281858441185494 0.025074758311928465
5.030178 28.635733333333334 1789.8366666666668 -0.4341992817581927 0.8683804360022707 0.23955459104174093
1.1109053333333334 37.52006666666667 1660.6866666666665 -0.8795221660402607 0.32981611237727176 0.34301908323035185
-4.418806666666666 47.63226666666666 1503.5433333333333 0.00037498521461587085 0.9736272017765057 0.22814454047147412
2.51852 61.555566666666664 1662.22 0.0 0.0 1.0
-11.255996666666666 56.32606666666667 1377.83 -0.17410309784683264 -0.9540437324360622 0.2439029887467625
13.798966666666667 91.68253333333332 1899.68 0.0 0.0 1.0
13.852633333333332 125.16766666666668 1883.74 -0.9318721227855205 2.494480020194135e-15 0.3627869164884643
13.852633333333332 125.16766666666668 1883.74 -0.9318721227855205 2.494480020194135e-15 0.3627869164884643
1.5512466666666667 114.71833333333332 1657.62 0.0 0.0 1.0
9.54129 -130.88700000000003 1829.97 0.0 0.0 1.0
10.8461 -127.95099999999998 1829.97 0.0 0.0 1.0
10.356793333333334 -109.84733333333334 1829.97 0.0 0.0 1.0
9.378193333333334 -103.97566666666667 1829.97 0.0 0.0 1.0
10.5199 -84.24059999999999 1829.97 0.0 0.0 1.0
8.725796666666666 -79.8369 1829.97 0.0 0.0 1.0
11.3354 -75.2701 1829.97 0.0 0.0 1.0
9.704396666666666 -67.1152 1829.97 0.0 0.0 1.0
10.3568 -65.4842 1829.97 0.0 0.0 1.0
10.3568 -65.4842 1829.97 0.0 0.0 1.0
8.78049 -16.1789 1824.39 0.0 0.0 1.0
10.5691 -12.439 1824.39 0.0 0.0 1.0
10.4065 -11.9512 1824.39 0.0 0.0 1.0
10.2439 -2.357723333333333 1824.39 0.0 0.0 1.0
9.7561 -1.3821139999999998 1824.39 0.0 0.0 1.0
10.2439 -0.7317063333333333 1824.39 0.0 0.0 1.0
10.2439 1.544716 1824.39 0.0 0.0 1.0
19.4712 53.72143333333333 1985.8466666666666 -0.9108460904524149 2.0567065859159804e-15 0.4127461683741613
2.370373333333333 62.0 1662.22 0.0 0.0 1.0
-16.437533333333334 52.4176 1335.7266666666667 0.8302082663249106 -1.890436332903573e-15 0.5574533473984942
-12.305963333333333 62.64716666666667 1334.7266666666667 -0.6827355091169532 -4.7652071808662865e-15 0.7306656038098512
-6.05095 68.34096666666666 1413.5900000000001 0.7301067100514498 -0.6830052228394289 -0.021167369036100933
13.672066666666666 91.56073333333335 1893.6833333333334 -0.7989214591631083 -0.5992148510547853 0.0516339458503931
1.1080356666666666 88.71656666666667 1657.62 0.0 0.0 1.0
1.2557733333333332 89.15976666666666 1657.62 0.0 0.0 1.0
0.6903136666666665 95.9233 1717.8966666666665 -0.2738631697912971 -0.9585106704633916 0.07909651597689384
1.5512466666666667 114.71833333333332 1657.62 0.0 0.0 1.0
16.3167 142.88833333333332 1990.2666666666667 0.9687975110945105 0.2422220875136878 0.05253420616696486
-9.154983333333334 103.238 1511.1333333333332 -0.8661674083174473 0.499695201724876 0.007663298361155014
9.54129 -130.88699999999997 1829.97 0.0 0.0 1.0
9.378183333333334 -130.39766666666665 1829.97 0.0 0.0 1.0
9.54129 -110.33666666666666 1829.97 0.0 0.0 1.0
9.70439 -92.0693 1829.97 0.0 0.0 1.0
8.56269 -69.5617 1829.97 0.0 0.0 1.0
9.051986666666666 -51.947 1829.97 0.0 0.0 1.0
