ply
format ascii 1.0
comment VCGLIB generated
element vertex 818
property float x
property float y
property float z
property float nx
property float ny
property float nz
element face 0
property list uchar int vertex_indices
end_header
21.6106 -49.0112 1829.97 0.0 0.0 1.0
29.15556666666667 -52.17776666666666 1994.67 0.0 0.0 1.0
21.4475 -41.3456 1829.97 0.0 0.0 1.0
20.6504 -12.7642 1824.39 0.0 0.0 1.0
20.0 5.772359999999999 1824.39 0.0 0.0 1.0
21.3008 11.626 1824.39 0.0 0.0 1.0
20.813 13.252 1824.39 0.0 0.0 1.0
21.463399999999996 16.1789 1824.39 0.0 0.0 1.0
21.9512 19.7561 1824.39 0.0 0.0 1.0
18.2287 39.0886 1786.3033333333333 0.44427806206357934 -0.8885561241271585 0.11438976285119277
18.302866666666667 42.12066666666667 1793.4133333333332 -0.34186834122403154 -0.6836653260837857 0.6447695395871924
16.3441 46.68620000000001 1754.84 0.0 0.0 1.0
17.331766666666667 63.88303333333332 1826.25 -0.09021935133358522 0.8118077397513787 0.5769130457224078
32.0 79.91113333333334 1994.67 0.0 0.0 1.0
30.044466666666665 87.37776666666667 1994.67 0.0 0.0 1.0
30.2222 95.02223333333335 1994.67 0.0 0.0 1.0
14.945733333333335 89.75846666666666 1737.8500000000001 1.2779949931649277e-16 -0.9898226204326758 0.1423066410249043
14.662866666666666 87.59733333333334 1704.84 0.0 0.0 1.0
13.5222 94.50423333333333 1695.18 0.0 0.0 1.0
16.80253 103.90833333333332 1875.86 0.0 0.0 1.0
30.22223333333333 117.60000000000001 1994.67 0.0 0.0 1.0
30.22223333333333 117.60000000000001 1994.67 0.0 0.0 1.0
30.2222 125.24466666666666 1994.67 0.0 0.0 1.0
13.756 112.89166666666667 1724.5 0.0 0.0 1.0
14.161966666666666 118.79466666666667 1690.4000000000003 -4.393200366699245e-28 -3.0203252521057295e-27 1.0
30.044433333333334 -135.37766666666667 1994.67 0.0 0.0 1.0
29.15556666666667 -133.77800000000002 1994.67 0.0 0.0 1.0
29.866666666666664 -129.86666666666667 1994.67 0.0 0.0 1.0
29.333333333333332 -112.97766666666666 1994.67 0.0 0.0 1.0
30.04446666666667 -106.75533333333334 1994.67 0.0 0.0 1.0
30.04446666666667 -78.84443333333333 1994.67 0.0 0.0 1.0
29.511133333333333 -73.86666666666667 1994.67 0.0 0.0 1.0
30.22223333333333 -61.6 1994.67 0.0 0.0 1.0
30.22223333333333 -60.711099999999995 1994.67 0.0 0.0 1.0
21.2844 -49.826699999999995 1829.97 0.0 0.0 1.0
29.15556666666667 -52.17776666666666 1994.67 0.0 0.0 1.0
20.4689 -47.3802 1829.97 0.0 0.0 1.0
21.6106 -38.736 1829.97 0.0 0.0 1.0
19.393933333333333 -32.8889 1813.33 0.0 0.0 1.0
22.6016 -31.463399999999996 1824.39 0.0 0.0 1.0
20.0 -4.146343333333333 1824.39 0.0 0.0 1.0
20.0 -4.146343333333333 1824.39 0.0 0.0 1.0
20.9756 10.813 1824.39 0.0 0.0 1.0
13.468666666666666 33.804066666666664 1727.83 0.9100267533384861 1.2207342840544754e-14 0.41454952443370924
13.468666666666666 33.804066666666664 1727.83 0.9100267533384857 6.956209892554275e-15 0.41454952443371007
18.203599999999998 40.0 1791.62 0.0 0.0 1.0
13.3958 57.38773333333333 1737.8500000000001 0.7008194271809363 0.700869654331165 0.1327925379059303
29.5111 75.2889 1994.67 0.0 0.0 1.0
14.5798 72.89896666666665 1695.18 0.0 0.0 1.0
17.042533333333335 76.33800000000001 1820.6899999999998 0.24455800806803876 0.3950558389163997 0.8855067841794623
10.996133333333333 83.5345 1763.46 0.5445548448215382 -0.2475266458380592 0.8013679433203892
14.358966666666667 89.87653333333333 1704.84 0.0 0.0 1.0
13.5222 94.50423333333333 1695.18 0.0 0.0 1.0
13.5222 94.50423333333333 1695.18 0.0 0.0 1.0
29.866666666666664 119.2 1994.67 0.0 0.0 1.0
13.872833333333332 109.36433333333333 1729.4800000000002 1.397455103054212e-28 -3.490917406649017e-28 1.0
19.8788 126.46466666666667 1813.33 0.0 0.0 1.0
19.8788 126.46466666666667 1813.33 0.0 0.0 1.0
19.8788 126.46466666666667 1813.33 0.0 0.0 1.0
29.155533333333334 -143.37766666666667 1994.67 0.0 0.0 1.0
29.688866666666666 -142.48866666666666 1994.67 0.0 0.0 1.0
29.333333333333332 -135.55566666666667 1994.67 0.0 0.0 1.0
29.866666666666664 -129.86666666666667 1994.67 0.0 0.0 1.0
28.8 -122.57799999999999 1994.67 0.0 0.0 1.0
29.333333333333332 -112.97766666666666 1994.67 0.0 0.0 1.0
29.5111 -95.7333 1994.67 0.0 0.0 1.0
28.799966666666666 -93.42219999999999 1994.67 0.0 0.0 1.0
18.8618 -82.6829 1824.39 0.0 0.0 1.0
28.622200000000003 -84.88889999999999 1994.67 0.0 0.0 1.0
29.333299999999998 -84.17776666666667 1994.67 0.0 0.0 1.0
29.866633333333336 -83.28886666666666 1994.67 0.0 0.0 1.0
21.4475 -41.3456 1829.97 0.0 0.0 1.0
19.393933333333333 -32.8889 1813.33 0.0 0.0 1.0
29.155533333333334 -30.666666666666668 1994.67 0.0 0.0 1.0
20.3058 -25.361900000000002 1829.97 0.0 0.0 1.0
28.8 0.6222223333333333 1994.67 0.0 0.0 1.0
19.8374 13.9024 1824.39 0.0 0.0 1.0
29.68886666666667 26.399999999999995 1994.67 0.0 0.0 1.0
20.3685 33.92086666666667 1843.1233333333332 0.9596753926432118 -5.507755515802316e-15 0.28111054899291377
20.3685 33.92086666666667 1843.1233333333332 0.9596753926432116 -1.218267569860905e-15 0.2811105489929149
-19.67184333333333 18.80182 1308.4033333333334 0.7051985158433953 -0.7009725400212802 0.10645445687422982
18.203599999999998 40.0 1791.62 0.0 0.0 1.0
16.636799999999997 55.4826 1786.2699999999998 -1.419964544037193e-27 -2.361579675488045e-28 1.0
29.68886666666667 84.53333333333333 1994.67 0.0 0.0 1.0
30.2222 95.02223333333335 1994.67 0.0 0.0 1.0
15.193800000000001 88.60466666666666 1739.53 0.0 0.0 1.0
21.035233333333334 100.1241 1858.39 0.0 0.0 1.0
29.5111 121.33333333333333 1994.67 0.0 0.0 1.0
29.688866666666666 123.28899999999999 1994.67 0.0 0.0 1.0
13.408666666666667 119.39733333333334 1690.4000000000003 -4.392876312685016e-28 -1.5376039292284268e-27 1.0
30.933333333333334 145.51133333333334 1994.67 0.0 0.0 1.0
29.155533333333334 -143.37766666666667 1994.67 0.0 0.0 1.0
27.73333333333333 -140.53366666666668 1994.67 0.0 0.0 1.0
28.8 -135.73333333333332 1994.67 0.0 0.0 1.0
28.444433333333336 -126.48899999999999 1994.67 0.0 0.0 1.0
28.444433333333333 -125.95566666666666 1994.67 0.0 0.0 1.0
28.8 -122.57799999999999 1994.67 0.0 0.0 1.0
28.088866666666664 -118.13333333333333 1994.67 0.0 0.0 1.0
28.977766666666668 -112.26666666666665 1994.67 0.0 0.0 1.0
28.444433333333336 -112.089 1994.67 0.0 0.0 1.0
28.44446666666667 -106.04433333333334 1994.67 0.0 0.0 1.0
29.5111 -95.7333 1994.67 0.0 0.0 1.0
18.8618 -82.6829 1824.39 0.0 0.0 1.0
28.8 -79.55556666666666 1994.67 0.0 0.0 1.0
30.044433333333334 -65.33333333333333 1994.67 0.0 0.0 1.0
19.8165 -51.6208 1829.97 0.0 0.0 1.0
19.393933333333333 -32.8889 1813.33 0.0 0.0 1.0
27.377766666666663 -22.133300000000002 1994.67 0.0 0.0 1.0
19.3496 -13.252 1824.39 0.0 0.0 1.0
28.266666666666666 -0.4444443333333334 1994.67 0.0 0.0 1.0
19.5122 3.4959366666666667 1824.39 0.0 0.0 1.0
19.5122 3.4959366666666667 1824.39 0.0 0.0 1.0
19.5122 4.634146666666666 1824.39 0.0 0.0 1.0
20.0 5.77236 1824.39 0.0 0.0 1.0
20.6504 16.666700000000002 1824.39 0.0 0.0 1.0
28.444433333333336 26.755533333333332 1994.67 0.0 0.0 1.0
19.6748 26.0976 1824.39 0.0 0.0 1.0
27.9111 30.3111 1994.67 0.0 0.0 1.0
12.7806 34.1521 1737.8500000000001 -2.4931106009068657e-16 0.9686040845214178 0.24860838169383212
18.6992 41.8699 1824.39 0.0 0.0 1.0
28.622233333333337 43.28889999999999 1994.67 0.0 0.0 1.0
18.2036 40.0 1791.62 0.0 0.0 1.0
19.298299999999998 74.09306666666667 1866.14 -0.7056243486493623 -0.7055441304421826 0.06558779300866678
28.622200000000003 83.8222 1994.67 0.0 0.0 1.0
16.3537 86.06403333333333 1817.0033333333333 0.20349270010375659 0.3287194722754172 0.9222441268728437
13.872833333333332 109.36433333333333 1729.4800000000002 1.3974551030542122e-28 -3.4909174066490183e-28 1.0
14.043433333333333 115.69333333333334 1741.2233333333334 -7.878026292150837e-16 -0.9978068323568552 0.066193091044147
12.106326666666668 126.544 1835.58 0.0 0.0 1.0
28.8 -135.73333333333332 1994.67 0.0 0.0 1.0
28.622233333333337 -130.75566666666666 1994.67 0.0 0.0 1.0
28.622233333333337 -130.75566666666666 1994.67 0.0 0.0 1.0
28.8 -122.57800000000002 1994.67 0.0 0.0 1.0
27.022233333333332 -99.46666666666665 1994.67 0.0 0.0 1.0
28.622233333333337 -72.8 1994.67 0.0 0.0 1.0
29.15556666666667 -69.77776666666666 1994.67 0.0 0.0 1.0
28.62223333333333 -53.4222 1994.67 0.0 0.0 1.0
18.424233333333333 -34.18183333333334 1813.33 0.0 0.0 1.0
18.5366 -9.024393333333334 1824.39 0.0 0.0 1.0
18.5366 -9.024393333333334 1824.39 0.0 0.0 1.0
19.187 -4.146343333333333 1824.39 0.0 0.0 1.0
28.266666666666666 -0.4444443333333334 1994.67 0.0 0.0 1.0
19.3496 19.2683 1824.39 0.0 0.0 1.0
17.724566666666664 40.31936666666667 1791.62 0.0 0.0 1.0
17.348066666666664 45.22116666666667 1802.42 0.11042662610284311 0.9938199735464206 -0.011305769665732771
24.649833333333333 59.242066666666666 1940.7633333333333 -0.7071060718306923 -0.7071060718306962 0.0014164604936504406
28.0889 85.42219999999999 1994.67 0.0 0.0 1.0
12.884500000000001 79.8472 1731.1500000000003 -0.9280980753252753 0.30934372524357473 0.2072207089794533
12.751766666666667 83.81439999999999 1714.6499999999999 0.9304491585591995 0.2652761840302918 0.2527704680590761
21.035233333333334 100.1241 1858.39 0.0 0.0 1.0
20.207066666666666 102.94 1858.39 0.0 0.0 1.0
10.5773 97.9516 1671.51 0.0 0.0 1.0
10.577300000000001 97.9516 1671.51 0.0 0.0 1.0
13.756 112.89166666666667 1724.5 0.0 0.0 1.0
14.043433333333333 115.69333333333334 1741.2233333333334 -7.878026292150837e-16 -0.9978068323568552 0.066193091044147
16.386300000000002 123.64066666666668 1793.4233333333334 -0.8938285237401726 0.44686775674398377 0.03714536486647357
27.2 -141.60033333333334 1994.67 0.0 0.0 1.0
26.84443333333333 -134.13333333333333 1994.67 0.0 0.0 1.0
27.377766666666663 -128.9776666666667 1994.67 0.0 0.0 1.0
27.377766666666663 -128.9776666666667 1994.67 0.0 0.0 1.0
28.088866666666664 -126.48899999999999 1994.67 0.0 0.0 1.0
28.444433333333333 -125.95566666666666 1994.67 0.0 0.0 1.0
27.377766666666663 -118.48899999999999 1994.67 0.0 0.0 1.0
28.088866666666664 -118.13333333333333 1994.67 0.0 0.0 1.0
27.199966666666665 -113.86666666666667 1994.67 0.0 0.0 1.0
27.73333333333333 -112.26666666666667 1994.67 0.0 0.0 1.0
27.555533333333333 -109.778 1994.67 0.0 0.0 1.0
28.622200000000003 -93.42219999999999 1994.67 0.0 0.0 1.0
27.2 -84.35556666666666 1994.67 0.0 0.0 1.0
27.733333333333334 -80.26666666666667 1994.67 0.0 0.0 1.0
28.0889 -71.0222 1994.67 0.0 0.0 1.0
19.001 -51.45770000000001 1829.97 0.0 0.0 1.0
19.3272 -47.7064 1829.97 0.0 0.0 1.0
20.1427 -41.6718 1829.97 0.0 0.0 1.0
17.93936666666667 -34.18183333333334 1813.33 0.0 0.0 1.0
27.199966666666665 -26.04443333333333 1994.67 0.0 0.0 1.0
27.199966666666665 -26.04443333333333 1994.67 0.0 0.0 1.0
26.488866666666667 -19.644433333333332 1994.67 0.0 0.0 1.0
28.266666666666666 -0.4444443333333334 1994.67 0.0 0.0 1.0
18.8618 14.065 1824.39 0.0 0.0 1.0
27.9111 30.3111 1994.67 0.0 0.0 1.0
30.577766666666665 47.555566666666664 1994.67 0.0 0.0 1.0
17.6687 50.961099999999995 1835.58 0.0 0.0 1.0
16.636799999999997 55.4826 1786.2699999999998 -1.419964544037193e-27 -2.361579675488045e-28 1.0
24.649833333333333 59.242066666666666 1940.7633333333333 -0.7071060718306914 -0.707106071830697 0.0014164604936499042
27.733333333333334 76.0 1994.67 0.0 0.0 1.0
17.789233333333332 70.57029999999999 1856.47 -0.5546792556443874 0.8320607460519073 -0.0024162444686137738
27.9111 83.8222 1994.67 0.0 0.0 1.0
5.583453333333334 73.43673333333334 1673.07 0.30335925588489443 0.10111221021401959 0.9474964289191802
20.3727 100.95233333333333 1858.39 0.0 0.0 1.0
10.577300000000001 97.9516 1671.51 0.0 0.0 1.0
10.130333333333333 101.08016666666667 1671.51 0.0 0.0 1.0
12.128493333333333 114.41166666666668 1766.9300000000003 -0.7825817283500188 0.5947806848557807 0.1838525914290721
26.84443333333333 -146.75566666666668 1994.67 0.0 0.0 1.0
26.84443333333333 -146.75566666666668 1994.67 0.0 0.0 1.0
26.84443333333333 -142.31133333333332 1994.67 0.0 0.0 1.0
27.022199999999998 -116.88866666666667 1994.67 0.0 0.0 1.0
27.2 -84.35556666666666 1994.67 0.0 0.0 1.0
26.666666666666668 -61.77776666666667 1994.67 0.0 0.0 1.0
26.84443333333333 -61.4222 1994.67 0.0 0.0 1.0
17.5331 -49.9898 1829.97 0.0 0.0 1.0
29.15556666666667 -52.17776666666666 1994.67 0.0 0.0 1.0
18.101 -33.69696666666667 1813.33 0.0 0.0 1.0
27.377766666666663 -22.133300000000002 1994.67 0.0 0.0 1.0
18.0488 -4.308943333333334 1824.39 0.0 0.0 1.0
17.561 -3.00813 1824.39 0.0 0.0 1.0
18.0488 13.7398 1824.39 0.0 0.0 1.0
17.8862 18.7805 1824.39 0.0 0.0 1.0
27.2 26.577766666666662 1994.67 0.0 0.0 1.0
18.2114 24.959366666666668 1824.39 0.0 0.0 1.0
27.9111 30.3111 1994.67 0.0 0.0 1.0
18.10703333333333 33.333333333333336 1846.91 0.0 0.0 1.0
16.3441 46.68620000000001 1754.84 0.0 0.0 1.0
11.895046666666666 46.41400000000001 1744.61 0.0 0.0 1.0
15.510433333333333 46.6963 1822.54 3.93932937544376e-16 0.6677713149990728 0.7443664896167808
17.446633333333335 65.7709 1846.9233333333334 0.7077651758733213 -0.48628526956470985 0.512440330599948
25.95556666666667 79.73333333333333 1994.67 0.0 0.0 1.0
27.2 84.35553333333333 1994.67 0.0 0.0 1.0
5.583453333333334 73.43673333333334 1673.07 0.30335925588489504 0.1011122102140178 0.9474964289191802
9.32833 85.7632 1701.6133333333335 -0.16322569622494545 -0.9793380181673437 0.11939186850008435
13.1783 89.84496666666666 1739.53 0.0 0.0 1.0
20.3727 101.78066666666666 1858.39 0.0 0.0 1.0
19.71016666666667 103.60233333333333 1858.39 0.0 0.0 1.0
10.130333333333333 101.08016666666667 1671.51 0.0 0.0 1.0
13.191933333333333 109.93366666666667 1731.1500000000003 0.35441302280886544 -0.8859176122580124 0.2992346797323878
16.386300000000002 123.64066666666668 1793.4233333333334 -0.8938285237401726 0.44686775674398377 0.03714536486647357
27.2 -141.60033333333334 1994.67 0.0 0.0 1.0
26.84443333333333 -134.13333333333333 1994.67 0.0 0.0 1.0
27.022233333333332 -129.511 1994.67 0.0 0.0 1.0
27.377766666666663 -128.97766666666666 1994.67 0.0 0.0 1.0
27.377766666666663 -118.48899999999999 1994.67 0.0 0.0 1.0
26.133333333333336 -111.55533333333334 1994.67 0.0 0.0 1.0
26.4889 -104.44433333333332 1994.67 0.0 0.0 1.0
26.4889 -104.44433333333335 1994.67 0.0 0.0 1.0
26.844466666666666 -100.35566666666666 1994.67 0.0 0.0 1.0
27.2 -84.35556666666666 1994.67 0.0 0.0 1.0
26.133333333333336 -80.97776666666665 1994.67 0.0 0.0 1.0
26.13333333333333 -63.19996666666666 1994.67 0.0 0.0 1.0
17.5331 -49.9898 1829.97 0.0 0.0 1.0
17.370033333333335 -25.688100000000002 1829.97 0.0 0.0 1.0
18.0488 -13.902433333333335 1824.39 0.0 0.0 1.0
18.5366 -9.024393333333334 1824.39 0.0 0.0 1.0
17.561 -3.00813 1824.39 0.0 0.0 1.0
17.3984 12.9268 1824.39 0.0 0.0 1.0
25.777766666666665 17.333333333333332 1994.67 0.0 0.0 1.0
26.84443333333333 33.511100000000006 1994.67 0.0 0.0 1.0
12.7806 34.1521 1737.8500000000001 -1.5865249278498236e-16 0.9686040845214178 0.24860838169383206
11.895046666666666 46.41400000000001 1744.61 0.0 0.0 1.0
24.711133333333333 58.4 1994.67 0.0 0.0 1.0
24.649833333333333 59.242066666666666 1940.7633333333333 -0.7071060718306925 -0.7071060718306958 0.0014164604936506388
11.938000000000002 58.52713333333333 1739.53 0.0 0.0 1.0
12.975133333333332 62.48760000000001 1786.2699999999998 -8.676587939612654e-26 7.2601756525925975e-25 1.0
26.4889 85.06666666666666 1994.67 0.0 0.0 1.0
11.406526666666666 80.5395 1729.4800000000002 -2.2353218455961474e-27 -1.385880904785452e-27 1.0
27.377766666666663 96.08890000000001 1994.67 0.0 0.0 1.0
11.662439999999998 110.226 1700.006666666667 0.2524286545827355 -0.9676125085977059 -0.002409886056383286
13.756 112.89166666666667 1724.5 0.0 0.0 1.0
12.128493333333333 114.41166666666668 1766.9300000000003 -0.7825817283500192 0.5947806848557807 0.18385259142907195
25.244433333333333 138.4 1994.67 0.0 0.0 1.0
26.84443333333333 -146.75566666666668 1994.67 0.0 0.0 1.0
25.777766666666665 -134.311 1994.67 0.0 0.0 1.0
26.133333333333336 -116.35533333333335 1994.67 0.0 0.0 1.0
26.666633333333333 -114.93333333333334 1994.67 0.0 0.0 1.0
26.133333333333336 -111.55533333333334 1994.67 0.0 0.0 1.0
26.3111 -108.71133333333334 1994.67 0.0 0.0 1.0
26.4889 -104.44433333333332 1994.67 0.0 0.0 1.0
27.022233333333332 -99.46666666666665 1994.67 0.0 0.0 1.0
17.561 -83.33330000000001 1824.39 0.0 0.0 1.0
26.133333333333336 -80.97776666666665 1994.67 0.0 0.0 1.0
26.3111 -61.244433333333326 1994.67 0.0 0.0 1.0
16.3914 -38.736 1829.97 0.0 0.0 1.0
25.066666666666663 -35.2889 1994.67 0.0 0.0 1.0
26.488866666666667 -26.22223333333333 1994.67 0.0 0.0 1.0
25.95553333333333 -22.3111 1994.67 0.0 0.0 1.0
16.9106 -14.552833333333334 1824.39 0.0 0.0 1.0
17.0732 -5.447156666666667 1824.39 0.0 0.0 1.0
17.561 -3.9837399999999996 1824.39 0.0 0.0 1.0
25.777766666666665 18.2222 1994.67 0.0 0.0 1.0
17.2358 23.983733333333333 1824.39 0.0 0.0 1.0
26.84443333333333 33.511100000000006 1994.67 0.0 0.0 1.0
17.018533333333334 40.36666666666667 1845.0166666666667 3.394233594009416e-16 0.7635422904997141 0.6457578266025509
12.092333333333334 44.6864 1708.1433333333334 0.6172380026370713 0.7857199917361165 0.04075957171997969
11.406526666666666 80.5395 1729.4800000000002 -2.2353218455961385e-27 -1.3858809047854471e-27 1.0
27.377766666666663 96.08890000000001 1994.67 0.0 0.0 1.0
11.168103333333335 85.77396666666668 1704.84 0.0 0.0 1.0
12.3314 109.056 1729.4800000000002 -2.675095422589241e-26 7.066849986136162e-26 1.0
14.043433333333333 115.69333333333334 1741.2233333333334 1.8757205457501993e-17 -0.9978068323568552 0.06619309104414732
18.84523333333333 124.64833333333333 1815.1666666666667 0.8714859743005924 -7.957910925442412e-15 0.49042042840541145
16.386300000000002 123.64066666666668 1793.4233333333334 -0.8938285237401733 0.44686775674398244 0.03714536486647408
25.77776666666667 -143.02233333333334 1994.67 0.0 0.0 1.0
25.066666666666666 -131.822 1994.67 0.0 0.0 1.0
26.133333333333336 -111.55533333333334 1994.67 0.0 0.0 1.0
25.066666666666666 -100.71133333333334 1994.67 0.0 0.0 1.0
25.777800000000003 -83.11110000000001 1994.67 0.0 0.0 1.0
26.133333333333336 -80.97776666666665 1994.67 0.0 0.0 1.0
25.600000000000005 -61.4222 1994.67 0.0 0.0 1.0
25.066666666666663 -36.0 1994.67 0.0 0.0 1.0
24.711100000000002 -29.244466666666668 1994.67 0.0 0.0 1.0
25.4222 -26.5778 1994.67 0.0 0.0 1.0
16.5854 -16.178866666666668 1824.39 0.0 0.0 1.0
15.7724 -10.9756 1824.39 0.0 0.0 1.0
15.447166666666666 8.048783333333335 1824.39 0.0 0.0 1.0
16.748 12.439 1824.39 0.0 0.0 1.0
17.0732 17.9675 1824.39 0.0 0.0 1.0
17.0732 17.9675 1824.39 0.0 0.0 1.0
17.2358 23.983733333333333 1824.39 0.0 0.0 1.0
25.77776666666667 26.400000000000002 1994.67 0.0 0.0 1.0
18.107033333333334 33.333333333333336 1846.91 0.0 0.0 1.0
24.533333333333335 41.155566666666665 1994.67 0.0 0.0 1.0
16.131666666666664 37.44853333333333 1846.91 0.0 0.0 1.0
17.6687 50.961099999999995 1835.58 0.0 0.0 1.0
16.3282 57.682066666666664 1841.2300000000002 6.666082962582868e-27 -2.820221802130862e-27 1.0
17.331766666666667 63.88303333333332 1826.25 -0.09021935133358508 0.8118077397513787 0.5769130457224079
25.955533333333335 76.17776666666667 1994.67 0.0 0.0 1.0
24.888900000000003 80.26666666666667 1994.67 0.0 0.0 1.0
26.4889 85.06666666666666 1994.67 0.0 0.0 1.0
14.194863333333332 80.6564 1841.2300000000002 -2.3065940059682318e-28 -5.6338884582695406e-27 1.0
18.71636666666667 103.76799999999999 1858.39 0.0 0.0 1.0
25.422233333333338 119.911 1994.67 0.0 0.0 1.0
25.066666666666666 120.44433333333332 1994.67 0.0 0.0 1.0
24.888900000000003 146.22233333333332 1994.67 0.0 0.0 1.0
24.888899999999996 -144.62233333333333 1994.67 0.0 0.0 1.0
25.600033333333332 -140.53333333333333 1994.67 0.0 0.0 1.0
25.600033333333332 -140.53333333333333 1994.67 0.0 0.0 1.0
25.244466666666668 -131.111 1994.67 0.0 0.0 1.0
25.600033333333332 -130.57766666666666 1994.67 0.0 0.0 1.0
24.711133333333333 -117.95533333333333 1994.67 0.0 0.0 1.0
25.244433333333333 -116.17766666666667 1994.67 0.0 0.0 1.0
24.888900000000003 -108.178 1994.67 0.0 0.0 1.0
24.888899999999996 -95.55556666666666 1994.67 0.0 0.0 1.0
17.561 -83.33330000000001 1824.39 0.0 0.0 1.0
25.422233333333338 -81.86666666666667 1994.67 0.0 0.0 1.0
25.066666666666666 -62.48886666666667 1994.67 0.0 0.0 1.0
15.902099999999999 -50.479099999999995 1829.97 0.0 0.0 1.0
16.3914 -38.736 1829.97 0.0 0.0 1.0
15.934966666666668 -14.878033333333335 1824.39 0.0 0.0 1.0
15.934966666666668 -5.772359999999999 1824.39 0.0 0.0 1.0
16.748 12.439 1824.39 0.0 0.0 1.0
18.107033333333334 33.333333333333336 1846.91 0.0 0.0 1.0
7.798603333333332 44.515899999999995 1719.5766666666666 0.2676446512210677 -0.9634789957941298 -0.008635122250923907
16.1963 52.2699 1835.58 0.0 0.0 1.0
16.3282 57.682066666666664 1841.2300000000002 6.666082962582868e-27 -2.820221802130862e-27 1.0
11.938 58.52713333333333 1739.53 0.0 0.0 1.0
13.477533333333334 62.77166666666667 1789.8366666666668 0.12362052965738268 0.9890674694341411 0.08039592996148652
24.888900000000003 80.26666666666667 1994.67 0.0 0.0 1.0
25.422233333333338 82.93333333333332 1994.67 0.0 0.0 1.0
18.71636666666667 103.76799999999999 1858.39 0.0 0.0 1.0
16.80253 103.90833333333332 1875.86 0.0 0.0 1.0
24.888900000000003 119.55566666666668 1994.67 0.0 0.0 1.0
25.066666666666666 144.44433333333333 1994.67 0.0 0.0 1.0
24.88886666666666 -146.22233333333335 1994.67 0.0 0.0 1.0
24.355533333333337 -143.2 1994.67 0.0 0.0 1.0
24.7111 -133.7776666666667 1994.67 0.0 0.0 1.0
24.53333333333333 -132.35533333333333 1994.67 0.0 0.0 1.0
23.644433333333335 -122.04466666666667 1994.67 0.0 0.0 1.0
25.244433333333333 -116.17766666666667 1994.67 0.0 0.0 1.0
25.066633333333332 -114.75566666666667 1994.67 0.0 0.0 1.0
24.7111 -79.91109999999999 1994.67 0.0 0.0 1.0
24.5333 -77.24446666666667 1994.67 0.0 0.0 1.0
24.5333 -75.64446666666667 1994.67 0.0 0.0 1.0
24.177766666666667 -74.04446666666666 1994.67 0.0 0.0 1.0
22.933333333333337 -68.5333 1994.67 0.0 0.0 1.0
25.422233333333335 -63.19996666666666 1994.67 0.0 0.0 1.0
15.902099999999999 -50.479099999999995 1829.97 0.0 0.0 1.0
15.902133333333333 -45.7492 1829.97 0.0 0.0 1.0
15.121966666666665 -24.146333333333335 1824.39 0.0 0.0 1.0
25.422200000000004 -26.577799999999996 1994.67 0.0 0.0 1.0
25.955533333333335 -22.3111 1994.67 0.0 0.0 1.0
23.111100000000004 -18.04446666666667 1994.67 0.0 0.0 1.0
15.121966666666665 -11.4634 1824.39 0.0 0.0 1.0
16.2602 9.674793333333334 1824.39 0.0 0.0 1.0
25.244433333333333 17.5111 1994.67 0.0 0.0 1.0
24.533299999999997 18.755533333333332 1994.67 0.0 0.0 1.0
16.2602 20.569100000000002 1824.39 0.0 0.0 1.0
24.177766666666667 26.044466666666665 1994.67 0.0 0.0 1.0
23.111100000000004 31.022233333333332 1994.67 0.0 0.0 1.0
24.0 40.266666666666666 1994.67 0.0 0.0 1.0
17.348066666666664 45.22116666666667 1802.42 0.11042662610284322 0.9938199735464205 -0.011305769665732582
11.938 58.52713333333333 1739.53 0.0 0.0 1.0
17.789233333333332 70.57029999999999 1856.47 -0.5546792556443872 0.832060746051907 -0.0024162444686136723
24.711100000000002 76.88886666666667 1994.67 0.0 0.0 1.0
23.644433333333335 87.55556666666666 1994.67 0.0 0.0 1.0
9.14504 83.68876666666667 1724.5 0.0 0.0 1.0
10.6977 86.58916666666666 1739.53 0.0 0.0 1.0
8.940256666666667 87.16763333333331 1729.4800000000002 4.695018883365461e-28 7.556777192922935e-28 1.0
10.212909999999999 97.27446666666667 1788.0633333333333 1.003490768363889e-13 0.6552112659793077 0.7554456942320825
23.46666666666667 112.44466666666666 1994.67 0.0 0.0 1.0
11.011166666666666 108.02833333333332 1727.82 0.30269947880560155 -0.9069870128445002 0.29282688411795044
12.3314 109.056 1729.4800000000002 -2.6750954225898417e-26 7.066849986137752e-26 1.0
23.999966666666666 137.689 1994.67 0.0 0.0 1.0
25.244433333333333 139.82233333333332 1994.67 0.0 0.0 1.0
18.26263333333333 127.11133333333333 1813.33 0.0 0.0 1.0
24.5333 140.889 1994.67 0.0 0.0 1.0
24.711100000000002 142.489 1994.67 0.0 0.0 1.0
24.53333333333333 -145.689 1994.67 0.0 0.0 1.0
25.244466666666664 -118.66666666666667 1994.67 0.0 0.0 1.0
24.0 -109.06666666666666 1994.67 0.0 0.0 1.0
22.933333333333334 -86.4889 1994.67 0.0 0.0 1.0
16.0976 -82.5203 1824.39 0.0 0.0 1.0
24.7111 -79.91109999999999 1994.67 0.0 0.0 1.0
15.902099999999999 -50.479099999999995 1829.97 0.0 0.0 1.0
23.11113333333334 -48.622233333333334 1994.67 0.0 0.0 1.0
14.760466666666668 -40.367 1829.97 0.0 0.0 1.0
24.0 -30.844466666666666 1994.67 0.0 0.0 1.0
15.121966666666665 -24.14633333333333 1824.39 0.0 0.0 1.0
15.7724 -10.9756 1824.39 0.0 0.0 1.0
14.308933333333334 4.471543333333333 1824.39 0.0 0.0 1.0
9.816429999999999 35.0145 1734.49 0.0 0.0 1.0
22.5778 44.0 1994.67 0.0 0.0 1.0
16.747966666666667 43.9837 1824.39 0.0 0.0 1.0
16.425933333333337 51.23603333333333 1833.71 -0.9367022407367306 -0.23417556018418295 0.2602896832592718
23.64446666666667 60.35556666666667 1994.67 0.0 0.0 1.0
25.162966666666666 63.25846666666666 1947.08 6.928624215167101e-18 -0.700646641463123 0.7135084328909126
22.933333333333337 71.73333333333333 1994.67 0.0 0.0 1.0
24.53333333333333 78.1333 1994.67 0.0 0.0 1.0
24.888899999999996 80.26666666666667 1994.67 0.0 0.0 1.0
14.194863333333332 80.6564 1841.2300000000002 -2.306594005968233e-28 -5.6338884582695406e-27 1.0
23.644433333333335 87.91113333333334 1994.67 0.0 0.0 1.0
11.00777 89.68993333333333 1739.53 0.0 0.0 1.0
10.212909999999999 97.27446666666667 1788.0633333333333 3.5637989904511955e-14 0.6552112659792767 0.7554456942321094
23.2889 109.59999999999998 1994.67 0.0 0.0 1.0
7.147603333333333 100.27276666666667 1742.9166666666667 -0.0786574152078494 -0.9448460373101452 0.3179292009428132
23.46666666666667 120.8 1994.67 0.0 0.0 1.0
24.888900000000003 146.22233333333332 1994.67 0.0 0.0 1.0
23.111099999999997 -139.46666666666667 1994.67 0.0 0.0 1.0
23.288899999999998 -135.37766666666667 1994.67 0.0 0.0 1.0
23.288899999999998 -133.0666666666667 1994.67 0.0 0.0 1.0
23.822233333333333 -132.711 1994.67 0.0 0.0 1.0
23.644433333333335 -122.04466666666667 1994.67 0.0 0.0 1.0
22.755566666666663 -107.82233333333333 1994.67 0.0 0.0 1.0
23.288899999999998 -93.42223333333334 1994.67 0.0 0.0 1.0
22.933333333333334 -84.17776666666667 1994.67 0.0 0.0 1.0
22.755566666666667 -71.73336666666667 1994.67 0.0 0.0 1.0
22.933333333333337 -47.73333333333333 1994.67 0.0 0.0 1.0
24.1778 -36.0 1994.67 0.0 0.0 1.0
23.11113333333333 -34.93333333333333 1994.67 0.0 0.0 1.0
15.121966666666665 -24.14633333333333 1824.39 0.0 0.0 1.0
14.634133333333333 -14.2276 1824.39 0.0 0.0 1.0
14.634133333333333 -11.626 1824.39 0.0 0.0 1.0
14.634133333333333 -5.772359999999999 1824.39 0.0 0.0 1.0
21.866666666666664 10.577776666666667 1994.67 0.0 0.0 1.0
23.644433333333335 19.466633333333334 1994.67 0.0 0.0 1.0
10.125606666666666 34.55073333333333 1734.49 0.0 0.0 1.0
9.816429999999999 35.0145 1734.49 0.0 0.0 1.0
22.755566666666667 43.46666666666667 1994.67 0.0 0.0 1.0
21.6889 51.288900000000005 1994.67 0.0 0.0 1.0
9.759833333333333 81.3833 1724.5 0.0 0.0 1.0
9.14504 83.68876666666667 1724.5 0.0 0.0 1.0
10.481679999999999 82.23506666666667 1729.4800000000002 -2.0777070400525325e-26 -1.7235338645554868e-26 1.0
10.6977 86.58916666666666 1739.53 0.0 0.0 1.0
23.2889 109.59999999999998 1994.67 0.0 0.0 1.0
23.466666666666665 112.44466666666666 1994.67 0.0 0.0 1.0
23.46666666666667 120.8 1994.67 0.0 0.0 1.0
11.662439999999998 110.226 1700.006666666667 0.2524286545827353 -0.967612508597706 -0.0024098860563835306
23.8222 -146.75566666666666 1994.67 0.0 0.0 1.0
22.755533333333332 -142.311 1994.67 0.0 0.0 1.0
22.577766666666662 -141.77766666666665 1994.67 0.0 0.0 1.0
23.111099999999997 -139.46666666666667 1994.67 0.0 0.0 1.0
23.111099999999997 -139.46666666666667 1994.67 0.0 0.0 1.0
23.288899999999998 -133.0666666666667 1994.67 0.0 0.0 1.0
22.2222 -125.778 1994.67 0.0 0.0 1.0
22.577766666666665 -123.111 1994.67 0.0 0.0 1.0
23.644433333333335 -122.04466666666667 1994.67 0.0 0.0 1.0
22.399966666666668 -112.089 1994.67 0.0 0.0 1.0
22.399966666666668 -112.089 1994.67 0.0 0.0 1.0
22.933333333333334 -109.59999999999998 1994.67 0.0 0.0 1.0
23.46666666666667 -102.31133333333332 1994.67 0.0 0.0 1.0
22.399999999999995 -84.35553333333333 1994.67 0.0 0.0 1.0
22.755566666666667 -71.73336666666667 1994.67 0.0 0.0 1.0
21.155533333333334 -56.08886666666666 1994.67 0.0 0.0 1.0
14.1081 -40.6932 1829.97 0.0 0.0 1.0
14.760466666666668 -40.367 1829.97 0.0 0.0 1.0
22.22223333333333 -17.511133333333333 1994.67 0.0 0.0 1.0
22.04443333333333 -0.44444466666666665 1994.67 0.0 0.0 1.0
14.308933333333334 4.471543333333333 1824.39 0.0 0.0 1.0
13.821100000000001 6.585366666666666 1824.39 0.0 0.0 1.0
23.644433333333335 19.466633333333334 1994.67 0.0 0.0 1.0
21.86663333333333 23.2 1994.67 0.0 0.0 1.0
23.288866666666664 26.40003333333333 1994.67 0.0 0.0 1.0
23.111099999999997 31.022233333333332 1994.67 0.0 0.0 1.0
16.790133333333333 33.99176666666667 1846.91 0.0 0.0 1.0
16.131666666666664 37.44853333333333 1846.91 0.0 0.0 1.0
15.2147 53.7423 1835.58 0.0 0.0 1.0
15.084266666666666 60.2544 1829.9800000000002 0.551485088617776 0.5501024159790794 0.627097702887057
12.547633333333332 62.4169 1793.4133333333332 0.1220518505431046 0.976516726558236 0.17753430240657933
12.975133333333332 62.48760000000001 1786.2699999999998 -8.676587939612709e-26 7.260175652592643e-25 1.0
22.933333333333337 71.73333333333333 1994.67 0.0 0.0 1.0
17.4181 69.2693 1852.6433333333334 0.08894697271726112 -0.9800036870782723 0.17799216094375145
10.481679999999999 82.23506666666667 1729.4800000000002 -2.0777070400525325e-26 -1.7235338645554868e-26 1.0
7.977226666666667 85.77396666666668 1704.84 0.0 0.0 1.0
22.933333333333334 108.88900000000001 1994.67 0.0 0.0 1.0
23.46666666666667 120.8 1994.67 0.0 0.0 1.0
22.933300000000003 136.62233333333333 1994.67 0.0 0.0 1.0
23.111099999999997 -144.62233333333333 1994.67 0.0 0.0 1.0
22.577766666666665 -141.77766666666665 1994.67 0.0 0.0 1.0
22.577766666666665 -141.77766666666665 1994.67 0.0 0.0 1.0
22.755533333333332 -114.40000000000002 1994.67 0.0 0.0 1.0
22.22223333333333 -108.53333333333335 1994.67 0.0 0.0 1.0
22.755566666666667 -107.82233333333333 1994.67 0.0 0.0 1.0
22.755566666666667 -107.11133333333333 1994.67 0.0 0.0 1.0
22.399999999999995 -84.35553333333333 1994.67 0.0 0.0 1.0
21.866666666666664 -68.5333 1994.67 0.0 0.0 1.0
22.04443333333333 -60.35556666666667 1994.67 0.0 0.0 1.0
22.04443333333333 -60.35556666666667 1994.67 0.0 0.0 1.0
22.755566666666663 -33.51113333333333 1994.67 0.0 0.0 1.0
22.04443333333333 -32.26669999999999 1994.67 0.0 0.0 1.0
15.804700000000002 -25.825100000000003 1828.11 -0.1237851702109966 0.9902560632677376 0.06379781185367481
13.4959 -11.4634 1824.39 0.0 0.0 1.0
12.845500000000001 -6.91057 1824.39 0.0 0.0 1.0
22.04443333333333 -0.44444466666666665 1994.67 0.0 0.0 1.0
13.821100000000001 6.585366666666666 1824.39 0.0 0.0 1.0
13.821100000000001 6.585366666666666 1824.39 0.0 0.0 1.0
23.288866666666664 26.40003333333333 1994.67 0.0 0.0 1.0
9.81643 35.0145 1734.49 0.0 0.0 1.0
16.747966666666667 43.9837 1824.39 0.0 0.0 1.0
9.078133333333334 46.32453333333333 1741.2233333333334 0.9913487475226497 3.774201887589683e-15 0.13125418387721735
9.078133333333334 46.32453333333333 1741.2233333333334 0.9913487475226497 3.6354240095115384e-15 0.13125418387721735
14.493366666666667 54.12413333333333 1837.4633333333331 -0.7014313751827322 -0.7014313751827336 -0.12644386825196557
15.2147 53.7423 1835.58 0.0 0.0 1.0
22.400000000000002 79.91109999999999 1994.67 0.0 0.0 1.0
22.04443333333333 87.55556666666666 1994.67 0.0 0.0 1.0
22.04443333333333 87.55556666666666 1994.67 0.0 0.0 1.0
22.04443333333333 91.82223333333333 1994.67 0.0 0.0 1.0
21.688866666666666 104.26666666666667 1994.67 0.0 0.0 1.0
23.288899999999998 109.59999999999998 1994.67 0.0 0.0 1.0
22.5778 112.44466666666666 1994.67 0.0 0.0 1.0
22.5778 117.24433333333333 1994.67 0.0 0.0 1.0
21.6889 125.95566666666667 1994.67 0.0 0.0 1.0
21.333333333333332 -135.73366666666666 1994.67 0.0 0.0 1.0
22.044433333333334 -109.42233333333331 1994.67 0.0 0.0 1.0
22.22223333333333 -106.22233333333332 1994.67 0.0 0.0 1.0
22.400000000000002 -85.24443333333333 1994.67 0.0 0.0 1.0
22.400000000000002 -84.35553333333333 1994.67 0.0 0.0 1.0
21.333333333333332 -76.0 1994.67 0.0 0.0 1.0
20.977800000000002 -70.6667 1994.67 0.0 0.0 1.0
21.866666666666664 -68.5333 1994.67 0.0 0.0 1.0
21.866666666666664 -48.9778 1994.67 0.0 0.0 1.0
14.1081 -40.6932 1829.97 0.0 0.0 1.0
14.271166666666668 -36.7788 1829.97 0.0 0.0 1.0
9.326103333333334 -33.369499999999995 1770.5366666666669 -0.8893076476399466 0.44465382381998464 0.10684046429780343
22.22223333333333 -17.511133333333333 1994.67 0.0 0.0 1.0
13.3333 -15.365866666666667 1824.39 0.0 0.0 1.0
22.222233333333335 -17.511133333333337 1994.67 0.0 0.0 1.0
13.3333 -13.5772 1824.39 0.0 0.0 1.0
13.3333 -5.609759999999999 1824.39 0.0 0.0 1.0
20.977800000000002 16.622233333333334 1994.67 0.0 0.0 1.0
22.04443333333333 31.73333333333333 1994.67 0.0 0.0 1.0
21.15556666666667 41.333333333333336 1994.67 0.0 0.0 1.0
20.977766666666668 49.155566666666665 1994.67 0.0 0.0 1.0
12.975133333333332 62.48760000000001 1786.2699999999998 -8.676587939612654e-26 7.2601756525925975e-25 1.0
21.86666666666667 72.26666666666667 1994.67 0.0 0.0 1.0
21.333366666666667 75.28886666666666 1994.67 0.0 0.0 1.0
21.333366666666667 75.28886666666666 1994.67 0.0 0.0 1.0
21.6889 81.33333333333333 1994.67 0.0 0.0 1.0
14.765979999999999 77.4327 1862.2433333333336 -0.49117498369180973 -0.7981482626960702 0.3488645670609089
10.23257 88.29459999999999 1739.53 0.0 0.0 1.0
22.5778 112.44466666666666 1994.67 0.0 0.0 1.0
22.044433333333334 122.22200000000002 1994.67 0.0 0.0 1.0
21.6889 125.95566666666667 1994.67 0.0 0.0 1.0
20.622233333333334 143.73333333333335 1994.67 0.0 0.0 1.0
21.688866666666666 -141.24433333333332 1994.67 0.0 0.0 1.0
21.688866666666666 -141.24433333333332 1994.67 0.0 0.0 1.0
21.155533333333334 -139.28866666666667 1994.67 0.0 0.0 1.0
21.333333333333332 -135.73366666666666 1994.67 0.0 0.0 1.0
20.444433333333333 -128.8 1994.67 0.0 0.0 1.0
21.866633333333336 -122.40000000000002 1994.67 0.0 0.0 1.0
20.977766666666668 -122.22200000000002 1994.67 0.0 0.0 1.0
21.688866666666666 -113.86666666666667 1994.67 0.0 0.0 1.0
21.68886666666667 -112.267 1994.67 0.0 0.0 1.0
21.866666666666664 -109.06666666666666 1994.67 0.0 0.0 1.0
20.266666666666666 -97.15553333333332 1994.67 0.0 0.0 1.0
21.5111 -92.71113333333334 1994.67 0.0 0.0 1.0
21.333333333333332 -76.0 1994.67 0.0 0.0 1.0
21.866666666666664 -68.5333 1994.67 0.0 0.0 1.0
20.622233333333334 -65.5111 1994.67 0.0 0.0 1.0
22.04443333333333 -60.35556666666667 1994.67 0.0 0.0 1.0
21.155533333333334 -56.08886666666666 1994.67 0.0 0.0 1.0
13.455666666666668 -44.444433333333336 1829.97 0.0 0.0 1.0
21.5111 -47.37776666666667 1994.67 0.0 0.0 1.0
12.4771 -37.105 1829.97 0.0 0.0 1.0
9.326103333333334 -33.369499999999995 1770.5366666666669 -0.8893076476399466 0.44465382381998464 0.10684046429780343
21.5111 -31.022233333333332 1994.67 0.0 0.0 1.0
12.682899999999998 -16.666700000000002 1824.39 0.0 0.0 1.0
12.682899999999998 -4.79675 1824.39 0.0 0.0 1.0
20.8 11.644433333333334 1994.67 0.0 0.0 1.0
20.444433333333333 13.599966666666667 1994.67 0.0 0.0 1.0
20.977766666666668 22.84443333333333 1994.67 0.0 0.0 1.0
21.866633333333336 23.2 1994.67 0.0 0.0 1.0
21.333333333333332 32.622233333333334 1994.67 0.0 0.0 1.0
20.977766666666668 48.26666666666667 1994.67 0.0 0.0 1.0
8.62975 46.413999999999994 1744.61 0.0 0.0 1.0
22.04443333333333 87.55556666666666 1994.67 0.0 0.0 1.0
21.155533333333334 94.4889 1994.67 0.0 0.0 1.0
7.300673333333333 84.61093333333334 1724.5 0.0 0.0 1.0
4.743006666666667 102.428 1688.8100000000002 -1.6975639131338738e-15 -0.9702142456058908 0.2422484625821022
20.977766666666668 122.57766666666669 1994.67 0.0 0.0 1.0
21.333299999999998 136.62233333333333 1994.67 0.0 0.0 1.0
20.977766666666668 -137.86666666666665 1994.67 0.0 0.0 1.0
21.333333333333332 -135.73366666666666 1994.67 0.0 0.0 1.0
19.9111 -126.31133333333332 1994.67 0.0 0.0 1.0
20.8 -121.51100000000001 1994.67 0.0 0.0 1.0
20.622200000000003 -112.267 1994.67 0.0 0.0 1.0
21.15556666666667 -82.57776666666666 1994.67 0.0 0.0 1.0
20.0889 -81.68886666666667 1994.67 0.0 0.0 1.0
21.333333333333332 -76.0 1994.67 0.0 0.0 1.0
20.9778 -70.6667 1994.67 0.0 0.0 1.0
20.266666666666666 -34.4 1994.67 0.0 0.0 1.0
20.444433333333336 -30.4889 1994.67 0.0 0.0 1.0
12.682899999999998 -16.666700000000002 1824.39 0.0 0.0 1.0
12.5203 -12.6016 1824.39 0.0 0.0 1.0
12.682899999999998 -11.7886 1824.39 0.0 0.0 1.0
12.195100000000002 -5.934963333333333 1824.39 0.0 0.0 1.0
22.044433333333334 -0.44444466666666665 1994.67 0.0 0.0 1.0
20.622200000000003 11.111099999999999 1994.67 0.0 0.0 1.0
20.9778 16.62223333333333 1994.67 0.0 0.0 1.0
20.6222 28.355566666666665 1994.67 0.0 0.0 1.0
20.26666666666667 32.977799999999995 1994.67 0.0 0.0 1.0
21.15556666666667 41.333333333333336 1994.67 0.0 0.0 1.0
8.888886666666666 35.32366666666667 1734.49 0.0 0.0 1.0
20.62223333333333 41.86666666666667 1994.67 0.0 0.0 1.0
12.0447 62.61246666666667 1789.8366666666668 -0.1233105911739112 -0.9865877027450912 0.10695420934448763
20.9778 73.15556666666667 1994.67 0.0 0.0 1.0
21.6889 80.44443333333334 1994.67 0.0 0.0 1.0
20.9778 82.57780000000001 1994.67 0.0 0.0 1.0
7.242556666666666 82.44063333333334 1766.93 0.8533163235311978 -0.3878737457046448 0.34843250334641374
5.53527 86.06623333333333 1701.6133333333335 5.721573262096827e-16 0.9990555740672293 0.043450660814287584
21.155533333333334 108.35566666666666 1994.67 0.0 0.0 1.0
4.743006666666667 102.428 1688.8100000000002 -1.6975639131338738e-15 -0.9702142456058908 0.2422484625821022
21.333333333333332 124.711 1994.67 0.0 0.0 1.0
20.8 -145.15533333333335 1994.67 0.0 0.0 1.0
20.444433333333333 -128.79999999999998 1994.67 0.0 0.0 1.0
20.8 -121.51100000000001 1994.67 0.0 0.0 1.0
20.444433333333333 -95.2 1994.67 0.0 0.0 1.0
20.266666666666666 -71.02223333333335 1994.67 0.0 0.0 1.0
21.15556666666667 -68.35553333333333 1994.67 0.0 0.0 1.0
20.0889 -63.55553333333333 1994.67 0.0 0.0 1.0
20.266666666666666 -34.4 1994.67 0.0 0.0 1.0
10.243896666666666 -20.569100000000002 1824.39 0.0 0.0 1.0
11.3821 -6.91057 1824.39 0.0 0.0 1.0
20.8 11.644433333333334 1994.67 0.0 0.0 1.0
20.9778 16.62223333333333 1994.67 0.0 0.0 1.0
19.733366666666665 21.066666666666666 1994.67 0.0 0.0 1.0
20.0889 21.955566666666666 1994.67 0.0 0.0 1.0
20.444466666666667 42.93333333333334 1994.67 0.0 0.0 1.0
19.911133333333336 43.64443333333333 1994.67 0.0 0.0 1.0
18.666666666666668 58.4 1994.67 0.0 0.0 1.0
20.444466666666667 74.04443333333333 1994.67 0.0 0.0 1.0
20.800033333333335 74.57776666666668 1994.67 0.0 0.0 1.0
20.0889 83.2889 1994.67 0.0 0.0 1.0
4.090910333333333 86.2879 1700.0 0.0 0.0 1.0
21.511133333333333 115.28866666666666 1994.67 0.0 0.0 1.0
8.197286666666665 111.79866666666668 1736.17 0.2182088996682096 0.9451000531685658 0.24325041748445778
12.106326666666666 126.544 1835.58 0.0 0.0 1.0
19.377766666666666 141.9556666666667 1994.67 0.0 0.0 1.0
19.555566666666667 -146.04433333333336 1994.67 0.0 0.0 1.0
19.377766666666666 -130.4 1994.67 0.0 0.0 1.0
19.733333333333334 -127.91133333333335 1994.67 0.0 0.0 1.0
19.9111 -126.31133333333332 1994.67 0.0 0.0 1.0
20.266633333333335 -124.17766666666667 1994.67 0.0 0.0 1.0
20.6222 -112.267 1994.67 0.0 0.0 1.0
19.7333 -92.35556666666666 1994.67 0.0 0.0 1.0
20.8 -83.64443333333334 1994.67 0.0 0.0 1.0
19.555566666666667 -71.2 1994.67 0.0 0.0 1.0
19.555533333333333 -51.82223333333334 1994.67 0.0 0.0 1.0
19.555533333333333 -51.82223333333334 1994.67 0.0 0.0 1.0
19.377766666666666 -47.9111 1994.67 0.0 0.0 1.0
19.377766666666666 -47.9111 1994.67 0.0 0.0 1.0
11.6616 -41.8349 1829.97 0.0 0.0 1.0
19.555566666666667 -34.57776666666667 1994.67 0.0 0.0 1.0
19.022233333333332 -26.933333333333334 1994.67 0.0 0.0 1.0
20.0889 -18.04446666666667 1994.67 0.0 0.0 1.0
11.3821 -6.91057 1824.39 0.0 0.0 1.0
11.3821 -6.91057 1824.39 0.0 0.0 1.0
19.9111 10.933299999999997 1994.67 0.0 0.0 1.0
20.444433333333333 13.599966666666667 1994.67 0.0 0.0 1.0
12.141233333333332 34.1794 1866.1133333333335 0.23979719494783375 -0.9592368931932035 0.14953891811900039
19.9111 46.844433333333335 1994.67 0.0 0.0 1.0
20.444433333333333 49.333333333333336 1994.67 0.0 0.0 1.0
11.221433333333332 61.96123333333333 1798.823333333333 0.27291343016256886 0.9555963574913423 0.11114792479474934
7.398836666666667 74.52796666666667 1729.4800000000002 6.543369983560651e-27 -7.542323825904686e-27 1.0
21.155533333333334 87.2 1994.67 0.0 0.0 1.0
19.555533333333333 95.02223333333335 1994.67 0.0 0.0 1.0
5.849953333333333 85.77396666666668 1704.84 0.0 0.0 1.0
4.62428 89.4798 1729.4800000000002 0.0 1.0 0.0
20.977766666666668 104.44433333333332 1994.67 0.0 0.0 1.0
19.9111 109.60000000000001 1994.67 0.0 0.0 1.0
20.977766666666668 122.57766666666669 1994.67 0.0 0.0 1.0
20.266633333333335 136.26666666666668 1994.67 0.0 0.0 1.0
19.199966666666665 136.62199999999999 1994.67 0.0 0.0 1.0
19.377766666666666 141.24433333333334 1994.67 0.0 0.0 1.0
19.733333333333334 144.62233333333333 1994.67 0.0 0.0 1.0
19.9111 -126.31133333333332 1994.67 0.0 0.0 1.0
18.844433333333335 -113.68900000000001 1994.67 0.0 0.0 1.0
19.73333333333333 -98.2222 1994.67 0.0 0.0 1.0
19.73333333333333 -87.73336666666667 1994.67 0.0 0.0 1.0
19.022199999999998 -56.444433333333336 1994.67 0.0 0.0 1.0
19.555533333333333 -51.82223333333334 1994.67 0.0 0.0 1.0
11.009196666666668 -38.4098 1829.97 0.0 0.0 1.0
19.2 -30.4889 1994.67 0.0 0.0 1.0
10.406496666666667 -8.536586666666667 1824.39 0.0 0.0 1.0
11.056899999999999 -4.95935 1824.39 0.0 0.0 1.0
10.2439 1.707315666666667 1824.39 0.0 0.0 1.0
19.2 11.111099999999999 1994.67 0.0 0.0 1.0
19.3778 44.711099999999995 1994.67 0.0 0.0 1.0
18.84443333333333 70.66666666666667 1994.67 0.0 0.0 1.0
20.0889 73.15556666666667 1994.67 0.0 0.0 1.0
18.3111 77.24446666666667 1994.67 0.0 0.0 1.0
20.0889 83.2889 1994.67 0.0 0.0 1.0
18.84443333333333 111.2 1994.67 0.0 0.0 1.0
18.84443333333333 111.2 1994.67 0.0 0.0 1.0
8.31876 115.918 1744.61 0.0 0.0 1.0
18.84443333333333 145.33333333333334 1994.67 0.0 0.0 1.0
18.4889 -146.9333333333333 1994.67 0.0 0.0 1.0
19.022233333333332 -135.91133333333332 1994.67 0.0 0.0 1.0
19.200033333333334 -120.44433333333332 1994.67 0.0 0.0 1.0
17.955566666666666 -120.089 1994.67 0.0 0.0 1.0
19.73333333333333 -98.2222 1994.67 0.0 0.0 1.0
19.377799999999997 -81.15553333333332 1994.67 0.0 0.0 1.0
19.377799999999997 -81.15553333333332 1994.67 0.0 0.0 1.0
18.666666666666668 -71.73333333333333 1994.67 0.0 0.0 1.0
17.777766666666665 -61.955533333333335 1994.67 0.0 0.0 1.0
19.377766666666666 -47.9111 1994.67 0.0 0.0 1.0
9.326103333333334 -33.369499999999995 1770.5366666666666 -0.8893076476399476 0.44465382381998314 0.10684046429780343
19.555566666666667 -34.57776666666667 1994.67 0.0 0.0 1.0
19.022233333333332 -26.933333333333334 1994.67 0.0 0.0 1.0
19.022233333333332 -26.933333333333334 1994.67 0.0 0.0 1.0
18.133333333333333 -18.755566666666667 1994.67 0.0 0.0 1.0
16.53333333333333 -11.8222 1994.67 0.0 0.0 1.0
10.081296666666667 -4.1463399999999995 1824.39 0.0 0.0 1.0
18.666666666666668 -1.5111123333333332 1994.67 0.0 0.0 1.0
10.2439 1.707315666666667 1824.39 0.0 0.0 1.0
18.666666666666668 11.288899999999998 1994.67 0.0 0.0 1.0
17.955566666666666 17.511100000000003 1994.67 0.0 0.0 1.0
19.022233333333332 21.600000000000005 1994.67 0.0 0.0 1.0
18.133333333333333 24.977766666666668 1994.67 0.0 0.0 1.0
19.2 32.2667 1994.67 0.0 0.0 1.0
18.31113333333333 45.599999999999994 1994.67 0.0 0.0 1.0
18.3111 68.35556666666666 1994.67 0.0 0.0 1.0
19.022233333333332 75.11110000000001 1994.67 0.0 0.0 1.0
16.3537 86.06403333333333 1817.0033333333333 0.20349270010375664 0.32871947227541715 0.9222441268728436
4.02659 85.77396666666668 1704.84 0.0 0.0 1.0
17.95553333333333 -131.46666666666667 1994.67 0.0 0.0 1.0
16.53333333333333 -106.40000000000002 1994.67 0.0 0.0 1.0
19.7333 -92.35556666666666 1994.67 0.0 0.0 1.0
17.599999999999998 -87.73336666666667 1994.67 0.0 0.0 1.0
17.777766666666665 -61.955533333333335 1994.67 0.0 0.0 1.0
8.292683333333335 -50.325199999999995 1824.39 0.0 0.0 1.0
10.193696666666666 -41.5087 1829.97 0.0 0.0 1.0
10.243896666666666 -20.569100000000002 1824.39 0.0 0.0 1.0
10.2439 1.707315666666667 1824.39 0.0 0.0 1.0
17.6 7.3777800000000004 1994.67 0.0 0.0 1.0
18.3111 11.288899999999998 1994.67 0.0 0.0 1.0
18.3111 11.288899999999998 1994.67 0.0 0.0 1.0
17.955566666666666 17.511100000000003 1994.67 0.0 0.0 1.0
18.3111 22.133333333333336 1994.67 0.0 0.0 1.0
18.3111 23.555533333333333 1994.67 0.0 0.0 1.0
17.777766666666665 29.0667 1994.67 0.0 0.0 1.0
18.3111 30.666700000000002 1994.67 0.0 0.0 1.0
9.666666666666666 34.583333333333336 1870.0 0.0 0.0 1.0
17.244433333333333 58.22220000000001 1994.67 0.0 0.0 1.0
17.955566666666666 67.2889 1994.67 0.0 0.0 1.0
18.666666666666664 69.24443333333333 1994.67 0.0 0.0 1.0
19.022233333333332 75.11110000000001 1994.67 0.0 0.0 1.0
-25.414869999999997 52.9836 1591.5866666666668 0.4516757450133999 -0.8780431304859553 0.15820645490312202
6.214356666666667 81.88789999999999 1765.1899999999998 5.267877279572246e-28 -8.334017812924179e-28 1.0
7.300673333333333 84.61093333333334 1724.5 0.0 0.0 1.0
4.62428 89.4798 1729.4800000000002 0.0 1.0 0.0
18.666633333333333 109.59999999999998 1994.67 0.0 0.0 1.0
18.84443333333333 111.2 1994.67 0.0 0.0 1.0
4.1033599999999995 99.05176666666667 1737.8500000000001 -1.351178548757824e-16 -0.9890626623518134 0.14749593194913171
4.743006666666667 102.428 1688.8100000000002 -3.809167805080887e-15 -0.9702142456058905 0.24224846258210336
20.26666666666667 126.31099999999999 1994.67 0.0 0.0 1.0
19.199966666666665 136.622 1994.67 0.0 0.0 1.0
18.666633333333333 141.42233333333334 1994.67 0.0 0.0 1.0
2.605363333333333 121.609 1719.54 0.0 0.0 1.0
17.77776666666667 142.489 1994.67 0.0 0.0 1.0
17.244433333333333 -135.022 1994.67 0.0 0.0 1.0
17.244433333333333 -135.022 1994.67 0.0 0.0 1.0
18.84443333333333 -127.73366666666668 1994.67 0.0 0.0 1.0
17.066666666666666 -115.28866666666669 1994.67 0.0 0.0 1.0
16.888900000000003 -78.13333333333333 1994.67 0.0 0.0 1.0
18.666666666666668 -71.73333333333333 1994.67 0.0 0.0 1.0
17.955566666666666 -31.377799999999997 1994.67 0.0 0.0 1.0
8.780486666666667 -20.406499999999998 1824.39 0.0 0.0 1.0
8.292683333333335 -15.365866666666667 1824.39 0.0 0.0 1.0
9.756093333333334 -9.837396666666667 1824.39 0.0 0.0 1.0
9.756093333333334 -9.837396666666667 1824.39 0.0 0.0 1.0
9.26829 -3.8211366666666664 1824.39 0.0 0.0 1.0
17.6 7.377779999999999 1994.67 0.0 0.0 1.0
17.77776666666667 12.355566666666666 1994.67 0.0 0.0 1.0
17.77776666666667 12.355566666666666 1994.67 0.0 0.0 1.0
17.7778 26.222233333333335 1994.67 0.0 0.0 1.0
12.141233333333332 34.1794 1866.1133333333335 0.2397971949478337 -0.9592368931932035 0.14953891811900039
17.244433333333333 58.22220000000001 1994.67 0.0 0.0 1.0
17.422233333333335 77.60000000000001 1994.67 0.0 0.0 1.0
19.555533333333333 95.02223333333335 1994.67 0.0 0.0 1.0
2.7906999999999997 99.14726666666667 1739.53 0.0 0.0 1.0
4.5042599999999995 100.27276666666667 1742.9166666666667 0.1867977833362969 -0.9349349312065467 0.3016674701562231
2.6773100000000003 106.642 1763.46 -1.4265779192651e-15 -0.9207614421138944 0.3901260907916074
3.76561 115.65833333333335 1724.5 0.0 0.0 1.0
13.236506666666665 118.176 1881.7966666666664 0.92240479208093 0.3689829355128342 0.11410956509630474
3.965014666666667 115.918 1744.61 0.0 0.0 1.0
4.073006666666666 117.65633333333334 1724.5 0.0 0.0 1.0
17.066666666666666 144.44466666666668 1994.67 0.0 0.0 1.0
16.888900000000003 -146.9333333333333 1994.67 0.0 0.0 1.0
17.244433333333333 -144.44433333333333 1994.67 0.0 0.0 1.0
17.066666666666666 -116.533 1994.67 0.0 0.0 1.0
16.0 -102.133 1994.67 0.0 0.0 1.0
15.644433333333334 -94.84443333333333 1994.67 0.0 0.0 1.0
16.888900000000003 -78.13333333333333 1994.67 0.0 0.0 1.0
-51.45794333333333 -45.424033333333334 1585.993333333333 0.08006692434720071 0.9957729275087432 0.04500627141017942
16.711133333333333 -46.666666666666664 1994.67 0.0 0.0 1.0
16.711133333333333 -46.666666666666664 1994.67 0.0 0.0 1.0
10.030596666666666 -40.0408 1829.97 0.0 0.0 1.0
17.777800000000003 -32.800000000000004 1994.67 0.0 0.0 1.0
8.455283333333334 -6.0975633333333334 1824.39 0.0 0.0 1.0
17.6 7.377779999999999 1994.67 0.0 0.0 1.0
17.77776666666667 9.68888 1994.67 0.0 0.0 1.0
17.066666666666666 17.511100000000003 1994.67 0.0 0.0 1.0
