ply
format ascii 1.0
comment VCGLIB generated
element vertex 683
property float x
property float y
property float z
property float nx
property float ny
property float nz
element face 0
property list uchar int vertex_indices
end_header
11.260219999999999 80.94946666666667 1793.4233333333334 0.8682476188697482 -0.03339408572459763 0.49500596700002586
11.676766666666666 91.7606 1897.6899999999998 -0.9330331976521191 -7.112888297167849e-16 0.359790289028292
6.306496666666667 85.32933333333334 1684.0533333333333 0.27369541541666703 -0.9579106762356203 0.0865907381520373
4.464756666666666 92.26243333333333 1698.3933333333334 0.700274639875575 0.7002669369315703 -0.13871425949631064
20.0644 108.038 1966.2700000000002 0.59118601655649 0.7095805099520108 0.3833987398574934
11.933169999999999 100.69266666666665 1772.176666666667 -0.4186686719471148 -0.8368966400290383 0.3525912038581584
-20.392300000000002 72.06666666666666 1179.5033333333333 -0.8377031779091152 0.3222008599228255 0.4409535027482616
16.779033333333334 140.202 1992.46 3.484252097435902e-15 -0.9312116921798763 0.36447878449573895
-6.1557466666666665 97.64093333333334 1453.72 0.9293608512748323 0.36539040884754814 -0.05270917605067308
10.193693333333334 -128.76666666666668 1829.97 0.0 0.0 1.0
10.519893333333334 -128.11433333333335 1829.97 0.0 0.0 1.0
10.8461 -127.29866666666665 1829.97 0.0 0.0 1.0
10.8461 -118.491 1829.97 0.0 0.0 1.0
10.8461 -118.491 1829.97 0.0 0.0 1.0
11.0092 -112.94600000000001 1829.97 0.0 0.0 1.0
11.1723 -110.98899999999999 1829.97 0.0 0.0 1.0
9.867486666666666 -102.01833333333333 1829.97 0.0 0.0 1.0
10.5199 -70.8665 1829.97 0.0 0.0 1.0
11.1723 -66.4628 1829.97 0.0 0.0 1.0
9.918696666666667 -46.58539999999999 1824.39 0.0 0.0 1.0
9.918696666666667 -46.58539999999999 1824.39 0.0 0.0 1.0
10.8461 -30.581 1829.97 0.0 0.0 1.0
10.243896666666666 -25.121966666666665 1824.39 0.0 0.0 1.0
9.918696666666667 -20.2439 1824.39 0.0 0.0 1.0
9.9187 3.3333366666666664 1824.39 0.0 0.0 1.0
-0.929789 17.516499999999997 1604.2966666666664 0.9801990991497181 0.19605914327472398 0.027758572810258838
-1.2126956666666666 17.768333333333334 1601.43 -0.7853888249740402 -0.5890530929711955 -0.19021263698020763
10.470316666666667 34.274 1835.58 0.0 0.0 1.0
14.748066666666666 36.3348 1848.8166666666666 -0.40214439182505224 -0.8713083248864223 0.2812502286350634
-17.092133333333333 46.749366666666674 1271.4233333333334 -0.5367290275294486 0.8348982244604617 0.12192992167659655
7.120913333333333 78.243 1793.4233333333334 -0.8727263031604605 0.03356634253692518 0.487054514834397
-12.051376666666668 56.89973333333333 1325.8500000000001 0.6218616066142926 -0.7773264604976575 0.09514050677432123
-12.051376666666668 56.89973333333333 1325.8500000000001 0.6218616066142922 -0.7773264604976574 0.09514050677432159
-3.3655466666666665 75.04753333333333 1518.7900000000002 -0.04166260555431537 0.4352814851825799 0.8993298927288434
19.377799999999997 120.62233333333334 1994.67 0.0 0.0 1.0
19.377799999999997 120.62233333333334 1994.67 0.0 0.0 1.0
-0.70063 102.18366666666667 1580.3 -0.19560054905079075 0.9806658157093219 0.005914652162184245
-6.355613333333333 104.72433333333333 1499.756666666667 0.7490911074030204 -0.18718578685170983 0.6354714737975442
9.378196666666666 -134.96433333333331 1829.97 0.0 0.0 1.0
9.378196666666666 -134.96433333333331 1829.97 0.0 0.0 1.0
10.5199 -113.27199999999999 1829.97 0.0 0.0 1.0
10.356793333333334 -103.97566666666667 1829.97 0.0 0.0 1.0
10.030596666666666 -86.3609 1829.97 0.0 0.0 1.0
10.030596666666666 -77.06419999999999 1829.97 0.0 0.0 1.0
10.030593333333334 -70.5403 1829.97 0.0 0.0 1.0
10.683 -62.87460000000001 1829.97 0.0 0.0 1.0
9.756096666666666 -47.235800000000005 1824.39 0.0 0.0 1.0
9.3782 -33.6799 1829.97 0.0 0.0 1.0
10.8461 -30.4179 1829.97 0.0 0.0 1.0
10.4065 -2.84553 1824.39 0.0 0.0 1.0
9.756096666666666 0.8943096666666666 1824.39 0.0 0.0 1.0
9.430893333333334 4.471546666666667 1824.39 0.0 0.0 1.0
3.278613333333333 27.12353333333333 1714.62 -0.030433383007782578 0.9887905520037389 0.1461747360758455
0.5179036666666667 37.9649 1660.6866666666665 0.7062132264192825 -0.7062315001433584 0.04999947035448352
-6.356306666666666 36.62363333333334 1486.0933333333332 2.365736556043208e-15 -0.8717617259923032 0.48993009000766685
2.3084586666666667 62.009966666666664 1786.2699999999998 -4.539933581307735e-27 -2.2468526541938596e-26 1.0
-1.99446 63.45336666666666 1657.62 0.0 0.0 1.0
6.306496666666667 85.32933333333334 1684.0533333333333 0.273695415416667 -0.9579106762356203 0.08659073815203741
19.022199999999998 104.44443333333334 1994.67 0.0 0.0 1.0
4.464756666666666 92.26243333333333 1698.3933333333334 0.700274639875574 0.7002669369315712 -0.13871425949631128
20.266666666666666 126.48900000000002 1994.67 0.0 0.0 1.0
9.039043333333334 130.0713333333333 1860.3166666666668 -0.755725607871904 0.25185278155296265 0.6045237646533647
16.53333333333333 147.28900000000002 1994.67 0.0 0.0 1.0
9.54129 -129.093 1829.97 0.0 0.0 1.0
10.030593333333334 -102.997 1829.97 0.0 0.0 1.0
9.867486666666666 -102.01833333333333 1829.97 0.0 0.0 1.0
9.86749 -97.9409 1829.97 0.0 0.0 1.0
9.215086666666666 -89.4597 1829.97 0.0 0.0 1.0
8.56269 -74.2915 1829.97 0.0 0.0 1.0
10.030593333333334 -70.5403 1829.97 0.0 0.0 1.0
8.39959 -51.131499999999996 1829.97 0.0 0.0 1.0
9.756096666666666 -47.235800000000005 1824.39 0.0 0.0 1.0
9.918696666666667 -45.77236666666666 1824.39 0.0 0.0 1.0
9.593493333333333 -44.30893333333333 1824.39 0.0 0.0 1.0
19.622666666666664 -41.50940000000001 1881.76 0.0 0.0 1.0
9.447796666666667 -37.09643333333333 1758.32 -0.27476731442688457 0.8440033390035694 0.4606096901645289
-0.9082433333333334 -28.1032 1700.006666666667 -0.3589736607593681 -0.8806743090481424 0.3091127177318902
8.780486666666667 -25.122 1824.39 0.0 0.0 1.0
8.888886666666666 -21.9368 1829.97 0.0 0.0 1.0
9.593493333333333 -9.349596666666667 1824.39 0.0 0.0 1.0
-0.929789 17.516500000000004 1604.2966666666664 0.980199099149718 0.19605914327472415 0.027758572810258817
6.919683333333334 24.700566666666663 1704.8500000000001 -0.40935217966598864 -0.4953315544679198 0.7662097912132801
-6.356306666666666 36.62363333333334 1486.0933333333332 2.365736556043208e-15 -0.8717617259923032 0.48993009000766685
-20.5224 44.398266666666665 1247.6433333333332 0.9736430906287238 0.19920443582575068 0.11107080992903354
-5.03015 49.81913333333333 1546.25 0.0 0.0 1.0
-5.03015 49.81913333333333 1546.25 0.0 0.0 1.0
-1.99446 63.45336666666666 1657.62 0.0 0.0 1.0
-18.707733333333334 50.58646666666667 1208.92 0.681222060851375 -0.6488445318036478 0.33902400705246627
-12.8224 56.0376 1308.4633333333334 -0.6373363292823307 0.753062836718709 0.1633975744314938
10.04116 95.39093333333334 1846.91 0.0 0.0 1.0
-1.25577 87.23916666666666 1657.62 0.0 0.0 1.0
-14.658466666666667 83.7568 1295.2433333333336 -0.6648427083331249 -0.244720769213899 0.705759107834701
10.03284 126.26166666666666 1860.3166666666668 -0.7974060638865289 -0.27909051759863535 0.5350252818919108
0.8125566666666666 114.57066666666667 1657.62 0.0 0.0 1.0
8.236493333333334 -131.70233333333334 1829.97 0.0 0.0 1.0
9.378193333333334 -116.69733333333333 1829.97 0.0 0.0 1.0
8.56269 -106.09566666666666 1829.97 0.0 0.0 1.0
8.073396666666666 -99.0826 1829.97 0.0 0.0 1.0
8.88889 -90.92759999999998 1829.97 0.0 0.0 1.0
9.215086666666666 -89.4597 1829.97 0.0 0.0 1.0
9.215086666666666 -89.4597 1829.97 0.0 0.0 1.0
8.888896666666666 -77.8797 1829.97 0.0 0.0 1.0
9.86749 -68.9093 1829.97 0.0 0.0 1.0
18.316466666666667 -66.75636666666666 1928.28 -0.8348503769485686 0.5169904416048675 0.1890654156582769
8.888896666666666 -59.7757 1829.97 0.0 0.0 1.0
9.051996666666666 -41.5087 1829.97 0.0 0.0 1.0
15.7306 -36.498866666666665 1848.8166666666666 0.4888752037407746 0.4277688969501115 0.7602728496858882
8.780486666666667 -25.122 1824.39 0.0 0.0 1.0
8.780486666666667 -20.8943 1824.39 0.0 0.0 1.0
9.26829 -13.9024 1824.39 0.0 0.0 1.0
9.593493333333333 -9.349596666666667 1824.39 0.0 0.0 1.0
8.617886666666667 0.7317083333333333 1824.39 0.0 0.0 1.0
8.186966666666667 9.317786666666668 1818.8533333333335 -0.42773298819224287 0.8591864587157431 0.28079017071762896
-1.9226616666666665 18.59306666666667 1598.5766666666666 -0.7768284790267362 -0.5826327084472246 0.23890718118227197
10.470316666666667 34.274 1835.58 0.0 0.0 1.0
0.22160666666666665 38.04246666666667 1657.62 0.0 0.0 1.0
-6.6717433333333345 62.690200000000004 1482.4133333333332 -0.9270160972629863 -0.35654603783629457 -0.11625866986397519
10.04116 95.39093333333334 1846.91 0.0 0.0 1.0
10.04116 95.39093333333335 1846.91 0.0 0.0 1.0
-5.751853333333333 110.423 1614.4066666666665 0.5941949533286992 0.7663457136576326 0.2442265435968803
0.5170823333333333 114.12733333333334 1657.62 0.0 0.0 1.0
0.8125566666666666 114.57066666666667 1657.62 0.0 0.0 1.0
8.888886666666666 -128.60366666666667 1829.97 0.0 0.0 1.0
8.888886666666666 -128.60366666666667 1829.97 0.0 0.0 1.0
9.215093333333334 -126.80933333333333 1829.97 0.0 0.0 1.0
9.215093333333334 -115.22933333333333 1829.97 0.0 0.0 1.0
7.910293333333333 -110.82566666666666 1829.97 0.0 0.0 1.0
9.215093333333334 -110.49966666666667 1829.97 0.0 0.0 1.0
8.56269 -106.09566666666667 1829.97 0.0 0.0 1.0
8.236493333333334 -91.2538 1829.97 0.0 0.0 1.0
10.030596666666666 -86.3609 1829.97 0.0 0.0 1.0
7.7471966666666665 -80.0 1829.97 0.0 0.0 1.0
8.56269 -74.2915 1829.97 0.0 0.0 1.0
7.910293333333333 -62.7115 1829.97 0.0 0.0 1.0
8.073393333333334 -49.826699999999995 1829.97 0.0 0.0 1.0
18.15833333333333 -42.1881 1959.8333333333333 0.4165124591342209 0.20825622956710643 0.8849557696475325
8.292683333333335 -24.959366666666668 1824.39 0.0 0.0 1.0
8.888886666666666 -21.9368 1829.97 0.0 0.0 1.0
8.888886666666666 -21.9368 1829.97 0.0 0.0 1.0
7.804876666666668 -18.9431 1824.39 0.0 0.0 1.0
7.967480000000001 -14.878033333333335 1824.39 0.0 0.0 1.0
7.967480000000001 -4.634146666666667 1824.39 0.0 0.0 1.0
8.292683333333335 5.121953333333333 1824.39 0.0 0.0 1.0
7.317073333333334 6.58537 1824.39 0.0 0.0 1.0
8.0086 10.595426666666667 1815.1666666666667 -0.9907892865564218 -1.6266667527640572e-14 0.135412664271171
8.0086 10.595426666666667 1815.1666666666667 -0.9907892865564217 -9.74458870986679e-15 0.13541266427117285
-2.134091666666667 17.86466666666667 1597.1533333333334 -0.9122238558137022 4.1993190321329906e-18 0.409692124508614
-2.5619 18.435066666666668 1597.1533333333334 -0.9891463860277733 -3.524479965339614e-16 0.14693341011558764
10.453466666666667 33.56163333333333 1806.05 0.4416941528500797 -0.846588479183892 0.2969751205928792
11.145629999999999 39.338966666666664 1940.7766666666666 0.8528007629001314 4.2320085330857483e-17 0.5222364012561301
0.22160666666666665 38.04246666666667 1657.62 0.0 0.0 1.0
11.550263333333334 53.01956666666666 1934.4866666666667 0.7845033672467813 0.616396585029781 -0.06789489481607482
-15.670099999999998 54.707899999999995 1233.81 0.0 0.0 1.0
-18.394766666666666 50.2884 1214.63 -0.26002183727392114 -0.8740477647482381 0.410401205016875
16.355566666666665 117.42233333333333 1994.67 0.0 0.0 1.0
0.4436236666666667 113.19666666666667 1659.1533333333334 -1.2658342662667026e-16 0.9530236836129992 0.30289578813960133
0.5170823333333333 114.12733333333334 1657.62 0.0 0.0 1.0
7.094796666666666 -134.63833333333332 1829.97 0.0 0.0 1.0
8.236493333333334 -132.35466666666665 1829.97 0.0 0.0 1.0
8.56269 -106.09566666666667 1829.97 0.0 0.0 1.0
8.39959 -102.997 1829.97 0.0 0.0 1.0
7.257896666666666 -96.473 1829.97 0.0 0.0 1.0
8.72579 -89.4597 1829.97 0.0 0.0 1.0
8.23649 -70.5403 1829.97 0.0 0.0 1.0
7.910293333333333 -62.7115 1829.97 0.0 0.0 1.0
6.442403333333332 -56.84 1829.97 0.0 0.0 1.0
7.5840966666666665 -50.6422 1829.97 0.0 0.0 1.0
19.2851 -41.05656666666667 1907.7733333333333 0.5177912657391998 -0.5917562785896017 0.6178322683981333
18.15833333333333 -42.1881 1959.8333333333333 0.41651245913421897 0.20825622956710996 0.8849557696475326
6.666666666666667 -34.71543333333333 1824.39 0.0 0.0 1.0
8.292683333333335 -24.959366666666668 1824.39 0.0 0.0 1.0
7.804876666666668 -18.9431 1824.39 0.0 0.0 1.0
7.804876666666668 -4.79675 1824.39 0.0 0.0 1.0
7.804876666666668 -4.471546666666667 1824.39 0.0 0.0 1.0
-7.8693399999999984 10.802386666666665 1562.43 -0.3951750130139421 -0.8697259773187926 0.295657628797739
0.22160666666666665 38.04246666666666 1657.62 0.0 0.0 1.0
11.550263333333334 53.01956666666666 1934.4866666666667 0.7845033672467813 0.616396585029781 -0.06789489481607482
18.0157 53.4261 1981.4733333333334 -0.2985526575355404 -0.8961111108071755 0.328407045853764
10.674196666666667 61.215700000000005 1915.9066666666668 -0.9232478488550577 -0.12590003771137545 0.36299117081381227
2.50381 60.0205 1807.8633333333335 -0.5865672634384341 0.7467380421975888 0.31356202224959984
-16.406133333333333 55.641533333333335 1364.1833333333334 0.3135827644517394 -0.9031429526724776 0.2932552759573877
11.495233333333333 86.55893333333334 1883.7633333333333 0.919034046409778 0.39388045965016155 0.015316822302527974
-20.621266666666667 62.9145 1177.1866666666667 -0.4258186768745991 -0.46879863427172114 0.7738903636366941
15.111133333333333 141.067 1994.67 0.0 0.0 1.0
15.466666666666667 147.289 1994.67 0.0 0.0 1.0
7.4209966666666665 -133.17033333333333 1829.97 0.0 0.0 1.0
7.584099999999999 -130.72366666666667 1829.97 0.0 0.0 1.0
7.0948 -123.54733333333333 1829.97 0.0 0.0 1.0
7.421 -122.406 1829.97 0.0 0.0 1.0
7.421 -122.406 1829.97 0.0 0.0 1.0
7.094803333333334 -119.95933333333333 1829.97 0.0 0.0 1.0
8.39959 -102.997 1829.97 0.0 0.0 1.0
8.073396666666667 -99.0826 1829.97 0.0 0.0 1.0
8.073396666666667 -99.0826 1829.97 0.0 0.0 1.0
7.421 -94.5158 1829.97 0.0 0.0 1.0
7.094803333333334 -93.5372 1829.97 0.0 0.0 1.0
7.0948 -82.1203 1829.97 0.0 0.0 1.0
7.584096666666667 -79.5107 1829.97 0.0 0.0 1.0
7.910296666666667 -74.1284 1829.97 0.0 0.0 1.0
7.910296666666667 -74.1284 1829.97 0.0 0.0 1.0
7.5840966666666665 -50.6422 1829.97 0.0 0.0 1.0
7.9102966666666665 -49.826699999999995 1829.97 0.0 0.0 1.0
6.442406666666667 -44.7706 1829.97 0.0 0.0 1.0
10.983380000000002 -44.342600000000004 1985.8633333333335 -0.6091685221569699 0.609168522156986 0.5077670954543695
7.0948 -36.1264 1829.97 0.0 0.0 1.0
7.479673333333333 -20.8943 1824.39 0.0 0.0 1.0
7.804876666666668 -18.9431 1824.39 0.0 0.0 1.0
7.317073333333333 -5.609756666666667 1824.39 0.0 0.0 1.0
7.642276666666667 -4.634146666666667 1824.39 0.0 0.0 1.0
6.829266666666666 0.08130033333333338 1824.39 0.0 0.0 1.0
-0.8020266666666668 21.4008 1627.5733333333335 0.9305143997091901 -2.6105035292716766e-14 0.3662553097688082
-0.8020266666666668 21.4008 1627.5733333333335 0.9305143997091901 -2.6105035292716766e-14 0.3662553097688082
-7.284246666666665 40.00313333333333 1571.9800000000002 -0.5306098061529865 -0.37900614486147854 0.7581606530093277
-8.009576666666666 41.11376666666666 1509.84 -0.4907232105836372 -0.7010334058404135 0.517438783326373
-4.699036666666667 58.573699999999995 1597.1533333333334 0.44935472008536975 0.4494179204679338 0.7720776310056373
-0.38509 68.85913333333333 1711.3533333333332 0.798448062419602 0.39922403120979966 0.45066713272988995
-16.446433333333335 57.74406666666667 1373.6066666666666 -0.7002561478031104 0.7120374239819105 -0.05142017418439362
2.8552766666666667 78.4911 1780.9633333333331 0.3129195054034463 0.9392670214699195 0.14092141610517625
9.382713333333333 95.55556666666666 1846.91 0.0 0.0 1.0
5.139873333333333 96.4003 1673.07 0.25711319323868875 0.5142004997032515 0.8182240842015903
-10.882156666666667 83.0425 1365.1833333333334 -0.8165732990708398 0.1751118330204348 0.5500399014442392
15.111133333333333 141.067 1994.67 0.0 0.0 1.0
13.586773333333333 140.87633333333335 1977.1266666666668 -0.696790076152859 0.5513384992231207 0.4588130872689767
15.466666666666667 147.289 1994.67 0.0 0.0 1.0
6.9317 -123.05799999999999 1829.97 0.0 0.0 1.0
7.2579 -122.73200000000001 1829.97 0.0 0.0 1.0
7.420996666666667 -111.96733333333333 1829.97 0.0 0.0 1.0
7.584096666666667 -95.65749999999998 1829.97 0.0 0.0 1.0
7.910293333333333 -90.6014 1829.97 0.0 0.0 1.0
6.931703333333334 -81.1417 1829.97 0.0 0.0 1.0
6.931699999999999 -70.2141 1829.97 0.0 0.0 1.0
6.429476666666666 -67.46776666666666 1826.25 -1.4198057433721675e-16 0.9782318604902076 0.20751488409718205
6.442406666666667 -64.8318 1829.97 0.0 0.0 1.0
7.094799999999999 -63.3639 1829.97 0.0 0.0 1.0
7.584096666666667 -50.6422 1829.97 0.0 0.0 1.0
6.279306666666667 -43.792033333333336 1829.97 0.0 0.0 1.0
7.0948 -36.1264 1829.97 0.0 0.0 1.0
6.666666666666667 -34.71543333333333 1824.39 0.0 0.0 1.0
6.341463333333333 -30.487800000000004 1824.39 0.0 0.0 1.0
6.504066666666667 -23.9837 1824.39 0.0 0.0 1.0
6.504063333333332 -16.3415 1824.39 0.0 0.0 1.0
6.424639999999999 -22.442233333333334 1974.92 0.0 0.0 1.0
6.341463333333333 -12.2764 1824.39 0.0 0.0 1.0
7.317073333333333 -5.609756666666667 1824.39 0.0 0.0 1.0
6.99187 -3.9837400000000005 1824.39 0.0 0.0 1.0
6.829266666666666 0.8943093333333333 1824.39 0.0 0.0 1.0
7.317073333333333 5.772359999999999 1824.39 0.0 0.0 1.0
6.3414633333333335 6.0975633333333334 1824.39 0.0 0.0 1.0
-1.1142113333333332 18.500466666666664 1666.86 -0.9353697748610005 -0.31161152479724225 0.1672771409667783
0.37016599999999994 37.81716666666667 1660.6866666666665 -0.7062132347237623 0.7062315084480532 -0.04999923575603415
-7.861723333333333 44.89770000000001 1547.5866666666668 0.6352806327570091 -0.7260234062532319 0.26326513482857683
7.017763333333334 62.88113333333333 1873.9066666666665 -0.5149452408355663 0.7723716640128384 0.37185132993017467
-4.699036666666667 58.573699999999995 1597.1533333333334 0.44935472008537386 0.4494179204679309 0.7720776310056365
9.957816666666668 90.0422 1893.67 0.0 0.0 1.0
9.957816666666666 90.0422 1893.67 0.0 0.0 1.0
2.121210666666667 89.16666666666667 1700.0 0.0 0.0 1.0
2.121210666666667 89.16666666666667 1700.0 0.0 0.0 1.0
-3.64591 82.69843333333334 1592.9099999999999 0.06033885284192018 -0.9654619515132817 0.25346092996335123
-1.8573066666666669 116.36233333333332 1732.82 -0.509281325390339 0.509028879905773 0.6939179569880966
14.77303 136.6243333333333 1936.5833333333333 -0.4773381671067792 -0.31131206680337087 0.8217256666830811
14.933333333333332 147.28900000000002 1994.67 0.0 0.0 1.0
6.442403333333334 -134.31233333333333 1829.97 0.0 0.0 1.0
6.768603333333334 -133.49666666666667 1829.97 0.0 0.0 1.0
6.9317 -123.058 1829.97 0.0 0.0 1.0
7.420996666666667 -111.96733333333333 1829.97 0.0 0.0 1.0
6.768599999999999 -96.7992 1829.97 0.0 0.0 1.0
7.0948 -82.1203 1829.97 0.0 0.0 1.0
6.442403333333334 -80.0 1829.97 0.0 0.0 1.0
6.442403333333334 -80.0 1829.97 0.0 0.0 1.0
6.605503333333334 -78.369 1829.97 0.0 0.0 1.0
6.442403333333334 -69.2355 1829.97 0.0 0.0 1.0
7.257899999999999 -59.61260000000001 1829.97 0.0 0.0 1.0
-22.852766666666668 -49.52133333333334 1520.08 0.32059840291359887 0.0801446790458264 0.9438185707379841
7.0948 -36.1264 1829.97 0.0 0.0 1.0
6.3414633333333335 -30.487800000000004 1824.39 0.0 0.0 1.0
6.991866666666667 -20.0813 1824.39 0.0 0.0 1.0
6.504063333333334 -16.3415 1824.39 0.0 0.0 1.0
6.504063333333334 -16.3415 1824.39 0.0 0.0 1.0
6.341463333333333 -12.2764 1824.39 0.0 0.0 1.0
6.341463333333333 -3.6585366666666665 1824.39 0.0 0.0 1.0
6.17886 -2.032519 1824.39 0.0 0.0 1.0
6.666663333333332 -1.0569096666666666 1824.39 0.0 0.0 1.0
6.829266666666666 0.8943093333333333 1824.39 0.0 0.0 1.0
-1.1142113333333334 18.500466666666664 1666.86 -0.9353697748610008 -0.31161152479724125 0.16727714096677787
7.590616666666667 29.116333333333333 1829.9800000000002 -0.6921367579405372 0.6924479356243813 0.20362358595480703
7.56572 35.11203333333333 1907.76 -0.21648108680803793 -0.974175511825788 0.06417173219864498
5.97505 30.782733333333336 1813.3766666666668 0.9921141082577863 0.055205695280501475 0.11252523007953902
-8.871200000000002 40.550333333333334 1555.6366666666665 -0.7166382241540782 4.5608904310158175e-15 0.697445091517095
-7.037095000000001 44.274633333333334 1698.3933333333334 0.36786431600990926 0.8889983490400111 0.2726862306950912
16.87216666666667 52.71886666666668 1961.9833333333336 0.6740334469793972 -0.7382239819805186 -0.02653798752540813
-2.5779333333333336 44.79866666666666 1748.0266666666666 0.30776838171522314 -0.8650627030596744 0.3961630257753524
-8.252906666666666 46.69899999999999 1556.993333333333 -0.9101847978483775 0.33097484209636363 0.24903671951139075
-8.054036666666667 45.531299999999995 1531.74 -0.7844734649550243 0.522988700271948 -0.333292967476538
10.674196666666667 61.2157 1915.9066666666668 -0.9232478488550578 -0.12590003771137528 0.3629911708138122
-0.302172 61.05086666666667 1693.5866666666668 -0.43541604742523343 0.43547177145601296 0.7878941565397911
9.957816666666668 90.0422 1893.67 0.0 0.0 1.0
1.3953486666666668 99.14726666666667 1739.53 0.0 0.0 1.0
-18.280066666666666 89.78683333333333 1267.8933333333332 -0.8471043056662613 0.5083478368138215 0.1549089155871594
-13.730996666666664 95.12286666666667 1356.9366666666667 -0.20756099234941022 -0.9485519016124903 0.23909772981410013
7.5287966666666675 130.13566666666665 1856.47 -0.948693836224399 0.3161612879151823 -0.004695224557589141
14.933333333333332 147.28900000000002 1994.67 0.0 0.0 1.0
6.442403333333334 -134.31233333333333 1829.97 0.0 0.0 1.0
5.626913333333333 -129.419 1829.97 0.0 0.0 1.0
5.626913333333333 -129.419 1829.97 0.0 0.0 1.0
6.11621 -118.98066666666666 1829.97 0.0 0.0 1.0
5.46381 -115.39233333333334 1829.97 0.0 0.0 1.0
6.442406666666667 -93.3741 1829.97 0.0 0.0 1.0
6.605503333333334 -80.4893 1829.97 0.0 0.0 1.0
6.442406666666667 -73.80219999999998 1829.97 0.0 0.0 1.0
5.8536600000000005 -65.28456666666666 1824.39 0.0 0.0 1.0
6.442406666666667 -64.8318 1829.97 0.0 0.0 1.0
5.79001 -64.1794 1829.97 0.0 0.0 1.0
6.442406666666667 -63.853199999999994 1829.97 0.0 0.0 1.0
6.116206666666667 -58.797133333333335 1829.97 0.0 0.0 1.0
5.300713333333333 -55.37210000000001 1829.97 0.0 0.0 1.0
5.463813333333333 -44.1182 1829.97 0.0 0.0 1.0
5.95311 -39.2253 1829.97 0.0 0.0 1.0
5.95311 -39.2253 1829.97 0.0 0.0 1.0
5.6910566666666655 -30.487800000000004 1824.39 0.0 0.0 1.0
4.878046666666666 -27.0732 1824.39 0.0 0.0 1.0
7.7471966666666665 -21.7737 1829.97 0.0 0.0 1.0
6.01626 -11.626 1824.39 0.0 0.0 1.0
7.597956666666668 -18.150856666666666 1893.76 -0.9822298170545295 0.18132061114490997 0.04845020601671253
6.17886 -3.1707300000000003 1824.39 0.0 0.0 1.0
-40.47956666666666 -8.096179999999999 1205.72 -0.6063529959935873 0.5988724494084823 0.5231518265179677
-1.1142113333333334 18.500466666666664 1666.86 -0.9353697748610004 -0.31161152479724197 0.16727714096677834
12.9778 26.577766666666662 1994.67 0.0 0.0 1.0
-7.63936 43.401199999999996 1573.36 -0.6203830144623028 4.391614070698391e-15 0.7842989961530399
-7.63936 43.401199999999996 1573.36 -0.6203830144623028 4.315286237755411e-15 0.7842989961530399
-8.525146666666666 43.8534 1530.43 0.0 0.0 1.0
-0.302172 61.05086666666667 1693.5866666666668 -0.43541604742524076 0.43547177145601146 0.7878941565397879
-2.28122 64.07803333333334 1768.67 -0.27229039676211486 -0.9530120745866518 0.13276266614969595
-11.95849 54.46666666666667 1385.2300000000002 -0.8928961692316041 -0.44639817791826913 -0.05886508067416434
14.222233333333335 117.60000000000001 1994.67 0.0 0.0 1.0
7.5287966666666675 130.13566666666665 1856.4700000000003 -0.948693836224399 0.3161612879151822 -0.004695224557589123
7.5287966666666675 130.13566666666665 1856.47 -0.948693836224399 0.3161612879151823 -0.004695224557589141
14.044466666666665 141.067 1994.67 0.0 0.0 1.0
-17.400433333333332 84.21716666666667 1258.9399999999998 0.8014000290465085 0.5959178686676742 0.05137983307516454
5.46381 -124.526 1829.97 0.0 0.0 1.0
5.95311 -102.34466666666667 1829.97 0.0 0.0 1.0
5.62691 -96.96230000000001 1829.97 0.0 0.0 1.0
6.442406666666667 -93.8634 1829.97 0.0 0.0 1.0
5.300713333333333 -88.9704 1829.97 0.0 0.0 1.0
5.137613333333333 -88.31799999999998 1829.97 0.0 0.0 1.0
6.279303333333334 -78.5321 1829.97 0.0 0.0 1.0
4.8034566666666665 -75.44466666666666 1826.25 -0.7991069552136825 -0.5993210018521615 0.047354100857674504
5.79001 -73.31293333333333 1829.97 0.0 0.0 1.0
5.79001 -73.31293333333333 1829.97 0.0 0.0 1.0
6.442403333333334 -69.2355 1829.97 0.0 0.0 1.0
5.137613333333333 -56.84 1829.97 0.0 0.0 1.0
5.137613333333333 -56.84 1829.97 0.0 0.0 1.0
4.715446666666667 -49.8374 1824.39 0.0 0.0 1.0
5.463813333333333 -44.1182 1829.97 0.0 0.0 1.0
5.95311 -39.2253 1829.97 0.0 0.0 1.0
5.6910566666666655 -35.69106666666667 1824.39 0.0 0.0 1.0
4.974513333333333 -32.8644 1829.97 0.0 0.0 1.0
4.552843333333333 -25.12196666666667 1824.39 0.0 0.0 1.0
5.528453333333334 -10.813 1824.39 0.0 0.0 1.0
5.528453333333334 -10.813 1824.39 0.0 0.0 1.0
6.3414633333333335 6.0975633333333334 1824.39 0.0 0.0 1.0
-16.458366666666667 11.429266666666669 1448.9166666666667 -0.5719201992347858 0.5711852948923511 0.5887738484392634
8.927113333333333 23.930366666666668 1772.1633333333332 -0.6685059245665042 0.6685029514800382 0.32588898827969165
-0.23096133333333327 30.14746666666667 1748.01 -0.7922711114862837 0.33955160521758826 0.5069627139134079
5.5 44.75 1870.0 0.0 0.0 1.0
-0.38828033333333334 44.26346666666666 1727.8733333333332 0.8194736189183159 -0.571068885659388 -0.04840780648473492
-7.462963333333334 46.63413333333333 1550.2666666666667 0.9672219757391987 0.00016970062223858697 0.2539323154875319
7.017763333333334 62.88113333333333 1873.9066666666665 -0.5149452408355663 0.7723716640128384 0.37185132993017467
-0.302172 61.05086666666667 1693.5866666666668 -0.43541604742524076 0.43547177145601146 0.7878941565397879
10.21917 75.41823333333333 1833.71 -0.6833245477572949 -0.0759266686376319 0.7261561150481898
7.407423333333334 86.00819999999999 1846.91 0.0 0.0 1.0
3.6939086666666667 93.35276666666665 1761.7300000000002 -0.22846995382945962 -0.3427326064159967 0.9112276558009321
1.3953486666666668 99.14726666666667 1739.53 0.0 0.0 1.0
4.305942 110.82133333333333 1695.18 0.0 0.0 1.0
4.305942 110.82133333333333 1695.18 0.0 0.0 1.0
-11.47249 91.03629999999998 1375.6500000000003 0.8557182664716126 0.07441050444017355 0.5120637902212741
-10.819186666666667 92.66473333333333 1402.6866666666667 -0.8734765340886063 -0.4399892078964452 0.2084424173032316
13.333333333333334 141.778 1994.67 0.0 0.0 1.0
14.2222 147.289 1994.67 0.0 0.0 1.0
5.46381 -115.39233333333334 1829.97 0.0 0.0 1.0
5.46381 -115.39233333333334 1829.97 0.0 0.0 1.0
4.159016666666667 -107.23766666666667 1829.97 0.0 0.0 1.0
4.648316666666667 -97.4516 1829.97 0.0 0.0 1.0
5.137613333333333 -81.1417 1829.97 0.0 0.0 1.0
3.8000966666666662 -65.6951 1773.9166666666667 -0.10856290281495805 0.6151608203160223 0.7808913248849091
5.79001 -64.1794 1829.97 0.0 0.0 1.0
4.5528466666666665 -59.7561 1824.39 0.0 0.0 1.0
3.90244 -58.6179 1824.39 0.0 0.0 1.0
4.715446666666667 -49.8374 1824.39 0.0 0.0 1.0
4.227643333333334 -46.910599999999995 1824.39 0.0 0.0 1.0
4.5528466666666665 -45.44716666666667 1824.39 0.0 0.0 1.0
4.878046666666667 -37.47970000000001 1824.39 0.0 0.0 1.0
4.974513333333333 -32.8644 1829.97 0.0 0.0 1.0
4.715446666666666 -30.162599999999998 1824.39 0.0 0.0 1.0
4.552843333333333 -25.12196666666667 1824.39 0.0 0.0 1.0
-10.30134 7.952086666666666 1551.6033333333335 -0.4699272863485723 0.8811189761238339 0.052893245878403126
12.9778 26.577766666666665 1994.67 0.0 0.0 1.0
8.380683333333334 26.939166666666665 1826.25 -0.3595862624309117 -0.9246285758519047 0.1255377098287421
0.38339133333333325 44.10313333333334 1714.6966666666667 -0.9254127035323985 -0.3700564141632786 0.08166748727292264
-8.525146666666666 43.8534 1530.43 0.0 0.0 1.0
-8.525146666666666 43.8534 1530.43 0.0 0.0 1.0
10.674196666666667 61.2157 1915.9066666666668 -0.9232478488550578 -0.12590003771137528 0.3629911708138122
-22.4051 48.3966 1179.5166666666667 0.7685483771088683 1.2326259070770004e-13 0.6397916786293212
-22.4051 48.3966 1179.5166666666667 0.7685483771088683 1.2326259070770004e-13 0.6397916786293212
-0.5415176666666667 71.9658 1734.5 0.7879393967999264 0.5730932801388748 -0.22520124162675695
0.15872999999999995 76.10020000000002 1784.4966666666667 -0.6138365373416451 0.6138424691801736 0.4963890897826087
13.333333333333334 141.778 1994.67 0.0 0.0 1.0
3.7647033333333333 119.92133333333334 1760.0 0.0 0.0 1.0
4.648319999999999 -132.84400000000002 1829.97 0.0 0.0 1.0
4.974516666666667 -128.60366666666667 1829.97 0.0 0.0 1.0
4.159023333333333 -121.59033333333333 1829.97 0.0 0.0 1.0
3.9959233333333333 -119.796 1829.97 0.0 0.0 1.0
5.137616666666666 -119.14366666666668 1829.97 0.0 0.0 1.0
4.485216666666666 -113.92466666666667 1829.97 0.0 0.0 1.0
4.648316666666666 -102.18133333333333 1829.97 0.0 0.0 1.0
4.811416666666666 -96.96229999999998 1829.97 0.0 0.0 1.0
4.648316666666667 -89.13349999999998 1829.97 0.0 0.0 1.0
1.9550333333333334 -48.2553 1765.22 0.968167060811928 -0.2278035189194925 0.1037212568699826
4.648316666666667 -43.955099999999995 1829.97 0.0 0.0 1.0
4.06504 -39.2683 1824.39 0.0 0.0 1.0
5.137613333333333 -33.516799999999996 1829.97 0.0 0.0 1.0
4.390243333333333 -30.9756 1824.39 0.0 0.0 1.0
3.9024366666666666 -17.1545 1824.39 0.0 0.0 1.0
4.22764 -13.9024 1824.39 0.0 0.0 1.0
4.22764 -13.9024 1824.39 0.0 0.0 1.0
4.065040000000001 -1.7073166666666666 1824.39 0.0 0.0 1.0
0.903898 16.65063333333333 1706.4733333333334 -5.3046010159473605e-15 0.9650277743848215 0.26214765813540647
12.444466666666665 25.5111 1994.67 0.0 0.0 1.0
12.9778 26.577766666666665 1994.67 0.0 0.0 1.0
5.5 44.75 1870.0 0.0 0.0 1.0
-6.187323333333333 44.219433333333335 1577.5166666666667 0.9944941626136201 1.1032758021533232e-14 0.10479198694286888
10.087326666666668 96.7251 1985.8466666666666 0.7208974815770584 0.6488050210351186 0.24363674955858844
1.3953486666666668 99.14726666666667 1739.53 0.0 0.0 1.0
-11.409866666666666 84.79766666666666 1497.25 0.6314613957238794 0.21048713190796037 0.7462919489124956
14.933366666666666 119.911 1994.67 0.0 0.0 1.0
-7.041886666666667 103.0 1592.9099999999999 0.1976807439979089 -0.9094732187046427 0.36576056090214326
1.8078299999999998 115.41766666666666 1758.28 -0.16222769704615303 -0.7569369708125666 0.6330312761058472
-9.30838 103.16033333333333 1502.2633333333333 0.15108446141310708 0.45325338423932077 0.8784844080546416
3.6697233333333332 -127.62466666666667 1829.97 0.0 0.0 1.0
3.6697233333333332 -125.83066666666666 1829.97 0.0 0.0 1.0
3.99592 -105.28033333333333 1829.97 0.0 0.0 1.0
3.6697233333333332 -104.79100000000001 1829.97 0.0 0.0 1.0
4.15902 -96.7992 1829.97 0.0 0.0 1.0
3.180426666666667 -92.2324 1829.97 0.0 0.0 1.0
3.83282 -87.9918 1829.97 0.0 0.0 1.0
4.322116666666666 -81.7941 1829.97 0.0 0.0 1.0
3.3435233333333336 -68.5831 1829.97 0.0 0.0 1.0
3.90244 -58.6179 1824.39 0.0 0.0 1.0
4.648316666666667 -56.5138 1829.97 0.0 0.0 1.0
4.648316666666666 -56.350699999999996 1829.97 0.0 0.0 1.0
4.227643333333334 -46.910599999999995 1824.39 0.0 0.0 1.0
4.227643333333334 -46.910599999999995 1824.39 0.0 0.0 1.0
4.811416666666666 -43.139633333333336 1829.97 0.0 0.0 1.0
4.974513333333333 -32.8644 1829.97 0.0 0.0 1.0
3.9024366666666666 -30.9756 1824.39 0.0 0.0 1.0
13.37594 -33.482433333333326 1911.82 0.0 0.0 1.0
3.9024366666666666 -17.1545 1824.39 0.0 0.0 1.0
3.90244 -14.878033333333335 1824.39 0.0 0.0 1.0
3.90244 -14.878033333333335 1824.39 0.0 0.0 1.0
4.06504 -14.3902 1824.39 0.0 0.0 1.0
4.227643333333333 -4.634146666666666 1824.39 0.0 0.0 1.0
4.06504 -1.7073166666666666 1824.39 0.0 0.0 1.0
4.06504 -1.7073166666666666 1824.39 0.0 0.0 1.0
2.764226666666667 3.4959366666666667 1824.39 0.0 0.0 1.0
-7.4173 12.243260000000001 1569.2466666666667 0.6549407532652419 0.753064534703302 -0.06282050847021807
-0.23096133333333327 30.14746666666667 1748.01 -0.7922711114862837 0.33955160521758826 0.5069627139134079
7.385160000000002 40.434799999999996 1977.1000000000001 0.3410391909905189 -0.15915061781863002 0.9264790073479705
5.266456666666667 40.208999999999996 1875.86 0.0 0.0 1.0
-3.37353 37.414366666666666 1682.4766666666667 -0.9136974416396106 0.40609151665247867 -0.01570558003131604
-6.702316666666667 51.265633333333334 1600.0 0.0 0.0 1.0
4.923196666666667 48.6369 1871.9533333333331 -0.32897278555009063 -0.7127743686918632 0.6194591235128676
-8.720806666666666 45.882066666666674 1552.9466666666667 0.8731923684427175 -0.3175231084371747 0.36974878404369615
2.50381 60.0205 1807.8633333333335 -0.5865672634384341 0.746738042197589 0.31356202224959967
-5.77217 56.9163 1598.5766666666666 -8.201480851756317e-17 0.6846661695148489 0.7288568009711264
0.311892 69.9424 1749.72 -0.9993092262001751 -0.037011394048972114 0.0033506927282295415
-2.452106666666667 66.4368 1719.54 0.0 0.0 1.0
-1.7573999999999999 66.24643333333333 1714.61 0.0 0.0 1.0
-0.23142600000000005 70.81693333333332 1744.6166666666668 -0.726582450058769 0.4337428750910108 0.5328649562266038
8.039046666666666 82.81936666666667 1860.3166666666668 0.5542835203902873 0.8101063536176677 0.19104312301686205
8.931503333333334 96.43906666666668 1983.6533333333334 0.12683051717175844 0.8878124232363204 0.4423834547778624
2.180118333333333 87.628 1815.1899999999998 0.9178273443378224 -0.21181187089031234 0.3357509453981121
3.6939086666666667 93.35276666666665 1761.7300000000002 -0.22846995382945962 -0.3427326064159967 0.9112276558009321
10.196378333333334 102.67596666666668 1957.6966666666667 0.5758945287283928 -0.767876015281 0.28055644162427595
0.6666666666666666 102.41666666666667 1870.0 0.0 0.0 1.0
4.12567 91.40576666666668 1716.2633333333333 -0.4512150388828894 -0.7670655661009136 0.45608705965878676
7.053763333333333 124.81733333333334 1930.32 0.0 0.0 1.0
2.5280299999999998 -135.12766666666667 1829.97 0.0 0.0 1.0
3.3435233333333336 -127.13533333333334 1829.97 0.0 0.0 1.0
4.485216666666667 -113.92466666666667 1829.97 0.0 0.0 1.0
3.017326666666667 -108.379 1829.97 0.0 0.0 1.0
3.99592 -105.28033333333333 1829.97 0.0 0.0 1.0
3.6697233333333332 -102.18133333333333 1829.97 0.0 0.0 1.0
4.15902 -96.7992 1829.97 0.0 0.0 1.0
3.506623333333333 -88.31799999999998 1829.97 0.0 0.0 1.0
3.6697233333333332 -87.33943333333332 1829.97 0.0 0.0 1.0
4.322116666666666 -81.7941 1829.97 0.0 0.0 1.0
4.081473333333332 -77.7959 1831.8400000000001 0.4471478082610354 0.894289524175068 0.01746666877462824
3.9959199999999995 -73.14983333333333 1829.97 0.0 0.0 1.0
4.322116666666666 -69.7248 1829.97 0.0 0.0 1.0
4.322116666666666 -69.7248 1829.97 0.0 0.0 1.0
4.648316666666666 -43.955099999999995 1829.97 0.0 0.0 1.0
-5.073543333333333 -33.73763333333333 1620.2366666666667 -0.5100100610620135 0.8051675522541092 0.3026465767403421
3.7398366666666667 -30.0 1824.39 0.0 0.0 1.0
3.25203 -29.3496 1824.39 0.0 0.0 1.0
4.552843333333334 -25.121966666666665 1824.39 0.0 0.0 1.0
8.982016666666667 -24.580523333333332 1883.74 -0.602750472658449 -0.21273653869481177 0.7690481342634979
3.9024366666666666 -16.3415 1824.39 0.0 0.0 1.0
2.601623333333333 -7.073173333333333 1824.39 0.0 0.0 1.0
-10.30134 7.952086666666666 1551.6033333333335 -0.46992728634857234 0.8811189761238339 0.05289324587840308
-14.812 14.482966666666664 1483.6366666666665 0.3594920962056973 -0.28757918934796695 0.8877294872986927
0.903898 16.65063333333333 1706.4733333333334 -5.3046010159473605e-15 0.9650277743848215 0.26214765813540647
10.666676666666666 28.888899999999996 1994.67 0.0 0.0 1.0
-2.129961666666667 35.8667 1768.6833333333334 -0.5026560999751494 -0.8377480376069799 0.21334261328536064
-3.37353 37.414366666666666 1682.4766666666667 -0.9136974416396105 0.4060915166524786 -0.015705580031316016
-21.90693333333333 48.521833333333326 1262.5433333333333 -0.9282955519326413 0.08194431047080523 0.3627016656200204
-1.7573999999999999 66.24643333333333 1714.61 0.0 0.0 1.0
-1.3828376666666664 71.59563333333334 1729.49 -0.8857843420657154 -0.37970039802752714 0.2668589647902898
-0.0004573333333333281 70.3952 1753.1299999999999 -0.29220321878459676 -0.5844164018733259 0.7570170065152806
0.2504500000000001 79.5361 1807.8633333333335 -0.2362066366845551 -0.39511429890912864 0.8877449608889472
-11.161033333333334 90.30093333333332 1499.7666666666667 -0.9378245851464265 -0.31260819504881054 0.15086803466360105
-11.084200000000001 97.46153333333332 1507.3100000000002 0.9864072170373187 -0.00014849243684055842 0.1643191410843193
-5.751853333333333 110.423 1614.4066666666665 0.5941949533286992 0.7663457136576327 0.2442265435968804
-9.374343333333334 112.42333333333333 1581.6766666666665 -0.5827663179116325 -0.7769261590662486 0.23826280042483292
3.343526666666667 -133.007 1829.97 0.0 0.0 1.0
3.180426666666667 -127.95099999999998 1829.97 0.0 0.0 1.0
3.180426666666667 -125.66766666666666 1829.97 0.0 0.0 1.0
3.669726666666666 -123.22133333333333 1829.97 0.0 0.0 1.0
3.99592 -115.55566666666668 1829.97 0.0 0.0 1.0
0.08256000000000019 -112.69333333333333 1852.63 0.0 0.0 1.0
3.017326666666667 -108.379 1829.97 0.0 0.0 1.0
-23.270799999999998 -72.7071 1395.9566666666667 0.027953251837101116 -0.10622325637776116 0.9939493123475845
2.85423 -92.8848 1829.97 0.0 0.0 1.0
2.85423 -92.8848 1829.97 0.0 0.0 1.0
3.180426666666666 -86.85016666666667 1829.97 0.0 0.0 1.0
-4.708913333333334 -68.1635 1793.4133333333332 0.6598699489853023 -0.6598784258373158 0.35934957011328195
3.90244 -58.6179 1824.39 0.0 0.0 1.0
2.2764233333333332 -40.7317 1824.39 0.0 0.0 1.0
3.414633333333333 -30.487800000000004 1824.39 0.0 0.0 1.0
-12.875300000000001 -28.70896666666667 1506.07 0.7481608600253312 0.42829504620910086 0.5067728099640911
-0.9082433333333334 -28.103199999999998 1700.006666666667 -0.3589736607593681 -0.8806743090481424 0.30911271773189014
3.414633333333333 -6.0975633333333334 1824.39 0.0 0.0 1.0
2.9268300000000003 -0.5691046666666667 1824.39 0.0 0.0 1.0
5.9798 8.969686666666668 1813.33 0.0 0.0 1.0
-6.314513333333334 20.654766666666664 1592.9033333333334 -0.2830564365001044 0.5661594392764933 0.7741721663002288
7.5657200000000016 35.112033333333336 1907.7600000000002 -0.21648108680803793 -0.974175511825788 0.06417173219864498
5.266456666666667 40.208999999999996 1875.86 0.0 0.0 1.0
-7.861723333333333 44.89770000000001 1547.5866666666668 0.6352806327570092 -0.7260234062532318 0.2632651348285769
9.924493333333333 55.6634 1936.57 0.0 0.0 1.0
9.924493333333333 55.6634 1936.57 0.0 0.0 1.0
14.342626666666668 57.1187 1974.9333333333334 0.8123915767968383 0.5708460679271281 0.11897349571094998
-5.77217 56.9163 1598.5766666666666 -2.7064886810795843e-15 0.6846661695148498 0.7288568009711256
-1.4574833333333335 64.658 1721.1933333333334 -0.67065866390743 0.6706878388357148 0.31685135215709365
-7.778513333333334 55.19326666666666 1441.9333333333334 -0.23730624193041314 0.8819448064958101 0.40725803348237627
-2.452106666666667 66.4368 1719.54 0.0 0.0 1.0
7.053766666666665 86.45159999999998 1930.32 0.0 0.0 1.0
-2.38693 75.44753333333334 1677.7600000000002 -0.6646086497033799 0.19384454992594288 0.7216090584266932
8.039046666666666 82.81936666666667 1860.3166666666668 0.5542835203902875 0.8101063536176678 0.19104312301686205
6.255143333333334 89.30040000000001 1846.91 0.0 0.0 1.0
-11.409866666666666 84.79766666666667 1497.25 0.6314613957238802 0.21048713190796012 0.7462919489124951
-4.663973333333334 108.08566666666667 1806.0366666666666 -0.24030608315753693 0.6007763935920513 0.7624439069859577
-6.482506666666666 102.17266666666667 1653.04 0.0 0.0 1.0
-3.199865333333333 111.64299999999999 1666.86 0.6005207741528489 -0.7012893368164895 0.38414589139850414
-11.275933333333333 100.06326666666666 1506.05 0.28352614153885064 0.8505784246165521 0.4428648446658597
1.8756366666666668 -119.959 1829.97 0.0 0.0 1.0
3.180426666666666 -103.97566666666667 1829.97 0.0 0.0 1.0
3.017326666666666 -103.16000000000001 1829.97 0.0 0.0 1.0
3.343523333333333 -88.1549 1829.97 0.0 0.0 1.0
3.180426666666667 -86.85016666666667 1829.97 0.0 0.0 1.0
2.2018333333333335 -77.3904 1829.97 0.0 0.0 1.0
3.2725033333333333 -75.66556666666666 1835.5933333333332 -0.955612972250589 -0.2940487279246443 0.01841718958726767
2.3649316666666667 -74.1284 1829.97 0.0 0.0 1.0
0.8130066666666668 -71.4634 1824.39 0.0 0.0 1.0
3.017326666666667 -67.4414 1829.97 0.0 0.0 1.0
-0.9082433333333334 -28.1032 1700.006666666667 -0.3589736607593681 -0.8806743090481424 0.30911271773189014
1.4634133333333335 -23.495900000000002 1824.39 0.0 0.0 1.0
2.6016233333333334 -1.3821156666666665 1824.39 0.0 0.0 1.0
2.11382 2.84553 1824.39 0.0 0.0 1.0
-1.6562893333333333 16.665633333333332 1618.76 -0.19671883398205775 -0.6688633243752224 0.7168846167009484
-10.639756666666667 45.1852 1511.11 0.0 0.0 1.0
0.9279799999999999 59.64263333333333 1903.7133333333331 0.537631696510502 -0.21505056842405929 0.8152946779709337
16.77723333333333 57.44996666666666 1992.46 -0.2558512835744284 -0.9210531077040961 0.29360056791829325
-2.0630366666666666 65.02390000000001 1714.61 0.0 0.0 1.0
-2.0630366666666666 65.02390000000001 1714.61 0.0 0.0 1.0
-0.0004573333333333281 70.3952 1753.1299999999999 -0.2922032187845948 -0.584416401873326 0.757017006515281
-0.15548733333333334 72.32690000000001 1739.5433333333333 0.9137501725952465 0.4060956037499431 -0.012123642073504852
2.8552766666666667 78.4911 1780.9633333333334 0.31291950540344626 0.9392670214699195 0.1409214161051762
7.053766666666665 86.45159999999998 1930.32 0.0 0.0 1.0
4.66961 107.65866666666666 1903.7266666666667 -0.44722803109414183 0.8943416140700995 -0.011839153100898038
-6.482506666666666 102.17266666666667 1653.04 0.0 0.0 1.0
-11.084200000000001 97.46153333333332 1507.3100000000002 0.9864072170373187 -0.00014849243684072572 0.1643191410843192
2.5280299999999998 -135.12766666666667 1829.97 0.0 0.0 1.0
2.5280299999999998 -127.78766666666667 1829.97 0.0 0.0 1.0
2.20183 -127.13533333333332 1829.97 0.0 0.0 1.0
1.8756333333333337 -126.32 1829.97 0.0 0.0 1.0
3.017326666666667 -108.379 1829.97 0.0 0.0 1.0
2.0387350000000004 -92.7217 1829.97 0.0 0.0 1.0
1.7125366666666668 -84.0775 1829.97 0.0 0.0 1.0
1.875635 -78.0428 1829.97 0.0 0.0 1.0
3.017326666666667 -67.4414 1829.97 0.0 0.0 1.0
4.15902 -58.96023333333333 1829.97 0.0 0.0 1.0
3.2520333333333333 -47.561 1824.39 0.0 0.0 1.0
2.2018316666666666 -44.93370000000001 1829.97 0.0 0.0 1.0
1.7886166666666667 -40.894299999999994 1824.39 0.0 0.0 1.0
1.7886166666666667 -40.894299999999994 1824.39 0.0 0.0 1.0
8.300220000000001 -43.002199999999995 1981.46 0.0 0.0 1.0
0.97561 -21.8699 1824.39 0.0 0.0 1.0
2.11382 -0.40650366666666665 1824.39 0.0 0.0 1.0
1.7886166666666667 2.1951233333333335 1824.39 0.0 0.0 1.0
1.9512166666666666 3.4959366666666667 1824.39 0.0 0.0 1.0
-16.811433333333333 12.890466666666669 1467.8733333333332 -0.7846987906528926 -0.5605004940611681 0.26473950235103594
11.3778 24.266666666666666 1994.67 0.0 0.0 1.0
-6.314513333333334 20.654766666666664 1592.9033333333334 -0.2830564365001044 0.5661594392764935 0.7741721663002287
7.56572 35.11203333333333 1907.76 -0.21648108680803793 -0.974175511825788 0.06417173219864498
-4.725643333333333 35.46133333333333 1682.4766666666667 0.8761637149058613 -0.3894097056718365 0.2840725713808604
4.263323333333333 41.713699999999996 1875.86 0.0 0.0 1.0
-1.8622583333333333 38.748066666666666 1736.18 0.9619179772670627 -0.22198088811539113 0.15949385669029645
-9.627693333333333 44.675333333333334 1554.29 0.0 0.0 1.0
-9.627693333333333 44.675333333333334 1554.29 0.0 0.0 1.0
4.540756666666666 53.91126666666667 1852.63 0.0 0.0 1.0
4.258096666666667 62.64836666666667 1871.9533333333331 -2.058457807974543e-16 0.998649144413291 0.051960430739184715
-8.813686666666667 49.534333333333336 1533.05 -0.7929192799656319 -0.39645749248862555 0.4627099222065756
4.54791 103.32733333333333 1889.6899999999998 -0.9917198399405543 2.617757822303804e-15 0.12842024399712534
0.8925799999999998 101.27836666666667 1822.54 0.9768903707744289 -3.769761481349106e-17 0.21374097288119265
-0.9948166666666666 105.20466666666665 1854.5500000000002 0.3645847864565252 0.6684352923185833 0.6482840376466321
6.365593333333333 122.23700000000001 1930.32 0.0 0.0 1.0
6.365593333333333 122.409 1930.32 0.0 0.0 1.0
2.5280299999999998 -135.12766666666667 1829.97 0.0 0.0 1.0
1.8756366666666668 -119.959 1829.97 0.0 0.0 1.0
2.69113 -102.18133333333333 1829.97 0.0 0.0 1.0
0.8970440000000001 -98.26710000000001 1829.97 0.0 0.0 1.0
1.7125366666666668 -84.0775 1829.97 0.0 0.0 1.0
1.7125383333333335 -76.0856 1829.97 0.0 0.0 1.0
-3.2663500000000005 -70.85153333333334 1746.3666666666666 -0.9813371792328066 0.17220641691847907 -0.08557038405603189
1.7886166666666667 -40.894299999999994 1824.39 0.0 0.0 1.0
8.300220000000001 -43.002199999999995 1981.46 0.0 0.0 1.0
0.650405 -13.0894 1824.39 0.0 0.0 1.0
2.6016233333333334 -7.073173333333333 1824.39 0.0 0.0 1.0
1.9512166666666666 -0.8943096666666666 1824.39 0.0 0.0 1.0
1.9512166666666666 3.4959366666666667 1824.39 0.0 0.0 1.0
-7.4173 12.243260000000001 1569.2466666666667 0.6549407532652418 0.7530645347033021 -0.06282050847021818
-10.639756666666667 45.1852 1511.11 0.0 0.0 1.0
2.3084586666666667 62.009966666666664 1786.2699999999998 -4.53993358130772e-27 -2.246852654193852e-26 1.0
-9.04633 57.08783333333333 1548.9233333333334 0.2084106713637772 -0.3126160070456648 0.9267341712705561
7.053766666666667 86.4516 1930.32 0.0 0.0 1.0
-7.59669 89.1451 1654.573333333333 0.9413742156159493 0.31380202540179214 0.12386635954604096
4.54791 103.32733333333333 1889.6899999999998 -0.991719839940554 -5.229843159620028e-15 0.12842024399712687
4.54791 103.32733333333333 1889.6899999999998 -0.9917198399405541 3.140450462066045e-16 0.1284202439971258
-9.374343333333334 112.42333333333335 1581.6766666666665 -0.5827663179116326 -0.7769261590662488 0.23826280042483286
-15.038286666666664 95.60233333333333 1362.1233333333332 -0.44712708596552503 -0.8803000692358357 0.15858485772406042
1.2232393333333336 -129.09266666666667 1829.97 0.0 0.0 1.0
1.8756333333333337 -126.32 1829.97 0.0 0.0 1.0
1.2232406666666666 -120.93766666666666 1829.97 0.0 0.0 1.0
2.2018333333333335 -108.86833333333334 1829.97 0.0 0.0 1.0
0.8970440000000001 -98.26710000000001 1829.97 0.0 0.0 1.0
1.2232406666666666 -88.318 1829.97 0.0 0.0 1.0
1.2232393333333336 -84.4037 1829.97 0.0 0.0 1.0
1.0601406666666666 -80.8155 1829.97 0.0 0.0 1.0
8.12362 -42.29580000000001 1981.46 0.0 0.0 1.0
0.16260166666666667 -34.06503333333333 1824.39 0.0 0.0 1.0
0.6504066666666667 -25.934966666666668 1824.39 0.0 0.0 1.0
0.6504066666666667 -24.471533333333337 1824.39 0.0 0.0 1.0
1.1382100000000002 -22.6829 1824.39 0.0 0.0 1.0
1.7886166666666667 2.1951233333333335 1824.39 0.0 0.0 1.0
10.666676666666666 28.888899999999996 1994.67 0.0 0.0 1.0
-4.592593 36.96296666666667 1662.22 0.0 0.0 1.0
2.5914313333333334 42.215266666666665 1875.86 0.0 0.0 1.0
2.3084586666666667 62.009966666666664 1786.2699999999998 -4.539933581307735e-27 -2.2468526541938596e-26 1.0
-7.430663333333334 56.3606 1602.8666666666668 -5.089664823445032e-16 -0.9482911254622942 0.31740186100502843
-2.7674583333333334 72.99763333333333 1726.1599999999999 -0.5203562536725149 0.520356253672508 0.6770958119260655
6.789893333333333 87.90403333333332 1928.253333333333 -0.7071443399000471 -0.707048446634263 0.005420023930076024
4.227446666666666 106.13366666666667 1897.676666666667 0.3905331785535606 -0.7809664175141927 0.4874169582235524
-7.860423333333332 99.83463333333333 1648.4800000000002 -1.9491365016709915e-28 -9.74870496060779e-29 1.0
6.021506666666666 120.86066666666666 1930.32 0.0 0.0 1.0
6.021506666666666 122.23700000000001 1930.32 0.0 0.0 1.0
6.021506666666666 122.409 1930.32 0.0 0.0 1.0
-0.2406649999999999 121.59033333333332 1829.9800000000002 -0.31348601918044094 -0.9405119674131467 0.13101051458204674
-3.199865333333333 111.64299999999999 1666.86 0.6005207741528489 -0.7012893368164895 0.38414589139850425
14.138739999999999 138.491 1970.5866666666668 -0.38188843555214214 -0.5616231371837285 0.7339895602605288
2.0387349999999995 -103.81266666666666 1829.97 0.0 0.0 1.0
0.08304166666666668 -102.62366666666667 1826.25 -0.8656046977864842 0.4328067851616808 0.25180705686691895
0.4077473333333333 -95.3313 1829.97 0.0 0.0 1.0
0.8970423333333334 -92.8848 1829.97 0.0 0.0 1.0
0.7339433333333334 -78.2059 1829.97 0.0 0.0 1.0
1.7125383333333335 -75.107 1829.97 0.0 0.0 1.0
