ply
format ascii 1.0
comment VCGLIB generated
element vertex 885
property float x
property float y
property float z
property float nx
property float ny
property float nz
element face 0
property list uchar int vertex_indices
end_header
73.6 146.53333333333333 2992.0 0.0 0.0 1.0
39.47506666666666 -117.05999999999999 2355.91 0.0 0.0 1.0
39.475033333333336 -112.651 2355.91 0.0 0.0 1.0
39.475033333333336 -112.651 2355.91 0.0 0.0 1.0
77.06666666666666 -138.26666666666668 2992.0 0.0 0.0 1.0
77.06666666666666 -138.26666666666668 2992.0 0.0 0.0 1.0
39.68503333333334 -99.42256666666667 2355.91 0.0 0.0 1.0
39.475033333333336 -95.64306666666668 2355.91 0.0 0.0 1.0
39.475033333333336 -95.64306666666666 2355.91 0.0 0.0 1.0
39.68503333333334 -91.23360000000001 2355.91 0.0 0.0 1.0
39.47506666666666 -86.6142 2355.91 0.0 0.0 1.0
40.31496666666666 -78.63516666666666 2355.91 0.0 0.0 1.0
38.287933333333335 -73.15176666666666 2328.4 0.0 0.0 1.0
40.94486666666666 -73.17586666666666 2355.91 0.0 0.0 1.0
38.495466666666665 -60.07783333333333 2328.4 0.0 0.0 1.0
38.49543333333333 -54.2672 2328.4 0.0 0.0 1.0
38.49543333333333 -53.02206666666666 2328.4 0.0 0.0 1.0
38.49543333333333 -53.02206666666667 2328.4 0.0 0.0 1.0
38.0804 -49.49416666666667 2328.4 0.0 0.0 1.0
38.70296666666666 -46.79636666666667 2328.4 0.0 0.0 1.0
36.9231 -45.230799999999995 2301.54 0.0 0.0 1.0
36.9231 -45.23080000000001 2301.54 0.0 0.0 1.0
37.128233333333334 -44.82053333333334 2301.54 0.0 0.0 1.0
36.71796666666666 -39.48716666666667 2301.54 0.0 0.0 1.0
37.743599999999994 -38.461533333333335 2301.54 0.0 0.0 1.0
26.480800000000002 -22.020899999999997 2085.02 0.0 0.0 1.0
26.480800000000002 -22.020899999999997 2085.02 0.0 0.0 1.0
24.976566666666667 -16.8075 2107.04 0.0 0.0 1.0
28.94423333333333 -8.635823333333333 2129.54 0.0 0.0 1.0
27.605633333333333 -5.727696666666667 2107.04 0.0 0.0 1.0
27.23006666666667 1.97183 2107.04 0.0 0.0 1.0
26.4789 4.037556666666667 2107.04 0.0 0.0 1.0
22.028966666666665 15.072466666666665 2001.34 0.0 0.0 1.0
21.8506 16.3211 2001.34 0.0 0.0 1.0
19.779233333333334 18.2781 1981.46 0.0 0.0 1.0
72.53333333333333 48.13333333333333 2992.0 0.0 0.0 1.0
72.8 50.800000000000004 2992.0 0.0 0.0 1.0
-1.9954600000000002 28.73636666666667 1546.2733333333333 -3.926112292196722e-15 -0.9926382618979536 0.12111680732338499
70.93333333333334 62.800000000000004 2992.0 0.0 0.0 1.0
72.0 70.8 2992.0 0.0 0.0 1.0
23.7543 54.152433333333335 2042.32 0.0 0.0 1.0
23.356333333333335 58.94253333333334 2063.45 0.0 0.0 1.0
71.2 88.39999999999999 2992.0 0.0 0.0 1.0
44.299299999999995 77.60543333333334 2442.45 0.0 0.0 1.0
44.299299999999995 77.60543333333334 2442.45 0.0 0.0 1.0
34.76003333333333 80.41506666666668 2328.4 0.0 0.0 1.0
72.0 118.26666666666667 2992.0 0.0 0.0 1.0
27.64706666666667 86.56863333333332 2200.0 0.0 0.0 1.0
72.0 130.79999999999998 2992.0 0.0 0.0 1.0
72.26666666666667 143.33333333333334 2992.0 0.0 0.0 1.0
72.26666666666667 143.33333333333334 2992.0 0.0 0.0 1.0
73.06666666666668 147.33333333333334 2992.0 0.0 0.0 1.0
39.475033333333336 -112.651 2355.91 0.0 0.0 1.0
39.0551 -99.6324 2355.91 0.0 0.0 1.0
39.475033333333336 -95.64306666666666 2355.91 0.0 0.0 1.0
38.84513333333334 -91.86353333333334 2355.91 0.0 0.0 1.0
36.420233333333336 -82.90533333333333 2328.4 0.0 0.0 1.0
37.25033333333334 -74.81196666666666 2328.4 0.0 0.0 1.0
37.45786666666667 -66.51103333333333 2328.4 0.0 0.0 1.0
37.45786666666667 -66.51103333333333 2328.4 0.0 0.0 1.0
37.6654 -65.68093333333333 2328.4 0.0 0.0 1.0
37.6654 -65.68093333333333 2328.4 0.0 0.0 1.0
37.45783333333333 -59.45526666666667 2328.4 0.0 0.0 1.0
36.307700000000004 -44.20513333333333 2301.54 0.0 0.0 1.0
36.512833333333326 -41.1282 2301.54 0.0 0.0 1.0
49.31976666666666 -38.216 2472.983333333333 0.7409219605379455 -0.6442764518432924 0.18958507850784254
14.34107 -25.796899999999997 1949.2299999999998 -0.40958037885952236 0.9101816371987047 0.06175192757781269
26.666700000000002 -20.0237 2129.54 0.0 0.0 1.0
72.26666666666667 -20.133333333333333 2992.0 0.0 0.0 1.0
72.26666666666667 -20.133333333333333 2992.0 0.0 0.0 1.0
25.7277 -3.4741766666666667 2107.04 0.0 0.0 1.0
25.5399 -0.4694833333333333 2107.04 0.0 0.0 1.0
26.666700000000002 2.3474166666666667 2107.04 0.0 0.0 1.0
26.666700000000002 3.09859 2107.04 0.0 0.0 1.0
25.915499999999998 10.04694 2107.04 0.0 0.0 1.0
22.342333333333332 12.7027 2021.62 0.0 0.0 1.0
21.8506 16.3211 2001.34 0.0 0.0 1.0
-1.9954600000000002 28.73636666666667 1546.2733333333333 -3.926112292196722e-15 -0.9926382618979536 0.12111680732338499
70.93333333333334 65.73333333333333 2992.0 0.0 0.0 1.0
71.2 67.06666666666668 2992.0 0.0 0.0 1.0
70.93333333333334 69.2 2992.0 0.0 0.0 1.0
71.2 70.0 2992.0 0.0 0.0 1.0
22.882899999999996 49.639633333333336 2021.62 0.0 0.0 1.0
22.882899999999996 49.639633333333336 2021.62 0.0 0.0 1.0
69.46306666666666 93.37490000000001 2757.72 -0.7683141276751498 0.56912200684938 -0.29290534739828133
72.26666666666667 86.53333333333335 2992.0 0.0 0.0 1.0
71.2 103.06666666666666 2992.0 0.0 0.0 1.0
71.73333333333333 110.8 2992.0 0.0 0.0 1.0
71.73333333333333 111.06666666666666 2992.0 0.0 0.0 1.0
70.66666666666667 114.8 2992.0 0.0 0.0 1.0
70.93333333333334 115.59999999999998 2992.0 0.0 0.0 1.0
70.93333333333334 119.33333333333333 2992.0 0.0 0.0 1.0
70.93333333333334 119.33333333333333 2992.0 0.0 0.0 1.0
70.66666666666667 123.86666666666667 2992.0 0.0 0.0 1.0
70.66666666666667 123.86666666666667 2992.0 0.0 0.0 1.0
72.26666666666667 139.33333333333334 2992.0 0.0 0.0 1.0
38.84513333333333 -116.85000000000001 2355.91 0.0 0.0 1.0
38.84513333333333 -116.85000000000001 2355.91 0.0 0.0 1.0
38.21523333333334 -112.231 2355.91 0.0 0.0 1.0
37.58533333333333 -107.82133333333333 2355.91 0.0 0.0 1.0
38.005266666666664 -106.98166666666667 2355.91 0.0 0.0 1.0
39.0551 -99.6324 2355.91 0.0 0.0 1.0
38.4252 -86.6142 2355.91 0.0 0.0 1.0
36.005199999999995 -80.62256666666667 2328.4 0.0 0.0 1.0
37.45786666666667 -66.51103333333333 2328.4 0.0 0.0 1.0
36.42023333333333 -62.983133333333335 2328.4 0.0 0.0 1.0
38.080400000000004 -49.079100000000004 2328.4 0.0 0.0 1.0
35.89743333333334 -44.6154 2301.54 0.0 0.0 1.0
69.86666666666666 -47.6 2992.0 0.0 0.0 1.0
49.5748 -33.8495 2493.4233333333336 0.5373064956959472 -0.8059630877058407 0.2484456297434286
26.666700000000002 -20.0237 2129.54 0.0 0.0 1.0
25.35213333333333 -12.112699999999998 2107.04 0.0 0.0 1.0
25.7277 -11.7371 2107.04 0.0 0.0 1.0
26.1033 4.22535 2107.04 0.0 0.0 1.0
26.291066666666666 7.230043333333334 2107.04 0.0 0.0 1.0
25.915499999999998 10.04694 2107.04 0.0 0.0 1.0
21.8018 13.243233333333334 2021.62 0.0 0.0 1.0
21.08106666666667 13.6036 2021.62 0.0 0.0 1.0
19.779233333333334 18.2781 1981.46 0.0 0.0 1.0
16.0 15.125676666666665 1961.97 0.0 0.0 1.0
15.691333333333333 21.86493333333333 1924.12 0.0 0.0 1.0
70.66666666666667 40.4 2992.0 0.0 0.0 1.0
70.13333333333334 62.26666666666667 2992.0 0.0 0.0 1.0
70.4 63.333333333333336 2992.0 0.0 0.0 1.0
70.66666666666667 64.66666666666667 2992.0 0.0 0.0 1.0
70.93333333333334 69.2 2992.0 0.0 0.0 1.0
30.633733333333335 58.3316 2114.54 -0.16348300622021797 -0.980869020103309 0.105684776949069
71.2 88.39999999999999 2992.0 0.0 0.0 1.0
33.76423333333333 79.39163333333333 2275.29 0.0 0.0 1.0
70.13333333333334 116.13333333333333 2992.0 0.0 0.0 1.0
70.93333333333334 119.33333333333333 2992.0 0.0 0.0 1.0
70.66666666666667 129.73333333333335 2992.0 0.0 0.0 1.0
69.60000000000001 135.6 2992.0 0.0 0.0 1.0
71.46666666666667 142.79999999999998 2992.0 0.0 0.0 1.0
38.845166666666664 -101.522 2355.91 0.0 0.0 1.0
38.00526666666667 -94.80313333333334 2355.91 0.0 0.0 1.0
38.00526666666667 -92.91340000000001 2355.91 0.0 0.0 1.0
38.6352 -84.51443333333333 2355.91 0.0 0.0 1.0
37.0428 -66.92606666666667 2328.4 0.0 0.0 1.0
37.0428 -64.02076666666666 2328.4 0.0 0.0 1.0
36.420233333333336 -59.0402 2328.4 0.0 0.0 1.0
35.6923 -44.20513333333333 2301.54 0.0 0.0 1.0
69.06666666666666 -53.73333333333333 2992.0 0.0 0.0 1.0
69.33333333333333 -48.93333333333334 2992.0 0.0 0.0 1.0
68.8 -46.53333333333334 2992.0 0.0 0.0 1.0
25.9075 -24.7687 2129.54 0.0 0.0 1.0
25.16433333333333 -10.9859 2107.04 0.0 0.0 1.0
24.600966666666665 -9.29576 2107.04 0.0 0.0 1.0
24.976533333333332 -5.164316666666667 2107.04 0.0 0.0 1.0
25.7277 -3.4741766666666667 2107.04 0.0 0.0 1.0
24.976533333333332 -3.286383333333333 2107.04 0.0 0.0 1.0
25.5399 -0.4694833333333333 2107.04 0.0 0.0 1.0
24.976499999999998 3.4741766666666667 2107.04 0.0 0.0 1.0
25.16433333333333 7.230043333333334 2107.04 0.0 0.0 1.0
25.7277 8.920183333333332 2107.04 0.0 0.0 1.0
19.779233333333334 18.2781 1981.46 0.0 0.0 1.0
70.13333333333333 46.0 2992.0 0.0 0.0 1.0
-3.020543333333333 27.016000000000002 1542.2866666666666 -0.9460546056019902 0.3153532389746931 0.07438425833086527
69.06666666666666 59.6 2992.0 0.0 0.0 1.0
69.06666666666666 60.93333333333334 2992.0 0.0 0.0 1.0
21.137133333333335 56.98996666666667 2001.34 0.0 0.0 1.0
71.99999999999999 81.2 2992.0 0.0 0.0 1.0
33.64846666666667 63.127266666666664 2176.0 0.0 0.0 1.0
20.7804 62.34113333333334 2001.34 0.0 0.0 1.0
69.86666666666666 114.8 2992.0 0.0 0.0 1.0
70.66666666666667 123.86666666666667 2992.0 0.0 0.0 1.0
30.72243333333333 96.2231 2275.29 0.0 0.0 1.0
69.60000000000001 128.4 2992.0 0.0 0.0 1.0
70.66666666666667 130.8 2992.0 0.0 0.0 1.0
69.60000000000001 137.2 2992.0 0.0 0.0 1.0
0.6926533333333339 94.2857 1942.86 0.0 0.0 1.0
38.21523333333334 -112.231 2355.91 0.0 0.0 1.0
36.9554 -109.50099999999999 2355.91 0.0 0.0 1.0
37.58533333333333 -108.661 2355.91 0.0 0.0 1.0
37.37533333333334 -106.35199999999999 2355.91 0.0 0.0 1.0
36.955400000000004 -94.38316666666667 2355.91 0.0 0.0 1.0
37.58533333333333 -87.03413333333333 2355.91 0.0 0.0 1.0
37.58533333333333 -87.03413333333333 2355.91 0.0 0.0 1.0
36.0052 -80.62256666666666 2328.4 0.0 0.0 1.0
35.7977 -76.47213333333333 2328.4 0.0 0.0 1.0
35.38263333333333 -61.32296666666667 2328.4 0.0 0.0 1.0
35.38263333333333 -61.32296666666667 2328.4 0.0 0.0 1.0
35.1751 -56.75743333333333 2328.4 0.0 0.0 1.0
36.420233333333336 -53.2296 2328.4 0.0 0.0 1.0
69.06666666666666 -53.73333333333333 2992.0 0.0 0.0 1.0
68.8 -52.93333333333334 2992.0 0.0 0.0 1.0
26.0973 -24.199299999999997 2129.54 0.0 0.0 1.0
25.5279 -23.629900000000003 2129.54 0.0 0.0 1.0
24.413166666666665 -7.04225 2107.04 0.0 0.0 1.0
24.60093333333333 -0.28169 2107.04 0.0 0.0 1.0
24.60093333333333 3.4741766666666667 2107.04 0.0 0.0 1.0
24.60093333333333 3.4741766666666667 2107.04 0.0 0.0 1.0
18.81826666666667 15.785966666666667 2001.34 0.0 0.0 1.0
15.176833333333333 19.807066666666667 1924.12 0.0 0.0 1.0
15.440566666666667 19.6953 1881.8 -0.8568413749155097 -0.5063143056626037 0.0973071534590066
68.53333333333333 39.599999999999994 2992.0 0.0 0.0 1.0
69.6 43.6 2992.0 0.0 0.0 1.0
69.06666666666666 59.6 2992.0 0.0 0.0 1.0
69.06666666666666 60.4 2992.0 0.0 0.0 1.0
69.06666666666666 60.93333333333334 2992.0 0.0 0.0 1.0
20.360366666666668 50.7207 2021.62 0.0 0.0 1.0
22.4368 64.4598 2063.45 0.0 0.0 1.0
22.4368 64.4598 2063.45 0.0 0.0 1.0
40.781733333333335 75.78043333333333 2365.293333333333 0.46784237838369774 -0.8837041041041238 0.013804541926951486
19.8198 63.15313333333334 2021.62 0.0 0.0 1.0
21.954933333333333 62.117566666666676 2035.42 -0.9905779003920705 -0.12006988195812514 0.06586840442426943
71.2 103.06666666666666 2992.0 0.0 0.0 1.0
70.39999999999999 110.53333333333335 2992.0 0.0 0.0 1.0
69.06666666666666 115.33333333333333 2992.0 0.0 0.0 1.0
69.33333333333333 116.13333333333333 2992.0 0.0 0.0 1.0
72.4739 109.2582 2809.513333333334 0.515346299815686 0.8016767768694293 0.302873796645607
69.33333333333333 120.93333333333332 2992.0 0.0 0.0 1.0
69.60000000000001 122.0 2992.0 0.0 0.0 1.0
68.8 127.33333333333333 2992.0 0.0 0.0 1.0
68.8 134.79999999999998 2992.0 0.0 0.0 1.0
68.53333333333332 138.79999999999998 2992.0 0.0 0.0 1.0
36.95536666666666 -117.26999999999998 2355.91 0.0 0.0 1.0
36.325466666666664 -110.551 2355.91 0.0 0.0 1.0
36.53543333333334 -106.142 2355.91 0.0 0.0 1.0
34.76006666666667 -80.83006666666665 2328.4 0.0 0.0 1.0
34.76006666666667 -73.15173333333333 2328.4 0.0 0.0 1.0
34.34503333333333 -71.69906666666667 2328.4 0.0 0.0 1.0
34.96756666666667 -58.00256666666667 2328.4 0.0 0.0 1.0
34.96756666666667 -58.00256666666667 2328.4 0.0 0.0 1.0
34.76006666666667 -52.607033333333334 2328.4 0.0 0.0 1.0
24.6388 -41.672999999999995 2275.29 0.0 0.0 1.0
68.8 -52.93333333333334 2992.0 0.0 0.0 1.0
67.2 -49.73333333333333 2992.0 0.0 0.0 1.0
14.950800000000001 -30.338766666666668 1961.97 0.0 0.0 1.0
25.9075 -24.7687 2129.54 0.0 0.0 1.0
25.338099999999997 -22.680899999999998 2129.54 0.0 0.0 1.0
23.098633333333336 -16.2441 2107.04 0.0 0.0 1.0
24.600966666666665 -11.173700000000002 2107.04 0.0 0.0 1.0
24.976533333333332 -10.234723333333333 2107.04 0.0 0.0 1.0
24.413166666666665 -7.605630000000001 2107.04 0.0 0.0 1.0
24.413166666666665 -7.605630000000001 2107.04 0.0 0.0 1.0
24.225366666666662 -6.478870000000001 2107.04 0.0 0.0 1.0
24.976533333333332 -3.286383333333333 2107.04 0.0 0.0 1.0
24.60093333333333 3.4741766666666667 2107.04 0.0 0.0 1.0
24.225399999999997 5.35211 2107.04 0.0 0.0 1.0
24.22536666666667 7.230043333333334 2107.04 0.0 0.0 1.0
16.720233333333333 11.232566666666665 1924.12 0.0 0.0 1.0
20.18016666666667 13.6036 2021.62 0.0 0.0 1.0
15.176833333333333 19.807066666666667 1924.12 0.0 0.0 1.0
68.8 58.53333333333333 2992.0 0.0 0.0 1.0
68.26666666666667 64.66666666666667 2992.0 0.0 0.0 1.0
19.740233333333332 47.532466666666664 1942.86 0.0 0.0 1.0
-8.84388 39.08859999999999 1514.9399999999998 1.785528695277376e-28 -1.3231359918356013e-27 1.0
13.3754 56.10933333333333 1887.7 0.0 0.0 1.0
13.3754 56.10933333333333 1887.7 0.0 0.0 1.0
13.3754 56.10933333333333 1887.7 0.0 0.0 1.0
43.674533333333336 77.79526666666668 2355.91 0.0 0.0 1.0
20.7804 62.34113333333334 2001.34 0.0 0.0 1.0
22.4368 64.45980000000002 2063.45 0.0 0.0 1.0
10.833333333333334 66.91666666666667 1870.0 0.0 0.0 1.0
11.861200000000002 70.7466 1887.7 0.0 0.0 1.0
10.666666666666666 76.08333333333333 1870.0 0.0 0.0 1.0
68.8 127.33333333333333 2992.0 0.0 0.0 1.0
67.73333333333333 147.06666666666666 2992.0 0.0 0.0 1.0
67.73333333333333 147.06666666666666 2992.0 0.0 0.0 1.0
35.485533333333336 -117.69 2355.91 0.0 0.0 1.0
35.905499999999996 -105.722 2355.91 0.0 0.0 1.0
35.485566666666664 -97.95276666666666 2355.91 0.0 0.0 1.0
36.1155 -94.1732 2355.91 0.0 0.0 1.0
34.137499999999996 -84.15046666666667 2328.4 0.0 0.0 1.0
35.38263333333333 -61.32296666666667 2328.4 0.0 0.0 1.0
34.552533333333336 -58.21009999999999 2328.4 0.0 0.0 1.0
34.76006666666667 -56.13486666666666 2328.4 0.0 0.0 1.0
32.82053333333334 -52.410266666666665 2301.54 0.0 0.0 1.0
32.82053333333334 -52.410266666666665 2301.54 0.0 0.0 1.0
67.2 -49.73333333333333 2992.0 0.0 0.0 1.0
68.0 -44.93333333333334 2992.0 0.0 0.0 1.0
68.0 -44.93333333333334 2992.0 0.0 0.0 1.0
24.389100000000003 -28.564633333333333 2129.54 0.0 0.0 1.0
25.5279 -23.629900000000003 2129.54 0.0 0.0 1.0
63.20000000000001 -30.8 2992.0 0.0 0.0 1.0
23.098633333333336 -16.2441 2107.04 0.0 0.0 1.0
23.661999999999995 -6.103283333333334 2107.04 0.0 0.0 1.0
24.037566666666663 0.28169 2107.04 0.0 0.0 1.0
24.037566666666663 0.28169 2107.04 0.0 0.0 1.0
24.225366666666662 3.286383333333333 2107.04 0.0 0.0 1.0
18.81826666666667 15.785966666666667 2001.34 0.0 0.0 1.0
18.81826666666667 15.785966666666667 2001.34 0.0 0.0 1.0
14.77707 12.823766666666666 1905.7300000000002 -5.73206231311537e-30 3.3069778100763475e-30 1.0
15.176833333333333 19.807066666666667 1924.12 0.0 0.0 1.0
10.666666666666666 19.416666666666668 1870.0 0.0 0.0 1.0
-3.020543333333333 27.016000000000002 1542.2866666666666 -0.9460546056019902 0.3153532389746926 0.07438425833086544
67.46666666666667 54.53333333333334 2992.0 0.0 0.0 1.0
67.46666666666667 54.53333333333334 2992.0 0.0 0.0 1.0
14.625066666666667 47.90773333333333 1930.3666666666666 -0.9937238288988834 -0.1104209126967465 0.01789340430885037
15.650266666666667 61.464499999999994 1961.97 0.0 0.0 1.0
36.4586 71.77713333333334 2337.57 -0.9074674111153376 0.41882938783209056 -0.03293693446304437
27.425866666666668 73.35706666666667 2129.54 0.0 0.0 1.0
27.254766666666665 102.29816666666666 2292.79 0.5104502339652485 0.8507473178092295 -0.12517811264444392
67.2 135.33333333333334 2992.0 0.0 0.0 1.0
66.66666666666667 140.4 2992.0 0.0 0.0 1.0
34.4357 113.491 2355.91 0.0 0.0 1.0
67.73333333333333 147.0666666666667 2992.0 0.0 0.0 1.0
35.0656 -111.601 2355.91 0.0 0.0 1.0
35.2756 -105.722 2355.91 0.0 0.0 1.0
35.485566666666664 -97.95276666666666 2355.91 0.0 0.0 1.0
35.2756 -97.32283333333332 2355.91 0.0 0.0 1.0
35.2756 -97.32283333333332 2355.91 0.0 0.0 1.0
35.065599999999996 -94.38316666666667 2355.91 0.0 0.0 1.0
35.06563333333333 -91.02359999999999 2355.91 0.0 0.0 1.0
34.85566666666667 -90.39370000000001 2355.91 0.0 0.0 1.0
33.929966666666665 -84.358 2328.4 0.0 0.0 1.0
34.137499999999996 -84.15046666666667 2328.4 0.0 0.0 1.0
34.34503333333333 -77.92476666666667 2328.4 0.0 0.0 1.0
34.1375 -73.56676666666665 2328.4 0.0 0.0 1.0
34.34503333333333 -71.69906666666667 2328.4 0.0 0.0 1.0
34.34503333333333 -71.69906666666667 2328.4 0.0 0.0 1.0
34.552533333333336 -58.21009999999999 2328.4 0.0 0.0 1.0
34.76006666666667 -56.13486666666666 2328.4 0.0 0.0 1.0
49.247299999999996 -41.82796666666666 2412.9 0.0 0.0 1.0
66.66666666666667 -50.0 2992.0 0.0 0.0 1.0
66.66666666666667 -50.0 2992.0 0.0 0.0 1.0
24.199300000000004 -28.754433333333328 2129.54 0.0 0.0 1.0
23.8197 -27.8055 2129.54 0.0 0.0 1.0
22.9108 -7.605630000000001 2107.04 0.0 0.0 1.0
23.0986 -6.854456666666667 2107.04 0.0 0.0 1.0
23.2864 -6.291076666666666 2107.04 0.0 0.0 1.0
21.27756666666667 2.32288 2085.02 0.0 0.0 1.0
22.910833333333333 7.417836666666666 2107.04 0.0 0.0 1.0
16.720233333333333 11.232566666666665 1924.12 0.0 0.0 1.0
20.18016666666667 13.063066666666666 2021.62 0.0 0.0 1.0
8.997953333333333 16.768900000000002 1835.58 0.0 0.0 1.0
8.997953333333333 16.768900000000002 1835.58 0.0 0.0 1.0
68.53333333333333 39.6 2992.0 0.0 0.0 1.0
9.161556666666668 26.5849 1835.58 0.0 0.0 1.0
8.997956666666667 29.038866666666667 1835.58 0.0 0.0 1.0
67.73333333333333 63.6 2992.0 0.0 0.0 1.0
67.46666666666667 69.73333333333333 2992.0 0.0 0.0 1.0
19.740233333333332 47.532466666666664 1942.86 0.0 0.0 1.0
14.971399999999997 48.08090000000001 1930.3666666666666 -0.9910203795774636 -0.11012050997637358 0.0758424719051479
9.60631 69.30416666666667 1858.42 0.9854000978206893 0.15766767592024833 0.06424602077081136
40.701766666666664 84.1103 2249.62 0.0 0.0 1.0
68.0 120.93333333333334 2992.0 0.0 0.0 1.0
23.819699999999997 84.17556666666667 2129.54 0.0 0.0 1.0
20.029500000000002 90.41973333333333 2014.86 -0.9136699020763059 -0.365466270539513 0.17788118264114744
20.515933333333333 92.12006666666667 2028.5199999999998 0.9282893854075587 0.37131403682594327 0.02011723131246029
34.4357 113.491 2355.91 0.0 0.0 1.0
35.275600000000004 -105.722 2355.91 0.0 0.0 1.0
34.64566666666666 -95.64303333333334 2355.91 0.0 0.0 1.0
35.06563333333333 -91.02359999999999 2355.91 0.0 0.0 1.0
34.85566666666667 -90.39370000000001 2355.91 0.0 0.0 1.0
33.72246666666667 -84.15046666666667 2328.4 0.0 0.0 1.0
33.3074 -80.62256666666667 2328.4 0.0 0.0 1.0
33.3074 -80.62256666666667 2328.4 0.0 0.0 1.0
33.3074 -80.0 2328.4 0.0 0.0 1.0
33.3074 -80.0 2328.4 0.0 0.0 1.0
33.3074 -73.56676666666665 2328.4 0.0 0.0 1.0
32.68483333333333 -68.1712 2328.4 0.0 0.0 1.0
32.2698 -63.605700000000006 2328.4 0.0 0.0 1.0
30.974333333333334 -54.87180000000001 2301.54 0.0 0.0 1.0
32.20513333333333 -51.79486666666667 2301.54 0.0 0.0 1.0
33.3074 -52.399499999999996 2328.4 0.0 0.0 1.0
16.655313333333336 -27.212766666666667 2042.32 0.0 0.0 1.0
23.8197 -27.8055 2129.54 0.0 0.0 1.0
23.8197 -27.8055 2129.54 0.0 0.0 1.0
66.66666666666667 -23.066666666666666 2992.0 0.0 0.0 1.0
22.9108 -7.605630000000001 2107.04 0.0 0.0 1.0
21.27756666666667 2.32288 2085.02 0.0 0.0 1.0
23.474199999999996 3.286383333333333 2107.04 0.0 0.0 1.0
8.186423333333334 33.313066666666664 1818.84 0.0 0.0 1.0
8.51064 34.1236 1818.84 0.0 0.0 1.0
8.51064 34.1236 1818.84 0.0 0.0 1.0
8.51064 41.90476666666666 1818.84 0.0 0.0 1.0
67.46666666666667 69.73333333333333 2992.0 0.0 0.0 1.0
20.360366666666668 50.7207 2021.62 0.0 0.0 1.0
8.51064 49.685900000000004 1818.84 0.0 0.0 1.0
8.51064 49.685900000000004 1818.84 0.0 0.0 1.0
8.51064 49.685900000000004 1818.84 0.0 0.0 1.0
69.06666666666666 87.86666666666667 2992.0 0.0 0.0 1.0
8.51064 51.9554 1818.84 0.0 0.0 1.0
66.13333333333333 100.13333333333333 2992.0 0.0 0.0 1.0
14.950800000000001 67.235 1961.97 0.0 0.0 1.0
20.7207 74.50450000000001 2021.62 0.0 0.0 1.0
31.3308 93.78963333333333 2275.29 0.0 0.0 1.0
35.331799999999994 119.007 2546.4733333333334 -8.500268696680946e-16 0.9553515932131273 0.29547137483204533
67.2 136.93333333333334 2992.0 0.0 0.0 1.0
19.388900000000003 92.89483333333334 2042.4633333333331 -0.9997457665787413 2.506161473144338e-05 0.022547762190544766
19.878793333333334 103.27266666666667 2176.0 0.0 0.0 1.0
33.385799999999996 -118.11 2355.91 0.0 0.0 1.0
34.01573333333334 -94.80313333333334 2355.91 0.0 0.0 1.0
32.062266666666666 -86.4332 2328.4 0.0 0.0 1.0
32.89233333333333 -73.7743 2328.4 0.0 0.0 1.0
32.89233333333333 -73.7743 2328.4 0.0 0.0 1.0
32.4773 -69.00126666666667 2328.4 0.0 0.0 1.0
32.062266666666666 -60.907900000000005 2328.4 0.0 0.0 1.0
31.384600000000002 -51.3846 2301.54 0.0 0.0 1.0
65.06666666666666 -53.46666666666667 2992.0 0.0 0.0 1.0
21.40846666666667 -24.507 2107.04 0.0 0.0 1.0
21.9718 -23.380266666666667 2107.04 0.0 0.0 1.0
21.408433333333335 -22.4413 2107.04 0.0 0.0 1.0
12.13794 -20.50576666666667 2063.45 0.0 0.0 1.0
20.845066666666668 -19.4366 2107.04 0.0 0.0 1.0
21.784033333333337 -11.5493 2107.04 0.0 0.0 1.0
21.784033333333337 -11.549300000000002 2107.04 0.0 0.0 1.0
21.784033333333337 -0.6572766666666666 2107.04 0.0 0.0 1.0
21.784033333333337 -0.6572766666666666 2107.04 0.0 0.0 1.0
19.976733333333332 6.22532 2085.02 0.0 0.0 1.0
8.173373333333334 11.806 1852.63 0.0 0.0 1.0
14.4262 10.57922 1961.97 0.0 0.0 1.0
7.375886666666666 14.832833333333333 1818.84 0.0 0.0 1.0
4.4979933333333335 17.269066666666667 1802.41 0.0 0.0 1.0
9.161556666666668 26.5849 1835.58 0.0 0.0 1.0
8.67076 27.5665 1835.58 0.0 0.0 1.0
8.67076 27.5665 1835.58 0.0 0.0 1.0
6.265060000000001 34.297200000000004 1802.41 0.0 0.0 1.0
6.746989999999999 39.2771 1802.41 0.0 0.0 1.0
6.746989999999999 44.25703333333334 1802.41 0.0 0.0 1.0
7.068276666666667 49.71886666666668 1802.41 0.0 0.0 1.0
7.22892 50.52206666666667 1802.41 0.0 0.0 1.0
7.22892 50.52206666666667 1802.41 0.0 0.0 1.0
18.431383333333333 79.70586666666667 2200.0 0.0 0.0 1.0
14.950800000000001 67.235 1961.97 0.0 0.0 1.0
26.282966666666667 72.23023333333333 2152.52 0.0 0.0 1.0
5.140563333333334 57.42973333333333 1802.41 0.0 0.0 1.0
65.86666666666667 110.26666666666667 2992.0 0.0 0.0 1.0
10.833333333333334 71.58333333333333 1870.0 0.0 0.0 1.0
10.851733333333334 73.4385 1887.7 0.0 0.0 1.0
20.438933333333335 83.62923333333333 2056.4066666666663 -0.9934735414785847 -0.11354027429346436 -0.0109054342125176
34.0628 121.861 2524.9833333333336 -7.332258282521493e-17 -0.9988369619612534 0.04821538571880822
33.385799999999996 -118.11 2355.91 0.0 0.0 1.0
32.7559 -112.86099999999999 2355.91 0.0 0.0 1.0
32.54593333333333 -108.871 2355.91 0.0 0.0 1.0
34.4357 -105.722 2355.91 0.0 0.0 1.0
32.7559 -101.522 2355.91 0.0 0.0 1.0
33.59576666666667 -94.1732 2355.91 0.0 0.0 1.0
32.96586666666667 -93.75326666666666 2355.91 0.0 0.0 1.0
32.062266666666666 -86.4332 2328.4 0.0 0.0 1.0
32.68483333333334 -73.15173333333333 2328.4 0.0 0.0 1.0
32.477333333333334 -66.92606666666667 2328.4 0.0 0.0 1.0
31.854766666666666 -65.68093333333333 2328.4 0.0 0.0 1.0
31.4397 -62.36056666666667 2328.4 0.0 0.0 1.0
32.062266666666666 -60.07783333333333 2328.4 0.0 0.0 1.0
30.974333333333334 -54.87180000000001 2301.54 0.0 0.0 1.0
31.384600000000002 -51.3846 2301.54 0.0 0.0 1.0
9.166486666666666 -37.4756 1734.5199999999998 0.6770629619605673 -1.5944750707316478e-13 0.7359250950614358
9.166486666666666 -37.4756 1734.5199999999998 0.6770629619605659 -1.6556918751882e-13 0.7359250950614371
65.86666666666667 -54.79999999999999 2992.0 0.0 0.0 1.0
14.950800000000001 -30.338766666666668 1961.97 0.0 0.0 1.0
23.2503 -27.8055 2129.54 0.0 0.0 1.0
21.40846666666667 -24.507 2107.04 0.0 0.0 1.0
20.8451 -16.8075 2107.04 0.0 0.0 1.0
21.784033333333337 -11.5493 2107.04 0.0 0.0 1.0
21.220699999999997 -3.66197 2107.04 0.0 0.0 1.0
21.220699999999997 -3.66197 2107.04 0.0 0.0 1.0
21.40846666666667 -0.09389666666666667 2107.04 0.0 0.0 1.0
17.929433333333332 2.2753133333333335 2042.32 0.0 0.0 1.0
19.790900000000004 4.181183333333333 2085.02 0.0 0.0 1.0
22.910833333333333 7.417836666666666 2107.04 0.0 0.0 1.0
13.9016 9.18033 1961.97 0.0 0.0 1.0
36.145900000000005 17.264066666666665 2266.733333333333 0.2570990205090898 -0.9641081206721589 -0.06629951211935421
8.507156666666667 15.132900000000001 1835.58 0.0 0.0 1.0
7.375886666666666 14.832833333333333 1818.84 0.0 0.0 1.0
10.666666666666666 19.416666666666668 1870.0 0.0 0.0 1.0
10.666666666666666 19.416666666666668 1870.0 0.0 0.0 1.0
8.173376666666666 16.264200000000002 1852.63 0.0 0.0 1.0
7.375883333333333 23.262433333333334 1818.84 0.0 0.0 1.0
6.889563333333332 24.559266666666662 1818.84 0.0 0.0 1.0
8.67076 27.5665 1835.58 0.0 0.0 1.0
7.375883333333333 30.557233333333333 1818.84 0.0 0.0 1.0
7.375883333333333 31.8541 1818.84 0.0 0.0 1.0
7.375883333333333 31.854100000000003 1818.84 0.0 0.0 1.0
6.586346666666667 39.91966666666667 1802.41 0.0 0.0 1.0
6.425703333333334 40.240966666666665 1802.41 0.0 0.0 1.0
6.746989999999999 44.25703333333334 1802.41 0.0 0.0 1.0
6.74699 49.23696666666667 1802.41 0.0 0.0 1.0
5.943773333333333 52.4498 1802.41 0.0 0.0 1.0
5.651743333333333 55.4826 1786.2699999999998 1.2062595521818014e-26 -6.197422459465851e-27 1.0
5.333333333333333 55.800999999999995 1786.2699999999998 4.9246040078542984e-27 -1.0181460886805978e-26 1.0
66.13333333333333 100.13333333333333 2992.0 0.0 0.0 1.0
5.97015 57.71143333333333 1786.2699999999998 1.0 0.0 0.0
26.282966666666667 72.23023333333333 2152.52 0.0 0.0 1.0
14.601066666666666 68.28416666666668 1961.97 0.0 0.0 1.0
14.601066666666666 68.28416666666668 1961.97 0.0 0.0 1.0
65.86666666666667 110.26666666666667 2992.0 0.0 0.0 1.0
10.851733333333334 73.4385 1887.7 0.0 0.0 1.0
25.115166666666667 96.8728 2176.0 0.0 0.0 1.0
30.72243333333334 96.2231 2275.29 0.0 0.0 1.0
23.819699999999997 84.17556666666667 2129.54 0.0 0.0 1.0
46.5014 98.62263333333334 2472.73 0.0 0.0 1.0
6.38974 68.09543333333333 1791.6499999999999 -0.9969725289432244 -7.913125853365952e-17 0.0777545917136214
19.878793333333334 103.27266666666667 2176.0 0.0 0.0 1.0
62.666666666666664 142.26666666666668 2992.0 0.0 0.0 1.0
32.755900000000004 -118.11 2355.91 0.0 0.0 1.0
32.33596666666667 -115.17066666666665 2355.91 0.0 0.0 1.0
32.7559 -112.86099999999999 2355.91 0.0 0.0 1.0
32.54593333333333 -102.152 2355.91 0.0 0.0 1.0
32.54593333333333 -101.94200000000001 2355.91 0.0 0.0 1.0
27.7043 -98.05446666666667 2328.4 0.0 0.0 1.0
32.33596666666667 -91.23356666666666 2355.91 0.0 0.0 1.0
31.232166666666668 -85.81063333333333 2328.4 0.0 0.0 1.0
31.02463333333333 -78.1323 2328.4 0.0 0.0 1.0
31.02463333333333 -77.50973333333333 2328.4 0.0 0.0 1.0
31.647199999999998 -69.00126666666667 2328.4 0.0 0.0 1.0
31.232199999999995 -64.6433 2328.4 0.0 0.0 1.0
31.4397 -62.36056666666667 2328.4 0.0 0.0 1.0
32.062266666666666 -60.07783333333333 2328.4 0.0 0.0 1.0
30.974333333333334 -54.8718 2301.54 0.0 0.0 1.0
31.854733333333332 -51.361866666666664 2328.4 0.0 0.0 1.0
31.854733333333332 -50.32426666666667 2328.4 0.0 0.0 1.0
21.7319 -26.666700000000002 2129.54 0.0 0.0 1.0
20.8451 -24.6948 2107.04 0.0 0.0 1.0
63.20000000000001 -27.333333333333332 2992.0 0.0 0.0 1.0
20.8451 -16.8075 2107.04 0.0 0.0 1.0
20.657300000000003 -15.305166666666667 2107.04 0.0 0.0 1.0
22.159633333333332 -7.417836666666666 2107.04 0.0 0.0 1.0
20.8451 -2.9107966666666667 2107.04 0.0 0.0 1.0
21.40846666666667 -0.09389666666666667 2107.04 0.0 0.0 1.0
17.929433333333332 2.275313333333333 2042.32 0.0 0.0 1.0
17.929433333333332 2.2753133333333335 2042.32 0.0 0.0 1.0
19.790899999999997 4.181183333333333 2085.02 0.0 0.0 1.0
14.076466666666667 8.830603333333334 1961.97 0.0 0.0 1.0
13.9016 9.18033 1961.97 0.0 0.0 1.0
8.173376666666666 16.264200000000002 1852.63 0.0 0.0 1.0
1.6716433333333331 18.22883333333333 1786.2699999999998 -3.1834858632402776e-27 -2.0284844547224097e-26 1.0
7.0516700000000005 22.28976666666667 1818.84 0.0 0.0 1.0
7.375883333333333 30.557233333333333 1818.84 0.0 0.0 1.0
7.375883333333333 31.8541 1818.84 0.0 0.0 1.0
6.265059999999999 34.45783333333333 1802.41 0.0 0.0 1.0
6.74699 39.2771 1802.41 0.0 0.0 1.0
6.265060000000001 45.060233333333336 1802.41 0.0 0.0 1.0
5.943773333333333 46.827333333333335 1802.41 0.0 0.0 1.0
6.74699 49.23696666666667 1802.41 0.0 0.0 1.0
4.418143333333333 56.41026666666667 1770.41 0.0 0.0 1.0
10.833333333333334 66.91666666666667 1870.0 0.0 0.0 1.0
10.851733333333334 73.4385 1887.7 0.0 0.0 1.0
7.21378 68.00403333333334 1818.84 0.0 0.0 1.0
9.439643333333334 73.80416666666667 1858.42 0.98699628996932 0.15792307259308577 -0.029977103421723522
30.72243333333334 96.2231 2275.29 0.0 0.0 1.0
34.31946666666666 91.4397 2319.4466666666667 -0.9600158101695923 -0.2707723720743904 -0.07107718864466328
32.755900000000004 -118.11 2355.91 0.0 0.0 1.0
32.335966666666664 -117.69 2355.91 0.0 0.0 1.0
32.54593333333333 -113.70100000000001 2355.91 0.0 0.0 1.0
32.12596666666666 -109.291 2355.91 0.0 0.0 1.0
32.12596666666666 -108.45100000000001 2355.91 0.0 0.0 1.0
32.33596666666667 -102.152 2355.91 0.0 0.0 1.0
32.126 -101.73200000000001 2355.91 0.0 0.0 1.0
32.96586666666666 -93.75326666666666 2355.91 0.0 0.0 1.0
32.33596666666667 -91.23356666666666 2355.91 0.0 0.0 1.0
32.335966666666664 -91.23356666666666 2355.91 0.0 0.0 1.0
31.02463333333333 -78.1323 2328.4 0.0 0.0 1.0
31.02463333333333 -77.50973333333333 2328.4 0.0 0.0 1.0
30.19456666666667 -72.94420000000001 2328.4 0.0 0.0 1.0
30.6096 -69.00126666666667 2328.4 0.0 0.0 1.0
30.817133333333334 -62.15303333333333 2328.4 0.0 0.0 1.0
31.232166666666668 -50.73929999999999 2328.4 0.0 0.0 1.0
20.782899999999998 -42.7995 2129.54 0.0 0.0 1.0
14.950800000000001 -30.338766666666668 1961.97 0.0 0.0 1.0
20.5931 -31.980999999999998 2129.54 0.0 0.0 1.0
21.5421 -27.61566666666667 2129.54 0.0 0.0 1.0
20.845100000000002 -24.6948 2107.04 0.0 0.0 1.0
20.845100000000002 -24.131433333333334 2107.04 0.0 0.0 1.0
20.845066666666668 -22.4413 2107.04 0.0 0.0 1.0
20.845100000000002 -16.8075 2107.04 0.0 0.0 1.0
20.657300000000003 -15.305166666666667 2107.04 0.0 0.0 1.0
21.032866666666667 -2.1596233333333337 2107.04 0.0 0.0 1.0
19.790899999999997 4.181183333333333 2085.02 0.0 0.0 1.0
13.9016 9.18033 1961.97 0.0 0.0 1.0
8.173373333333334 11.806 1852.63 0.0 0.0 1.0
39.7406 17.328166666666668 2328.4 0.0 0.0 1.0
7.375886666666666 14.832833333333333 1818.84 0.0 0.0 1.0
8.997953333333333 16.768900000000002 1835.58 0.0 0.0 1.0
1.6716433333333331 18.22883333333333 1786.2699999999998 -3.183485863240253e-27 -2.0284844547223945e-26 1.0
6.241133333333333 21.641333333333336 1818.84 0.0 0.0 1.0
5.943773333333333 40.7229 1802.41 0.0 0.0 1.0
6.104416666666666 46.0241 1802.41 0.0 0.0 1.0
5.943773333333333 46.827333333333335 1802.41 0.0 0.0 1.0
5.301203333333333 52.28916666666667 1802.41 0.0 0.0 1.0
4.218906666666666 54.36816666666667 1786.2699999999998 -1.93660618309443e-28 2.767436660055534e-29 1.0
4.418143333333333 56.41026666666667 1770.41 0.0 0.0 1.0
4.26035 57.04143333333334 1770.41 0.0 0.0 1.0
3.629186666666667 57.672599999999996 1770.41 0.0 0.0 1.0
10.666666666666666 76.08333333333333 1870.0 0.0 0.0 1.0
27.64706666666667 86.56863333333332 2200.0 0.0 0.0 1.0
61.86666666666667 131.86666666666667 2992.0 0.0 0.0 1.0
2.0264146666666667 73.5059 1749.7366666666667 0.9721817948190971 -0.2001547241027983 -0.12165789839403028
34.4357 113.491 2355.91 0.0 0.0 1.0
61.86666666666667 142.53333333333333 2992.0 0.0 0.0 1.0
62.13333333333333 143.86666666666667 2992.0 0.0 0.0 1.0
60.79999999999999 148.9333333333333 2992.0 0.0 0.0 1.0
31.91603333333333 -101.94200000000001 2355.91 0.0 0.0 1.0
30.656166666666664 -95.43306666666666 2355.91 0.0 0.0 1.0
29.36446666666667 -80.41503333333334 2328.4 0.0 0.0 1.0
30.19456666666667 -72.94420000000001 2328.4 0.0 0.0 1.0
31.024666666666672 -66.71853333333333 2328.4 0.0 0.0 1.0
30.817133333333334 -63.605700000000006 2328.4 0.0 0.0 1.0
30.817133333333334 -62.15303333333333 2328.4 0.0 0.0 1.0
20.2135 -43.7485 2129.54 0.0 0.0 1.0
20.9727 -43.3689 2129.54 0.0 0.0 1.0
20.4033 -36.726 2129.54 0.0 0.0 1.0
20.593100000000003 -34.4484 2129.54 0.0 0.0 1.0
20.9727 -33.1198 2129.54 0.0 0.0 1.0
20.7829 -26.4769 2129.54 0.0 0.0 1.0
20.4033 -19.8339 2129.54 0.0 0.0 1.0
20.4033 -19.8339 2129.54 0.0 0.0 1.0
19.342699999999997 -10.422533333333334 2107.04 0.0 0.0 1.0
15.315333333333333 6.036036666666667 2021.62 0.0 0.0 1.0
15.315333333333333 6.036036666666667 2021.62 0.0 0.0 1.0
5.916923333333334 19.2097 1818.84 0.0 0.0 1.0
5.916923333333334 19.2097 1818.84 0.0 0.0 1.0
6.889563333333334 29.584566666666664 1818.84 0.0 0.0 1.0
5.14056 29.4779 1802.41 0.0 0.0 1.0
4.979916666666667 29.959833333333336 1802.41 0.0 0.0 1.0
4.658633333333333 31.245 1802.41 0.0 0.0 1.0
5.622486666666667 34.45783333333333 1802.41 0.0 0.0 1.0
5.622486666666667 34.45783333333333 1802.41 0.0 0.0 1.0
5.943773333333333 40.7229 1802.41 0.0 0.0 1.0
5.461846666666666 44.096399999999996 1802.41 0.0 0.0 1.0
5.3012033333333335 52.28916666666667 1802.41 0.0 0.0 1.0
1.6422273333333335 59.667633333333335 1754.84 0.0 0.0 1.0
1.5503886666666666 63.1783 1739.53 0.0 0.0 1.0
64.0 115.60000000000001 2992.0 0.0 0.0 1.0
7.21378 68.00403333333334 1818.84 0.0 0.0 1.0
61.86666666666667 131.86666666666665 2992.0 0.0 0.0 1.0
61.86666666666667 131.86666666666665 2992.0 0.0 0.0 1.0
2.178761 79.913 1739.6233333333332 -0.9867090110990542 0.12377522053394778 0.10528543202978616
61.86666666666667 142.53333333333333 2992.0 0.0 0.0 1.0
61.86666666666667 142.53333333333333 2992.0 0.0 0.0 1.0
61.86666666666667 143.86666666666667 2992.0 0.0 0.0 1.0
31.076099999999997 -112.86099999999999 2355.91 0.0 0.0 1.0
30.656133333333333 -109.081 2355.91 0.0 0.0 1.0
30.656133333333333 -109.081 2355.91 0.0 0.0 1.0
30.446166666666667 -104.67200000000001 2355.91 0.0 0.0 1.0
30.8661 -104.252 2355.91 0.0 0.0 1.0
30.446166666666667 -103.832 2355.91 0.0 0.0 1.0
31.496066666666668 -102.152 2355.91 0.0 0.0 1.0
31.496066666666668 -101.31200000000001 2355.91 0.0 0.0 1.0
30.656133333333333 -98.58253333333333 2355.91 0.0 0.0 1.0
29.36446666666667 -85.6031 2328.4 0.0 0.0 1.0
29.36446666666667 -85.6031 2328.4 0.0 0.0 1.0
29.36446666666667 -83.1128 2328.4 0.0 0.0 1.0
29.572000000000003 -72.7367 2328.4 0.0 0.0 1.0
30.6096 -69.00126666666667 2328.4 0.0 0.0 1.0
27.6923 -58.35893333333333 2301.54 0.0 0.0 1.0
20.4033 -42.2301 2129.54 0.0 0.0 1.0
19.833900000000003 -41.2811 2129.54 0.0 0.0 1.0
20.4033 -36.726 2129.54 0.0 0.0 1.0
20.4033 -36.726 2129.54 0.0 0.0 1.0
25.26318333333333 -17.744366666666668 2249.62 0.0 0.0 1.0
19.3427 -10.422533333333334 2107.04 0.0 0.0 1.0
19.342699999999997 -10.422533333333334 2107.04 0.0 0.0 1.0
20.0237 -5.978646666666667 2129.54 0.0 0.0 1.0
20.0237 -5.409253333333333 2129.54 0.0 0.0 1.0
20.0237 -5.409253333333333 2129.54 0.0 0.0 1.0
17.3068 12.803503333333333 1981.46 0.0 0.0 1.0
9.54292 3.121513333333333 2001.34 0.0 0.0 1.0
-8.991353333333334 20.365033333333333 1724.5 0.0 0.0 1.0
4.176709333333333 16.6265 1802.41 0.0 0.0 1.0
5.916923333333333 19.2097 1818.84 0.0 0.0 1.0
6.403243333333333 26.342433333333332 1818.84 0.0 0.0 1.0
5.14056 29.4779 1802.41 0.0 0.0 1.0
4.33735 49.0763 1802.41 0.0 0.0 1.0
5.3012033333333335 52.28916666666667 1802.41 0.0 0.0 1.0
4.218906666666666 54.8458 1786.2699999999998 -3.71839044949556e-26 -5.179330359926803e-26 1.0
1.5503886666666666 62.403099999999995 1739.53 0.0 0.0 1.0
-0.38424600000000003 66.01346666666666 1724.5 0.0 0.0 1.0
60.79999999999999 148.9333333333333 2992.0 0.0 0.0 1.0
30.866133333333334 -113.49099999999999 2355.91 0.0 0.0 1.0
30.446166666666667 -111.81099999999999 2355.91 0.0 0.0 1.0
29.816266666666667 -110.13100000000001 2355.91 0.0 0.0 1.0
30.656133333333333 -109.081 2355.91 0.0 0.0 1.0
30.4462 -96.27296666666666 2355.91 0.0 0.0 1.0
31.286099999999994 -94.38319999999999 2355.91 0.0 0.0 1.0
31.496066666666668 -90.60366666666665 2355.91 0.0 0.0 1.0
28.9494 -87.2633 2328.4 0.0 0.0 1.0
28.9494 -87.2633 2328.4 0.0 0.0 1.0
28.9494 -86.01816666666667 2328.4 0.0 0.0 1.0
29.36446666666667 -80.41503333333334 2328.4 0.0 0.0 1.0
28.534366666666667 -78.9624 2328.4 0.0 0.0 1.0
28.534366666666667 -78.9624 2328.4 0.0 0.0 1.0
29.15693333333333 -72.11413333333333 2328.4 0.0 0.0 1.0
29.15693333333333 -72.11413333333333 2328.4 0.0 0.0 1.0
26.87176666666667 -65.94873333333334 2301.54 0.0 0.0 1.0
28.326833333333337 -61.115433333333335 2328.4 0.0 0.0 1.0
27.6923 -58.35893333333333 2301.54 0.0 0.0 1.0
28.326833333333337 -55.3048 2328.4 0.0 0.0 1.0
19.8339 -41.8505 2129.54 0.0 0.0 1.0
19.8339 -41.2811 2129.54 0.0 0.0 1.0
19.0747 -39.76273333333333 2129.54 0.0 0.0 1.0
20.593100000000003 -31.980999999999998 2129.54 0.0 0.0 1.0
19.0747 -27.236099999999997 2129.54 0.0 0.0 1.0
20.0237 -18.8849 2129.54 0.0 0.0 1.0
20.0237 -18.8849 2129.54 0.0 0.0 1.0
-13.266346666666665 -16.41541666666667 1503.5199999999998 8.985066856664378e-29 -8.2541762152116e-29 1.0
23.17573333333333 -13.090919999999999 2176.0 0.0 0.0 1.0
19.6441 -6.358243333333334 2129.54 0.0 0.0 1.0
18.591533333333334 -3.849763333333333 2107.04 0.0 0.0 1.0
15.315333333333333 6.036036666666667 2021.62 0.0 0.0 1.0
8.173373333333332 11.806 1852.63 0.0 0.0 1.0
4.295846666666667 20.6687 1818.84 0.0 0.0 1.0
4.658633333333333 30.763066666666663 1802.41 0.0 0.0 1.0
4.658633333333333 31.245 1802.41 0.0 0.0 1.0
4.176706666666667 36.546166666666664 1802.41 0.0 0.0 1.0
4.33735 36.86746666666667 1802.41 0.0 0.0 1.0
4.33735 36.86746666666667 1802.41 0.0 0.0 1.0
4.337346666666666 44.25703333333333 1802.41 0.0 0.0 1.0
4.016063333333333 48.112433333333335 1802.41 0.0 0.0 1.0
4.016063333333333 48.112433333333335 1802.41 0.0 0.0 1.0
3.263683333333333 54.527366666666666 1786.2699999999998 -5.164338497029723e-28 -7.378222145469437e-29 1.0
3.422886666666667 55.004999999999995 1786.2699999999998 7.171129678787959e-26 -2.0053023772177596e-25 1.0
2.3668633333333333 55.1479 1770.41 0.0 0.0 1.0
-1.921229 72.16136666666667 1724.5 0.0 0.0 1.0
60.26666666666667 142.8 2992.0 0.0 0.0 1.0
24.59143333333333 -105.52533333333334 2328.4 0.0 0.0 1.0
29.6063 -104.882 2355.91 0.0 0.0 1.0
30.026233333333334 -104.04199999999999 2355.91 0.0 0.0 1.0
30.4462 -96.27296666666666 2355.91 0.0 0.0 1.0
28.741866666666667 -86.64073333333333 2328.4 0.0 0.0 1.0
27.9118 -61.94553333333334 2328.4 0.0 0.0 1.0
26.871799999999997 -58.769200000000005 2301.54 0.0 0.0 1.0
26.871799999999997 -56.92306666666667 2301.54 0.0 0.0 1.0
28.32683333333333 -55.3048 2328.4 0.0 0.0 1.0
27.6923 -51.589733333333335 2301.54 0.0 0.0 1.0
20.0237 -43.179100000000005 2129.54 0.0 0.0 1.0
19.0747 -39.76273333333333 2129.54 0.0 0.0 1.0
20.0237 -35.20759999999999 2129.54 0.0 0.0 1.0
19.0747 -27.236099999999997 2129.54 0.0 0.0 1.0
57.333333333333336 -32.93333333333334 2992.0 0.0 0.0 1.0
18.1257 -24.0095 2129.54 0.0 0.0 1.0
17.8404 -22.441333333333333 2107.04 0.0 0.0 1.0
17.464799999999997 -20.1878 2107.04 0.0 0.0 1.0
59.73333333333333 -27.333333333333332 2992.0 0.0 0.0 1.0
19.376499999999997 -9.688233333333333 2152.52 0.0 0.0 1.0
19.644099999999998 -6.358243333333334 2129.54 0.0 0.0 1.0
19.718333333333334 -0.8450700000000001 2107.04 0.0 0.0 1.0
8.159816666666666 1.2618200000000002 1887.7 0.0 0.0 1.0
42.2183 5.922033333333334 2524.9833333333336 -0.8938822607824889 -0.4469427000101329 0.03488161071451235
35.8159 16.847966666666668 2503.77 0.0 0.0 1.0
3.855423333333333 28.6747 1802.41 0.0 0.0 1.0
3.534136666666667 33.815266666666666 1802.41 0.0 0.0 1.0
3.534136666666667 33.815266666666666 1802.41 0.0 0.0 1.0
4.016063333333333 36.224866666666664 1802.41 0.0 0.0 1.0
4.016063333333333 36.224866666666664 1802.41 0.0 0.0 1.0
3.85542 47.630533333333325 1802.41 0.0 0.0 1.0
3.855423333333333 49.23696666666666 1802.41 0.0 0.0 1.0
2.3668633333333333 55.1479 1770.41 0.0 0.0 1.0
1.89349 58.30376666666666 1770.41 0.0 0.0 1.0
-0.7619053333333333 68.0381 1709.71 0.0 0.0 1.0
-0.7619053333333333 68.0381 1709.71 0.0 0.0 1.0
-1.980954333333333 73.21903333333334 1709.71 0.0 0.0 1.0
60.26666666666667 142.8 2992.0 0.0 0.0 1.0
60.800000000000004 148.93333333333334 2992.0 0.0 0.0 1.0
27.716533333333334 -118.11 2355.91 0.0 0.0 1.0
29.816266666666667 -110.13100000000001 2355.91 0.0 0.0 1.0
29.186366666666668 -107.61166666666666 2355.91 0.0 0.0 1.0
29.816266666666667 -102.782 2355.91 0.0 0.0 1.0
28.534366666666667 -78.9624 2328.4 0.0 0.0 1.0
27.7043 -77.30223333333333 2328.4 0.0 0.0 1.0
27.7043 -75.64203333333334 2328.4 0.0 0.0 1.0
27.9118 -72.7367 2328.4 0.0 0.0 1.0
26.2564 -64.51283333333333 2301.54 0.0 0.0 1.0
26.2564 -64.51283333333333 2301.54 0.0 0.0 1.0
27.9118 -61.94553333333334 2328.4 0.0 0.0 1.0
27.9118 -61.94553333333334 2328.4 0.0 0.0 1.0
28.32683333333333 -55.3048 2328.4 0.0 0.0 1.0
18.505300000000002 -40.3321 2129.54 0.0 0.0 1.0
18.3155 -27.236099999999997 2129.54 0.0 0.0 1.0
18.591566666666665 -23.380299999999995 2107.04 0.0 0.0 1.0
17.464799999999997 -20.1878 2107.04 0.0 0.0 1.0
17.0892 -18.87323333333333 2107.04 0.0 0.0 1.0
16.9014 -15.305166666666667 2107.04 0.0 0.0 1.0
17.55633333333333 -13.3808 2129.54 0.0 0.0 1.0
12.775973333333333 7.97426 1924.12 0.0 0.0 1.0
35.8159 16.847966666666668 2503.77 0.0 0.0 1.0
3.6474166666666665 20.182366666666667 1818.84 0.0 0.0 1.0
2.730923333333333 23.212833333333332 1802.41 0.0 0.0 1.0
3.3734933333333337 27.871499999999997 1802.41 0.0 0.0 1.0
3.0522066666666667 37.83133333333333 1802.41 0.0 0.0 1.0
3.0522066666666667 38.313266666666664 1802.41 0.0 0.0 1.0
3.5341366666666665 44.8996 1802.41 0.0 0.0 1.0
3.05221 46.0241 1802.41 0.0 0.0 1.0
3.5341366666666665 48.112433333333335 1802.41 0.0 0.0 1.0
3.263683333333333 54.527366666666666 1786.2699999999998 -5.164338497029723e-28 -7.378222145469438e-29 1.0
2.3668633333333333 55.1479 1770.41 0.0 0.0 1.0
1.89349 58.30376666666666 1770.41 0.0 0.0 1.0
0.5474093333333333 59.667633333333335 1754.84 0.0 0.0 1.0
0.930234 62.55813333333333 1739.53 0.0 0.0 1.0
0.9302320000000001 64.10853333333334 1739.53 0.0 0.0 1.0
-0.38424600000000003 66.01346666666666 1724.5 0.0 0.0 1.0
-2.1907466666666666 71.0859 1695.18 0.0 0.0 1.0
-2.996256666666666 75.28093333333334 1680.9000000000003 -3.3325425290761176e-28 -5.554319937209731e-29 1.0
28.556466666666665 -106.142 2355.91 0.0 0.0 1.0
28.766433333333328 -105.302 2355.91 0.0 0.0 1.0
28.1193 -86.01816666666667 2328.4 0.0 0.0 1.0
59.73333333333333 -99.86666666666667 2992.0 0.0 0.0 1.0
26.459133333333337 -82.0752 2328.4 0.0 0.0 1.0
26.666633333333333 -80.20753333333333 2328.4 0.0 0.0 1.0
27.081699999999998 -71.69906666666667 2328.4 0.0 0.0 1.0
25.846166666666665 -63.28206666666667 2301.54 0.0 0.0 1.0
26.051299999999998 -58.564099999999996 2301.54 0.0 0.0 1.0
25.846166666666665 -56.51283333333333 2301.54 0.0 0.0 1.0
18.5053 -40.3321 2129.54 0.0 0.0 1.0
57.333333333333336 -53.73333333333334 2992.0 0.0 0.0 1.0
57.06666666666666 -51.86666666666667 2992.0 0.0 0.0 1.0
56.800000000000004 -46.26666666666667 2992.0 0.0 0.0 1.0
17.9359 -26.0973 2129.54 0.0 0.0 1.0
17.746133333333333 -23.0605 2129.54 0.0 0.0 1.0
17.0892 -18.87323333333333 2107.04 0.0 0.0 1.0
17.0892 -18.309866666666665 2107.04 0.0 0.0 1.0
17.0892 -18.309866666666665 2107.04 0.0 0.0 1.0
16.9014 -15.305166666666667 2107.04 0.0 0.0 1.0
18.9928 -9.496386666666666 2152.52 0.0 0.0 1.0
18.9928 -9.496386666666666 2152.52 0.0 0.0 1.0
18.9928 -9.496386666666666 2152.52 0.0 0.0 1.0
56.53333333333333 1.2 2992.0 0.0 0.0 1.0
6.11465 1.95329 1905.7300000000002 -5.733977339901214e-29 4.16169056284315e-30 1.0
56.26666666666667 12.4 2992.0 0.0 0.0 1.0
35.8159 16.847966666666668 2503.77 0.0 0.0 1.0
2.5126666666666666 14.022300000000001 1818.84 0.0 0.0 1.0
3.6474166666666665 20.182366666666667 1818.84 0.0 0.0 1.0
3.3734933333333337 27.871499999999997 1802.41 0.0 0.0 1.0
3.05221 33.815266666666666 1802.41 0.0 0.0 1.0
3.2128533333333333 36.06423333333333 1802.41 0.0 0.0 1.0
3.2128533333333333 36.224866666666664 1802.41 0.0 0.0 1.0
2.8915666666666664 38.95583333333334 1802.41 0.0 0.0 1.0
-0.8756233333333333 44.338300000000004 1786.2699999999998 2.6559411884486157e-27 7.457251323883112e-27 1.0
3.05221 46.0241 1802.41 0.0 0.0 1.0
3.05221 46.024100000000004 1802.41 0.0 0.0 1.0
3.05221 48.43373333333333 1802.41 0.0 0.0 1.0
3.2128533333333333 48.915666666666674 1802.41 0.0 0.0 1.0
3.2128533333333333 49.558233333333334 1802.41 0.0 0.0 1.0
1.89349 58.30376666666667 1770.41 0.0 0.0 1.0
0.5474093333333333 59.667633333333335 1754.84 0.0 0.0 1.0
-0.4651180000000001 64.57363333333333 1739.53 0.0 0.0 1.0
-0.7619053333333333 68.0381 1709.71 0.0 0.0 1.0
-2.1907466666666666 71.0859 1695.18 0.0 0.0 1.0
-3.14607 76.4794 1680.9000000000003 0.0 0.0 1.0
-3.6397399999999998 79.10863333333333 1666.8499999999997 1.5253967834638758e-27 1.5255565142884612e-27 1.0
-3.6397399999999998 79.10863333333333 1666.8499999999997 1.5253967834638758e-27 1.5255565142884612e-27 1.0
27.716533333333334 -118.11 2355.91 0.0 0.0 1.0
27.0866 -114.75099999999999 2355.91 0.0 0.0 1.0
27.9265 -109.711 2355.91 0.0 0.0 1.0
26.666666666666668 -95.43306666666668 2355.91 0.0 0.0 1.0
44.72773333333333 -87.43693333333333 2384.06 0.0 0.0 1.0
26.251599999999996 -81.24513333333333 2328.4 0.0 0.0 1.0
26.2516 -80.62256666666667 2328.4 0.0 0.0 1.0
26.666633333333333 -80.20753333333333 2328.4 0.0 0.0 1.0
25.025666666666666 -62.25643333333333 2301.54 0.0 0.0 1.0
24.41026666666666 -57.33336666666667 2301.54 0.0 0.0 1.0
24.615399999999998 -53.64103333333333 2301.54 0.0 0.0 1.0
26.0441 -52.19193333333334 2328.4 0.0 0.0 1.0
24.205133333333333 -45.84616666666667 2301.54 0.0 0.0 1.0
39.04763333333333 -52.976200000000006 2671.43 0.0 0.0 1.0
57.333333333333336 -53.73333333333333 2992.0 0.0 0.0 1.0
57.06666666666666 -49.73333333333333 2992.0 0.0 0.0 1.0
56.800000000000004 -46.26666666666667 2992.0 0.0 0.0 1.0
56.0 -45.199999999999996 2992.0 0.0 0.0 1.0
17.9359 -26.666700000000002 2129.54 0.0 0.0 1.0
17.556299999999997 -26.0973 2129.54 0.0 0.0 1.0
56.53333333333333 -31.600000000000005 2992.0 0.0 0.0 1.0
56.53333333333333 -31.600000000000005 2992.0 0.0 0.0 1.0
16.41756666666667 -21.162499999999998 2129.54 0.0 0.0 1.0
16.9014 -15.305166666666667 2107.04 0.0 0.0 1.0
17.55633333333333 -13.3808 2129.54 0.0 0.0 1.0
17.17673333333333 -12.241999999999999 2129.54 0.0 0.0 1.0
18.22543333333333 -7.769783333333333 2152.52 0.0 0.0 1.0
17.65256666666667 -3.0985899999999997 2107.04 0.0 0.0 1.0
9.355193333333332 4.808746666666667 1961.97 0.0 0.0 1.0
55.73333333333333 9.733333333333333 2992.0 0.0 0.0 1.0
3.647416666666667 20.182366666666667 1818.84 0.0 0.0 1.0
2.2489966666666668 22.57026666666667 1802.41 0.0 0.0 1.0
2.730923333333333 23.212833333333336 1802.41 0.0 0.0 1.0
2.2489966666666668 33.815266666666666 1802.41 0.0 0.0 1.0
2.8915666666666664 37.18873333333334 1802.41 0.0 0.0 1.0
2.2489966666666668 39.11646666666667 1802.41 0.0 0.0 1.0
-0.234604 61.075300000000006 1754.84 0.0 0.0 1.0
-3.14607 76.4794 1680.9000000000003 0.0 0.0 1.0
27.0866 -114.75099999999999 2355.91 0.0 0.0 1.0
26.87663333333333 -109.291 2355.91 0.0 0.0 1.0
25.62906666666667 -98.67703333333333 2328.4 0.0 0.0 1.0
25.421533333333333 -97.01686666666667 2328.4 0.0 0.0 1.0
25.62906666666667 -92.6589 2328.4 0.0 0.0 1.0
25.8366 -91.6213 2328.4 0.0 0.0 1.0
25.8366 -91.6213 2328.4 0.0 0.0 1.0
25.421533333333333 -88.30093333333333 2328.4 0.0 0.0 1.0
26.251599999999996 -81.24513333333334 2328.4 0.0 0.0 1.0
73.8979 -112.15383333333334 2877.056666666667 -0.6842505827128541 -0.6196949817658357 0.38442069355246766
24.41026666666666 -57.33336666666667 2301.54 0.0 0.0 1.0
26.0441 -52.19193333333333 2328.4 0.0 0.0 1.0
26.0441 -52.19193333333334 2328.4 0.0 0.0 1.0
24.205133333333333 -45.84616666666667 2301.54 0.0 0.0 1.0
