ply
format ascii 1.0
comment VCGLIB generated
element vertex 872
property float x
property float y
property float z
property float nx
property float ny
property float nz
element face 0
property list uchar int vertex_indices
end_header
41.0667 -40.26666666666666 1994.67 0.0 0.0 1.0
41.599999999999994 -37.6 1994.67 0.0 0.0 1.0
30.406499999999998 -25.934966666666668 1824.39 0.0 0.0 1.0
31.3965 -17.2069 1829.97 0.0 0.0 1.0
30.4179 -15.086633333333333 1829.97 0.0 0.0 1.0
31.2195 -3.170733333333333 1824.39 0.0 0.0 1.0
30.2439 -1.5447156666666668 1824.39 0.0 0.0 1.0
30.406499999999998 3.8211399999999998 1824.39 0.0 0.0 1.0
31.2195 17.8049 1824.39 0.0 0.0 1.0
30.8943 24.796733333333332 1824.39 0.0 0.0 1.0
30.8943 25.935000000000002 1824.39 0.0 0.0 1.0
42.31113333333333 32.08886666666667 1994.67 0.0 0.0 1.0
40.1778 33.15553333333333 1994.67 0.0 0.0 1.0
40.71113333333333 66.04443333333334 1994.67 0.0 0.0 1.0
40.8889 66.75556666666667 1994.67 0.0 0.0 1.0
41.60003333333333 69.42219999999999 1994.67 0.0 0.0 1.0
40.533366666666666 70.3111 1994.67 0.0 0.0 1.0
40.8889 72.26666666666667 1994.67 0.0 0.0 1.0
23.0406 66.70443333333334 1695.18 0.0 0.0 1.0
40.53333333333333 127.02233333333334 1994.67 0.0 0.0 1.0
41.0667 132.889 1994.67 0.0 0.0 1.0
30.9072 -132.35466666666665 1829.97 0.0 0.0 1.0
29.7655 -130.07133333333334 1829.97 0.0 0.0 1.0
30.254833333333334 -125.34133333333334 1829.97 0.0 0.0 1.0
30.7441 -114.74000000000001 1829.97 0.0 0.0 1.0
30.7441 -110.17333333333333 1829.97 0.0 0.0 1.0
30.7441 -108.54233333333333 1829.97 0.0 0.0 1.0
30.2548 -103.97566666666667 1829.97 0.0 0.0 1.0
30.2548 -103.97566666666667 1829.97 0.0 0.0 1.0
30.4179 -100.3873 1829.97 0.0 0.0 1.0
30.4179 -100.3873 1829.97 0.0 0.0 1.0
30.9072 -92.0693 1829.97 0.0 0.0 1.0
31.0703 -84.89299999999999 1829.97 0.0 0.0 1.0
40.0 -93.06666666666666 1994.67 0.0 0.0 1.0
30.9072 -78.0428 1829.97 0.0 0.0 1.0
41.77776666666666 -62.13333333333333 1994.67 0.0 0.0 1.0
31.070300000000003 -50.6422 1829.97 0.0 0.0 1.0
30.907200000000003 -23.567799999999995 1829.97 0.0 0.0 1.0
30.4179 -14.597366666666668 1829.97 0.0 0.0 1.0
29.7561 -11.1382 1824.39 0.0 0.0 1.0
36.622233333333334 -15.19999 1994.67 0.0 0.0 1.0
29.9187 -1.8699200000000002 1824.39 0.0 0.0 1.0
31.2195 8.861793333333333 1824.39 0.0 0.0 1.0
30.2439 13.4146 1824.39 0.0 0.0 1.0
30.8943 18.1301 1824.39 0.0 0.0 1.0
30.569100000000002 25.447166666666664 1824.39 0.0 0.0 1.0
39.8222 43.288900000000005 1994.67 0.0 0.0 1.0
39.82223333333334 46.666666666666664 1994.67 0.0 0.0 1.0
41.06663333333333 53.599999999999994 1994.67 0.0 0.0 1.0
41.06663333333333 53.6 1994.67 0.0 0.0 1.0
40.8889 66.75556666666667 1994.67 0.0 0.0 1.0
39.999966666666666 89.15556666666667 1994.67 0.0 0.0 1.0
40.17776666666666 90.57776666666666 1994.67 0.0 0.0 1.0
40.711099999999995 110.48866666666667 1994.67 0.0 0.0 1.0
41.244433333333326 112.97766666666666 1994.67 0.0 0.0 1.0
40.53333333333333 127.02233333333334 1994.67 0.0 0.0 1.0
21.969300000000004 115.37599999999999 1700.0366666666669 0.6231723468057777 0.7794787699966722 0.06378928829399627
21.108 118.00966666666666 1685.63 0.0 0.0 1.0
19.6843 119.51733333333334 1666.8499999999997 4.644539765861243e-27 6.497565339711826e-26 1.0
19.6843 119.51733333333334 1666.8499999999997 4.644539765861242e-27 6.497565339711826e-26 1.0
22.23453333333333 120.332 1657.62 0.0 0.0 1.0
29.9286 -114.74000000000001 1829.97 0.0 0.0 1.0
30.0917 -109.68400000000001 1829.97 0.0 0.0 1.0
30.4179 -100.3873 1829.97 0.0 0.0 1.0
30.0917 -98.104 1829.97 0.0 0.0 1.0
40.0 -93.06666666666666 1994.67 0.0 0.0 1.0
30.0917 -73.14983333333333 1829.97 0.0 0.0 1.0
30.4179 -69.2355 1829.97 0.0 0.0 1.0
40.0 -70.84446666666668 1994.67 0.0 0.0 1.0
40.53333333333333 -68.88886666666667 1994.67 0.0 0.0 1.0
30.091733333333334 -59.4495 1829.97 0.0 0.0 1.0
29.6024 -41.3456 1829.97 0.0 0.0 1.0
30.2548 -40.2039 1829.97 0.0 0.0 1.0
29.928633333333334 -35.1478 1829.97 0.0 0.0 1.0
30.744100000000003 -25.524999999999995 1829.97 0.0 0.0 1.0
30.2548 -24.383300000000002 1829.97 0.0 0.0 1.0
29.7561 -11.1382 1824.39 0.0 0.0 1.0
29.7561 -1.3821156666666665 1824.39 0.0 0.0 1.0
39.8222 43.288900000000005 1994.67 0.0 0.0 1.0
40.35556666666667 65.33333333333333 1994.67 0.0 0.0 1.0
40.35556666666667 65.33333333333333 1994.67 0.0 0.0 1.0
23.0406 66.70443333333334 1695.18 0.0 0.0 1.0
39.82223333333334 99.64433333333334 1994.67 0.0 0.0 1.0
40.0 100.7109 1994.67 0.0 0.0 1.0
40.0 101.95533333333333 1994.67 0.0 0.0 1.0
39.46666666666667 102.48866666666667 1994.67 0.0 0.0 1.0
41.244433333333326 107.82233333333333 1994.67 0.0 0.0 1.0
38.93333333333334 119.911 1994.67 0.0 0.0 1.0
40.0 126.31133333333332 1994.67 0.0 0.0 1.0
22.3099 115.45566666666666 1685.63 0.0 0.0 1.0
21.845566666666667 116.384 1690.4000000000003 0.0 1.0 0.0
21.108 118.00966666666666 1685.63 0.0 0.0 1.0
39.644466666666666 -147.64433333333332 1994.67 0.0 0.0 1.0
29.7655 -132.02866666666665 1829.97 0.0 0.0 1.0
29.439333333333334 -129.582 1829.97 0.0 0.0 1.0
28.78696666666666 -123.54733333333333 1829.97 0.0 0.0 1.0
29.276233333333334 -118.165 1829.97 0.0 0.0 1.0
29.6024 -109.19466666666666 1829.97 0.0 0.0 1.0
29.7655 -104.302 1829.97 0.0 0.0 1.0
29.6024 -96.473 1829.97 0.0 0.0 1.0
39.111133333333335 -96.44446666666666 1994.67 0.0 0.0 1.0
30.4179 -69.2355 1829.97 0.0 0.0 1.0
30.744100000000003 -66.789 1829.97 0.0 0.0 1.0
-2.565470000000001 -37.0408 1620.42 -0.7004993712515899 -0.7045089392805287 0.11387618429659299
29.6024 -41.3456 1829.97 0.0 0.0 1.0
29.765533333333334 -17.2069 1829.97 0.0 0.0 1.0
29.2762 -15.575899999999999 1829.97 0.0 0.0 1.0
29.9286 -14.597366666666668 1829.97 0.0 0.0 1.0
29.7561 -11.1382 1824.39 0.0 0.0 1.0
28.7805 3.170733333333333 1824.39 0.0 0.0 1.0
28.7805 3.170733333333333 1824.39 0.0 0.0 1.0
39.4667 45.95556666666666 1994.67 0.0 0.0 1.0
39.4667 45.95556666666666 1994.67 0.0 0.0 1.0
39.82223333333334 46.666666666666664 1994.67 0.0 0.0 1.0
39.644466666666666 71.2 1994.67 0.0 0.0 1.0
20.7238 64.53333333333333 1709.71 0.0 0.0 1.0
38.93333333333334 93.24443333333333 1994.67 0.0 0.0 1.0
38.5778 95.55556666666666 1994.67 0.0 0.0 1.0
39.111133333333335 99.11110000000001 1994.67 0.0 0.0 1.0
28.230666666666668 106.27566666666667 1754.84 0.0 0.0 1.0
39.288900000000005 126.13333333333333 1994.67 0.0 0.0 1.0
39.288900000000005 133.067 1994.67 0.0 0.0 1.0
29.4393 -130.88699999999997 1829.97 0.0 0.0 1.0
29.276233333333334 -114.90333333333332 1829.97 0.0 0.0 1.0
29.4393 -113.92466666666667 1829.97 0.0 0.0 1.0
28.950033333333334 -108.86833333333334 1829.97 0.0 0.0 1.0
29.7655 -104.302 1829.97 0.0 0.0 1.0
29.2762 -94.6789 1829.97 0.0 0.0 1.0
29.6024 -92.8848 1829.97 0.0 0.0 1.0
30.0917 -73.14983333333333 1829.97 0.0 0.0 1.0
28.460733333333334 -50.80530000000001 1829.97 0.0 0.0 1.0
29.4393 -41.998 1829.97 0.0 0.0 1.0
29.2762 -41.8349 1829.97 0.0 0.0 1.0
30.406499999999998 -25.934966666666668 1824.39 0.0 0.0 1.0
29.2762 -15.575899999999999 1829.97 0.0 0.0 1.0
29.2762 -15.575899999999999 1829.97 0.0 0.0 1.0
29.593500000000002 -1.5447156666666668 1824.39 0.0 0.0 1.0
27.642300000000002 11.4634 1824.39 0.0 0.0 1.0
27.8049 14.3902 1824.39 0.0 0.0 1.0
39.46666666666667 44.000033333333334 1994.67 0.0 0.0 1.0
37.15553333333333 83.82223333333333 1994.67 0.0 0.0 1.0
39.999966666666666 89.15556666666667 1994.67 0.0 0.0 1.0
38.57776666666667 93.95556666666666 1994.67 0.0 0.0 1.0
38.22223333333334 110.84433333333334 1994.67 0.0 0.0 1.0
38.93333333333334 125.42199999999998 1994.67 0.0 0.0 1.0
29.113166666666668 -125.66766666666668 1829.97 0.0 0.0 1.0
28.134599999999995 -122.40566666666666 1829.97 0.0 0.0 1.0
29.439333333333334 -115.22933333333333 1829.97 0.0 0.0 1.0
28.623866666666668 -110.00999999999999 1829.97 0.0 0.0 1.0
28.134599999999995 -75.75939999999999 1829.97 0.0 0.0 1.0
37.5111 -78.13333333333333 1994.67 0.0 0.0 1.0
37.333333333333336 -65.15553333333332 1994.67 0.0 0.0 1.0
28.13456666666666 -58.96020000000001 1829.97 0.0 0.0 1.0
40.1778 -41.333333333333336 1994.67 0.0 0.0 1.0
40.35556666666667 -37.42223333333333 1994.67 0.0 0.0 1.0
29.113133333333334 -16.8807 1829.97 0.0 0.0 1.0
28.2927 -12.2764 1824.39 0.0 0.0 1.0
27.3171 1.056909 1824.39 0.0 0.0 1.0
28.1301 6.91057 1824.39 0.0 0.0 1.0
27.642300000000002 7.398376666666667 1824.39 0.0 0.0 1.0
28.9431 19.430899999999998 1824.39 0.0 0.0 1.0
28.1301 21.382099999999998 1824.39 0.0 0.0 1.0
38.22223333333333 36.17776666666666 1994.67 0.0 0.0 1.0
37.86666666666667 37.06666666666666 1994.67 0.0 0.0 1.0
38.04443333333333 38.84446666666667 1994.67 0.0 0.0 1.0
38.04443333333333 38.84446666666667 1994.67 0.0 0.0 1.0
39.46666666666667 47.73333333333333 1994.67 0.0 0.0 1.0
38.04443333333333 58.755566666666674 1994.67 0.0 0.0 1.0
38.04443333333333 58.755566666666674 1994.67 0.0 0.0 1.0
38.044466666666665 62.666666666666664 1994.67 0.0 0.0 1.0
38.5778 71.2 1994.67 0.0 0.0 1.0
21.389333333333337 64.77579999999999 1708.0866666666668 0.23883818019951872 0.9554572222989334 0.1733719124765846
38.57776666666667 93.95556666666666 1994.67 0.0 0.0 1.0
38.57776666666667 93.95556666666668 1994.67 0.0 0.0 1.0
39.46666666666667 102.48866666666667 1994.67 0.0 0.0 1.0
16.444999999999997 88.59703333333334 1677.7600000000002 0.16742823726360848 0.8371038306202996 0.5207926287185924
38.22223333333333 118.13333333333333 1994.67 0.0 0.0 1.0
38.93333333333333 119.911 1994.67 0.0 0.0 1.0
38.93333333333334 125.42200000000001 1994.67 0.0 0.0 1.0
38.57776666666667 128.97766666666666 1994.67 0.0 0.0 1.0
21.137666666666664 114.90500000000002 1706.4733333333334 -2.1593345240785048e-16 -0.9997921612538164 0.020387111012179358
20.206566666666664 118.00966666666666 1685.63 0.0 0.0 1.0
28.950033333333334 -129.90833333333333 1829.97 0.0 0.0 1.0
27.645300000000002 -123.87366666666667 1829.97 0.0 0.0 1.0
28.134599999999995 -122.40566666666666 1829.97 0.0 0.0 1.0
28.13456666666666 -108.05266666666667 1829.97 0.0 0.0 1.0
28.950033333333334 -103.81266666666666 1829.97 0.0 0.0 1.0
27.319100000000002 -98.104 1829.97 0.0 0.0 1.0
28.134599999999995 -75.75939999999999 1829.97 0.0 0.0 1.0
39.288900000000005 -70.13333333333334 1994.67 0.0 0.0 1.0
29.276233333333334 -39.8777 1829.97 0.0 0.0 1.0
28.786966666666668 -33.842999999999996 1829.97 0.0 0.0 1.0
29.276266666666668 -32.7013 1829.97 0.0 0.0 1.0
28.950033333333334 -14.597366666666668 1829.97 0.0 0.0 1.0
28.7805 3.170733333333333 1824.39 0.0 0.0 1.0
27.642300000000002 7.398376666666667 1824.39 0.0 0.0 1.0
27.1545 13.5772 1824.39 0.0 0.0 1.0
27.642300000000002 24.796733333333332 1824.39 0.0 0.0 1.0
28.455299999999998 25.447166666666664 1824.39 0.0 0.0 1.0
37.86666666666667 37.06666666666666 1994.67 0.0 0.0 1.0
38.044466666666665 62.666666666666664 1994.67 0.0 0.0 1.0
37.6889 63.20000000000001 1994.67 0.0 0.0 1.0
37.6889 63.73333333333333 1994.67 0.0 0.0 1.0
38.5778 71.2 1994.67 0.0 0.0 1.0
18.0427 72.70870000000001 1687.2333333333336 0.9123234375004969 0.3909792815534387 0.12165996376472438
37.6889 95.73336666666667 1994.67 0.0 0.0 1.0
37.51113333333333 98.75556666666667 1994.67 0.0 0.0 1.0
38.40003333333333 99.11110000000001 1994.67 0.0 0.0 1.0
38.222233333333335 110.84433333333334 1994.67 0.0 0.0 1.0
38.22223333333334 110.84433333333334 1994.67 0.0 0.0 1.0
37.333333333333336 117.06666666666668 1994.67 0.0 0.0 1.0
27.645300000000002 -123.058 1829.97 0.0 0.0 1.0
27.645300000000002 -110.49933333333333 1829.97 0.0 0.0 1.0
26.829799999999995 -106.42199999999998 1829.97 0.0 0.0 1.0
27.482199999999995 -80.1631 1829.97 0.0 0.0 1.0
27.482199999999995 -80.1631 1829.97 0.0 0.0 1.0
28.134599999999995 -75.75939999999999 1829.97 0.0 0.0 1.0
37.5111 -78.13333333333334 1994.67 0.0 0.0 1.0
37.333333333333336 -65.15553333333332 1994.67 0.0 0.0 1.0
27.155999999999995 -44.607499999999995 1829.97 0.0 0.0 1.0
26.504099999999998 -29.512199999999996 1824.39 0.0 0.0 1.0
27.1545 -12.6016 1824.39 0.0 0.0 1.0
27.3171 1.056909 1824.39 0.0 0.0 1.0
27.642300000000002 11.4634 1824.39 0.0 0.0 1.0
27.642300000000002 15.365833333333333 1824.39 0.0 0.0 1.0
27.642300000000002 24.796733333333332 1824.39 0.0 0.0 1.0
37.5111 37.77779999999999 1994.67 0.0 0.0 1.0
37.68886666666666 38.31113333333334 1994.67 0.0 0.0 1.0
36.8 60.8889 1994.67 0.0 0.0 1.0
37.6889 63.73333333333333 1994.67 0.0 0.0 1.0
17.985733333333332 59.3775 1688.8100000000002 0.7780924509602943 0.38903187958887303 0.493179819560929
20.7238 64.53333333333333 1709.71 0.0 0.0 1.0
37.68886666666666 131.111 1994.67 0.0 0.0 1.0
36.44443333333333 133.067 1994.67 0.0 0.0 1.0
19.1549 117.85933333333332 1685.63 0.0 0.0 1.0
18.516166666666667 120.51799999999999 1662.2299999999998 0.7859595450601142 0.561573116813353 0.2586565831395644
26.503599999999995 -132.35466666666665 1829.97 0.0 0.0 1.0
27.319100000000002 -124.03666666666668 1829.97 0.0 0.0 1.0
26.503599999999995 -117.839 1829.97 0.0 0.0 1.0
27.155999999999995 -110.82566666666666 1829.97 0.0 0.0 1.0
26.829799999999995 -106.42199999999998 1829.97 0.0 0.0 1.0
26.666700000000002 -97.7778 1829.97 0.0 0.0 1.0
35.55553333333333 -96.9778 1994.67 0.0 0.0 1.0
27.482199999999995 -80.1631 1829.97 0.0 0.0 1.0
37.5111 -78.13333333333334 1994.67 0.0 0.0 1.0
26.340500000000002 -69.2355 1829.97 0.0 0.0 1.0
25.688100000000002 -53.41490000000001 1829.97 0.0 0.0 1.0
26.666700000000002 -46.0754 1829.97 0.0 0.0 1.0
27.155999999999995 -44.607499999999995 1829.97 0.0 0.0 1.0
26.504099999999998 -29.512199999999996 1824.39 0.0 0.0 1.0
27.319066666666668 -25.361900000000002 1829.97 0.0 0.0 1.0
36.622233333333334 -21.599999999999998 1994.67 0.0 0.0 1.0
36.622233333333334 -21.599999999999998 1994.67 0.0 0.0 1.0
26.3415 -9.024393333333334 1824.39 0.0 0.0 1.0
27.642300000000002 7.398376666666667 1824.39 0.0 0.0 1.0
27.3171 12.2764 1824.39 0.0 0.0 1.0
26.504099999999998 15.528466666666667 1824.39 0.0 0.0 1.0
35.555566666666664 32.44443333333333 1994.67 0.0 0.0 1.0
37.333333333333336 37.06666666666666 1994.67 0.0 0.0 1.0
17.928433333333334 31.8644 1690.4000000000003 -2.420743059201629e-28 1.855903012054593e-27 1.0
36.97776666666667 40.26669999999999 1994.67 0.0 0.0 1.0
36.8 42.22223333333333 1994.67 0.0 0.0 1.0
37.5111 43.288900000000005 1994.67 0.0 0.0 1.0
36.622233333333334 53.6 1994.67 0.0 0.0 1.0
36.266666666666666 55.199999999999996 1994.67 0.0 0.0 1.0
36.800000000000004 60.8889 1994.67 0.0 0.0 1.0
37.15553333333333 83.82223333333333 1994.67 0.0 0.0 1.0
36.266666666666666 90.93333333333334 1994.67 0.0 0.0 1.0
37.155566666666665 96.80003333333333 1994.67 0.0 0.0 1.0
37.155566666666665 97.6889 1994.67 0.0 0.0 1.0
36.622233333333334 111.37766666666666 1994.67 0.0 0.0 1.0
36.44443333333333 133.067 1994.67 0.0 0.0 1.0
19.684299999999997 119.51733333333334 1666.8499999999997 4.1465436278734285e-27 6.323395098492029e-26 1.0
39.644466666666666 -147.64433333333332 1994.67 0.0 0.0 1.0
25.851199999999995 -128.60333333333332 1829.97 0.0 0.0 1.0
27.155999999999995 -123.54733333333333 1829.97 0.0 0.0 1.0
26.503599999999995 -117.839 1829.97 0.0 0.0 1.0
26.503599999999995 -112.29366666666665 1829.97 0.0 0.0 1.0
27.155999999999995 -110.82566666666666 1829.97 0.0 0.0 1.0
26.666700000000002 -97.7778 1829.97 0.0 0.0 1.0
27.319066666666668 -73.31296666666667 1829.97 0.0 0.0 1.0
37.333333333333336 -65.15553333333332 1994.67 0.0 0.0 1.0
35.377766666666666 -61.95556666666667 1994.67 0.0 0.0 1.0
27.155999999999995 -44.607499999999995 1829.97 0.0 0.0 1.0
35.73333333333333 -20.53333333333333 1994.67 0.0 0.0 1.0
27.971466666666668 -14.597366666666668 1829.97 0.0 0.0 1.0
25.691066666666668 -7.235776666666666 1824.39 0.0 0.0 1.0
25.528466666666663 -3.65854 1824.39 0.0 0.0 1.0
26.666700000000002 1.5447133333333334 1824.39 0.0 0.0 1.0
26.1789 2.1951199999999997 1824.39 0.0 0.0 1.0
37.155566666666665 33.5111 1994.67 0.0 0.0 1.0
35.73333333333333 51.82223333333334 1994.67 0.0 0.0 1.0
36.800000000000004 60.8889 1994.67 0.0 0.0 1.0
15.939566666666666 73.20113333333335 1695.18 0.0 0.0 1.0
36.266666666666666 90.93333333333334 1994.67 0.0 0.0 1.0
18.68173333333333 116.53466666666667 1690.4000000000003 4.035081873343943e-28 3.833149236231036e-27 1.0
18.103266666666666 118.00966666666666 1685.63 0.0 0.0 1.0
26.503599999999995 -132.35466666666667 1829.97 0.0 0.0 1.0
25.851199999999995 -132.35466666666667 1829.97 0.0 0.0 1.0
25.688100000000002 -130.39733333333334 1829.97 0.0 0.0 1.0
26.014300000000002 -114.41366666666666 1829.97 0.0 0.0 1.0
26.014300000000002 -114.41366666666666 1829.97 0.0 0.0 1.0
26.666700000000002 -108.54200000000002 1829.97 0.0 0.0 1.0
26.340500000000002 -97.2885 1829.97 0.0 0.0 1.0
25.851199999999995 -96.96229999999998 1829.97 0.0 0.0 1.0
25.198799999999995 -91.74309999999998 1829.97 0.0 0.0 1.0
35.55553333333333 -96.9778 1994.67 0.0 0.0 1.0
24.709500000000002 -83.4251 1829.97 0.0 0.0 1.0
26.503599999999995 -75.10699999999999 1829.97 0.0 0.0 1.0
26.340500000000002 -69.2355 1829.97 0.0 0.0 1.0
36.0889 -63.199999999999996 1994.67 0.0 0.0 1.0
25.524999999999995 -48.521899999999995 1829.97 0.0 0.0 1.0
27.482199999999995 -36.2895 1829.97 0.0 0.0 1.0
26.3415 -11.626 1824.39 0.0 0.0 1.0
26.1789 -10.4878 1824.39 0.0 0.0 1.0
25.691066666666668 -7.235776666666666 1824.39 0.0 0.0 1.0
25.528466666666663 0.4065033333333334 1824.39 0.0 0.0 1.0
25.8537 2.8455266666666668 1824.39 0.0 0.0 1.0
35.911100000000005 59.64443333333333 1994.67 0.0 0.0 1.0
17.0245 56.5725 1690.4000000000003 -4.842366092810169e-28 3.8135206657961394e-27 1.0
17.627133333333333 57.77776666666667 1690.4000000000003 -1.8456010511796474e-26 -7.909510454966224e-27 1.0
20.7238 64.53333333333333 1709.71 0.0 0.0 1.0
35.55553333333333 83.64446666666667 1994.67 0.0 0.0 1.0
17.3258 74.04896666666666 1690.4000000000003 3.791611607880504e-27 1.755182824789469e-27 1.0
36.266666666666666 90.93333333333334 1994.67 0.0 0.0 1.0
35.7333 100.53333333333335 1994.67 0.0 0.0 1.0
35.7333 100.53333333333335 1994.67 0.0 0.0 1.0
35.7333 100.53333333333335 1994.67 0.0 0.0 1.0
16.444999999999997 88.59703333333334 1677.7600000000002 0.16742823726360834 0.8371038306202996 0.5207926287185923
34.844433333333335 106.39999999999999 1994.67 0.0 0.0 1.0
35.73333333333333 117.06666666666668 1994.67 0.0 0.0 1.0
21.137666666666664 114.90500000000002 1706.4733333333334 -9.5970423292378e-18 -0.9997921612538163 0.02038711101217944
17.65256666666667 119.512 1685.63 0.0 0.0 1.0
25.851199999999995 -118.00200000000001 1829.97 0.0 0.0 1.0
26.177399999999995 -113.43533333333333 1829.97 0.0 0.0 1.0
25.524999999999995 -108.21600000000001 1829.97 0.0 0.0 1.0
25.198799999999995 -106.74833333333333 1829.97 0.0 0.0 1.0
26.503599999999995 -75.10699999999999 1829.97 0.0 0.0 1.0
26.340500000000002 -69.2355 1829.97 0.0 0.0 1.0
24.709500000000002 -59.28639999999999 1829.97 0.0 0.0 1.0
25.524999999999995 -49.826699999999995 1829.97 0.0 0.0 1.0
25.688100000000002 -46.7278 1829.97 0.0 0.0 1.0
25.525000000000002 -40.2039 1829.97 0.0 0.0 1.0
34.13333333333333 -40.088899999999995 1994.67 0.0 0.0 1.0
34.3111 -38.31113333333334 1994.67 0.0 0.0 1.0
26.504099999999998 -29.512199999999996 1824.39 0.0 0.0 1.0
25.528466666666663 -3.65854 1824.39 0.0 0.0 1.0
25.8537 2.8455266666666668 1824.39 0.0 0.0 1.0
24.87803333333333 5.121953333333333 1824.39 0.0 0.0 1.0
25.52846666666667 8.048783333333335 1824.39 0.0 0.0 1.0
25.52846666666667 11.4634 1824.39 0.0 0.0 1.0
25.691066666666668 15.203266666666666 1824.39 0.0 0.0 1.0
24.390233333333338 21.382099999999998 1824.39 0.0 0.0 1.0
17.928433333333334 31.864400000000003 1690.4000000000003 -9.682972236806593e-28 -4.438028941869682e-27 1.0
34.13333333333333 47.199999999999996 1994.67 0.0 0.0 1.0
35.9111 57.15553333333333 1994.67 0.0 0.0 1.0
35.0222 82.75556666666667 1994.67 0.0 0.0 1.0
34.4889 104.08866666666667 1994.67 0.0 0.0 1.0
35.377766666666666 111.2 1994.67 0.0 0.0 1.0
36.444433333333336 133.067 1994.67 0.0 0.0 1.0
18.253500000000003 116.80766666666666 1685.63 0.0 0.0 1.0
15.999333333333334 118.80366666666669 1677.7600000000002 0.4445376828419208 -0.8873922608713041 0.12215246161764898
25.851199999999995 -132.35466666666665 1829.97 0.0 0.0 1.0
25.851199999999995 -118.00200000000001 1829.97 0.0 0.0 1.0
25.198799999999995 -106.74833333333333 1829.97 0.0 0.0 1.0
24.546399999999995 -99.73486666666668 1829.97 0.0 0.0 1.0
25.035700000000002 -98.91943333333332 1829.97 0.0 0.0 1.0
25.035700000000002 -97.12540000000001 1829.97 0.0 0.0 1.0
25.524999999999995 -96.7992 1829.97 0.0 0.0 1.0
25.198799999999995 -91.74309999999998 1829.97 0.0 0.0 1.0
36.26666666666667 -78.31110000000001 1994.67 0.0 0.0 1.0
24.872599999999995 -52.11010000000001 1829.97 0.0 0.0 1.0
25.524999999999995 -48.521899999999995 1829.97 0.0 0.0 1.0
25.524999999999995 -48.521899999999995 1829.97 0.0 0.0 1.0
23.894000000000002 -22.7523 1829.97 0.0 0.0 1.0
24.878033333333335 -7.235776666666666 1824.39 0.0 0.0 1.0
25.528466666666663 -3.65854 1824.39 0.0 0.0 1.0
25.040633333333332 -0.4065033333333334 1824.39 0.0 0.0 1.0
24.878033333333335 5.121953333333333 1824.39 0.0 0.0 1.0
25.040633333333332 13.414633333333333 1824.39 0.0 0.0 1.0
24.87803333333333 15.853699999999998 1824.39 0.0 0.0 1.0
17.325766666666667 32.46703333333334 1690.4000000000003 -1.5377983365461642e-26 -4.393848403039692e-27 1.0
17.325766666666667 32.46703333333333 1690.4000000000003 3.0755966730923285e-27 8.787696806079384e-28 1.0
16.2712 41.506566666666664 1690.4000000000003 -2.4714485890384196e-28 7.413525596123357e-28 1.0
35.55556666666667 60.17776666666666 1994.67 0.0 0.0 1.0
16.723166666666668 75.4049 1690.4000000000003 -1.9773776137415566e-27 -1.0938033043854547e-31 1.0
34.4889 104.08866666666667 1994.67 0.0 0.0 1.0
34.31113333333334 120.44433333333332 1994.67 0.0 0.0 1.0
34.4889 121.33333333333333 1994.67 0.0 0.0 1.0
16.5725 109.30333333333333 1690.4000000000003 3.639863963520084e-27 6.2558816642725826e-27 1.0
16.4507 118.46033333333332 1685.63 0.0 0.0 1.0
24.546399999999995 -128.60333333333335 1829.97 0.0 0.0 1.0
24.383300000000002 -127.95100000000001 1829.97 0.0 0.0 1.0
25.198799999999995 -107.40066666666667 1829.97 0.0 0.0 1.0
24.057100000000002 -104.13866666666667 1829.97 0.0 0.0 1.0
23.730900000000002 -103.48633333333333 1829.97 0.0 0.0 1.0
24.546399999999995 -97.61469999999998 1829.97 0.0 0.0 1.0
34.311099999999996 -96.62223333333333 1994.67 0.0 0.0 1.0
24.220199999999995 -77.71659999999999 1829.97 0.0 0.0 1.0
25.035700000000002 -67.4414 1829.97 0.0 0.0 1.0
24.709500000000002 -59.28639999999999 1829.97 0.0 0.0 1.0
33.6 -61.6 1994.67 0.0 0.0 1.0
24.546399999999995 -53.578 1829.97 0.0 0.0 1.0
25.198799999999995 -50.9684 1829.97 0.0 0.0 1.0
34.3111 -38.31113333333334 1994.67 0.0 0.0 1.0
33.59996666666667 -32.622233333333334 1994.67 0.0 0.0 1.0
33.59996666666667 -32.622233333333334 1994.67 0.0 0.0 1.0
25.688100000000002 -23.893999999999995 1829.97 0.0 0.0 1.0
34.844433333333335 -19.466666666666665 1994.67 0.0 0.0 1.0
34.844433333333335 -19.466666666666665 1994.67 0.0 0.0 1.0
24.2276 -0.2439016666666667 1824.39 0.0 0.0 1.0
23.739800000000002 1.5447156666666668 1824.39 0.0 0.0 1.0
24.878033333333335 5.121953333333333 1824.39 0.0 0.0 1.0
24.715433333333333 9.02439 1824.39 0.0 0.0 1.0
24.227633333333333 10.6504 1824.39 0.0 0.0 1.0
24.064999999999998 16.1789 1824.39 0.0 0.0 1.0
24.39023333333333 21.382099999999998 1824.39 0.0 0.0 1.0
34.48886666666667 48.622233333333334 1994.67 0.0 0.0 1.0
16.2712 41.506566666666664 1690.4000000000003 -2.4714485890384196e-28 7.413525596123357e-28 1.0
34.844433333333335 50.22223333333333 1994.67 0.0 0.0 1.0
15.367266666666666 59.736333333333334 1690.4000000000003 2.47144858903842e-28 -7.41407237678464e-28 1.0
15.6374 67.61093333333334 1695.18 0.0 0.0 1.0
15.6374 67.61093333333334 1695.18 0.0 0.0 1.0
34.48886666666667 83.64446666666667 1994.67 0.0 0.0 1.0
16.723166666666668 75.4049 1690.4000000000003 -1.9773776137415566e-27 -1.0938033043854547e-31 1.0
33.77776666666666 90.93333333333334 1994.67 0.0 0.0 1.0
33.777766666666665 90.93333333333334 1994.67 0.0 0.0 1.0
34.1333 99.11110000000001 1994.67 0.0 0.0 1.0
33.955533333333335 109.42233333333333 1994.67 0.0 0.0 1.0
34.48886666666667 110.31133333333334 1994.67 0.0 0.0 1.0
33.95556666666666 122.57766666666667 1994.67 0.0 0.0 1.0
16.5725 109.30333333333333 1690.4000000000003 3.639863963520084e-27 6.2558816642725826e-27 1.0
15.999333333333334 118.80366666666669 1677.7600000000002 0.4445376828419208 -0.8873922608713041 0.12215246161764898
24.057100000000002 -132.51766666666666 1829.97 0.0 0.0 1.0
24.383300000000002 -127.95099999999998 1829.97 0.0 0.0 1.0
24.383300000000002 -127.95100000000001 1829.97 0.0 0.0 1.0
24.220199999999995 -95.9837 1829.97 0.0 0.0 1.0
24.383300000000002 -91.74309999999998 1829.97 0.0 0.0 1.0
23.730900000000002 -82.7727 1829.97 0.0 0.0 1.0
24.057100000000002 -79.1845 1829.97 0.0 0.0 1.0
23.730900000000002 -67.1152 1829.97 0.0 0.0 1.0
33.6 -61.6 1994.67 0.0 0.0 1.0
24.546399999999995 -46.564699999999995 1829.97 0.0 0.0 1.0
33.4222 -38.31113333333334 1994.67 0.0 0.0 1.0
24.39023333333333 -33.25203333333334 1824.39 0.0 0.0 1.0
23.5772 -11.4634 1824.39 0.0 0.0 1.0
24.064999999999998 -7.3983766666666675 1824.39 0.0 0.0 1.0
24.5528 -5.121953333333334 1824.39 0.0 0.0 1.0
23.414599999999997 20.406499999999998 1824.39 0.0 0.0 1.0
33.6 31.7333 1994.67 0.0 0.0 1.0
34.84446666666667 61.42223333333334 1994.67 0.0 0.0 1.0
34.48886666666667 83.64446666666667 1994.67 0.0 0.0 1.0
16.723166666666668 75.4049 1690.4000000000003 -1.9773776137415566e-27 -1.0938033043854547e-31 1.0
33.7778 104.08866666666667 1994.67 0.0 0.0 1.0
33.06666666666667 107.82233333333333 1994.67 0.0 0.0 1.0
33.77776666666667 108.35566666666666 1994.67 0.0 0.0 1.0
33.42223333333333 118.84433333333334 1994.67 0.0 0.0 1.0
33.95556666666667 119.55566666666668 1994.67 0.0 0.0 1.0
33.24446666666666 124.53333333333335 1994.67 0.0 0.0 1.0
30.222233333333335 146.93333333333334 1994.67 0.0 0.0 1.0
23.078500000000002 -122.56866666666667 1829.97 0.0 0.0 1.0
24.546399999999995 -98.26710000000001 1829.97 0.0 0.0 1.0
23.241600000000002 -92.0693 1829.97 0.0 0.0 1.0
33.06666666666666 -95.2 1994.67 0.0 0.0 1.0
32.35556666666667 -92.88889999999999 1994.67 0.0 0.0 1.0
23.730900000000002 -82.7727 1829.97 0.0 0.0 1.0
23.567799999999995 -76.41179999999999 1829.97 0.0 0.0 1.0
23.893999999999995 -59.7757 1829.97 0.0 0.0 1.0
33.24446666666666 -65.3333 1994.67 0.0 0.0 1.0
33.599999999999994 -61.6 1994.67 0.0 0.0 1.0
23.404700000000002 -54.2304 1829.97 0.0 0.0 1.0
24.546399999999995 -46.564699999999995 1829.97 0.0 0.0 1.0
33.95556666666667 -40.088899999999995 1994.67 0.0 0.0 1.0
22.6016 -13.4146 1824.39 0.0 0.0 1.0
32.8889 -17.688866666666666 1994.67 0.0 0.0 1.0
23.5772 -11.4634 1824.39 0.0 0.0 1.0
23.252 -10.6504 1824.39 0.0 0.0 1.0
23.252 -7.88618 1824.39 0.0 0.0 1.0
23.5772 0.7317083333333333 1824.39 0.0 0.0 1.0
23.5772 1.8699200000000002 1824.39 0.0 0.0 1.0
23.5772 21.2195 1824.39 0.0 0.0 1.0
22.113799999999998 26.0976 1824.39 0.0 0.0 1.0
16.8738 31.26176666666667 1690.4000000000003 2.2546894596388682e-27 -2.1076446525803357e-27 1.0
34.13333333333333 47.20000000000001 1994.67 0.0 0.0 1.0
30.5778 75.64446666666666 1994.67 0.0 0.0 1.0
15.7599 66.57893333333334 1691.9933333333336 -0.6915666664383813 0.6915666664383783 0.2084972223858476
33.77776666666666 90.93333333333334 1994.67 0.0 0.0 1.0
33.06666666666666 104.26666666666667 1994.67 0.0 0.0 1.0
33.06666666666666 118.13333333333333 1994.67 0.0 0.0 1.0
33.06666666666666 124.35533333333335 1994.67 0.0 0.0 1.0
33.06666666666666 124.711 1994.67 0.0 0.0 1.0
15.819233333333335 109.90566666666666 1690.4000000000003 -5.65778262370407e-26 -4.4686250998189185e-26 1.0
16.12053333333333 116.68533333333333 1690.4000000000003 9.885794356153657e-28 7.908307416526178e-27 1.0
14.531833333333333 119.62533333333333 1680.9000000000003 8.148479182972324e-27 9.822844621077736e-27 1.0
22.263 -123.38400000000001 1829.97 0.0 0.0 1.0
22.263 -113.272 1829.97 0.0 0.0 1.0
22.263 -109.35766666666666 1829.97 0.0 0.0 1.0
24.057100000000002 -99.40866666666666 1829.97 0.0 0.0 1.0
24.220199999999995 -95.9837 1829.97 0.0 0.0 1.0
23.730900000000002 -82.7727 1829.97 0.0 0.0 1.0
23.241600000000002 -80.6524 1829.97 0.0 0.0 1.0
22.7523 -72.00816666666667 1829.97 0.0 0.0 1.0
3.552846666666666 -69.55396666666667 1537.0233333333333 6.682943185267525e-14 0.732297178930711 0.6809851993473295
23.730900000000002 -69.2355 1829.97 0.0 0.0 1.0
23.893999999999995 -59.7757 1829.97 0.0 0.0 1.0
22.7523 -41.5087 1829.97 0.0 0.0 1.0
32.355533333333334 -37.7778 1994.67 0.0 0.0 1.0
32.355533333333334 -32.266666666666666 1994.67 0.0 0.0 1.0
22.2764 -19.2683 1824.39 0.0 0.0 1.0
25.035700000000002 -17.370033333333335 1829.97 0.0 0.0 1.0
22.9268 -8.373983333333333 1824.39 0.0 0.0 1.0
22.2764 -2.5203266666666666 1824.39 0.0 0.0 1.0
22.7642 1.7073166666666666 1824.39 0.0 0.0 1.0
23.252 10.3252 1824.39 0.0 0.0 1.0
23.0894 16.1789 1824.39 0.0 0.0 1.0
22.7642 20.569100000000002 1824.39 0.0 0.0 1.0
15.216566666666667 51.299433333333326 1690.4000000000003 4.747456764935241e-26 3.1645043322873934e-26 1.0
15.216566666666667 51.299433333333326 1690.4000000000003 4.74745676493523e-26 3.164504332287387e-26 1.0
32.888866666666665 81.68886666666667 1994.67 0.0 0.0 1.0
33.06663333333333 99.28876666666667 1994.67 0.0 0.0 1.0
32.17776666666666 100.17766666666667 1994.67 0.0 0.0 1.0
32.35556666666667 104.26666666666667 1994.67 0.0 0.0 1.0
32.355533333333334 111.37766666666668 1994.67 0.0 0.0 1.0
31.8222 113.51100000000001 1994.67 0.0 0.0 1.0
33.06666666666666 118.13333333333333 1994.67 0.0 0.0 1.0
32.53333333333333 124.53333333333335 1994.67 0.0 0.0 1.0
23.241600000000002 -132.84400000000002 1829.97 0.0 0.0 1.0
23.241600000000002 -132.84400000000002 1829.97 0.0 0.0 1.0
24.546399999999995 -118.00200000000001 1829.97 0.0 0.0 1.0
22.263 -107.07466666666666 1829.97 0.0 0.0 1.0
22.7523 -106.259 1829.97 0.0 0.0 1.0
22.7523 -106.259 1829.97 0.0 0.0 1.0
31.822233333333333 -93.24446666666665 1994.67 0.0 0.0 1.0
31.822233333333333 -93.24446666666665 1994.67 0.0 0.0 1.0
22.7523 -41.5087 1829.97 0.0 0.0 1.0
22.705033333333333 -36.2184 1826.25 0.8901401420280083 -0.4450548648207266 -0.09786058884843393
21.9512 -10.1626 1824.39 0.0 0.0 1.0
22.9268 -8.373983333333333 1824.39 0.0 0.0 1.0
22.2764 -2.5203266666666666 1824.39 0.0 0.0 1.0
23.252 10.3252 1824.39 0.0 0.0 1.0
22.439000000000004 15.365866666666667 1824.39 0.0 0.0 1.0
31.111100000000004 43.64443333333333 1994.67 0.0 0.0 1.0
16.2712 41.506566666666664 1690.4000000000003 -2.4714485890384196e-28 7.413525596123357e-28 1.0
33.95556666666667 58.04443333333333 1994.67 0.0 0.0 1.0
14.915266666666668 50.3955 1690.4000000000003 -1.3181545209119061e-27 6.589314469027579e-28 1.0
15.216566666666665 51.29943333333333 1690.4000000000003 1.1871268492830589e-26 1.9804412070701787e-27 1.0
15.819233333333335 57.325799999999994 1690.4000000000003 4.611609596343625e-28 1.0227795187305555e-27 1.0
15.367266666666666 59.736333333333334 1690.4000000000003 2.47144858903842e-28 -7.414072376784639e-28 1.0
15.123166666666668 65.70583333333333 1696.7866666666669 0.15714782072635633 0.7071911967690038 0.6893367636020736
32.0 103.73333333333333 1994.67 0.0 0.0 1.0
33.06666666666666 107.82233333333333 1994.67 0.0 0.0 1.0
32.53333333333333 124.889 1994.67 0.0 0.0 1.0
15.819233333333335 109.90566666666666 1690.4000000000003 -5.65778262370407e-26 -4.4686250998189185e-26 1.0
13.932566666666666 119.77533333333334 1680.9000000000003 1.8027009330686525e-20 -1.802500391987255e-20 1.0
15.5493 120.71366666666667 1685.63 0.0 0.0 1.0
22.263 -123.221 1829.97 0.0 0.0 1.0
22.263 -109.35766666666666 1829.97 0.0 0.0 1.0
31.822233333333333 -93.24446666666665 1994.67 0.0 0.0 1.0
22.4261 -82.2834 1829.97 0.0 0.0 1.0
22.263 -75.9225 1829.97 0.0 0.0 1.0
21.9368 -68.25690000000002 1829.97 0.0 0.0 1.0
22.7523 -41.5087 1829.97 0.0 0.0 1.0
22.2764 -19.2683 1824.39 0.0 0.0 1.0
22.2764 -19.2683 1824.39 0.0 0.0 1.0
31.644433333333335 -18.577766666666665 1994.67 0.0 0.0 1.0
21.788600000000002 -10.9756 1824.39 0.0 0.0 1.0
22.7642 1.2195123333333333 1824.39 0.0 0.0 1.0
22.439000000000004 15.365866666666667 1824.39 0.0 0.0 1.0
22.113799999999998 19.7561 1824.39 0.0 0.0 1.0
21.626 24.634133333333335 1824.39 0.0 0.0 1.0
14.4258 29.384666666666664 1695.1933333333334 0.7038569039232966 -0.702363514648416 0.1061647403342344
30.399999999999995 37.599999999999994 1994.67 0.0 0.0 1.0
16.27116666666667 32.91903333333334 1690.4000000000003 -4.886014467905722e-29 -3.368638712598167e-27 1.0
14.613966666666668 47.38230000000001 1690.4000000000003 -1.7393224696897707e-25 1.9765902641006248e-26 1.0
14.613966666666668 47.38230000000001 1690.4000000000003 -1.7393224696897707e-25 1.9765902641006248e-26 1.0
14.915266666666668 50.3955 1690.4000000000003 -1.3181545209119065e-27 6.589314469027579e-28 1.0
15.367266666666666 59.736333333333334 1690.4000000000003 2.4714485890384187e-28 -7.414072376784633e-28 1.0
14.4001 66.8811 1691.9933333333336 0.6262297348818703 -0.6262297348818675 0.4644056828889676
15.939566666666664 73.20113333333333 1695.18 0.0 0.0 1.0
15.819233333333335 74.95293333333333 1690.4000000000003 -6.862954254029324e-28 7.35356813668366e-28 1.0
32.0 101.77766666666666 1994.67 0.0 0.0 1.0
32.0 103.73333333333333 1994.67 0.0 0.0 1.0
16.450699999999998 118.46033333333332 1685.63 0.0 0.0 1.0
13.932566666666666 119.77533333333334 1680.9000000000003 1.8027009323840618e-20 -1.8025003913027402e-20 1.0
21.6106 -114.41366666666666 1829.97 0.0 0.0 1.0
22.0999 -112.45666666666666 1829.97 0.0 0.0 1.0
22.4261 -104.95400000000001 1829.97 0.0 0.0 1.0
20.9582 -91.74310000000001 1829.97 0.0 0.0 1.0
22.4261 -82.2834 1829.97 0.0 0.0 1.0
22.4261 -73.96533333333333 1829.97 0.0 0.0 1.0
34.13333333333333 -78.4889 1994.67 0.0 0.0 1.0
22.4261 -53.741099999999996 1829.97 0.0 0.0 1.0
21.7737 -51.947 1829.97 0.0 0.0 1.0
21.1213 -50.6422 1829.97 0.0 0.0 1.0
21.1213 -44.7706 1829.97 0.0 0.0 1.0
20.9582 -39.3884 1829.97 0.0 0.0 1.0
31.466633333333334 -37.95556666666667 1994.67 0.0 0.0 1.0
31.111099999999997 -37.24446666666666 1994.67 0.0 0.0 1.0
21.1213 -23.241599999999995 1829.97 0.0 0.0 1.0
21.9512 -10.1626 1824.39 0.0 0.0 1.0
22.2764 -2.5203266666666666 1824.39 0.0 0.0 1.0
21.463399999999996 18.7805 1824.39 0.0 0.0 1.0
21.626 24.634133333333335 1824.39 0.0 0.0 1.0
21.626 24.634133333333335 1824.39 0.0 0.0 1.0
22.113799999999998 26.0976 1824.39 0.0 0.0 1.0
31.111100000000004 43.64443333333333 1994.67 0.0 0.0 1.0
30.04443333333333 66.75553333333333 1994.67 0.0 0.0 1.0
30.9333 81.86666666666667 1994.67 0.0 0.0 1.0
15.939566666666664 73.20113333333333 1695.18 0.0 0.0 1.0
14.852966666666667 100.95456666666666 1691.993333333333 -0.8734756341277156 0.2911478087746988 0.39022207783629637
16.12053333333333 116.68533333333333 1690.4000000000003 9.885794356153632e-28 7.908307416526155e-27 1.0
13.932566666666666 119.77533333333334 1680.9000000000003 1.8027009330686525e-20 -1.802500391987255e-20 1.0
20.7951 -126.64633333333332 1829.97 0.0 0.0 1.0
21.1213 -126.15733333333333 1829.97 0.0 0.0 1.0
21.6106 -123.221 1829.97 0.0 0.0 1.0
21.6106 -123.221 1829.97 0.0 0.0 1.0
20.9582 -112.61966666666667 1829.97 0.0 0.0 1.0
21.6106 -108.70533333333333 1829.97 0.0 0.0 1.0
21.2844 -107.88966666666666 1829.97 0.0 0.0 1.0
20.9582 -107.07433333333331 1829.97 0.0 0.0 1.0
22.0999 -83.7513 1829.97 0.0 0.0 1.0
29.5111 -71.02223333333335 1994.67 0.0 0.0 1.0
30.577799999999996 -65.15553333333332 1994.67 0.0 0.0 1.0
21.1213 -44.7706 1829.97 0.0 0.0 1.0
30.399999999999995 -32.08886666666667 1994.67 0.0 0.0 1.0
21.1213 -23.241599999999995 1829.97 0.0 0.0 1.0
20.813 -12.2764 1824.39 0.0 0.0 1.0
20.4878 -11.9512 1824.39 0.0 0.0 1.0
20.6504 -6.74797 1824.39 0.0 0.0 1.0
20.813 18.2927 1824.39 0.0 0.0 1.0
31.46666666666667 31.9111 1994.67 0.0 0.0 1.0
31.46666666666667 31.9111 1994.67 0.0 0.0 1.0
13.667233333333334 27.716733333333334 1722.8466666666666 0.19333742454808361 -0.9668968162594537 0.16652683560449483
30.22223333333333 37.06666666666666 1994.67 0.0 0.0 1.0
31.111099999999997 43.64443333333333 1994.67 0.0 0.0 1.0
29.5111 49.155566666666665 1994.67 0.0 0.0 1.0
13.02328 43.178266666666666 1739.53 0.0 0.0 1.0
29.333333333333332 89.68889999999999 1994.67 0.0 0.0 1.0
29.688866666666666 93.95556666666666 1994.67 0.0 0.0 1.0
31.466666666666665 100.711 1994.67 0.0 0.0 1.0
31.288899999999998 105.68900000000001 1994.67 0.0 0.0 1.0
13.001266666666668 95.94596666666666 1696.8066666666666 0.9531128587330395 0.1533956034850265 0.26085564465657596
31.111099999999997 111.55533333333334 1994.67 0.0 0.0 1.0
31.111099999999997 111.55533333333334 1994.67 0.0 0.0 1.0
31.111099999999997 114.93333333333334 1994.67 0.0 0.0 1.0
31.111099999999997 116.17766666666667 1994.67 0.0 0.0 1.0
30.22223333333333 128.62233333333333 1994.67 0.0 0.0 1.0
30.22223333333333 128.62233333333333 1994.67 0.0 0.0 1.0
29.15556666666667 140.178 1994.67 0.0 0.0 1.0
20.4689 -125.668 1829.97 0.0 0.0 1.0
20.4689 -91.9062 1829.97 0.0 0.0 1.0
20.632 -80.4893 1829.97 0.0 0.0 1.0
20.632 -80.4893 1829.97 0.0 0.0 1.0
21.1213 -76.5749 1829.97 0.0 0.0 1.0
29.6889 -68.88889999999999 1994.67 0.0 0.0 1.0
29.6889 -68.88889999999999 1994.67 0.0 0.0 1.0
28.622233333333337 -63.02223333333333 1994.67 0.0 0.0 1.0
21.2844 -45.7492 1829.97 0.0 0.0 1.0
20.9582 -39.3884 1829.97 0.0 0.0 1.0
29.5111 -37.24446666666666 1994.67 0.0 0.0 1.0
19.187 -28.374 1824.39 0.0 0.0 1.0
29.511133333333333 -31.377766666666663 1994.67 0.0 0.0 1.0
20.4878 -11.9512 1824.39 0.0 0.0 1.0
20.3252 2.3577233333333334 1824.39 0.0 0.0 1.0
20.1626 2.682926666666667 1824.39 0.0 0.0 1.0
20.1626 4.146343333333333 1824.39 0.0 0.0 1.0
20.813 23.495900000000002 1824.39 0.0 0.0 1.0
29.5111 39.555566666666664 1994.67 0.0 0.0 1.0
29.6889 50.93336666666667 1994.67 0.0 0.0 1.0
13.02328 43.178266666666666 1739.53 0.0 0.0 1.0
29.6889 64.44443333333334 1994.67 0.0 0.0 1.0
29.5111 65.68886666666667 1994.67 0.0 0.0 1.0
30.5778 75.64446666666667 1994.67 0.0 0.0 1.0
29.333333333333332 79.3778 1994.67 0.0 0.0 1.0
29.5111 96.2667 1994.67 0.0 0.0 1.0
30.04446666666667 103.37766666666668 1994.67 0.0 0.0 1.0
13.3921 90.32826666666666 1679.33 0.6462277117462868 0.21540923724876232 0.7321124265296038
30.400000000000002 124.889 1994.67 0.0 0.0 1.0
30.22223333333333 128.62233333333333 1994.67 0.0 0.0 1.0
29.511133333333333 136.26666666666665 1994.67 0.0 0.0 1.0
28.977800000000002 139.11133333333336 1994.67 0.0 0.0 1.0
27.91113333333333 146.57766666666666 1994.67 0.0 0.0 1.0
20.9582 -107.07433333333334 1829.97 0.0 0.0 1.0
19.6534 -95.9837 1829.97 0.0 0.0 1.0
19.6534 -95.9837 1829.97 0.0 0.0 1.0
20.4689 -91.9062 1829.97 0.0 0.0 1.0
20.4689 -91.9062 1829.97 0.0 0.0 1.0
20.632 -80.4893 1829.97 0.0 0.0 1.0
19.9796 -77.3904 1829.97 0.0 0.0 1.0
20.4689 -67.2783 1829.97 0.0 0.0 1.0
29.5111 -71.02223333333335 1994.67 0.0 0.0 1.0
29.6889 -68.88889999999999 1994.67 0.0 0.0 1.0
20.4689 -44.118233333333336 1829.97 0.0 0.0 1.0
20.9582 -39.3884 1829.97 0.0 0.0 1.0
21.1213 -23.241600000000002 1829.97 0.0 0.0 1.0
29.333333333333332 -18.4 1994.67 0.0 0.0 1.0
20.1626 -12.1138 1824.39 0.0 0.0 1.0
20.1626 -12.1138 1824.39 0.0 0.0 1.0
19.8374 1.0569113333333333 1824.39 0.0 0.0 1.0
20.1626 1.5447156666666668 1824.39 0.0 0.0 1.0
20.0 16.8293 1824.39 0.0 0.0 1.0
20.0 18.455299999999998 1824.39 0.0 0.0 1.0
19.6748 19.2683 1824.39 0.0 0.0 1.0
19.8374 22.8455 1824.39 0.0 0.0 1.0
29.155533333333334 39.02223333333333 1994.67 0.0 0.0 1.0
29.5111 39.555566666666664 1994.67 0.0 0.0 1.0
29.5111 49.155566666666665 1994.67 0.0 0.0 1.0
29.5111 63.02223333333333 1994.67 0.0 0.0 1.0
29.6889 64.44443333333334 1994.67 0.0 0.0 1.0
28.977766666666668 66.57776666666666 1994.67 0.0 0.0 1.0
13.673266666666665 68.36636666666668 1695.18 0.0 0.0 1.0
29.688866666666666 82.75556666666667 1994.67 0.0 0.0 1.0
29.688866666666666 93.95556666666666 1994.67 0.0 0.0 1.0
29.688866666666666 93.95556666666668 1994.67 0.0 0.0 1.0
29.866666666666664 98.04446666666666 1994.67 0.0 0.0 1.0
29.333333333333332 124.35566666666666 1994.67 0.0 0.0 1.0
19.4903 -126.97233333333334 1829.97 0.0 0.0 1.0
20.4689 -114.57666666666667 1829.97 0.0 0.0 1.0
20.3058 -113.76133333333333 1829.97 0.0 0.0 1.0
19.001 -100.7133 1829.97 0.0 0.0 1.0
19.6534 -92.7217 1829.97 0.0 0.0 1.0
29.5111 -71.02223333333335 1994.67 0.0 0.0 1.0
20.1427 -49.9898 1829.97 0.0 0.0 1.0
19.4903 -43.62896666666666 1829.97 0.0 0.0 1.0
19.187 -28.374 1824.39 0.0 0.0 1.0
20.1427 -25.524999999999995 1829.97 0.0 0.0 1.0
19.8374 1.0569113333333333 1824.39 0.0 0.0 1.0
20.1626 2.682926666666667 1824.39 0.0 0.0 1.0
19.6748 4.3089466666666665 1824.39 0.0 0.0 1.0
19.8374 25.2846 1824.39 0.0 0.0 1.0
10.51637 28.83553333333333 1698.3933333333334 1.3530773026343483e-17 0.9665354844830457 0.2565329554562613
12.318599999999998 29.126833333333334 1706.4733333333334 3.2946326633253927e-17 -0.9939094223978634 0.1102000910559772
28.8 37.77779999999999 1994.67 0.0 0.0 1.0
28.8 37.77779999999999 1994.67 0.0 0.0 1.0
28.977766666666668 38.31113333333334 1994.67 0.0 0.0 1.0
29.333333333333332 40.622233333333334 1994.67 0.0 0.0 1.0
29.5111 49.155566666666665 1994.67 0.0 0.0 1.0
24.46506666666666 45.8003 1831.8500000000001 1.1543954987595695e-15 -0.9611701722401412 0.27595633711849643
29.511133333333333 76.71113333333334 1994.67 0.0 0.0 1.0
29.68886666666667 82.75556666666667 1994.67 0.0 0.0 1.0
29.333333333333332 87.2 1994.67 0.0 0.0 1.0
29.5111 91.64446666666667 1994.67 0.0 0.0 1.0
30.04446666666667 103.37766666666668 1994.67 0.0 0.0 1.0
28.977766666666668 123.11133333333333 1994.67 0.0 0.0 1.0
28.977766666666668 123.11133333333333 1994.67 0.0 0.0 1.0
29.511133333333333 136.26666666666665 1994.67 0.0 0.0 1.0
28.977800000000002 139.11133333333336 1994.67 0.0 0.0 1.0
19.001 -128.76666666666665 1829.97 0.0 0.0 1.0
19.4903 -127.95099999999998 1829.97 0.0 0.0 1.0
19.9796 -126.157 1829.97 0.0 0.0 1.0
18.3486 -119.95933333333333 1829.97 0.0 0.0 1.0
27.555566666666667 -96.9778 1994.67 0.0 0.0 1.0
28.0889 -68.88889999999999 1994.67 0.0 0.0 1.0
28.0889 -68.88889999999999 1994.67 0.0 0.0 1.0
29.511133333333333 -64.26666666666667 1994.67 0.0 0.0 1.0
18.1855 -54.8828 1829.97 0.0 0.0 1.0
18.6748 -53.741099999999996 1829.97 0.0 0.0 1.0
28.622233333333337 -36.71113333333333 1994.67 0.0 0.0 1.0
28.8 -32.266666666666666 1994.67 0.0 0.0 1.0
19.8165 -25.361900000000002 1829.97 0.0 0.0 1.0
27.022233333333332 -24.26663333333333 1994.67 0.0 0.0 1.0
18.2114 -18.455299999999998 1824.39 0.0 0.0 1.0
19.6748 -3.8211399999999998 1824.39 0.0 0.0 1.0
19.3496 3.65854 1824.39 0.0 0.0 1.0
19.0244 16.0163 1824.39 0.0 0.0 1.0
19.6748 19.2683 1824.39 0.0 0.0 1.0
18.5366 22.0325 1824.39 0.0 0.0 1.0
9.832416666666667 73.81753333333333 1671.51 0.0 0.0 1.0
9.185176666666667 83.77776666666666 1662.22 0.0 0.0 1.0
10.037476666666667 94.4569 1680.9000000000003 0.0 0.0 1.0
29.511133333333333 129.15566666666666 1994.67 0.0 0.0 1.0
28.977800000000002 139.11133333333336 1994.67 0.0 0.0 1.0
18.6748 -120.61166666666666 1829.97 0.0 0.0 1.0
18.3486 -102.18133333333333 1829.97 0.0 0.0 1.0
18.6748 -92.5586 1829.97 0.0 0.0 1.0
18.6748 -91.9062 1829.97 0.0 0.0 1.0
27.555566666666664 -94.84446666666668 1994.67 0.0 0.0 1.0
19.1641 -80.4893 1829.97 0.0 0.0 1.0
19.1641 -77.8797 1829.97 0.0 0.0 1.0
18.3486 -73.47603333333332 1829.97 0.0 0.0 1.0
18.3486 -73.14986666666665 1829.97 0.0 0.0 1.0
18.6748 -67.60449999999999 1829.97 0.0 0.0 1.0
27.733333333333334 -69.0667 1994.67 0.0 0.0 1.0
27.733333333333334 -61.77779999999999 1994.67 0.0 0.0 1.0
20.1427 -49.9898 1829.97 0.0 0.0 1.0
28.622233333333337 -36.71113333333333 1994.67 0.0 0.0 1.0
8.518736666666667 -27.134266666666665 1797.073333333333 0.42476848232555525 0.8963243409334709 0.12717866280561116
28.8 -32.266666666666666 1994.67 0.0 0.0 1.0
18.2114 -18.455299999999998 1824.39 0.0 0.0 1.0
27.022199999999998 -15.555566666666666 1994.67 0.0 0.0 1.0
18.8618 -11.1382 1824.39 0.0 0.0 1.0
18.374 -5.284556666666666 1824.39 0.0 0.0 1.0
18.5366 22.0325 1824.39 0.0 0.0 1.0
18.2114 25.121966666666665 1824.39 0.0 0.0 1.0
13.667233333333334 27.716733333333334 1722.8466666666666 0.19333742454808348 -0.9668968162594537 0.16652683560449497
8.690823333333334 37.36306666666667 1666.8499999999997 5.647691058729542e-29 4.879731396222645e-28 1.0
9.236489999999998 49.6834 1671.51 0.0 0.0 1.0
9.68342 53.407833333333336 1671.51 0.0 0.0 1.0
28.977766666666668 66.57776666666666 1994.67 0.0 0.0 1.0
8.95455 59.72299999999999 1660.6866666666665 -0.2392820421974878 -0.9572250877089297 0.16267831982913905
9.582186666666667 76.4345 1666.8499999999997 0.0 1.0 0.0
9.582203333333334 100.35266666666666 1666.8499999999997 -6.015849145377637e-28 -3.61516032979454e-27 1.0
9.582203333333334 100.35266666666666 1666.8499999999997 -6.015849145377638e-28 -3.61516032979454e-27 1.0
9.087513333333332 107.18799999999999 1671.51 0.0 0.0 1.0
9.433626666666667 112.83166666666666 1666.8499999999997 3.246554918884015e-28 -1.3006793349403833e-27 1.0
25.7778 -147.28866666666667 1994.67 0.0 0.0 1.0
19.001 -128.76666666666668 1829.97 0.0 0.0 1.0
17.8593 -118.49133333333333 1829.97 0.0 0.0 1.0
18.3486 -107.56366666666668 1829.97 0.0 0.0 1.0
18.0224 -101.855 1829.97 0.0 0.0 1.0
18.8379 -100.5503 1829.97 0.0 0.0 1.0
18.1855 -95.1682 1829.97 0.0 0.0 1.0
18.3486 -94.6789 1829.97 0.0 0.0 1.0
18.3486 -94.0265 1829.97 0.0 0.0 1.0
18.5117 -93.3741 1829.97 0.0 0.0 1.0
18.5117 -91.2538 1829.97 0.0 0.0 1.0
18.5117 -91.2538 1829.97 0.0 0.0 1.0
26.84443333333333 -97.15556666666667 1994.67 0.0 0.0 1.0
26.84443333333333 -97.15556666666667 1994.67 0.0 0.0 1.0
18.3486 -80.8155 1829.97 0.0 0.0 1.0
17.8593 -77.71659999999999 1829.97 0.0 0.0 1.0
27.2 -69.24446666666667 1994.67 0.0 0.0 1.0
18.0224 -43.792033333333336 1829.97 0.0 0.0 1.0
18.0224 -42.3242 1829.97 0.0 0.0 1.0
19.001 -22.7523 1829.97 0.0 0.0 1.0
19.001 -22.7523 1829.97 0.0 0.0 1.0
27.73333333333333 -18.577766666666665 1994.67 0.0 0.0 1.0
17.3984 -10.4878 1824.39 0.0 0.0 1.0
19.187 0.731707 1824.39 0.0 0.0 1.0
17.561 8.048783333333333 1824.39 0.0 0.0 1.0
17.561 8.048783333333335 1824.39 0.0 0.0 1.0
17.7236 11.625996666666666 1824.39 0.0 0.0 1.0
18.0488 15.365866666666667 1824.39 0.0 0.0 1.0
18.5366 22.0325 1824.39 0.0 0.0 1.0
13.667233333333334 27.716733333333334 1722.8466666666666 0.19333742454808361 -0.9668968162594537 0.16652683560449483
9.433626666666667 36.174566666666664 1666.8499999999997 3.8305814342289467e-28 -3.1543449076465217e-28 1.0
8.98793 54.893233333333335 1666.8499999999997 2.027677823809007e-32 3.0498302215490427e-27 1.0
8.938133333333333 58.57803333333334 1657.62 0.0 0.0 1.0
8.642656666666667 58.873533333333334 1657.62 0.0 0.0 1.0
10.95371 69.87723333333334 1695.18 0.0 0.0 1.0
9.832416666666667 73.81753333333333 1671.51 0.0 0.0 1.0
9.582186666666667 76.4345 1666.8499999999997 0.0 1.0 0.0
7.703703333333333 80.37036666666667 1662.22 0.0 0.0 1.0
10.037476666666667 94.4569 1680.9000000000003 0.0 0.0 1.0
7.150836666666667 97.95156666666666 1671.51 0.0 0.0 1.0
9.136503333333332 103.76966666666665 1666.8499999999997 -3.265698238488022e-27 -1.934928835557355e-27 1.0
8.444443333333334 115.778 1662.22 0.0 0.0 1.0
9.037033333333333 117.25933333333334 1662.22 0.0 0.0 1.0
26.4889 146.9333333333333 1994.67 0.0 0.0 1.0
25.7778 -147.28866666666667 1994.67 0.0 0.0 1.0
18.1855 -120.61166666666668 1829.97 0.0 0.0 1.0
18.3486 -119.95933333333333 1829.97 0.0 0.0 1.0
17.8593 -102.34433333333334 1829.97 0.0 0.0 1.0
18.1855 -95.1682 1829.97 0.0 0.0 1.0
3.552846666666666 -69.55396666666667 1537.0233333333333 -8.500808356993882e-16 0.7322971789307194 0.6809851993473206
26.31113333333333 -95.91109999999999 1994.67 0.0 0.0 1.0
17.8593 -81.63100000000001 1829.97 0.0 0.0 1.0
16.8807 -69.56170000000002 1829.97 0.0 0.0 1.0
26.666666666666668 -69.42223333333332 1994.67 0.0 0.0 1.0
17.5331 -54.5566 1829.97 0.0 0.0 1.0
17.8593 -44.28130000000001 1829.97 0.0 0.0 1.0
17.8593 -44.28130000000001 1829.97 0.0 0.0 1.0
18.0224 -43.792033333333336 1829.97 0.0 0.0 1.0
17.7236 -28.0488 1824.39 0.0 0.0 1.0
27.022233333333332 -26.399966666666668 1994.67 0.0 0.0 1.0
27.73333333333333 -18.577766666666665 1994.67 0.0 0.0 1.0
17.0732 -6.0975633333333334 1824.39 0.0 0.0 1.0
17.7236 5.121953333333333 1824.39 0.0 0.0 1.0
17.3984 22.520300000000002 1824.39 0.0 0.0 1.0
9.301666666666668 38.77269999999999 1669.9566666666667 -2.2070206594448967e-16 -0.9777323533322749 0.20985577248989773
9.68342 53.407833333333336 1671.51 0.0 0.0 1.0
9.68342 53.407833333333336 1671.51 0.0 0.0 1.0
