ply
format ascii 1.0
comment VCGLIB generated
element vertex 888
property float x
property float y
property float z
property float nx
property float ny
property float nz
element face 0
property list uchar int vertex_indices
end_header
-57.19806666666667 30.82126666666667 2168.12 0.0 0.0 1.0
-67.48956666666668 35.83736666666667 1432.7233333333334 -0.11421513190489734 -0.11421513190483878 0.9868686879660876
-52.405833333333334 45.10146666666666 2601.74 0.0 0.0 1.0
-52.17393333333333 46.028999999999996 2601.74 0.0 0.0 1.0
-57.3913 40.8696 2168.12 0.0 0.0 1.0
-57.3913 40.8696 2168.12 0.0 0.0 1.0
-57.3913 41.4493 2168.12 0.0 0.0 1.0
-57.58453333333333 42.029 2168.12 0.0 0.0 1.0
-57.3913 42.80193333333333 2168.12 0.0 0.0 1.0
-58.164233333333335 50.5314 2168.12 0.0 0.0 1.0
-58.164233333333335 54.58936666666667 2168.12 0.0 0.0 1.0
-57.00483333333333 56.908166666666666 2168.12 0.0 0.0 1.0
-57.971000000000004 59.03383333333333 2168.12 0.0 0.0 1.0
-57.19806666666667 60.96616666666667 2168.12 0.0 0.0 1.0
-56.8116 63.864766666666675 2168.12 0.0 0.0 1.0
-58.164233333333335 74.10626666666667 2168.12 0.0 0.0 1.0
-57.3091 77.09089999999999 2176.0 0.0 0.0 1.0
-56.8116 79.71013333333333 2168.12 0.0 0.0 1.0
-52.4058 96.3478 2601.74 0.0 0.0 1.0
-61.70616666666666 69.90476666666666 1656.1333333333332 0.9832607993826807 0.03641342493713897 0.17852804508446068
-57.7458 88.9209 2152.52 0.0 0.0 1.0
-58.629466666666666 100.07 2085.02 0.0 0.0 1.0
-54.028999999999996 -129.50733333333332 2601.74 0.0 0.0 1.0
-53.7971 -128.34799999999998 2601.74 0.0 0.0 1.0
-53.333333333333336 -123.71 2601.74 0.0 0.0 1.0
-53.333333333333336 -116.28966666666668 2601.74 0.0 0.0 1.0
-53.333333333333336 -114.20266666666667 2601.74 0.0 0.0 1.0
-53.10146666666666 -109.56533333333334 2601.74 0.0 0.0 1.0
-55.77686666666667 -90.62419999999999 2384.06 0.0 0.0 1.0
-55.98936666666666 -86.58703333333334 2384.06 0.0 0.0 1.0
-55.98936666666666 -86.58703333333334 2384.06 0.0 0.0 1.0
-55.5644 -79.15003333333333 2384.06 0.0 0.0 1.0
-55.776900000000005 -74.6879 2384.06 0.0 0.0 1.0
-55.873 -65.07936666666667 2374.6 0.0 0.0 1.0
-55.238099999999996 -58.30686666666667 2374.6 0.0 0.0 1.0
-56.29626666666667 -56.8254 2374.6 0.0 0.0 1.0
-53.333333333333336 -56.69566666666666 2601.74 0.0 0.0 1.0
-53.333333333333336 -56.69566666666666 2601.74 0.0 0.0 1.0
-55.8876 -35.6577 2292.72 0.0 0.0 1.0
-54.260866666666665 -24.463766666666668 2601.74 0.0 0.0 1.0
-54.260866666666665 -11.478266666666665 2601.74 0.0 0.0 1.0
-52.869566666666664 -10.087 2601.74 0.0 0.0 1.0
-52.1739 -1.0434786666666667 2601.74 0.0 0.0 1.0
-58.2353 0.6862753333333332 2200.0 0.0 0.0 1.0
-57.77776666666667 28.88893333333333 2168.12 0.0 0.0 1.0
-57.77776666666667 28.88893333333333 2168.12 0.0 0.0 1.0
-67.48956666666668 35.83736666666667 1432.7233333333334 -0.11421513190476994 -0.11421513190481695 0.9868686879661049
-57.58453333333333 42.6087 2168.12 0.0 0.0 1.0
-57.77776666666667 44.927533333333336 2168.12 0.0 0.0 1.0
-58.35746666666666 46.47343333333333 2168.12 0.0 0.0 1.0
-58.050533333333334 55.54756666666666 2160.29 0.0 0.0 1.0
-57.971000000000004 59.03383333333333 2168.12 0.0 0.0 1.0
-57.58453333333333 60.5797 2168.12 0.0 0.0 1.0
-57.58453333333333 63.091800000000006 2168.12 0.0 0.0 1.0
-58.164233333333335 74.10626666666667 2168.12 0.0 0.0 1.0
-57.3091 77.09089999999999 2176.0 0.0 0.0 1.0
-53.10143333333334 121.62333333333333 2601.74 0.0 0.0 1.0
-61.70616666666666 69.90476666666666 1656.1333333333332 0.9832607993826807 0.03641342493713897 0.17852804508446068
-53.10143333333334 122.319 2601.74 0.0 0.0 1.0
-74.85933333333334 73.88013333333333 1544.9766666666667 1.3552253748925098e-14 -0.9915705995144826 0.12956753520264808
-54.028999999999996 -129.50733333333332 2601.74 0.0 0.0 1.0
-53.7971 -128.34799999999998 2601.74 0.0 0.0 1.0
-56.626799999999996 -116.122 2384.06 0.0 0.0 1.0
-54.49276666666666 -123.478 2601.74 0.0 0.0 1.0
-54.72463333333334 -120.92733333333335 2601.74 0.0 0.0 1.0
-56.4143 -109.74799999999999 2384.06 0.0 0.0 1.0
-53.333333333333336 -117.44933333333334 2601.74 0.0 0.0 1.0
-54.49276666666666 -113.971 2601.74 0.0 0.0 1.0
-56.20183333333333 -89.98673333333333 2384.06 0.0 0.0 1.0
-55.98933333333333 -89.34926666666667 2384.06 0.0 0.0 1.0
-55.98936666666666 -86.58703333333334 2384.06 0.0 0.0 1.0
-55.5644 -79.15003333333333 2384.06 0.0 0.0 1.0
-50.78263333333334 -77.7971 2601.74 0.0 0.0 1.0
-55.873 -64.44443333333334 2374.6 0.0 0.0 1.0
-56.8393 -61.726400000000005 2384.06 0.0 0.0 1.0
-56.29626666666667 -56.8254 2374.6 0.0 0.0 1.0
-56.9312 -56.40213333333333 2374.6 0.0 0.0 1.0
-56.500633333333326 -37.0881 2292.72 0.0 0.0 1.0
-54.72463333333334 -37.44926666666667 2601.74 0.0 0.0 1.0
-56.909333333333336 -28.7101 2292.72 0.0 0.0 1.0
-56.909333333333336 -28.7101 2292.72 0.0 0.0 1.0
-54.260866666666665 -24.463766666666668 2601.74 0.0 0.0 1.0
-59.01963333333333 -2.6470603333333336 2200.0 0.0 0.0 1.0
-58.2353 0.6862753333333335 2200.0 0.0 0.0 1.0
-58.82353333333333 4.215683333333334 2200.0 0.0 0.0 1.0
-58.43136666666667 6.176469999999999 2200.0 0.0 0.0 1.0
-58.62746666666667 6.764706666666666 2200.0 0.0 0.0 1.0
-58.2431 21.660666666666668 2160.29 0.0 0.0 1.0
-58.6282 22.04573333333333 2160.29 0.0 0.0 1.0
-58.2431 22.2383 2160.29 0.0 0.0 1.0
-58.357466666666674 30.241566666666667 2168.12 0.0 0.0 1.0
-58.357466666666674 49.178733333333334 2168.12 0.0 0.0 1.0
-58.5507 51.30433333333334 2168.12 0.0 0.0 1.0
-58.93716666666666 54.39613333333333 2168.12 0.0 0.0 1.0
-58.164233333333335 54.58936666666667 2168.12 0.0 0.0 1.0
-57.971000000000004 59.03383333333333 2168.12 0.0 0.0 1.0
-58.35746666666666 69.08216666666668 2168.12 0.0 0.0 1.0
-56.11593333333334 104.23200000000001 2601.74 0.0 0.0 1.0
-59.088699999999996 93.33333333333333 2152.52 0.0 0.0 1.0
-59.088699999999996 93.33333333333333 2152.52 0.0 0.0 1.0
-59.73716666666667 95.10156666666667 2144.8 0.0 0.0 1.0
-55.1884 128.116 2601.74 0.0 0.0 1.0
-54.95653333333333 -121.623 2601.74 0.0 0.0 1.0
-54.72463333333334 -120.92733333333335 2601.74 0.0 0.0 1.0
-57.264266666666664 -95.51133333333333 2384.06 0.0 0.0 1.0
-56.6268 -94.6614 2384.06 0.0 0.0 1.0
-56.41433333333333 -91.04916666666666 2384.06 0.0 0.0 1.0
-56.8393 -73.413 2384.06 0.0 0.0 1.0
-57.05179999999999 -62.36386666666667 2384.06 0.0 0.0 1.0
-56.8393 -61.726400000000005 2384.06 0.0 0.0 1.0
-56.8393 -61.726400000000005 2384.06 0.0 0.0 1.0
-58.4127 -54.07406666666666 2374.6 0.0 0.0 1.0
-58.13536666666666 -43.01403333333334 2292.72 0.0 0.0 1.0
-55.652166666666666 -45.333333333333336 2601.74 0.0 0.0 1.0
-56.11593333333334 -42.55073333333333 2601.74 0.0 0.0 1.0
-54.72463333333334 -37.44926666666667 2601.74 0.0 0.0 1.0
-54.72463333333334 -37.44926666666667 2601.74 0.0 0.0 1.0
-55.1884 -31.420299999999997 2601.74 0.0 0.0 1.0
-55.4203 -30.724666666666668 2601.74 0.0 0.0 1.0
-55.652166666666666 -23.304333333333332 2601.74 0.0 0.0 1.0
-56.500633333333326 -16.6539 2292.72 0.0 0.0 1.0
-55.1884 -4.057973333333334 2601.74 0.0 0.0 1.0
-55.1884 -4.057973333333334 2601.74 0.0 0.0 1.0
-59.2157 0.29411766666666667 2200.0 0.0 0.0 1.0
-58.43136666666667 5.196076666666667 2200.0 0.0 0.0 1.0
-59.139 8.95449 2208.12 0.0 0.0 1.0
-58.050533333333334 15.499433333333334 2160.29 0.0 0.0 1.0
-60.28986666666666 19.806766666666665 2168.12 0.0 0.0 1.0
-59.1304 30.4348 2168.12 0.0 0.0 1.0
-55.652166666666666 43.0145 2601.74 0.0 0.0 1.0
-57.971000000000004 40.483133333333335 2168.12 0.0 0.0 1.0
-59.1304 48.01933333333333 2168.12 0.0 0.0 1.0
-59.01323333333334 55.54756666666666 2160.29 0.0 0.0 1.0
-58.5507 58.45413333333334 2168.12 0.0 0.0 1.0
-59.130433333333336 74.10626666666667 2168.12 0.0 0.0 1.0
-56.11593333333334 92.1739 2601.74 0.0 0.0 1.0
-59.39833333333333 83.46570000000001 2160.29 0.0 0.0 1.0
-59.39833333333334 83.85076666666667 2160.29 0.0 0.0 1.0
-62.0404 65.91196666666666 1637.9766666666667 -0.038406819433329666 -0.9991391801095214 -0.015678488163369482
-68.07016666666667 84.33186666666666 1766.9533333333336 8.563551607308205e-06 -0.9988626811461297 0.04767959878429032
-58.629466666666666 100.07 2085.02 0.0 0.0 1.0
-55.1884 128.11599999999999 2601.74 0.0 0.0 1.0
-55.88406666666666 -124.406 2601.74 0.0 0.0 1.0
-55.188433333333336 -123.01433333333334 2601.74 0.0 0.0 1.0
-55.4203 -122.31866666666667 2601.74 0.0 0.0 1.0
-56.4143 -109.74799999999999 2384.06 0.0 0.0 1.0
-55.6522 -114.435 2601.74 0.0 0.0 1.0
-93.18426666666666 -78.63893333333334 1758.9333333333334 -0.2565273539771169 0.9584250572233194 0.12496049915063495
-56.6268 -94.6614 2384.06 0.0 0.0 1.0
-58.75163333333333 -81.4874 2384.06 0.0 0.0 1.0
-57.689233333333334 -72.1381 2384.06 0.0 0.0 1.0
-58.4127 -57.88356666666667 2374.6 0.0 0.0 1.0
-57.77776666666667 -56.19050000000001 2374.6 0.0 0.0 1.0
-54.260866666666665 -57.391333333333336 2601.74 0.0 0.0 1.0
-55.652166666666666 -44.63766666666667 2601.74 0.0 0.0 1.0
-55.652166666666666 -37.44926666666667 2601.74 0.0 0.0 1.0
-55.4203 -31.420299999999997 2601.74 0.0 0.0 1.0
-55.4203 -30.724666666666668 2601.74 0.0 0.0 1.0
-55.652166666666666 -22.3768 2601.74 0.0 0.0 1.0
-56.5797 -15.652166666666666 2601.74 0.0 0.0 1.0
-56.57973333333334 -12.173899999999998 2601.74 0.0 0.0 1.0
-56.11596666666667 -9.391300000000001 2601.74 0.0 0.0 1.0
-55.6522 -8.231883333333334 2601.74 0.0 0.0 1.0
-55.88406666666666 -7.3043499999999995 2601.74 0.0 0.0 1.0
-55.1884 -4.057973333333334 2601.74 0.0 0.0 1.0
-59.2157 -0.29411766666666667 2200.0 0.0 0.0 1.0
-59.2157 -0.29411766666666667 2200.0 0.0 0.0 1.0
-59.2157 0.29411766666666667 2200.0 0.0 0.0 1.0
-58.82353333333333 4.215683333333334 2200.0 0.0 0.0 1.0
-58.62746666666666 6.764706666666666 2200.0 0.0 0.0 1.0
-59.139 8.954490000000002 2208.12 0.0 0.0 1.0
-59.139 8.954490000000002 2208.12 0.0 0.0 1.0
-60.319799999999994 14.268133333333333 2208.12 0.0 0.0 1.0
-60.4831 16.135233333333332 2168.12 0.0 0.0 1.0
-60.4831 20.77293333333333 2168.12 0.0 0.0 1.0
-60.28986666666666 25.7971 2168.12 0.0 0.0 1.0
-59.1304 30.4348 2168.12 0.0 0.0 1.0
-56.11593333333334 42.08696666666667 2601.74 0.0 0.0 1.0
-60.99393333333333 41.018166666666666 2176.0 0.0 0.0 1.0
-59.90336666666667 43.57486666666667 2168.12 0.0 0.0 1.0
-59.90336666666667 43.57486666666667 2168.12 0.0 0.0 1.0
-58.93716666666666 47.05316666666666 2168.12 0.0 0.0 1.0
-59.5169 51.1111 2168.12 0.0 0.0 1.0
-58.93716666666666 54.39613333333333 2168.12 0.0 0.0 1.0
-59.01323333333334 55.54756666666666 2160.29 0.0 0.0 1.0
-58.35746666666666 69.08216666666668 2168.12 0.0 0.0 1.0
-60.41213333333334 71.85453333333334 2176.0 0.0 0.0 1.0
-56.11593333333334 92.1739 2601.74 0.0 0.0 1.0
-58.93716666666666 79.90336666666667 2168.12 0.0 0.0 1.0
-58.74393333333333 80.4831 2168.12 0.0 0.0 1.0
-59.59086666666667 83.46569999999998 2160.29 0.0 0.0 1.0
-59.39833333333334 83.85076666666667 2160.29 0.0 0.0 1.0
-59.472433333333335 89.49643333333334 2152.52 0.0 0.0 1.0
-59.8561 93.5252 2152.52 0.0 0.0 1.0
-60.310633333333335 94.14573333333334 2144.8 0.0 0.0 1.0
-54.260866666666665 121.855 2601.74 0.0 0.0 1.0
-58.3101 100.20866666666666 2080.193333333333 -1.391632315685748e-16 0.9995875694733382 0.028717432935147967
-55.88406666666666 -124.406 2601.74 0.0 0.0 1.0
-57.05176666666667 -89.34926666666667 2384.06 0.0 0.0 1.0
-58.751666666666665 -78.5126 2384.06 0.0 0.0 1.0
-58.326699999999995 -77.0252 2384.06 0.0 0.0 1.0
-57.90173333333333 -75.53783333333332 2384.06 0.0 0.0 1.0
-58.114200000000004 -70.43823333333332 2384.06 0.0 0.0 1.0
-58.326699999999995 -68.95083333333334 2384.06 0.0 0.0 1.0
-58.964133333333336 -68.52586666666667 2384.06 0.0 0.0 1.0
-58.53916666666667 -61.08893333333333 2384.06 0.0 0.0 1.0
-58.4127 -57.88356666666667 2374.6 0.0 0.0 1.0
-58.4127 -54.07406666666666 2374.6 0.0 0.0 1.0
-58.13536666666666 -43.01403333333334 2292.72 0.0 0.0 1.0
-56.11593333333334 -45.7971 2601.74 0.0 0.0 1.0
-56.5797 -44.1739 2601.74 0.0 0.0 1.0
-55.652166666666666 -37.68113333333333 2601.74 0.0 0.0 1.0
-56.5797 -23.536233333333332 2601.74 0.0 0.0 1.0
-56.8116 -20.985500000000002 2601.74 0.0 0.0 1.0
-57.04346666666667 -14.260866666666667 2601.74 0.0 0.0 1.0
-55.88406666666666 -7.3043499999999995 2601.74 0.0 0.0 1.0
-57.27536666666666 1.2753619999999999 2601.74 0.0 0.0 1.0
-60.4831 16.135233333333332 2168.12 0.0 0.0 1.0
-60.48313333333334 26.57003333333333 2168.12 0.0 0.0 1.0
-60.483133333333335 26.57003333333333 2168.12 0.0 0.0 1.0
-57.04346666666667 44.637699999999995 2601.74 0.0 0.0 1.0
-59.90336666666667 43.57486666666667 2168.12 0.0 0.0 1.0
-60.4831 50.1449 2168.12 0.0 0.0 1.0
-59.516933333333334 61.352666666666664 2168.12 0.0 0.0 1.0
-60.28990000000001 62.512100000000004 2168.12 0.0 0.0 1.0
-59.516933333333334 63.4783 2168.12 0.0 0.0 1.0
-60.4831 74.10626666666667 2168.12 0.0 0.0 1.0
-57.858000000000004 88.08660000000002 2160.29 0.0 0.0 1.0
-58.2029 106.78300000000002 2601.74 0.0 0.0 1.0
-60.310633333333335 94.14573333333334 2144.8 0.0 0.0 1.0
-60.310633333333335 94.14573333333334 2144.8 0.0 0.0 1.0
-60.8841 95.10156666666667 2144.8 0.0 0.0 1.0
-56.811566666666664 127.18866666666666 2601.74 0.0 0.0 1.0
-56.57973333333334 -114.20300000000002 2601.74 0.0 0.0 1.0
-56.57973333333334 -114.20300000000002 2601.74 0.0 0.0 1.0
-57.27536666666666 -112.11599999999999 2601.74 0.0 0.0 1.0
-58.964133333333336 -98.2736 2384.06 0.0 0.0 1.0
-59.389100000000006 -86.79946666666666 2384.06 0.0 0.0 1.0
-58.75163333333333 -80.63746666666667 2384.06 0.0 0.0 1.0
-59.470866666666666 -65.50266666666667 2374.6 0.0 0.0 1.0
-58.4127 -57.88356666666667 2374.6 0.0 0.0 1.0
-58.83596666666667 -56.40213333333333 2374.6 0.0 0.0 1.0
-57.739133333333335 -49.971000000000004 2601.74 0.0 0.0 1.0
-57.04346666666667 -45.333333333333336 2601.74 0.0 0.0 1.0
-57.27536666666666 -39.30433333333333 2601.74 0.0 0.0 1.0
-56.57973333333334 -31.65216666666667 2601.74 0.0 0.0 1.0
-57.27536666666666 -30.956500000000002 2601.74 0.0 0.0 1.0
-57.739133333333335 -27.246399999999998 2601.74 0.0 0.0 1.0
-56.8116 -20.985500000000002 2601.74 0.0 0.0 1.0
-57.27536666666666 -20.753600000000002 2601.74 0.0 0.0 1.0
-57.04346666666667 -13.7971 2601.74 0.0 0.0 1.0
-57.50723333333334 -11.478266666666665 2601.74 0.0 0.0 1.0
-57.27536666666666 2.4347833333333333 2601.74 0.0 0.0 1.0
-60.319799999999994 14.268133333333333 2208.12 0.0 0.0 1.0
-60.4831 20.772933333333334 2168.12 0.0 0.0 1.0
-60.4831 20.772933333333334 2168.12 0.0 0.0 1.0
-61.107 23.7146 2208.12 0.0 0.0 1.0
-61.107 24.1082 2208.12 0.0 0.0 1.0
-60.48313333333334 26.57003333333333 2168.12 0.0 0.0 1.0
-61.3818 32.48486666666667 2176.0 0.0 0.0 1.0
-66.20593333333333 21.430133333333334 1302.8533333333335 0.91210057767893 -0.3915170928830571 0.12160140697443379
-57.04346666666667 44.637699999999995 2601.74 0.0 0.0 1.0
-61.3818 50.521233333333335 2176.0 0.0 0.0 1.0
-60.4831 56.3285 2168.12 0.0 0.0 1.0
-61.3818 61.575733333333325 2176.0 0.0 0.0 1.0
-60.99393333333333 71.07876666666668 2176.0 0.0 0.0 1.0
-60.41213333333334 71.85453333333334 2176.0 0.0 0.0 1.0
-60.815333333333335 90.2638 2152.52 0.0 0.0 1.0
-60.815333333333335 93.33333333333333 2152.52 0.0 0.0 1.0
-64.1905 98.0 2137.14 0.0 0.0 1.0
-60.45153333333334 -116.122 2384.06 0.0 0.0 1.0
-58.2029 -111.65233333333333 2601.74 0.0 0.0 1.0
-58.114200000000004 -93.17399999999999 2384.06 0.0 0.0 1.0
-59.60156666666666 -81.91236666666667 2384.06 0.0 0.0 1.0
-59.60156666666666 -80.21249999999999 2384.06 0.0 0.0 1.0
-59.89416666666667 -65.7143 2374.6 0.0 0.0 1.0
-59.68253333333333 -65.29103333333335 2374.6 0.0 0.0 1.0
-59.68253333333333 -56.8254 2374.6 0.0 0.0 1.0
-59.4709 -54.2857 2374.6 0.0 0.0 1.0
-58.43476666666667 -49.50723333333334 2601.74 0.0 0.0 1.0
-57.7391 -44.1739 2601.74 0.0 0.0 1.0
-58.43476666666667 -41.62323333333334 2601.74 0.0 0.0 1.0
-57.50723333333334 -29.5652 2601.74 0.0 0.0 1.0
-57.50723333333334 -28.4058 2601.74 0.0 0.0 1.0
-58.2029 -23.7681 2601.74 0.0 0.0 1.0
-57.971000000000004 -23.304333333333332 2601.74 0.0 0.0 1.0
-57.27536666666666 -20.753600000000002 2601.74 0.0 0.0 1.0
-57.971000000000004 -16.3478 2601.74 0.0 0.0 1.0
-57.7391 -14.9565 2601.74 0.0 0.0 1.0
-57.50723333333334 -14.028966666666667 2601.74 0.0 0.0 1.0
-57.7391 -12.4058 2601.74 0.0 0.0 1.0
-57.50723333333334 -11.478266666666668 2601.74 0.0 0.0 1.0
-57.50723333333334 -9.391300000000001 2601.74 0.0 0.0 1.0
-58.202866666666665 -8.69565 2601.74 0.0 0.0 1.0
-57.27533333333333 -5.681159999999999 2601.74 0.0 0.0 1.0
-57.04346666666667 -4.7536233333333335 2601.74 0.0 0.0 1.0
-57.50723333333334 0.11594199999999999 2601.74 0.0 0.0 1.0
-61.3038 15.448966666666669 2208.12 0.0 0.0 1.0
-60.4831 16.135233333333332 2168.12 0.0 0.0 1.0
-61.894200000000005 26.666700000000002 2208.12 0.0 0.0 1.0
-61.3818 32.48486666666667 2176.0 0.0 0.0 1.0
-57.04346666666667 42.55073333333333 2601.74 0.0 0.0 1.0
-57.04346666666667 44.637699999999995 2601.74 0.0 0.0 1.0
-60.99393333333333 41.018166666666666 2176.0 0.0 0.0 1.0
-60.4831 48.79226666666667 2168.12 0.0 0.0 1.0
-61.3818 50.521233333333335 2176.0 0.0 0.0 1.0
-60.67633333333333 55.16906666666667 2168.12 0.0 0.0 1.0
-61.769666666666666 62.15756666666667 2176.0 0.0 0.0 1.0
-61.769666666666666 64.67880000000001 2176.0 0.0 0.0 1.0
-61.7697 70.49696666666667 2176.0 0.0 0.0 1.0
-56.11593333333334 92.1739 2601.74 0.0 0.0 1.0
-59.1304 103.07233333333333 2601.74 0.0 0.0 1.0
-61.39086666666666 91.6067 2152.52 0.0 0.0 1.0
-61.774566666666665 93.14146666666666 2152.52 0.0 0.0 1.0
-61.648733333333325 95.29273333333333 2144.8 0.0 0.0 1.0
-69.23333333333333 -69.24649999999998 1472.7433333333336 -0.47433383000556445 0.8652411650787276 0.1623734706331624
-58.666666666666664 -116.98533333333334 2601.74 0.0 0.0 1.0
-58.89853333333334 -115.13033333333333 2601.74 0.0 0.0 1.0
-60.663999999999994 -82.33733333333333 2384.06 0.0 0.0 1.0
-59.60156666666666 -80.21249999999999 2384.06 0.0 0.0 1.0
-60.876466666666666 -73.83796666666667 2384.06 0.0 0.0 1.0
-58.964133333333336 -69.3758 2384.06 0.0 0.0 1.0
-59.89416666666667 -65.7143 2374.6 0.0 0.0 1.0
-60.876466666666666 -61.088966666666664 2384.06 0.0 0.0 1.0
-59.68253333333333 -57.4603 2374.6 0.0 0.0 1.0
-60.31746666666667 -54.709 2374.6 0.0 0.0 1.0
-60.10583333333333 -52.1693 2374.6 0.0 0.0 1.0
-58.43476666666667 -49.50723333333334 2601.74 0.0 0.0 1.0
-58.43476666666667 -41.62323333333334 2601.74 0.0 0.0 1.0
-58.2029 -32.3478 2601.74 0.0 0.0 1.0
-57.97103333333334 -25.855100000000004 2601.74 0.0 0.0 1.0
-58.666666666666664 -23.7681 2601.74 0.0 0.0 1.0
-58.666666666666664 -23.7681 2601.74 0.0 0.0 1.0
-58.43476666666667 -19.826066666666666 2601.74 0.0 0.0 1.0
-58.89853333333334 -18.20286666666667 2601.74 0.0 0.0 1.0
-58.666666666666664 0.3478253333333334 2601.74 0.0 0.0 1.0
-59.36233333333333 4.05797 2601.74 0.0 0.0 1.0
-62.6814 20.369 2208.12 0.0 0.0 1.0
-62.091 27.6507 2208.12 0.0 0.0 1.0
-61.3818 32.48486666666667 2176.0 0.0 0.0 1.0
-57.739133333333335 45.10146666666666 2601.74 0.0 0.0 1.0
-60.99393333333333 41.018166666666666 2176.0 0.0 0.0 1.0
-61.18786666666667 42.375766666666664 2176.0 0.0 0.0 1.0
-63.260333333333335 50.7056 2183.94 0.0 0.0 1.0
-61.3818 50.521233333333335 2176.0 0.0 0.0 1.0
-62.09246666666667 57.323566666666665 2183.94 0.0 0.0 1.0
-62.09246666666667 57.323566666666665 2183.94 0.0 0.0 1.0
-61.769666666666666 62.15756666666667 2176.0 0.0 0.0 1.0
-61.769666666666666 62.15756666666666 2176.0 0.0 0.0 1.0
-61.96363333333333 66.61816666666668 2176.0 0.0 0.0 1.0
-61.642533333333326 73.91303333333333 2168.12 0.0 0.0 1.0
-59.5942 94.95653333333333 2601.74 0.0 0.0 1.0
-58.43476666666667 107.94233333333334 2601.74 0.0 0.0 1.0
-63.17803333333333 97.58663333333334 2144.8 0.0 0.0 1.0
-58.434799999999996 121.15933333333334 2601.74 0.0 0.0 1.0
-61.088966666666664 -116.33466666666668 2384.06 0.0 0.0 1.0
-60.663999999999994 -115.90966666666667 2384.06 0.0 0.0 1.0
-57.04346666666667 -123.71033333333334 2601.74 0.0 0.0 1.0
-58.666666666666664 -116.98533333333334 2601.74 0.0 0.0 1.0
-59.362300000000005 -114.89833333333333 2601.74 0.0 0.0 1.0
-59.362300000000005 -114.66666666666667 2601.74 0.0 0.0 1.0
-59.362300000000005 -110.02933333333333 2601.74 0.0 0.0 1.0
-60.66400000000001 -98.27359999999999 2384.06 0.0 0.0 1.0
-61.301433333333335 -88.9243 2384.06 0.0 0.0 1.0
-61.513933333333334 -84.67463333333333 2384.06 0.0 0.0 1.0
-61.513933333333334 -78.08763333333333 2384.06 0.0 0.0 1.0
-61.30146666666667 -75.96283333333332 2384.06 0.0 0.0 1.0
-60.663999999999994 -74.90039999999999 2384.06 0.0 0.0 1.0
-61.301433333333335 -62.788833333333336 2384.06 0.0 0.0 1.0
-60.876466666666666 -61.088966666666664 2384.06 0.0 0.0 1.0
-60.31746666666667 -55.555566666666664 2374.6 0.0 0.0 1.0
-60.28983333333334 -57.391333333333336 2601.74 0.0 0.0 1.0
-58.43476666666667 -49.50723333333334 2601.74 0.0 0.0 1.0
-59.5942 -44.17393333333333 2601.74 0.0 0.0 1.0
-58.43476666666667 -41.62323333333334 2601.74 0.0 0.0 1.0
-58.66663333333333 -30.26086666666667 2601.74 0.0 0.0 1.0
-58.66663333333333 -30.26086666666667 2601.74 0.0 0.0 1.0
-58.666666666666664 -23.7681 2601.74 0.0 0.0 1.0
-58.89853333333334 -18.898533333333337 2601.74 0.0 0.0 1.0
-58.89853333333334 -18.20286666666667 2601.74 0.0 0.0 1.0
-58.202866666666665 -8.69565 2601.74 0.0 0.0 1.0
-59.5942 5.681156666666666 2601.74 0.0 0.0 1.0
-62.8782 18.2042 2208.12 0.0 0.0 1.0
-62.4846 24.1082 2208.12 0.0 0.0 1.0
-62.4846 24.1082 2208.12 0.0 0.0 1.0
-61.89419999999999 26.666700000000002 2208.12 0.0 0.0 1.0
-61.89419999999999 26.666700000000002 2208.12 0.0 0.0 1.0
-62.091 27.6507 2208.12 0.0 0.0 1.0
-62.4846 30.9963 2208.12 0.0 0.0 1.0
-62.4846 30.9963 2208.12 0.0 0.0 1.0
-62.481766666666665 57.323566666666665 2183.94 0.0 0.0 1.0
-62.54546666666666 68.36363333333334 2176.0 0.0 0.0 1.0
-61.642533333333326 73.91303333333333 2168.12 0.0 0.0 1.0
-65.28076666666668 84.58783333333334 2144.8 0.0 0.0 1.0
-59.1304 103.07233333333333 2601.74 0.0 0.0 1.0
-61.774566666666665 93.14146666666666 2152.52 0.0 0.0 1.0
-62.986866666666664 94.3369 2144.8 0.0 0.0 1.0
-63.17803333333333 94.71923333333332 2144.8 0.0 0.0 1.0
-60.057966666666665 126.029 2601.74 0.0 0.0 1.0
-58.202866666666665 127.88433333333334 2601.74 0.0 0.0 1.0
-61.088966666666664 -116.33466666666668 2384.06 0.0 0.0 1.0
-60.057966666666665 -114.89833333333333 2601.74 0.0 0.0 1.0
-59.5942 -114.66666666666667 2601.74 0.0 0.0 1.0
-59.5942 -114.20300000000002 2601.74 0.0 0.0 1.0
-59.8261 -113.50733333333334 2601.74 0.0 0.0 1.0
-61.301433333333335 -88.92430000000002 2384.06 0.0 0.0 1.0
-61.301433333333335 -88.07436666666666 2384.06 0.0 0.0 1.0
-61.5139 -86.79946666666666 2384.06 0.0 0.0 1.0
-61.513933333333334 -84.67463333333333 2384.06 0.0 0.0 1.0
-61.513933333333334 -78.5126 2384.06 0.0 0.0 1.0
-61.726400000000005 -72.13813333333333 2384.06 0.0 0.0 1.0
-61.726400000000005 -72.13813333333333 2384.06 0.0 0.0 1.0
-62.36386666666667 -67.25096666666667 2384.06 0.0 0.0 1.0
-61.513933333333334 -63.2138 2384.06 0.0 0.0 1.0
-61.513933333333334 -62.15136666666667 2384.06 0.0 0.0 1.0
-61.513933333333334 -61.088966666666664 2384.06 0.0 0.0 1.0
-60.753600000000006 -54.3768 2601.74 0.0 0.0 1.0
-59.5942 -44.17393333333333 2601.74 0.0 0.0 1.0
-59.5942 -44.17393333333333 2601.74 0.0 0.0 1.0
-62.01306666666667 -32.5229 2346.67 0.0 0.0 1.0
-62.01306666666667 -32.5229 2346.67 0.0 0.0 1.0
-62.222199999999994 -30.013099999999998 2346.67 0.0 0.0 1.0
-62.916666666666664 -25.3125 2337.5 0.0 0.0 1.0
-60.28986666666666 -15.652166666666666 2601.74 0.0 0.0 1.0
-60.28986666666666 -15.652166666666666 2601.74 0.0 0.0 1.0
-60.057966666666665 -10.086983333333334 2601.74 0.0 0.0 1.0
-62.76919999999999 -4.410256666666666 2301.54 0.0 0.0 1.0
-62.56406666666666 -3.179486666666667 2301.54 0.0 0.0 1.0
-60.28986666666666 2.2028966666666667 2601.74 0.0 0.0 1.0
-59.36233333333333 2.89855 2601.74 0.0 0.0 1.0
-60.057966666666665 5.681156666666666 2601.74 0.0 0.0 1.0
-60.057966666666665 5.681156666666666 2601.74 0.0 0.0 1.0
-60.057966666666665 6.144926666666667 2601.74 0.0 0.0 1.0
-62.8782 18.2042 2208.12 0.0 0.0 1.0
-62.8782 24.698633333333333 2208.12 0.0 0.0 1.0
-62.4846 30.9963 2208.12 0.0 0.0 1.0
-64.05903333333333 33.7515 2208.12 0.0 0.0 1.0
-63.6654 44.7724 2208.12 0.0 0.0 1.0
-63.4896 46.28933333333333 2205.4133333333334 0.9414925312030563 0.31381312619109053 0.12293549332490168
-63.260333333333335 50.7056 2183.94 0.0 0.0 1.0
-63.455000000000005 56.54503333333333 2183.94 0.0 0.0 1.0
-63.260333333333335 56.9343 2183.94 0.0 0.0 1.0
-61.91303333333334 73.8551 2601.74 0.0 0.0 1.0
-62.35153333333333 69.52726666666666 2176.0 0.0 0.0 1.0
-59.5942 94.95653333333333 2601.74 0.0 0.0 1.0
-64.07673333333334 78.94483333333334 2152.52 0.0 0.0 1.0
-59.82606666666667 103.76799999999999 2601.74 0.0 0.0 1.0
-63.309366666666655 91.03116666666666 2152.52 0.0 0.0 1.0
-63.17803333333333 94.71923333333332 2144.8 0.0 0.0 1.0
-63.17803333333333 94.71923333333332 2144.8 0.0 0.0 1.0
-63.751533333333334 97.20429999999999 2144.8 0.0 0.0 1.0
-60.057966666666665 126.029 2601.74 0.0 0.0 1.0
-77.95620000000001 89.55403333333334 1831.93 -3.228571803416097e-17 -0.9995068896551847 0.031400279167840876
-63.07243333333333 -129.971 2601.74 0.0 0.0 1.0
-64.0 -117.22666666666667 2393.6 0.0 0.0 1.0
-60.28983333333334 -115.36200000000001 2601.74 0.0 0.0 1.0
-60.52173333333334 -115.13 2601.74 0.0 0.0 1.0
-62.36386666666667 -97.2112 2384.06 0.0 0.0 1.0
-61.513933333333334 -84.67463333333335 2384.06 0.0 0.0 1.0
-63.00129999999999 -81.9124 2384.06 0.0 0.0 1.0
-61.9389 -78.30013333333333 2384.06 0.0 0.0 1.0
-62.1514 -77.66269999999999 2384.06 0.0 0.0 1.0
-61.72643333333334 -76.81276666666666 2384.06 0.0 0.0 1.0
-62.36386666666667 -71.7132 2384.06 0.0 0.0 1.0
-62.36386666666667 -67.25096666666667 2384.06 0.0 0.0 1.0
-62.15136666666667 -63.63876666666666 2384.06 0.0 0.0 1.0
-61.726400000000005 -61.513933333333334 2384.06 0.0 0.0 1.0
-60.28983333333334 -57.391333333333336 2601.74 0.0 0.0 1.0
-60.52173333333334 -53.44926666666667 2601.74 0.0 0.0 1.0
-60.28983333333334 -49.50723333333334 2601.74 0.0 0.0 1.0
-60.28983333333334 -46.95653333333333 2601.74 0.0 0.0 1.0
-62.4314 -36.70589999999999 2346.67 0.0 0.0 1.0
-62.4314 -36.70589999999999 2346.67 0.0 0.0 1.0
-62.64053333333333 -35.451 2346.67 0.0 0.0 1.0
-62.64053333333334 -32.9412 2346.67 0.0 0.0 1.0
-60.28983333333333 -22.37676666666667 2601.74 0.0 0.0 1.0
-62.56406666666666 -5.641026666666666 2301.54 0.0 0.0 1.0
-62.769200000000005 -4.410256666666666 2301.54 0.0 0.0 1.0
-60.057966666666665 5.681156666666666 2601.74 0.0 0.0 1.0
-61.21736666666666 11.2464 2601.74 0.0 0.0 1.0
-62.8782 18.2042 2208.12 0.0 0.0 1.0
-63.8622 21.1562 2208.12 0.0 0.0 1.0
-62.8782 24.698633333333333 2208.12 0.0 0.0 1.0
-59.594166666666666 42.55073333333333 2601.74 0.0 0.0 1.0
-61.44923333333333 43.24636666666667 2601.74 0.0 0.0 1.0
-64.45263333333334 40.6396 2208.12 0.0 0.0 1.0
-63.6654 44.7724 2208.12 0.0 0.0 1.0
-63.0657 57.323566666666665 2183.94 0.0 0.0 1.0
-64.0389 58.68613333333334 2183.94 0.0 0.0 1.0
-61.68113333333333 80.8116 2601.74 0.0 0.0 1.0
-61.21736666666667 84.05796666666667 2601.74 0.0 0.0 1.0
-60.52173333333334 94.029 2601.74 0.0 0.0 1.0
-60.28983333333334 102.84033333333333 2601.74 0.0 0.0 1.0
-59.5942 107.24666666666667 2601.74 0.0 0.0 1.0
-63.751533333333334 97.2043 2144.8 0.0 0.0 1.0
-63.751533333333334 97.20429999999999 2144.8 0.0 0.0 1.0
-64.0 -117.22666666666667 2393.6 0.0 0.0 1.0
-65.27999999999999 -109.76 2393.6 0.0 0.0 1.0
-61.21736666666667 -114.89833333333333 2601.74 0.0 0.0 1.0
-60.057966666666665 -110.493 2601.74 0.0 0.0 1.0
-63.85123333333333 -95.51133333333333 2384.06 0.0 0.0 1.0
-62.36383333333333 -92.1116 2384.06 0.0 0.0 1.0
-63.00129999999999 -81.9124 2384.06 0.0 0.0 1.0
-62.15136666666667 -79.15006666666666 2384.06 0.0 0.0 1.0
-62.788833333333336 -64.06373333333333 2384.06 0.0 0.0 1.0
-62.57633333333334 -60.02656666666667 2384.06 0.0 0.0 1.0
-62.43386666666667 -55.5556 2374.6 0.0 0.0 1.0
-61.44926666666667 -58.55073333333333 2601.74 0.0 0.0 1.0
-61.44926666666667 -57.15943333333333 2601.74 0.0 0.0 1.0
-61.21736666666667 -52.28983333333334 2601.74 0.0 0.0 1.0
-61.21736666666667 -49.971000000000004 2601.74 0.0 0.0 1.0
-63.05883333333333 -34.614399999999996 2346.67 0.0 0.0 1.0
-62.222199999999994 -30.013099999999998 2346.67 0.0 0.0 1.0
-62.916666666666664 -25.3125 2337.5 0.0 0.0 1.0
-60.9855 -16.347833333333334 2601.74 0.0 0.0 1.0
-60.75363333333333 -13.101466666666667 2601.74 0.0 0.0 1.0
-60.75363333333333 -11.478299999999999 2601.74 0.0 0.0 1.0
-62.76919999999999 -4.410256666666666 2301.54 0.0 0.0 1.0
-60.9855 1.5072466666666668 2601.74 0.0 0.0 1.0
-61.44926666666667 10.318866666666667 2601.74 0.0 0.0 1.0
-61.44926666666667 10.318866666666667 2601.74 0.0 0.0 1.0
-61.68113333333333 17.73913333333333 2601.74 0.0 0.0 1.0
-63.8622 21.1562 2208.12 0.0 0.0 1.0
-64.2558 21.352999999999998 2208.12 0.0 0.0 1.0
-64.05903333333333 33.7515 2208.12 0.0 0.0 1.0
-66.20593333333333 21.430133333333334 1302.8533333333335 0.912100577679006 -0.39151709288287806 0.1216014069744394
-64.25583333333334 41.23 2208.12 0.0 0.0 1.0
-64.05900000000001 45.75643333333333 2208.12 0.0 0.0 1.0
-64.42823333333332 55.96106666666666 2183.94 0.0 0.0 1.0
-64.42823333333332 56.15573333333333 2183.94 0.0 0.0 1.0
-62.545433333333335 63.903033333333326 2176.0 0.0 0.0 1.0
-61.21736666666667 84.05796666666667 2601.74 0.0 0.0 1.0
-60.52173333333334 94.029 2601.74 0.0 0.0 1.0
-64.26859999999999 78.56113333333333 2152.52 0.0 0.0 1.0
-64.46043333333334 79.52036666666667 2152.52 0.0 0.0 1.0
-61.44926666666667 102.37666666666667 2601.74 0.0 0.0 1.0
-63.7515 94.71923333333332 2144.8 0.0 0.0 1.0
-62.1449 121.62333333333333 2601.74 0.0 0.0 1.0
-61.44926666666667 125.565 2601.74 0.0 0.0 1.0
-78.98266666666667 93.23183333333333 1928.253333333333 3.3803037709171446e-16 0.9619950330331808 0.2730669449411437
-69.23333333333333 -69.24649999999998 1472.7433333333336 -0.47433383000556395 0.865241165078728 0.1623734706331625
-71.07563333333333 -70.90463333333334 1516.8066666666666 -0.7219066801634091 -0.6915657418004432 -0.02423984124223254
-61.21736666666666 -116.05766666666666 2601.74 0.0 0.0 1.0
-62.1449 -114.66666666666667 2601.74 0.0 0.0 1.0
-63.85126666666667 -98.48606666666667 2384.06 0.0 0.0 1.0
-62.36386666666667 -71.7132 2384.06 0.0 0.0 1.0
-63.63876666666666 -68.52586666666667 2384.06 0.0 0.0 1.0
-63.00133333333333 -67.88843333333334 2384.06 0.0 0.0 1.0
-63.63876666666667 -64.70116666666667 2384.06 0.0 0.0 1.0
-63.4263 -61.088966666666664 2384.06 0.0 0.0 1.0
-62.43386666666667 -55.5556 2374.6 0.0 0.0 1.0
-61.44926666666667 -58.55073333333333 2601.74 0.0 0.0 1.0
-61.68113333333333 -56.231899999999996 2601.74 0.0 0.0 1.0
-61.91303333333334 -51.594166666666666 2601.74 0.0 0.0 1.0
-63.477133333333335 -33.777800000000006 2346.67 0.0 0.0 1.0
-63.268 -33.359500000000004 2346.67 0.0 0.0 1.0
-63.958333333333336 -28.4375 2337.5 0.0 0.0 1.0
-63.958333333333336 -28.4375 2337.5 0.0 0.0 1.0
-63.541666666666664 -26.145833333333332 2337.5 0.0 0.0 1.0
-61.44923333333333 -22.608666666666664 2601.74 0.0 0.0 1.0
-61.449233333333325 -22.608666666666664 2601.74 0.0 0.0 1.0
-60.9855 -16.347833333333334 2601.74 0.0 0.0 1.0
-62.608666666666664 -2.898546666666667 2601.74 0.0 0.0 1.0
-62.37676666666666 -0.11594199999999999 2601.74 0.0 0.0 1.0
-61.68113333333333 0.8115946666666667 2601.74 0.0 0.0 1.0
-65.17373333333333 5.868729999999999 2310.42 0.0 0.0 1.0
-61.21736666666666 11.2464 2601.74 0.0 0.0 1.0
-62.37676666666666 15.1884 2601.74 0.0 0.0 1.0
-62.1449 16.115933333333334 2601.74 0.0 0.0 1.0
-61.68113333333333 17.739133333333335 2601.74 0.0 0.0 1.0
-64.2558 21.352999999999998 2208.12 0.0 0.0 1.0
-64.64943333333333 42.0172 2208.12 0.0 0.0 1.0
-64.45263333333334 45.166 2208.12 0.0 0.0 1.0
-65.63346666666666 49.2989 2208.12 0.0 0.0 1.0
-65.23986666666666 51.2669 2208.12 0.0 0.0 1.0
-65.04303333333333 53.2349 2208.12 0.0 0.0 1.0
-64.62286666666667 55.57176666666666 2183.94 0.0 0.0 1.0
-64.62286666666667 55.57176666666666 2183.94 0.0 0.0 1.0
-64.62286666666667 56.15573333333333 2183.94 0.0 0.0 1.0
-64.0389 58.68613333333334 2183.94 0.0 0.0 1.0
-63.07243333333333 75.0145 2601.74 0.0 0.0 1.0
-61.913000000000004 79.1884 2601.74 0.0 0.0 1.0
-61.91303333333334 84.05796666666667 2601.74 0.0 0.0 1.0
-65.03596666666667 78.75296666666667 2152.52 0.0 0.0 1.0
-65.22783333333334 90.45563333333332 2152.52 0.0 0.0 1.0
-64.65230000000001 91.03116666666666 2152.52 0.0 0.0 1.0
-65.22783333333334 91.99040000000001 2152.52 0.0 0.0 1.0
-65.6631 97.39546666666666 2144.8 0.0 0.0 1.0
-64.1905 98.0 2137.14 0.0 0.0 1.0
-62.1449 121.62333333333333 2601.74 0.0 0.0 1.0
-69.23333333333333 -69.2465 1472.743333333333 -0.47433383000556395 0.865241165078728 0.1623734706331625
-63.85123333333334 -95.51133333333333 2384.06 0.0 0.0 1.0
-65.12613333333333 -87.86186666666667 2384.06 0.0 0.0 1.0
-64.48866666666667 -84.88716666666666 2384.06 0.0 0.0 1.0
-64.48866666666667 -84.88716666666666 2384.06 0.0 0.0 1.0
-64.0637 -81.6999 2384.06 0.0 0.0 1.0
-64.91366666666667 -75.32533333333333 2384.06 0.0 0.0 1.0
-63.63876666666666 -68.52586666666667 2384.06 0.0 0.0 1.0
-62.144933333333334 -57.15943333333333 2601.74 0.0 0.0 1.0
-62.144933333333334 -57.15943333333333 2601.74 0.0 0.0 1.0
-62.608666666666664 -51.594166666666666 2601.74 0.0 0.0 1.0
-62.84056666666667 -47.88406666666666 2601.74 0.0 0.0 1.0
-62.84056666666667 -47.88406666666666 2601.74 0.0 0.0 1.0
-65.35946666666666 -40.4706 2346.67 0.0 0.0 1.0
-63.958333333333336 -28.4375 2337.5 0.0 0.0 1.0
-62.1449 -19.5942 2601.74 0.0 0.0 1.0
-65.37966666666667 -8.95753 2310.42 0.0 0.0 1.0
-64.7619 -6.48649 2310.42 0.0 0.0 1.0
-64.76189999999998 -5.456886666666667 2310.42 0.0 0.0 1.0
-62.608666666666664 -2.898546666666667 2601.74 0.0 0.0 1.0
-65.1852 22.024666666666665 2216.3 0.0 0.0 1.0
-65.38273333333332 22.61726666666667 2216.3 0.0 0.0 1.0
-65.38273333333332 22.61726666666667 2216.3 0.0 0.0 1.0
-66.17286666666666 25.7778 2216.3 0.0 0.0 1.0
-65.58026666666666 28.345633333333335 2216.3 0.0 0.0 1.0
-64.84626666666666 32.767500000000005 2208.12 0.0 0.0 1.0
-64.84626666666666 32.767500000000005 2208.12 0.0 0.0 1.0
-65.43666666666667 42.214 2208.12 0.0 0.0 1.0
-64.45263333333334 45.166 2208.12 0.0 0.0 1.0
-65.23986666666666 51.2669 2208.12 0.0 0.0 1.0
-67.22596666666668 59.454100000000004 2205.4133333333334 0.9280141311001242 -0.37120565244005094 0.03156162345376928
-62.84056666666667 82.66666666666667 2601.74 0.0 0.0 1.0
-62.608666666666664 84.05796666666667 2601.74 0.0 0.0 1.0
-66.18703333333333 75.8753 2152.52 0.0 0.0 1.0
-65.2278 76.83453333333334 2152.52 0.0 0.0 1.0
-65.03596666666668 79.3285 2152.52 0.0 0.0 1.0
-61.44926666666667 102.37666666666667 2601.74 0.0 0.0 1.0
-65.22783333333334 90.45563333333332 2152.52 0.0 0.0 1.0
-65.6631 97.39546666666666 2144.8 0.0 0.0 1.0
-63.07243333333334 -129.971 2601.74 0.0 0.0 1.0
-63.768100000000004 -114.43466666666666 2601.74 0.0 0.0 1.0
-63.768100000000004 -107.01466666666666 2601.74 0.0 0.0 1.0
-63.85123333333334 -95.51133333333333 2384.06 0.0 0.0 1.0
-65.12613333333333 -79.575 2384.06 0.0 0.0 1.0
-64.91366666666667 -75.32533333333333 2384.06 0.0 0.0 1.0
-64.48870000000001 -65.33863333333333 2384.06 0.0 0.0 1.0
-64.7012 -61.513933333333334 2384.06 0.0 0.0 1.0
-62.608666666666664 -51.594166666666666 2601.74 0.0 0.0 1.0
-62.84056666666667 -47.88406666666666 2601.74 0.0 0.0 1.0
-63.89543333333333 -39.2157 2346.67 0.0 0.0 1.0
-65.20833333333333 -31.979166666666668 2337.5 0.0 0.0 1.0
-65.20833333333333 -31.979166666666668 2337.5 0.0 0.0 1.0
-64.79166666666667 -30.3125 2337.5 0.0 0.0 1.0
-65.52973333333334 -17.674433333333337 2319.38 0.0 0.0 1.0
-65.52973333333334 -17.054266666666667 2319.38 0.0 0.0 1.0
-65.58556666666665 -7.92793 2310.42 0.0 0.0 1.0
-64.76189999999998 -5.456886666666667 2310.42 0.0 0.0 1.0
-62.608666666666664 -2.898546666666667 2601.74 0.0 0.0 1.0
-62.37676666666666 -1.275362 2601.74 0.0 0.0 1.0
-63.07243333333333 1.2753633333333332 2601.74 0.0 0.0 1.0
-65.17373333333333 6.69241 2310.42 0.0 0.0 1.0
-62.37676666666666 15.1884 2601.74 0.0 0.0 1.0
-65.38273333333332 22.617266666666666 2216.3 0.0 0.0 1.0
-65.58026666666666 28.345633333333335 2216.3 0.0 0.0 1.0
-65.58026666666666 28.345633333333335 2216.3 0.0 0.0 1.0
-62.608666666666664 44.1739 2601.74 0.0 0.0 1.0
-65.8303 41.4268 2208.12 0.0 0.0 1.0
-66.0271 51.0701 2208.12 0.0 0.0 1.0
-65.83026666666666 54.0221 2208.12 0.0 0.0 1.0
-63.5362 77.10143333333333 2601.74 0.0 0.0 1.0
-63.5362 77.10143333333333 2601.74 0.0 0.0 1.0
-63.536233333333335 81.73913333333333 2601.74 0.0 0.0 1.0
-62.84056666666667 83.36233333333332 2601.74 0.0 0.0 1.0
-66.74596666666667 71.93276666666667 2155.11 -0.8529960601094637 0.5118213493383684 0.10215981499192225
-66.9544 74.34053333333334 2152.52 0.0 0.0 1.0
-66.57073333333334 81.247 2152.52 0.0 0.0 1.0
-66.81006666666666 87.83749999999999 2144.8 0.0 0.0 1.0
-66.81006666666666 87.83749999999999 2144.8 0.0 0.0 1.0
-64.7073 94.52806666666667 2144.8 0.0 0.0 1.0
-65.6631 97.39546666666666 2144.8 0.0 0.0 1.0
-64.1905 98.0 2137.14 0.0 0.0 1.0
-63.768100000000004 120.23200000000001 2601.74 0.0 0.0 1.0
-63.768100000000004 120.23200000000001 2601.74 0.0 0.0 1.0
-63.072466666666664 125.79699999999998 2601.74 0.0 0.0 1.0
-64.46379999999999 -121.623 2601.74 0.0 0.0 1.0
-64.69566666666667 -118.145 2601.74 0.0 0.0 1.0
-64.0 -114.66666666666667 2601.74 0.0 0.0 1.0
-64.0 -114.20300000000002 2601.74 0.0 0.0 1.0
-64.2319 -112.348 2601.74 0.0 0.0 1.0
-64.2319 -108.17433333333334 2601.74 0.0 0.0 1.0
-63.768100000000004 -107.01466666666666 2601.74 0.0 0.0 1.0
-65.12613333333333 -87.86186666666667 2384.06 0.0 0.0 1.0
-65.12613333333333 -84.0372 2384.06 0.0 0.0 1.0
-65.3386 -80.63746666666667 2384.06 0.0 0.0 1.0
-65.3386 -80.63746666666667 2384.06 0.0 0.0 1.0
-65.5511 -80.21249999999999 2384.06 0.0 0.0 1.0
-65.12613333333333 -79.575 2384.06 0.0 0.0 1.0
-66.18853333333334 -70.01326666666667 2384.06 0.0 0.0 1.0
-64.70116666666667 -67.0385 2384.06 0.0 0.0 1.0
-65.12613333333333 -66.18856666666667 2384.06 0.0 0.0 1.0
-64.2319 -61.10143333333334 2601.74 0.0 0.0 1.0
-64.2319 -61.10143333333334 2601.74 0.0 0.0 1.0
-65.20833333333333 -31.979166666666668 2337.5 0.0 0.0 1.0
-65.20833333333333 -25.520833333333332 2337.5 0.0 0.0 1.0
-65.7915 -8.33977 2310.42 0.0 0.0 1.0
-65.7915 -8.33977 2310.42 0.0 0.0 1.0
-65.58556666666667 -7.92793 2310.42 0.0 0.0 1.0
-63.07243333333333 1.2753633333333332 2601.74 0.0 0.0 1.0
-65.99743333333333 12.252233333333335 2310.42 0.0 0.0 1.0
-65.99743333333333 12.252233333333335 2310.42 0.0 0.0 1.0
-65.99743333333333 18.429833333333335 2310.42 0.0 0.0 1.0
-65.99743333333333 18.429833333333335 2310.42 0.0 0.0 1.0
-64.2319 24.927533333333333 2601.74 0.0 0.0 1.0
-64.2319 24.927533333333333 2601.74 0.0 0.0 1.0
-66.17286666666666 25.7778 2216.3 0.0 0.0 1.0
-66.3704 31.7037 2216.3 0.0 0.0 1.0
-66.3704 31.7037 2216.3 0.0 0.0 1.0
-66.3704 31.703699999999998 2216.3 0.0 0.0 1.0
-64.92753333333333 42.31883333333334 2601.74 0.0 0.0 1.0
-63.768100000000004 45.10143333333334 2601.74 0.0 0.0 1.0
-64.92753333333333 45.7971 2601.74 0.0 0.0 1.0
-65.8303 41.42680000000001 2208.12 0.0 0.0 1.0
-67.40469999999999 48.905300000000004 2208.12 0.0 0.0 1.0
-64.46379999999999 74.55076666666668 2601.74 0.0 0.0 1.0
-63.5362 77.10143333333333 2601.74 0.0 0.0 1.0
-63.768100000000004 85.44926666666667 2601.74 0.0 0.0 1.0
-63.768100000000004 85.44926666666667 2601.74 0.0 0.0 1.0
-67.57466666666666 73.30946666666667 2144.8 0.0 0.0 1.0
-68.53046666666667 82.67623333333334 2144.8 0.0 0.0 1.0
-65.15943333333333 127.65233333333333 2601.74 0.0 0.0 1.0
-65.6232 -123.94233333333334 2601.74 0.0 0.0 1.0
-64.92756666666666 -122.087 2601.74 0.0 0.0 1.0
-64.46379999999999 -121.623 2601.74 0.0 0.0 1.0
-65.28 -109.76 2393.6 0.0 0.0 1.0
-64.69566666666667 -118.145 2601.74 0.0 0.0 1.0
-64.2319 -114.43466666666666 2601.74 0.0 0.0 1.0
-64.46379999999999 -110.72500000000001 2601.74 0.0 0.0 1.0
-64.46379999999999 -109.56566666666667 2601.74 0.0 0.0 1.0
-64.7012 -98.06110000000001 2384.06 0.0 0.0 1.0
-66.18856666666667 -88.7118 2384.06 0.0 0.0 1.0
-66.18856666666666 -88.7118 2384.06 0.0 0.0 1.0
-66.18856666666666 -83.8247 2384.06 0.0 0.0 1.0
-65.5511 -80.21249999999999 2384.06 0.0 0.0 1.0
-65.9761 -75.32533333333333 2384.06 0.0 0.0 1.0
-65.33863333333333 -65.33863333333333 2384.06 0.0 0.0 1.0
-65.55113333333334 -62.788833333333336 2384.06 0.0 0.0 1.0
-65.15943333333333 -64.34783333333333 2601.74 0.0 0.0 1.0
-64.69566666666667 -61.7971 2601.74 0.0 0.0 1.0
-66.66666666666667 -25.3125 2337.5 0.0 0.0 1.0
-68.79376666666667 -23.76136666666667 2328.4 0.0 0.0 1.0
-66.5633 -18.914733333333334 2319.38 0.0 0.0 1.0
-66.5633 -18.914733333333334 2319.38 0.0 0.0 1.0
-66.14986666666667 -16.640833333333333 2319.38 0.0 0.0 1.0
-65.15943333333333 -1.73913 2601.74 0.0 0.0 1.0
-66.6152 5.456886666666667 2310.42 0.0 0.0 1.0
-66.4093 8.33977 2310.42 0.0 0.0 1.0
-66.4093 8.33977 2310.42 0.0 0.0 1.0
-66.4093 8.33977 2310.42 0.0 0.0 1.0
-65.99743333333333 12.252233333333335 2310.42 0.0 0.0 1.0
-67.02703333333334 15.958833333333333 2310.42 0.0 0.0 1.0
-66.40926666666667 18.2239 2310.42 0.0 0.0 1.0
-64.69566666666667 26.782633333333337 2601.74 0.0 0.0 1.0
-67.1605 25.7778 2216.3 0.0 0.0 1.0
-66.61749999999999 45.16603333333333 2208.12 0.0 0.0 1.0
-66.81429999999999 50.4797 2208.12 0.0 0.0 1.0
-66.8143 53.8253 2208.12 0.0 0.0 1.0
-64.46379999999999 74.55076666666668 2601.74 0.0 0.0 1.0
-64.4638 74.55076666666668 2601.74 0.0 0.0 1.0
-63.536233333333335 81.73913333333333 2601.74 0.0 0.0 1.0
-66.9544 74.34053333333333 2152.52 0.0 0.0 1.0
-66.76256666666667 75.10793333333334 2152.52 0.0 0.0 1.0
-67.72179999999999 78.75296666666667 2152.52 0.0 0.0 1.0
-67.72179999999999 78.94483333333334 2152.52 0.0 0.0 1.0
-75.51126666666666 58.32866666666666 1446.6266666666668 0.4293514415672242 -0.9031357746452603 -0.0017641371976071757
-67.19236666666666 90.1314 2144.8 0.0 0.0 1.0
-63.768100000000004 120.23200000000001 2601.74 0.0 0.0 1.0
-64.0 126.72466666666666 2601.74 0.0 0.0 1.0
-65.62316666666668 -130.435 2601.74 0.0 0.0 1.0
-65.6232 -122.551 2601.74 0.0 0.0 1.0
-64.69566666666667 -118.145 2601.74 0.0 0.0 1.0
-67.03850000000001 -92.53653333333334 2384.06 0.0 0.0 1.0
-66.18856666666667 -88.7118 2384.06 0.0 0.0 1.0
-66.61353333333334 -76.17526666666667 2384.06 0.0 0.0 1.0
-66.82600000000001 -70.43823333333332 2384.06 0.0 0.0 1.0
-66.18853333333334 -70.01326666666665 2384.06 0.0 0.0 1.0
-66.08696666666667 -67.82606666666668 2601.74 0.0 0.0 1.0
-65.15943333333333 -64.34783333333333 2601.74 0.0 0.0 1.0
-65.15943333333333 -64.34783333333333 2601.74 0.0 0.0 1.0
-65.6232 -62.260866666666665 2601.74 0.0 0.0 1.0
-65.35946666666666 -40.4706 2346.67 0.0 0.0 1.0
-65.15033333333332 -36.49673333333333 2346.67 0.0 0.0 1.0
-66.56330000000001 -18.914733333333334 2319.38 0.0 0.0 1.0
-66.14986666666667 -16.640833333333333 2319.38 0.0 0.0 1.0
-67.8036 -13.7468 2319.38 0.0 0.0 1.0
-66.20333333333333 -7.92793 2310.42 0.0 0.0 1.0
-65.15943333333333 -1.73913 2601.74 0.0 0.0 1.0
-65.15943333333333 -1.73913 2601.74 0.0 0.0 1.0
-67.23293333333334 1.95624 2310.42 0.0 0.0 1.0
-67.23293333333334 1.95624 2310.42 0.0 0.0 1.0
-67.02703333333334 15.958833333333333 2310.42 0.0 0.0 1.0
-67.02703333333334 18.429833333333335 2310.42 0.0 0.0 1.0
-68.51283333333333 23.282033333333334 2301.54 0.0 0.0 1.0
-68.76116666666667 25.84926666666667 2292.72 0.0 0.0 1.0
-64.69566666666667 26.782633333333333 2601.74 0.0 0.0 1.0
-67.35803333333332 30.5185 2216.3 0.0 0.0 1.0
-66.61749999999999 45.16603333333333 2208.12 0.0 0.0 1.0
-67.6015 50.282900000000005 2208.12 0.0 0.0 1.0
-67.9951 52.4477 2208.12 0.0 0.0 1.0
-67.9951 52.4477 2208.12 0.0 0.0 1.0
-67.4047 56.383766666666666 2208.12 0.0 0.0 1.0
-64.69566666666667 73.39133333333332 2601.74 0.0 0.0 1.0
-68.87293333333334 70.88726666666666 2152.52 0.0 0.0 1.0
-68.3393 72.92713333333333 2144.8 0.0 0.0 1.0
-67.57466666666666 73.30946666666667 2144.8 0.0 0.0 1.0
-67.72183333333334 81.247 2152.52 0.0 0.0 1.0
-65.8551 103.07233333333333 2601.74 0.0 0.0 1.0
-65.8551 104.92733333333335 2601.74 0.0 0.0 1.0
-67.5747 87.4552 2144.8 0.0 0.0 1.0
-77.28686666666665 59.3453 1439.6433333333334 -0.13819264491470024 0.9903626139860371 -0.009202483915926922
-68.14813333333332 91.27836666666667 2144.8 0.0 0.0 1.0
-67.1463 93.33333333333333 2152.52 0.0 0.0 1.0
-78.40273333333334 86.35443333333335 1782.7233333333334 1.86421219392397e-16 0.9550608072083435 0.2964099433800211
-68.05333333333334 -117.22666666666667 2393.6 0.0 0.0 1.0
-67.84000000000002 -116.16000000000001 2393.6 0.0 0.0 1.0
-67.62666666666667 -110.18666666666667 2393.6 0.0 0.0 1.0
-66.087 -116.75366666666667 2601.74 0.0 0.0 1.0
-67.03850000000001 -92.53653333333334 2384.06 0.0 0.0 1.0
-67.0385 -91.4741 2384.06 0.0 0.0 1.0
-67.67596666666667 -90.62416666666667 2384.06 0.0 0.0 1.0
-66.61353333333334 -88.28683333333333 2384.06 0.0 0.0 1.0
-67.46346666666666 -83.61220000000002 2384.06 0.0 0.0 1.0
-66.82603333333334 -75.11283333333334 2384.06 0.0 0.0 1.0
-67.46346666666666 -74.2629 2384.06 0.0 0.0 1.0
-67.25096666666667 -71.0757 2384.06 0.0 0.0 1.0
-67.24640000000001 -70.3768 2601.74 0.0 0.0 1.0
-66.08696666666667 -67.82606666666668 2601.74 0.0 0.0 1.0
-64.92756666666666 -60.63766666666667 2601.74 0.0 0.0 1.0
-66.78263333333332 -45.56523333333333 2601.74 0.0 0.0 1.0
-67.70833333333333 -29.479166666666668 2337.5 0.0 0.0 1.0
-67.70833333333333 -27.8125 2337.5 0.0 0.0 1.0
-67.70833333333333 -27.8125 2337.5 0.0 0.0 1.0
-68.6305 -22.428966666666668 2319.38 0.0 0.0 1.0
-68.42376666666667 -13.126633333333332 2319.38 0.0 0.0 1.0
-68.26256666666667 -9.16345 2310.42 0.0 0.0 1.0
-67.23293333333334 1.95624 2310.42 0.0 0.0 1.0
-66.82113333333334 8.13385 2310.42 0.0 0.0 1.0
-67.02703333333334 15.958833333333333 2310.42 0.0 0.0 1.0
-67.64479999999999 18.635766666666665 2310.42 0.0 0.0 1.0
-68.76116666666667 25.84926666666667 2292.72 0.0 0.0 1.0
-67.9506 26.3704 2216.3 0.0 0.0 1.0
-67.35803333333332 30.5185 2216.3 0.0 0.0 1.0
-67.75306666666667 32.8889 2216.3 0.0 0.0 1.0
-68.6989 41.3383 2224.54 0.0 0.0 1.0
-67.9951 49.4957 2208.12 0.0 0.0 1.0
-67.99510000000001 49.4957 2208.12 0.0 0.0 1.0
-66.78263333333334 77.7971 2601.74 0.0 0.0 1.0
-66.78263333333334 77.7971 2601.74 0.0 0.0 1.0
-68.68106666666667 78.75296666666667 2152.52 0.0 0.0 1.0
-68.68106666666667 79.13666666666667 2152.52 0.0 0.0 1.0
-68.53046666666667 82.67623333333334 2144.8 0.0 0.0 1.0
-65.8551 103.07233333333333 2601.74 0.0 0.0 1.0
-66.08696666666667 103.76799999999999 2601.74 0.0 0.0 1.0
-65.8551 104.92733333333335 2601.74 0.0 0.0 1.0
-67.5747 87.4552 2144.8 0.0 0.0 1.0
-67.33813333333333 92.56593333333335 2152.52 0.0 0.0 1.0
-67.83999999999999 -116.15999999999998 2393.6 0.0 0.0 1.0
-67.0145 -123.71033333333334 2601.74 0.0 0.0 1.0
-67.0145 -123.24666666666667 2601.74 0.0 0.0 1.0
-99.88680000000001 -75.70620000000001 1690.4000000000003 -1.7972165243920586e-27 7.158915471361643e-27 1.0
-68.31336666666668 -79.36253333333333 2384.06 0.0 0.0 1.0
-68.31336666666668 -79.36253333333333 2384.06 0.0 0.0 1.0
-68.31336666666668 -72.56306666666667 2384.06 0.0 0.0 1.0
-67.67593333333333 -71.92563333333334 2384.06 0.0 0.0 1.0
-67.46343333333334 -68.73836666666666 2384.06 0.0 0.0 1.0
-67.46343333333334 -68.73836666666666 2384.06 0.0 0.0 1.0
-67.0145 -68.05796666666667 2601.74 0.0 0.0 1.0
-66.7826 -62.72463333333334 2601.74 0.0 0.0 1.0
-66.78263333333332 -45.56523333333333 2601.74 0.0 0.0 1.0
-67.70833333333333 -29.479166666666668 2337.5 0.0 0.0 1.0
-67.70833333333333 -27.8125 2337.5 0.0 0.0 1.0
-67.29166666666667 -25.9375 2337.5 0.0 0.0 1.0
-68.6305 -22.428966666666668 2319.38 0.0 0.0 1.0
-68.26256666666667 -9.16345 2310.42 0.0 0.0 1.0
-69.29216666666666 -3.8095200000000005 2310.42 0.0 0.0 1.0
-68.4685 4.22136 2310.42 0.0 0.0 1.0
-68.4685 4.22136 2310.42 0.0 0.0 1.0
-68.6744 9.781243333333334 2310.42 0.0 0.0 1.0
-67.64479999999999 18.635766666666665 2310.42 0.0 0.0 1.0
-68.54316666666666 26.96296666666667 2216.3 0.0 0.0 1.0
-68.34566666666667 28.34566666666667 2216.3 0.0 0.0 1.0
-67.75306666666667 32.8889 2216.3 0.0 0.0 1.0
-66.7826 42.55073333333333 2601.74 0.0 0.0 1.0
-67.0145 43.246399999999994 2601.74 0.0 0.0 1.0
-67.0145 43.246399999999994 2601.74 0.0 0.0 1.0
-67.0145 45.10146666666666 2601.74 0.0 0.0 1.0
-68.6989 41.3383 2224.54 0.0 0.0 1.0
-69.69023333333332 48.4758 2224.54 0.0 0.0 1.0
-67.9951 52.4477 2208.12 0.0 0.0 1.0
