ply
format ascii 1.0
comment VCGLIB generated
element vertex 787
property float x
property float y
property float z
property float nx
property float ny
property float nz
element face 0
property list uchar int vertex_indices
end_header
-91.4286 -76.60456666666667 1858.39 0.0 0.0 1.0
-91.20166666666667 -56.25913333333333 1875.86 0.0 0.0 1.0
-91.20166666666667 -40.710566666666665 1875.86 0.0 0.0 1.0
-91.03446666666666 -40.3762 1875.86 0.0 0.0 1.0
-91.59423333333332 -16.645966666666666 1858.39 0.0 0.0 1.0
-92.25673333333334 -12.173899999999998 1858.39 0.0 0.0 1.0
-91.16666666666667 -6.25 1870.0 0.0 0.0 1.0
-93.2102 21.303233333333335 2087.4500000000003 0.707104117148816 0.7071041171488239 -0.0027449995219912602
-90.92276666666667 26.747133333333334 1802.42 -0.9454445307912671 -0.3150495574014758 0.08293621391174495
-90.14036666666665 26.6407 1806.0366666666666 -0.3057242204211088 -0.9171094166997346 0.2558183317289399
-90.41420000000001 30.848133333333333 1770.41 0.0 0.0 1.0
-90.4142 41.5779 1770.41 0.0 0.0 1.0
-90.88756666666667 43.94476666666667 1770.41 0.0 0.0 1.0
-90.41420000000001 49.94083333333333 1770.41 0.0 0.0 1.0
-90.25643333333333 70.29586666666667 1770.41 0.0 0.0 1.0
-90.25639999999999 86.39053333333334 1770.41 0.0 0.0 1.0
-90.25639999999999 86.39053333333334 1770.41 0.0 0.0 1.0
-90.41420000000001 95.38459999999999 1770.41 0.0 0.0 1.0
-90.4142 99.48726666666666 1770.41 0.0 0.0 1.0
-91.07813333333333 103.897 1775.67 0.0 0.0 1.0
-91.04536666666667 125.996 1770.41 0.0 0.0 1.0
-91.75986666666667 -132.75333333333333 1858.39 0.0 0.0 1.0
-91.75986666666667 -132.75333333333333 1858.39 0.0 0.0 1.0
-91.55829999999999 -127.22366666666666 1852.63 0.0 0.0 1.0
-88.39973333333334 -111.57966666666665 1744.6166666666666 -0.8712928901649588 0.3845998565483183 0.3048469286232126
-90.17436666666667 -117.57933333333334 1841.2300000000002 2.665350259596082e-26 -9.315750572637003e-26 1.0
-91.55829999999999 -88.7513 1852.63 0.0 0.0 1.0
-91.55829999999999 -88.7513 1852.63 0.0 0.0 1.0
-91.39316666666667 -86.60473333333333 1852.63 0.0 0.0 1.0
-91.4286 -76.60456666666667 1858.39 0.0 0.0 1.0
-92.29493333333333 -70.69576666666666 1864.17 0.0 0.0 1.0
-91.83333333333333 -67.75 1870.0 0.0 0.0 1.0
-90.66666666666667 -49.25 1870.0 0.0 0.0 1.0
-90.16666666666667 -43.916666666666664 1870.0 0.0 0.0 1.0
-91.03446666666666 -40.3762 1875.86 0.0 0.0 1.0
-92.37196666666667 -38.3699 1875.86 0.0 0.0 1.0
-90.70006666666666 -36.36363333333333 1875.86 0.0 0.0 1.0
-88.3714 -13.133000000000001 1807.8633333333335 -0.17885630719605145 -0.9835896543370198 0.023702600223888315
-102.64093333333334 35.4981 2015.01 -0.713035575792691 -0.6984765429673591 0.06091622590371504
-90.87353333333334 27.575866666666666 1742.9166666666667 -0.9963721150171115 -1.442461042606651e-16 0.085103515886996
-90.09876666666666 35.02813333333334 1742.9166666666667 0.6135495751768344 0.6134180532957675 0.49726774547637503
-91.36093333333334 38.422066666666666 1770.41 0.0 0.0 1.0
-90.88756666666666 42.36686666666666 1770.41 0.0 0.0 1.0
-90.88756666666666 43.94476666666666 1770.41 0.0 0.0 1.0
-93.43206666666667 58.567933333333336 2216.3 0.0 0.0 1.0
-90.8876 55.93686666666667 1770.41 0.0 0.0 1.0
-90.72976666666666 61.617333333333335 1770.41 0.0 0.0 1.0
-90.572 66.50886666666666 1770.41 0.0 0.0 1.0
-91.04536666666667 67.77120000000001 1770.41 0.0 0.0 1.0
-91.04536666666667 67.77120000000001 1770.41 0.0 0.0 1.0
-90.7298 71.2426 1770.41 0.0 0.0 1.0
-90.7298 71.2426 1770.41 0.0 0.0 1.0
-90.572 78.50096666666666 1770.41 0.0 0.0 1.0
-90.572 78.50096666666666 1770.41 0.0 0.0 1.0
-91.20313333333333 88.5996 1770.41 0.0 0.0 1.0
-90.41420000000001 95.38459999999999 1770.41 0.0 0.0 1.0
-91.07813333333333 103.897 1775.67 0.0 0.0 1.0
-90.572 109.586 1770.41 0.0 0.0 1.0
-90.88756666666666 112.426 1770.41 0.0 0.0 1.0
-91.51873333333333 114.004 1770.41 0.0 0.0 1.0
-91.99213333333334 120.78866666666666 1770.41 0.0 0.0 1.0
-94.13869999999999 -148.635 2008.05 0.0 0.0 1.0
-85.8635 -92.81493333333333 1337.7033333333334 0.07947209524848267 0.1324538716091418 0.987998055652219
-92.54899999999999 -128.87533333333332 1852.63 0.0 0.0 1.0
-92.33406666666667 -117.32733333333334 1845.0166666666667 0.5997130831984232 0.7993341789756053 0.03753782308600395
-91.19343333333332 -100.49399999999999 1846.91 0.0 0.0 1.0
-91.55829999999999 -88.7513 1852.63 0.0 0.0 1.0
-92.05366666666667 -86.43963333333333 1852.63 0.0 0.0 1.0
-92.21876666666667 -83.13726666666666 1852.63 0.0 0.0 1.0
-91.4286 -76.60456666666667 1858.39 0.0 0.0 1.0
-91.83333333333333 -68.25 1870.0 0.0 0.0 1.0
-91.83333333333333 -68.25 1870.0 0.0 0.0 1.0
-92.16666666666667 -67.41666666666667 1870.0 0.0 0.0 1.0
-91.20166666666665 -56.25913333333333 1875.86 0.0 0.0 1.0
-91.66666666666667 -53.583333333333336 1870.0 0.0 0.0 1.0
-91.19146666666667 -22.963633333333334 1846.9233333333334 -0.5939915880695561 0.7915762778220501 0.14346076011228784
-89.69423333333334 -22.259966666666667 1843.1233333333337 -0.2213056000574074 0.9590059180495687 0.17700700700575336
-92.0 -16.916666666666668 1870.0 0.0 0.0 1.0
-85.2804 -14.166300000000001 1646.9866666666667 -0.20592866316478523 -0.9781347984720098 -0.02908095090063203
-94.42349999999999 -1.7610056666666667 1881.76 0.0 0.0 1.0
-92.78656666666666 2.27129 1887.7 0.0 0.0 1.0
-92.78653333333334 7.150366666666667 1887.7 0.0 0.0 1.0
-93.2102 21.303233333333335 2087.4500000000003 0.7071041171488163 0.7071041171488236 -0.0027449995219911757
-90.87353333333334 27.575866666666666 1742.9166666666667 -0.9963721150171116 -3.322380179814945e-17 0.085103515886996
-93.46406666666667 26.372133333333334 1798.8033333333333 -0.13638836306758173 0.9547895105453352 0.2641499668225324
-90.09876666666666 35.02813333333334 1742.9166666666667 0.6135495751768348 0.613418053295767 0.49726774547637514
-91.51870000000001 39.8422 1770.41 0.0 0.0 1.0
-91.51870000000001 39.8422 1770.41 0.0 0.0 1.0
-91.04536666666667 43.155833333333334 1770.41 0.0 0.0 1.0
-93.43206666666667 58.567933333333336 2216.3 0.0 0.0 1.0
-91.20313333333333 49.94083333333333 1770.41 0.0 0.0 1.0
-90.72976666666666 61.617333333333335 1770.41 0.0 0.0 1.0
-91.04536666666667 67.77120000000001 1770.41 0.0 0.0 1.0
-91.36093333333334 76.92306666666667 1770.41 0.0 0.0 1.0
-90.88756666666666 87.65286666666667 1770.41 0.0 0.0 1.0
-91.20313333333333 89.54633333333334 1770.41 0.0 0.0 1.0
-91.99206666666667 90.49309999999998 1770.41 0.0 0.0 1.0
-91.67649999999999 100.90733333333333 1770.41 0.0 0.0 1.0
-102.09983333333332 111.03733333333334 1918.04 0.7312397276456378 0.6082429566676705 0.30875389289352095
-92.14986666666668 105.95666666666666 1770.41 0.0 0.0 1.0
-90.57196666666665 126.94266666666665 1770.41 0.0 0.0 1.0
-92.25676666666668 -132.75333333333333 1858.39 0.0 0.0 1.0
-92.54899999999999 -128.87533333333332 1852.63 0.0 0.0 1.0
-92.8 -114.46166666666666 1841.2300000000002 -4.4497716951984234e-27 -8.88690712189105e-27 1.0
-93.41613333333333 -92.1739 1858.39 0.0 0.0 1.0
-95.26206666666667 -66.33123333333333 1881.76 0.0 0.0 1.0
-92.87356666666666 -57.76383333333333 1875.86 0.0 0.0 1.0
-92.0 -51.916666666666664 1870.0 0.0 0.0 1.0
-92.16666666666667 -47.916666666666664 1870.0 0.0 0.0 1.0
-94.87986666666667 -48.401266666666665 1875.86 0.0 0.0 1.0
-92.37196666666667 -38.3699 1875.86 0.0 0.0 1.0
-93.45796666666666 -15.2025 1864.17 0.0 0.0 1.0
-92.25673333333334 -12.173899999999998 1858.39 0.0 0.0 1.0
-92.78656666666666 2.27129 1887.7 0.0 0.0 1.0
-93.2102 21.303233333333335 2087.4500000000003 0.7071041171488174 0.7071041171488225 -0.002744999521990778
-93.93393333333334 30.190166666666666 1797.0 0.0 0.0 1.0
-91.67653333333334 38.106500000000004 1770.41 0.0 0.0 1.0
-91.51870000000001 39.8422 1770.41 0.0 0.0 1.0
-91.9921 50.09863333333334 1770.41 0.0 0.0 1.0
-90.41420000000001 93.17556666666667 1770.41 0.0 0.0 1.0
-91.04536666666667 95.858 1770.41 0.0 0.0 1.0
-91.67649999999999 100.90733333333333 1770.41 0.0 0.0 1.0
-91.67649999999999 100.90733333333333 1770.41 0.0 0.0 1.0
-91.07813333333333 103.897 1775.67 0.0 0.0 1.0
-92.30766666666666 105.641 1770.41 0.0 0.0 1.0
-91.51873333333333 110.375 1770.41 0.0 0.0 1.0
-91.51873333333333 112.74166666666667 1770.41 0.0 0.0 1.0
-91.51873333333333 114.004 1770.41 0.0 0.0 1.0
-91.9921 114.31966666666666 1770.41 0.0 0.0 1.0
-95.20986666666666 161.28400000000002 2216.3 0.0 0.0 1.0
-95.20986666666666 161.28400000000002 2216.3 0.0 0.0 1.0
-94.13869999999999 -148.635 2008.05 0.0 0.0 1.0
-93.58493333333332 -135.93266666666668 1881.76 0.0 0.0 1.0
-93.58493333333332 -135.93266666666668 1881.76 0.0 0.0 1.0
-92.75366666666667 -132.422 1858.39 0.0 0.0 1.0
-92.9193 -131.92533333333336 1858.39 0.0 0.0 1.0
-92.9193 -131.92533333333336 1858.39 0.0 0.0 1.0
-91.20513333333332 -125.97366666666666 1848.8166666666668 -2.4092850443422683e-17 0.9882676029051919 0.15273226590352879
-92.8 -114.46166666666666 1841.2300000000002 -4.449771695198421e-27 -8.886907121891047e-27 1.0
-93.99176666666666 -104.609 1846.91 0.0 0.0 1.0
-93.00413333333334 -101.48133333333332 1846.91 0.0 0.0 1.0
-93.53973333333333 -98.98863333333334 1852.63 0.0 0.0 1.0
-93.91303333333333 -97.1429 1858.39 0.0 0.0 1.0
-92.8793 -89.57690000000001 1852.63 0.0 0.0 1.0
-92.8793 -89.57689999999998 1852.63 0.0 0.0 1.0
-92.54903333333334 -89.08153333333333 1852.63 0.0 0.0 1.0
-93.37463333333334 -86.76986666666666 1852.63 0.0 0.0 1.0
-92.33333333333333 -67.58333333333333 1870.0 0.0 0.0 1.0
-92.37196666666667 -38.3699 1875.86 0.0 0.0 1.0
-93.87670000000001 -28.004199999999997 1875.86 0.0 0.0 1.0
-91.4286 -20.621133333333333 1858.39 0.0 0.0 1.0
-94.2887 -14.039466666666668 1864.17 0.0 0.0 1.0
-92.5 -6.916666666666667 1870.0 0.0 0.0 1.0
-92.78653333333334 7.150366666666667 1887.7 0.0 0.0 1.0
-92.78653333333334 7.150366666666667 1887.7 0.0 0.0 1.0
-92.78106666666667 31.63706666666667 1770.41 0.0 0.0 1.0
-91.8343 38.57986666666667 1770.41 0.0 0.0 1.0
-90.8876 55.936866666666674 1770.41 0.0 0.0 1.0
-90.60336666666666 63.2245 1775.67 0.0 0.0 1.0
-93.85773333333333 43.7931 1690.4033333333334 -0.992228416033116 0.1197344592341606 -0.033858967620369794
-91.51873333333333 67.6134 1770.41 0.0 0.0 1.0
-92.1499 76.13413333333334 1770.41 0.0 0.0 1.0
-92.30770000000001 81.02563333333335 1770.41 0.0 0.0 1.0
-91.9921 114.31966666666666 1770.41 0.0 0.0 1.0
-92.30770000000001 120.15766666666667 1770.41 0.0 0.0 1.0
-92.54899999999999 -128.87533333333332 1852.63 0.0 0.0 1.0
-92.8 -114.46166666666666 1841.2300000000002 -4.449771695198421e-27 -8.886907121891047e-27 1.0
-93.53973333333333 -98.98863333333334 1852.63 0.0 0.0 1.0
-94.07863333333334 -93.83023333333334 1858.39 0.0 0.0 1.0
-93.37463333333334 -86.76986666666666 1852.63 0.0 0.0 1.0
-93.04436666666668 -82.4768 1852.63 0.0 0.0 1.0
-92.25673333333333 -76.60456666666667 1858.39 0.0 0.0 1.0
-93.25049999999999 -75.2795 1858.39 0.0 0.0 1.0
-92.5 -68.75 1870.0 0.0 0.0 1.0
-94.0 -46.083333333333336 1870.0 0.0 0.0 1.0
-92.70636666666667 -41.88086666666666 1875.86 0.0 0.0 1.0
-92.87353333333333 -41.546499999999995 1875.86 0.0 0.0 1.0
-95.0 -31.416666666666668 1870.0 0.0 0.0 1.0
-94.04390000000001 -31.347966666666668 1875.86 0.0 0.0 1.0
-93.16666666666667 -17.583333333333332 1870.0 0.0 0.0 1.0
-92.25673333333334 -12.173899999999998 1858.39 0.0 0.0 1.0
-93.83333333333333 -7.25 1870.0 0.0 0.0 1.0
-94.469 -3.2807566666666665 1887.7 0.0 0.0 1.0
-93.45953333333334 2.60778 1887.7 0.0 0.0 1.0
-94.1325 5.804413333333334 1887.7 0.0 0.0 1.0
-93.78523333333334 18.531066666666664 2089.8799999999997 0.959395778169896 -0.11992715184831781 0.2552982943133986
-93.82716666666666 46.518499999999996 2216.3 0.0 0.0 1.0
-91.9921 50.09863333333334 1770.41 0.0 0.0 1.0
-91.99213333333334 66.66666666666667 1770.41 0.0 0.0 1.0
-92.1499 76.13413333333334 1770.41 0.0 0.0 1.0
-93.09666666666665 84.0237 1770.41 0.0 0.0 1.0
-91.99213333333334 85.12823333333334 1770.41 0.0 0.0 1.0
-92.62326666666667 99.64506666666666 1770.41 0.0 0.0 1.0
-92.78106666666667 121.10433333333333 1770.41 0.0 0.0 1.0
-93.88563333333333 125.207 1770.41 0.0 0.0 1.0
-95.20986666666666 161.28400000000002 2216.3 0.0 0.0 1.0
-88.46050000000001 -146.28033333333335 2155.11 -0.3324967161180344 0.5564264927176796 0.7614692981155742
-95.35603333333334 -117.81233333333334 1852.63 0.0 0.0 1.0
-93.99180000000001 -115.144 1846.91 0.0 0.0 1.0
-93.91303333333333 -97.1429 1858.39 0.0 0.0 1.0
-94.57553333333333 -93.33333333333333 1858.39 0.0 0.0 1.0
-93.74739999999998 -91.677 1858.39 0.0 0.0 1.0
-93.70486666666666 -86.27453333333334 1852.63 0.0 0.0 1.0
-93.04436666666668 -82.4768 1852.63 0.0 0.0 1.0
-93.91300000000001 -73.95443333333334 1858.39 0.0 0.0 1.0
-92.87356666666666 -57.76383333333333 1875.86 0.0 0.0 1.0
-94.33333333333333 -45.583333333333336 1870.0 0.0 0.0 1.0
-94.04390000000001 -33.35423333333333 1875.86 0.0 0.0 1.0
-93.87669999999999 -28.004199999999997 1875.86 0.0 0.0 1.0
-94.33333333333333 -17.583333333333332 1870.0 0.0 0.0 1.0
-94.469 -3.280756666666667 1887.7 0.0 0.0 1.0
-94.30076666666666 2.60778 1887.7 0.0 0.0 1.0
-90.42503333333333 10.254553333333332 1271.39 -0.8078911639191361 0.5770723975308361 0.11957974439426054
-94.55986666666668 30.939666666666664 1775.67 0.0 0.0 1.0
-93.4122 42.2091 1770.41 0.0 0.0 1.0
-93.4122 42.2091 1770.41 0.0 0.0 1.0
-92.14986666666665 91.59766666666667 1770.41 0.0 0.0 1.0
-93.7278 99.3294 1770.41 0.0 0.0 1.0
-92.78103333333333 106.42999999999999 1770.41 0.0 0.0 1.0
-93.8856 117.94866666666667 1770.41 0.0 0.0 1.0
-93.25443333333334 121.10433333333333 1770.41 0.0 0.0 1.0
-95.57046666666668 -148.63500000000002 2008.05 0.0 0.0 1.0
-94.5912 -135.26166666666668 1881.76 0.0 0.0 1.0
-98.877 -123.34366666666666 1873.9066666666665 0.4902587383273708 0.3267305744467481 0.8080182554963424
-93.00413333333334 -101.48133333333332 1846.91 0.0 0.0 1.0
-93.53973333333333 -98.98863333333334 1852.63 0.0 0.0 1.0
-94.4099 -95.6522 1858.39 0.0 0.0 1.0
-93.70486666666666 -86.27453333333334 1852.63 0.0 0.0 1.0
-94.74116666666667 -75.2795 1858.39 0.0 0.0 1.0
-94.83333333333333 -70.58333333333333 1870.0 0.0 0.0 1.0
-95.3814 -67.46083333333333 1875.86 0.0 0.0 1.0
-94.83333333333333 -45.916666666666664 1870.0 0.0 0.0 1.0
-94.33333333333333 -45.583333333333336 1870.0 0.0 0.0 1.0
-94.87986666666667 -35.360499999999995 1875.86 0.0 0.0 1.0
-95.04706666666668 -29.007299999999997 1875.86 0.0 0.0 1.0
-95.04706666666668 -29.007299999999997 1875.86 0.0 0.0 1.0
-93.82716666666666 46.518499999999996 2216.3 0.0 0.0 1.0
-95.98796666666668 35.74596666666667 1660.6866666666667 0.537367623054606 -0.41089722303929216 0.7364777727747396
-93.41223333333333 38.5799 1770.41 0.0 0.0 1.0
-93.4122 42.2091 1770.41 0.0 0.0 1.0
-89.22773333333333 44.496566666666666 1754.84 0.0 0.0 1.0
-93.452 73.19486666666667 1775.67 0.0 0.0 1.0
-93.57003333333334 83.07696666666668 1770.41 0.0 0.0 1.0
-96.1424 93.45203333333335 1775.67 0.0 0.0 1.0
-94.04336666666667 106.42999999999999 1770.41 0.0 0.0 1.0
-93.41223333333333 113.68833333333333 1770.41 0.0 0.0 1.0
-93.41223333333333 120.0 1770.41 0.0 0.0 1.0
-95.4037 -128.61266666666666 1858.39 0.0 0.0 1.0
-94.2769 -115.282 1841.2300000000002 0.0 0.0 1.0
-94.4099 -96.646 1858.39 0.0 0.0 1.0
-94.90680000000002 -93.6646 1858.39 0.0 0.0 1.0
-94.90680000000002 -93.6646 1858.39 0.0 0.0 1.0
-94.57553333333334 -93.33333333333333 1858.39 0.0 0.0 1.0
-94.57553333333333 -92.00826666666667 1858.39 0.0 0.0 1.0
-95.3814 -67.46083333333333 1875.86 0.0 0.0 1.0
-94.87983333333334 -56.25913333333333 1875.86 0.0 0.0 1.0
-96.5 -30.083333333333332 1870.0 0.0 0.0 1.0
-95.11943333333333 -13.873333333333335 1864.17 0.0 0.0 1.0
-95.11943333333333 -13.873333333333335 1864.17 0.0 0.0 1.0
-94.83333333333333 -8.083333333333334 1870.0 0.0 0.0 1.0
-94.30076666666666 2.60778 1887.7 0.0 0.0 1.0
-93.79599999999999 7.655100000000001 1887.7 0.0 0.0 1.0
-91.26093333333334 22.060366666666667 1970.66 0.9655231538309065 1.2056709033228138e-15 0.26031719001329795
-99.05430000000001 27.453766666666667 1828.1200000000001 -0.8577717395731687 -0.14272749664211046 0.4938182909653071
-93.41223333333333 38.5799 1770.41 0.0 0.0 1.0
-94.67456666666668 79.28993333333334 1770.41 0.0 0.0 1.0
-94.51676666666667 82.6036 1770.41 0.0 0.0 1.0
-93.8856 117.94866666666667 1770.41 0.0 0.0 1.0
-94.51676666666667 118.26433333333334 1770.41 0.0 0.0 1.0
-94.35896666666667 119.84233333333333 1770.41 0.0 0.0 1.0
-93.88563333333333 125.207 1770.41 0.0 0.0 1.0
-95.56933333333332 -129.938 1858.39 0.0 0.0 1.0
-95.56933333333332 -129.938 1858.39 0.0 0.0 1.0
-95.4037 -128.61266666666666 1858.39 0.0 0.0 1.0
-96.18163333333332 -123.426 1852.63 0.0 0.0 1.0
-94.44099999999999 -114.95366666666666 1841.2300000000002 -5.332866370066117e-26 6.221256194273797e-26 1.0
-96.23186666666668 -83.56106666666668 1858.39 0.0 0.0 1.0
-95.9006 -82.7329 1858.39 0.0 0.0 1.0
-96.43606666666666 -57.10693333333333 1881.76 0.0 0.0 1.0
-96.43606666666666 -56.10063333333333 1881.76 0.0 0.0 1.0
-95.33333333333333 -46.083333333333336 1870.0 0.0 0.0 1.0
-95.33333333333333 -45.25 1870.0 0.0 0.0 1.0
-96.21736666666665 -39.038666666666664 1875.86 0.0 0.0 1.0
-96.38456666666666 -21.985366666666668 1875.86 0.0 0.0 1.0
-95.16666666666667 -16.75 1870.0 0.0 0.0 1.0
-95.11943333333333 -13.873333333333335 1864.17 0.0 0.0 1.0
-95.6467 -2.4395366666666667 1887.7 0.0 0.0 1.0
-94.42349999999999 -1.7610056666666665 1881.76 0.0 0.0 1.0
-94.42349999999999 -1.7610056666666665 1881.76 0.0 0.0 1.0
-94.469 4.626706666666667 1887.7 0.0 0.0 1.0
-96.06163333333332 15.765566666666667 2119.49 0.8316474749644265 -0.5544153632819072 -0.03140194806511839
-90.42503333333333 10.254553333333332 1271.39 -0.807891163919136 0.5770723975308362 0.11957974439426045
-98.1689 19.6824 1788.0533333333333 0.563605553751059 -0.6888876536950257 0.4558317456776396
-94.55986666666668 30.939666666666668 1775.67 0.0 0.0 1.0
-92.4171 47.71986666666667 1741.2233333333334 0.6009383973325612 -0.7812289607773057 0.16898033451908998
-92.4171 47.71986666666667 1741.2233333333334 0.6009383973325612 -0.7812289607773057 0.16898033451908998
-95.47803333333333 48.5692 1772.1633333333332 -0.9188135899149658 -0.30629276351365514 0.24893037180452954
-92.35879999999999 63.28643333333334 1777.43 0.6676860504844768 -0.6676860504844769 0.329227392506883
-95.30573333333335 74.87180000000001 1770.41 0.0 0.0 1.0
-94.67456666666665 79.28993333333334 1770.41 0.0 0.0 1.0
-99.42660000000001 112.19656666666667 2102.3233333333337 -0.6659242952941572 0.3532873137129006 0.6570638529903335
-94.67456666666668 113.37266666666666 1770.41 0.0 0.0 1.0
-94.51679999999999 125.83833333333332 1770.41 0.0 0.0 1.0
-94.51679999999999 125.83833333333332 1770.41 0.0 0.0 1.0
-99.753 163.062 2216.3 0.0 0.0 1.0
-95.57046666666668 -148.63500000000002 2008.05 0.0 0.0 1.0
-95.59746666666666 -135.93266666666668 1881.76 0.0 0.0 1.0
-95.59746666666666 -135.93266666666668 1881.76 0.0 0.0 1.0
-95.56933333333335 -129.93800000000002 1858.39 0.0 0.0 1.0
-96.18163333333332 -123.426 1852.63 0.0 0.0 1.0
-91.05896666666666 -81.6584 1240.6499999999999 0.9810549997827169 -0.163858445354662 0.10335132939293282
-95.35603333333334 -117.81233333333334 1852.63 0.0 0.0 1.0
-95.2615 -114.62566666666665 1841.2300000000002 -3.2003699073346945e-26 -1.2804080498828703e-26 1.0
-96.28246666666666 -74.51713333333333 1864.17 0.0 0.0 1.0
-96.8861 -69.13273333333335 1875.86 0.0 0.0 1.0
-96.43603333333333 -62.306099999999994 1881.76 0.0 0.0 1.0
-96.43603333333333 -62.306099999999994 1881.76 0.0 0.0 1.0
-96.55176666666667 -51.0763 1875.86 0.0 0.0 1.0
-96.55176666666667 -50.24036666666667 1875.86 0.0 0.0 1.0
-96.55176666666667 -48.90283333333334 1875.86 0.0 0.0 1.0
-95.66666666666667 -45.583333333333336 1870.0 0.0 0.0 1.0
-95.83333333333333 -43.083333333333336 1870.0 0.0 0.0 1.0
-95.83333333333333 -43.083333333333336 1870.0 0.0 0.0 1.0
-96.21736666666665 -37.3668 1875.86 0.0 0.0 1.0
-95.54860000000001 -31.515133333333335 1875.86 0.0 0.0 1.0
-95.7158 -29.007299999999997 1875.86 0.0 0.0 1.0
-96.38456666666666 -21.985366666666668 1875.86 0.0 0.0 1.0
-97.0533 -17.805633333333333 1875.86 0.0 0.0 1.0
-96.33333333333333 -16.583333333333332 1870.0 0.0 0.0 1.0
-95.66666666666667 -8.916666666666666 1870.0 0.0 0.0 1.0
-95.66666666666667 -8.916666666666666 1870.0 0.0 0.0 1.0
-95.62943333333334 23.927466666666664 1807.8499999999997 -8.987341957572892e-26 -1.5363374293932272e-26 1.0
-95.62943333333334 23.927466666666664 1807.8499999999997 -8.987341957572892e-26 -1.5363374293932272e-26 1.0
-95.46350000000001 44.102599999999995 1770.41 0.0 0.0 1.0
-95.46350000000001 44.102599999999995 1770.41 0.0 0.0 1.0
-95.77906666666667 59.40826666666666 1770.41 0.0 0.0 1.0
-96.41023333333334 72.03153333333333 1770.41 0.0 0.0 1.0
-95.46350000000001 77.39643333333333 1770.41 0.0 0.0 1.0
-94.67456666666665 79.28993333333334 1770.41 0.0 0.0 1.0
-94.67453333333333 99.1716 1770.41 0.0 0.0 1.0
-95.93686666666667 103.90566666666668 1770.41 0.0 0.0 1.0
-95.1479 104.37900000000002 1770.41 0.0 0.0 1.0
-94.67453333333333 105.48333333333333 1770.41 0.0 0.0 1.0
-94.99013333333335 115.266 1770.41 0.0 0.0 1.0
-94.99013333333335 117.00166666666667 1770.41 0.0 0.0 1.0
-94.83233333333334 118.89566666666667 1770.41 0.0 0.0 1.0
-94.83233333333334 119.36899999999999 1770.41 0.0 0.0 1.0
-96.7715 -134.75866666666664 1881.76 0.0 0.0 1.0
-91.05896666666666 -81.6584 1240.6499999999999 0.9810549997827169 -0.163858445354662 0.10335132939293272
-95.35603333333334 -117.81233333333334 1852.63 0.0 0.0 1.0
-97.77776666666666 -111.52266666666667 1846.91 0.0 0.0 1.0
-96.95476666666667 -106.255 1846.91 0.0 0.0 1.0
-97.06003333333332 -94.49276666666667 1858.39 0.0 0.0 1.0
-94.86066666666666 -86.1094 1852.63 0.0 0.0 1.0
-95.73496666666665 -75.94203333333333 1858.39 0.0 0.0 1.0
-95.73496666666665 -75.94203333333333 1858.39 0.0 0.0 1.0
-96.28246666666666 -74.51713333333333 1864.17 0.0 0.0 1.0
-96.28246666666666 -74.51713333333333 1864.17 0.0 0.0 1.0
-96.4486 -73.6864 1864.17 0.0 0.0 1.0
-94.83333333333333 -70.58333333333333 1870.0 0.0 0.0 1.0
-95.88296666666668 -68.1296 1875.86 0.0 0.0 1.0
-96.7715 -67.0021 1881.76 0.0 0.0 1.0
-96.7715 -67.0021 1881.76 0.0 0.0 1.0
-96.43606666666666 -56.10063333333333 1881.76 0.0 0.0 1.0
-96.5 -30.083333333333332 1870.0 0.0 0.0 1.0
-95.7158 -29.1745 1875.86 0.0 0.0 1.0
-98.0021 -7.823339999999999 1887.7 0.0 0.0 1.0
-96.48793333333333 0.08412199999999996 1887.7 0.0 0.0 1.0
-96.06163333333332 15.765566666666667 2119.49 0.8316474749644291 -0.5544153632819038 -0.03140194806511153
-90.42503333333333 10.254553333333332 1271.39 -0.807891163919136 0.5770723975308362 0.11957974439426045
-101.10653333333333 16.281366666666667 2213.5733333333333 -0.5343276830982082 -0.5341473497593294 0.6551187188746673
-95.62943333333334 23.927466666666664 1807.8499999999997 -8.987341957572896e-26 -1.5363374293932292e-26 1.0
-94.55986666666668 30.939666666666668 1775.67 0.0 0.0 1.0
-96.41026666666666 31.952633333333335 1770.41 0.0 0.0 1.0
-91.57283333333334 29.368 1684.0733333333335 0.791148231002883 0.5999761613457284 -0.11879849493092623
-91.57283333333334 29.368 1684.0733333333335 0.7911482310028828 0.5999761613457283 -0.1187984949309262
-94.51676666666667 39.211066666666675 1770.41 0.0 0.0 1.0
-95.98796666666668 35.74596666666667 1660.6866666666667 0.5373676230546061 -0.41089722303929216 0.7364777727747397
-96.09466666666667 47.4162 1770.41 0.0 0.0 1.0
-95.77906666666667 59.40826666666666 1770.41 0.0 0.0 1.0
-95.46353333333333 74.3984 1770.41 0.0 0.0 1.0
-95.30573333333332 74.87180000000001 1770.41 0.0 0.0 1.0
-95.6213 77.08086666666667 1770.41 0.0 0.0 1.0
-95.46350000000001 77.39643333333333 1770.41 0.0 0.0 1.0
-95.93686666666667 79.7633 1770.41 0.0 0.0 1.0
-95.6213 82.76136666666666 1770.41 0.0 0.0 1.0
-96.09466666666667 98.69823333333333 1770.41 0.0 0.0 1.0
-95.77910000000001 113.057 1770.41 0.0 0.0 1.0
-95.93686666666667 116.52833333333335 1770.41 0.0 0.0 1.0
-99.753 163.062 2216.3 0.0 0.0 1.0
-91.90416666666668 -121.33 1754.9099999999999 0.6772522922653686 -0.6998405542312698 -0.227051825085316
-97.66770000000001 -100.805 1852.63 0.0 0.0 1.0
-97.17233333333333 -99.81439999999999 1852.63 0.0 0.0 1.0
-96.72876666666666 -92.00826666666667 1858.39 0.0 0.0 1.0
-96.72876666666667 -81.57346666666666 1858.39 0.0 0.0 1.0
-96.7715 -67.0021 1881.76 0.0 0.0 1.0
-97.1069 -63.31236666666666 1881.76 0.0 0.0 1.0
-96.43606666666666 -57.10693333333333 1881.76 0.0 0.0 1.0
-97.72203333333333 -46.39496666666667 1875.86 0.0 0.0 1.0
-97.2205 -41.04493333333333 1875.86 0.0 0.0 1.0
-97.2205 -35.8621 1875.86 0.0 0.0 1.0
-96.83333333333333 -27.25 1870.0 0.0 0.0 1.0
-96.83333333333333 -27.25 1870.0 0.0 0.0 1.0
-97.38766666666668 -23.657300000000003 1875.86 0.0 0.0 1.0
-97.38766666666668 -23.4901 1875.86 0.0 0.0 1.0
-97.0533 -17.805633333333333 1875.86 0.0 0.0 1.0
-95.784 -13.0426 1864.17 0.0 0.0 1.0
-101.10653333333333 16.281366666666667 2213.5733333333333 -0.5343276830982082 -0.5341473497593294 0.6551187188746673
-97.50999999999999 18.39356666666667 1802.41 0.0 0.0 1.0
-96.68943333333334 20.459966666666666 1800.6066666666666 -0.9860927691504586 -6.2876064582664e-16 0.16619582013149475
-96.72583333333334 32.583800000000004 1770.41 0.0 0.0 1.0
-95.93686666666667 43.944799999999994 1770.41 0.0 0.0 1.0
-96.41026666666666 48.9941 1770.41 0.0 0.0 1.0
-96.41026666666666 56.41026666666667 1770.41 0.0 0.0 1.0
-96.41026666666666 56.410266666666665 1770.41 0.0 0.0 1.0
-97.0414 63.82643333333334 1770.41 0.0 0.0 1.0
-96.25246666666668 74.08283333333334 1770.41 0.0 0.0 1.0
-95.77910000000001 77.23866666666667 1770.41 0.0 0.0 1.0
-96.41023333333334 86.70613333333334 1770.41 0.0 0.0 1.0
-96.41026666666666 109.74366666666667 1770.41 0.0 0.0 1.0
-96.56806666666667 110.53266666666666 1770.41 0.0 0.0 1.0
-96.7715 -134.75866666666664 1881.76 0.0 0.0 1.0
-97.00723333333333 -122.60033333333332 1852.63 0.0 0.0 1.0
-93.00003333333332 -80.77203333333334 1245.8233333333335 0.4836746918769028 0.8751995655985071 -0.009193085116942935
-96.95476666666667 -106.255 1846.91 0.0 0.0 1.0
-96.95476666666667 -106.255 1846.91 0.0 0.0 1.0
-97.06003333333332 -94.49276666666667 1858.39 0.0 0.0 1.0
-97.06003333333332 -94.49276666666667 1858.39 0.0 0.0 1.0
-98.44236666666666 -79.00313333333334 1864.17 0.0 0.0 1.0
-98.05643333333335 -56.42633333333333 1875.86 0.0 0.0 1.0
-97.72206666666666 -51.91223333333334 1875.86 0.0 0.0 1.0
-97.05333333333334 -49.4044 1875.86 0.0 0.0 1.0
-97.72206666666666 -48.56843333333333 1875.86 0.0 0.0 1.0
-97.83383333333332 -38.275499999999994 1887.7 0.0 0.0 1.0
-98.00206666666666 -37.434266666666666 1887.7 0.0 0.0 1.0
-97.55486666666667 -22.988500000000002 1875.86 0.0 0.0 1.0
-96.33333333333333 -16.583333333333332 1870.0 0.0 0.0 1.0
-97.16086666666666 -2.7760233333333333 1887.7 0.0 0.0 1.0
-98.79469999999999 12.622566666666666 2129.5933333333332 0.8293996189716443 -0.5529168366412812 0.07987016845036554
-97.45746666666668 19.939966666666667 1797.0 0.0 0.0 1.0
-98.24646666666666 26.236966666666664 1811.5033333333333 0.4014047492252087 -0.802759825792426 0.4409658596684796
-89.77223333333332 23.7681 1858.39 0.0 0.0 1.0
-96.56803333333333 43.6292 1770.41 0.0 0.0 1.0
-95.93686666666667 44.73376666666667 1770.41 0.0 0.0 1.0
-96.56803333333333 58.461533333333335 1770.41 0.0 0.0 1.0
-96.72583333333334 65.24653333333335 1770.41 0.0 0.0 1.0
-97.0919 72.56183333333333 1775.67 0.0 0.0 1.0
-97.0414 72.9783 1770.41 0.0 0.0 1.0
-96.41023333333334 78.81656666666667 1770.41 0.0 0.0 1.0
-96.8836 85.60156666666667 1770.41 0.0 0.0 1.0
-96.41023333333334 86.70613333333334 1770.41 0.0 0.0 1.0
-97.4085 87.43816666666667 1775.67 0.0 0.0 1.0
-97.88326666666667 95.66766666666666 1775.67 0.0 0.0 1.0
-96.41606666666667 -128.746 1860.3166666666668 0.890367393589733 -0.29672941507359957 0.34524999444215015
-97.04156666666667 -124.34533333333333 1856.47 -0.8918135169322255 -0.44590675846611155 -0.07639249813443526
-97.00723333333333 -122.60033333333332 1852.63 0.0 0.0 1.0
-97.66770000000001 -100.805 1852.63 0.0 0.0 1.0
-98.05383333333333 -89.02693333333333 1858.39 0.0 0.0 1.0
-97.3913 -84.88613333333333 1858.39 0.0 0.0 1.0
-98.05383333333333 -81.40783333333333 1858.39 0.0 0.0 1.0
-98.44236666666666 -79.00313333333334 1864.17 0.0 0.0 1.0
-97.72206666666666 -69.6343 1875.86 0.0 0.0 1.0
-97.1069 -63.31236666666666 1881.76 0.0 0.0 1.0
-98.05643333333335 -56.42633333333333 1875.86 0.0 0.0 1.0
-99.28726666666667 -52.0755 1881.76 0.0 0.0 1.0
-97.88923333333332 -47.3981 1875.86 0.0 0.0 1.0
-97.72203333333333 -46.39496666666667 1875.86 0.0 0.0 1.0
-98.00206666666666 -37.434266666666666 1887.7 0.0 0.0 1.0
-98.00206666666666 -37.434266666666666 1887.7 0.0 0.0 1.0
-96.5 -30.083333333333332 1870.0 0.0 0.0 1.0
-97.72203333333333 -23.657300000000003 1875.86 0.0 0.0 1.0
-97.72203333333333 -23.4901 1875.86 0.0 0.0 1.0
-97.0533 -17.805633333333333 1875.86 0.0 0.0 1.0
-98.0021 -7.823339999999999 1887.7 0.0 0.0 1.0
-98.67503333333333 -3.9537333333333327 1887.7 0.0 0.0 1.0
-98.67503333333333 -3.9537333333333327 1887.7 0.0 0.0 1.0
-93.19279999999999 6.703806666666666 1286.8933333333332 -9.565453428987554e-15 0.8972309218168807 0.44156162982717423
-97.77780000000001 21.541566666666665 1797.0 0.0 0.0 1.0
-97.35699999999999 34.31953333333333 1770.41 0.0 0.0 1.0
-91.1046 37.77126666666667 1754.84 0.0 0.0 1.0
-94.44803333333334 37.8241 1654.6000000000001 -0.9314427602313937 -0.35390527683082484 0.08464891873981621
-96.56803333333333 43.6292 1770.41 0.0 0.0 1.0
-97.35699999999999 51.67653333333333 1770.41 0.0 0.0 1.0
-97.35700000000001 55.30573333333333 1770.41 0.0 0.0 1.0
-96.41026666666666 56.41026666666667 1770.41 0.0 0.0 1.0
-96.88363333333332 73.45166666666667 1770.41 0.0 0.0 1.0
-96.41023333333334 79.60553333333333 1770.41 0.0 0.0 1.0
-96.56803333333333 82.60356666666667 1770.41 0.0 0.0 1.0
-97.1992 82.91913333333333 1770.41 0.0 0.0 1.0
-97.4085 87.43816666666667 1775.67 0.0 0.0 1.0
-96.88363333333332 109.428 1770.41 0.0 0.0 1.0
-96.88363333333335 112.58366666666666 1770.41 0.0 0.0 1.0
-97.0414 114.31966666666666 1770.41 0.0 0.0 1.0
-96.88363333333335 116.68633333333332 1770.41 0.0 0.0 1.0
-100.93820000000001 162.66666666666666 2216.3 0.0 0.0 1.0
-101.23333333333335 -134.16933333333336 1875.86 0.0 0.0 1.0
-105.49646666666668 -118.31466666666665 1633.6033333333332 -0.2427056139018374 0.955497475653161 0.16768589386400093
-97.9424 -111.68733333333334 1846.91 0.0 0.0 1.0
-97.66770000000001 -100.805 1852.63 0.0 0.0 1.0
-98.38510000000001 -93.6646 1858.39 0.0 0.0 1.0
-98.6751 -65.8675 1887.7 0.0 0.0 1.0
-98.6751 -65.8675 1887.7 0.0 0.0 1.0
-98.6751 -65.8675 1887.7 0.0 0.0 1.0
-98.05643333333335 -56.42633333333333 1875.86 0.0 0.0 1.0
-98.28093333333334 -54.926633333333335 1881.76 0.0 0.0 1.0
-99.5779 -39.071733333333334 1893.67 0.0 0.0 1.0
-98.55810000000001 -34.85896666666667 1875.86 0.0 0.0 1.0
-100.9087 -29.083299999999998 1891.68 0.7971630861223139 0.3985815430611543 0.45350167326586305
-93.19279999999999 6.703806666666666 1286.8933333333332 3.1660303602986977e-15 0.8972309218168795 0.44156162982717667
-98.41836666666667 22.983 1797.0 0.0 0.0 1.0
-97.34710000000001 26.264233333333333 1802.42 -0.8835886963000095 -0.4418982926646172 0.15490937580064615
-98.46153333333332 31.479266666666664 1770.41 0.0 0.0 1.0
-97.83036666666668 50.887566666666665 1770.41 0.0 0.0 1.0
-97.83036666666665 52.30769999999999 1770.41 0.0 0.0 1.0
-96.72583333333334 57.672566666666675 1770.41 0.0 0.0 1.0
-97.35699999999999 66.82446666666668 1770.41 0.0 0.0 1.0
-97.0414 72.9783 1770.41 0.0 0.0 1.0
-97.5148 83.5503 1770.41 0.0 0.0 1.0
-97.67259999999999 84.02366666666667 1770.41 0.0 0.0 1.0
-98.46153333333332 91.91323333333332 1770.41 0.0 0.0 1.0
-97.1992 99.01389999999999 1770.41 0.0 0.0 1.0
-97.83036666666665 104.69433333333335 1770.41 0.0 0.0 1.0
-97.83036666666665 104.69433333333335 1770.41 0.0 0.0 1.0
-97.35699999999999 106.90333333333332 1770.41 0.0 0.0 1.0
-97.04143333333333 110.217 1770.41 0.0 0.0 1.0
-97.04143333333333 110.69033333333334 1770.41 0.0 0.0 1.0
-97.93509999999999 127.198 1765.1899999999998 -4.83453968535349e-27 -1.450361905606018e-26 1.0
-97.93509999999999 127.198 1765.1899999999998 -4.83453968535349e-27 -1.450361905606018e-26 1.0
-102.32100000000001 161.679 2216.3 0.0 0.0 1.0
-98.76543333333332 -111.358 1846.91 0.0 0.0 1.0
-99.54463333333332 -86.37683333333332 1858.39 0.0 0.0 1.0
-99.05966666666666 -69.6343 1875.86 0.0 0.0 1.0
-100.25316666666667 -67.08863333333333 1893.67 0.0 0.0 1.0
-98.84333333333332 -65.0263 1887.7 0.0 0.0 1.0
-99.455 -48.8889 1881.76 0.0 0.0 1.0
-99.455 -48.8889 1881.76 0.0 0.0 1.0
-98.05643333333332 -45.05746666666666 1875.86 0.0 0.0 1.0
-99.5779 -39.071733333333334 1893.67 0.0 0.0 1.0
-98.5068 -37.0978 1887.7 0.0 0.0 1.0
-102.25036666666665 -29.978799999999996 1905.7300000000002 -7.645361859804733e-28 -1.785679900997116e-29 1.0
-100.06253333333332 -21.316599999999998 1875.86 0.0 0.0 1.0
-99.16666666666667 -12.75 1870.0 0.0 0.0 1.0
-99.16666666666667 -12.75 1870.0 0.0 0.0 1.0
-98.0021 -7.823339999999999 1887.7 0.0 0.0 1.0
-98.26103333333333 2.9289609999999997 1879.7933333333333 0.663833751844293 0.6638635109903095 0.3443980091230909
-97.45746666666668 19.939966666666667 1797.0 0.0 0.0 1.0
-98.7387 24.424433333333337 1797.0 0.0 0.0 1.0
-97.35700000000001 55.30573333333333 1770.41 0.0 0.0 1.0
-98.77713333333334 60.828399999999995 1770.41 0.0 0.0 1.0
-98.46156666666666 67.6134 1770.41 0.0 0.0 1.0
-97.67259999999999 84.02366666666667 1770.41 0.0 0.0 1.0
-97.72499999999998 94.24333333333334 1775.67 0.0 0.0 1.0
-97.5148 111.95266666666667 1770.41 0.0 0.0 1.0
-97.6726 117.31766666666665 1770.41 0.0 0.0 1.0
-97.9882 119.05333333333333 1770.41 0.0 0.0 1.0
-97.9882 119.05333333333333 1770.41 0.0 0.0 1.0
-97.9882 119.05333333333333 1770.41 0.0 0.0 1.0
-98.76543333333332 -111.358 1846.91 0.0 0.0 1.0
-99.89800000000001 -107.46133333333334 1845.0166666666667 0.9834320758331764 2.8635599167905377e-16 0.18127700411924666
-98.38510000000001 -93.6646 1858.39 0.0 0.0 1.0
-99.54463333333332 -86.37683333333332 1858.39 0.0 0.0 1.0
-99.71016666666667 -81.57346666666666 1858.39 0.0 0.0 1.0
-100.12586666666668 -60.96436666666667 1881.76 0.0 0.0 1.0
-99.79033333333332 -54.255766666666666 1881.76 0.0 0.0 1.0
-98.55799999999999 -53.24973333333333 1875.86 0.0 0.0 1.0
-99.74873333333335 -21.67386666666667 1877.8266666666666 -0.3157069709634643 0.9468691529454395 0.06138335023000916
-99.16666666666667 -12.75 1870.0 0.0 0.0 1.0
-98.67503333333333 -3.9537333333333335 1887.7 0.0 0.0 1.0
-103.66833333333334 10.07813 2194.6666666666665 0.8804087604008856 -0.4694244584991989 0.06723906879270454
-99.0927 32.58383333333333 1770.41 0.0 0.0 1.0
-98.46153333333332 62.564099999999996 1770.41 0.0 0.0 1.0
-100.73176666666667 80.63303333333333 1775.67 0.0 0.0 1.0
-97.4085 87.43816666666667 1775.67 0.0 0.0 1.0
-98.46153333333332 91.91323333333332 1770.41 0.0 0.0 1.0
-97.72500000000001 94.24333333333334 1775.67 0.0 0.0 1.0
-97.88326666666667 95.66766666666666 1775.67 0.0 0.0 1.0
-98.7771 101.06533333333334 1770.41 0.0 0.0 1.0
-98.14593333333333 104.06333333333333 1770.41 0.0 0.0 1.0
-98.14593333333333 104.06333333333333 1770.41 0.0 0.0 1.0
-101.64473333333335 115.51666666666665 1798.8433333333335 0.44539087160014945 0.8906512678630356 -0.09147289516149655
-98.07623333333333 -148.635 2008.05 0.0 0.0 1.0
-100.56433333333332 -126.47866666666665 1875.86 0.0 0.0 1.0
-99.71016666666667 -81.57346666666666 1858.39 0.0 0.0 1.0
-100.04156666666667 -81.07656666666666 1858.39 0.0 0.0 1.0
-99.2731 -78.5047 1864.17 0.0 0.0 1.0
-99.2731 -78.5047 1864.17 0.0 0.0 1.0
-99.05966666666666 -69.6343 1875.86 0.0 0.0 1.0
-100.25316666666667 -67.08863333333333 1893.67 0.0 0.0 1.0
-100.12586666666668 -60.96436666666667 1881.76 0.0 0.0 1.0
-99.79046666666666 -57.61006666666666 1881.76 0.0 0.0 1.0
-100.29350000000001 -49.55976666666667 1881.76 0.0 0.0 1.0
-99.51619999999998 -40.4627 1887.7 0.0 0.0 1.0
-99.56133333333334 -33.85583333333333 1875.86 0.0 0.0 1.0
-100.39733333333334 -33.019866666666665 1875.86 0.0 0.0 1.0
-100.3377 -28.560099999999995 1901.6966666666667 -0.7064715611214997 -0.7065411025686077 0.04120198669587803
-99.33333333333333 -16.25 1870.0 0.0 0.0 1.0
-98.26103333333333 2.9289609999999997 1879.7933333333333 0.6638337518442929 0.6638635109903097 0.34439800912309104
-101.10653333333335 16.281366666666667 2213.5733333333333 -0.5343276830982082 -0.5341473497593294 0.6551187188746673
-99.80046666666665 20.039900000000003 1791.62 0.0 0.0 1.0
-98.46153333333332 34.635133333333336 1770.41 0.0 0.0 1.0
-98.93476666666668 43.3136 1770.41 0.0 0.0 1.0
-99.25049999999999 49.46746666666667 1770.41 0.0 0.0 1.0
-98.93490000000001 50.09863333333334 1770.41 0.0 0.0 1.0
-98.93490000000001 51.20316666666667 1770.41 0.0 0.0 1.0
-98.46153333333332 51.992133333333335 1770.41 0.0 0.0 1.0
-99.56613333333333 63.826433333333334 1770.41 0.0 0.0 1.0
-98.7771 101.06533333333334 1770.41 0.0 0.0 1.0
-98.7771 101.06533333333333 1770.41 0.0 0.0 1.0
-98.46153333333332 109.11233333333332 1770.41 0.0 0.0 1.0
-100.57369999999999 123.67966666666666 1775.67 0.0 0.0 1.0
-98.70616666666666 125.30866666666667 1749.7966666666664 -0.9967579952940653 0.0003756775410282176 0.0804571791932909
-97.93509999999999 127.198 1765.1899999999998 -4.83453968535349e-27 -1.450361905606018e-26 1.0
-104.49366666666667 161.28366666666668 2216.3 0.0 0.0 1.0
-104.55366666666667 -152.843 2087.5499999999997 -0.49502567983372825 0.8662848898978658 0.06708253006407773
-96.34686666666666 -127.389 1852.63 0.0 0.0 1.0
-100.56433333333332 -126.47866666666665 1875.86 0.0 0.0 1.0
-99.75313333333334 -108.395 1846.91 0.0 0.0 1.0
-99.25933333333334 -107.40733333333333 1846.91 0.0 0.0 1.0
-101.24366666666667 -96.67896666666667 1862.2433333333336 -0.821982548143427 -0.41144477031153376 0.3937739091546416
-101.03533333333333 -90.6832 1858.39 0.0 0.0 1.0
-100.37266666666666 -86.2112 1858.39 0.0 0.0 1.0
-100.12586666666668 -60.96436666666667 1881.76 0.0 0.0 1.0
-100.86200000000001 -41.80863333333333 1887.7 0.0 0.0 1.0
-99.5779 -39.071733333333334 1893.67 0.0 0.0 1.0
-99.72813333333333 -22.82133333333333 1875.86 0.0 0.0 1.0
-100.56400000000001 -21.985366666666668 1875.86 0.0 0.0 1.0
-100.06253333333332 -21.3166 1875.86 0.0 0.0 1.0
-99.33333333333333 -16.25 1870.0 0.0 0.0 1.0
-99.89543333333332 -14.629033333333332 1875.86 0.0 0.0 1.0
-100.241 13.895600000000002 1802.41 0.0 0.0 1.0
-100.43923333333333 21.157666666666668 1791.62 0.0 0.0 1.0
-99.40826666666668 32.42603333333333 1770.41 0.0 0.0 1.0
-99.56606666666666 34.00396666666667 1770.41 0.0 0.0 1.0
-100.03933333333333 70.29586666666667 1770.41 0.0 0.0 1.0
-99.56593333333335 92.85996666666666 1770.41 0.0 0.0 1.0
-98.56349999999999 83.46223333333334 1653.04 0.0 0.0 1.0
-98.93493333333333 105.79899999999999 1770.41 0.0 0.0 1.0
-98.61933333333333 109.58566666666665 1770.41 0.0 0.0 1.0
-99.40816666666667 119.84233333333333 1770.41 0.0 0.0 1.0
-100.19710000000002 123.94466666666666 1770.41 0.0 0.0 1.0
-104.49366666666667 161.28366666666668 2216.3 0.0 0.0 1.0
-101.63976666666667 -102.5102 1554.3666666666668 0.9122420973461972 0.0982292883330983 0.39770009145458374
-101.39999999999999 -127.31433333333332 1875.86 0.0 0.0 1.0
-97.66770000000001 -117.152 1852.63 0.0 0.0 1.0
-101.86333333333334 -112.21499999999999 1858.39 0.0 0.0 1.0
-100.1444 -104.43766666666666 1852.63 0.0 0.0 1.0
-98.98866666666667 -99.9794 1852.63 0.0 0.0 1.0
-100.24996666666668 -95.18830000000001 1862.2433333333336 0.8361497213117838 0.4185361730710959 0.35451532460703034
-100.20729999999999 -92.1739 1858.39 0.0 0.0 1.0
-100.70393333333334 -80.41406666666667 1858.39 0.0 0.0 1.0
-97.84533333333333 -75.12973333333333 1854.5633333333335 -0.9352939098411068 -7.086725637996293e-14 0.3538718725953439
-100.25316666666667 -67.08863333333333 1893.67 0.0 0.0 1.0
-100.79653333333333 -53.752633333333335 1881.76 0.0 0.0 1.0
-99.51636666666667 -36.593066666666665 1887.7 0.0 0.0 1.0
-100.89866666666666 -32.1839 1875.86 0.0 0.0 1.0
-102.44733333333333 -27.93246666666667 1893.67 0.0 0.0 1.0
-101.47833333333331 -27.991933333333332 1897.676666666667 -0.6981349196832354 -0.698203640514 0.15849072620150234
-94.95143333333333 3.8730766666666665 1224.5566666666666 -0.41615529875156176 0.4161680178230153 0.8084670359775102
-93.19279999999999 6.703806666666665 1286.8933333333332 3.1660303602986977e-15 0.8972309218168795 0.44156162982717667
-103.66833333333334 10.07813 2194.6666666666665 0.8804087604008858 -0.4694244584991987 0.06723906879270447
-100.241 13.8956 1802.41 0.0 0.0 1.0
-99.94023333333332 16.98906666666667 1789.8366666666668 -0.8941050769944083 0.4471147544235159 0.02577804627239922
-98.73870000000001 24.424433333333337 1797.0 0.0 0.0 1.0
-101.07333333333332 25.694666666666667 1818.8533333333332 -0.24172433196592538 -0.9674686651477842 0.07465741284555484
-99.25049999999999 49.46746666666667 1770.41 0.0 0.0 1.0
-98.2842 55.566599999999994 1768.67 -0.6790455983203905 0.6790455983203957 0.2789160282296426
-100.5129 59.250499999999995 1770.41 0.0 0.0 1.0
-99.25053333333334 68.56016666666666 1770.41 0.0 0.0 1.0
-100.03933333333333 70.29586666666667 1770.41 0.0 0.0 1.0
-100.3549 74.87180000000001 1770.41 0.0 0.0 1.0
-100.19713333333334 75.34516666666667 1770.41 0.0 0.0 1.0
-98.56349999999999 83.46223333333334 1653.04 0.0 0.0 1.0
-98.93490000000001 104.06333333333333 1770.41 0.0 0.0 1.0
-102.59066666666666 -130.75033333333334 1891.68 -0.8958665259540899 0.2238560306828489 0.38381199199851623
-101.39999999999999 -127.31433333333332 1875.86 0.0 0.0 1.0
-101.39999999999999 -127.31433333333332 1875.86 0.0 0.0 1.0
-101.73433333333332 -125.14133333333332 1875.86 0.0 0.0 1.0
-100.784 -106.30900000000001 1850.7233333333334 0.9668716174755818 -0.19321818758595197 0.16681129250189336
-100.70393333333334 -80.41406666666666 1858.39 0.0 0.0 1.0
-100.78250000000001 -68.8522 1895.6733333333334 0.4772867393780625 0.636434687696034 0.6059276002222618
-100.79653333333333 -53.752633333333335 1881.76 0.0 0.0 1.0
-100.29350000000001 -49.55976666666667 1881.76 0.0 0.0 1.0
-101.53500000000001 -44.16403333333333 1887.7 0.0 0.0 1.0
-101.94066666666667 -41.434599999999996 1893.67 0.0 0.0 1.0
-100.89866666666666 -32.1839 1875.86 0.0 0.0 1.0
-102.95333333333333 -24.050633333333334 1893.67 0.0 0.0 1.0
-101.87133333333334 -9.505783333333333 1887.7 0.0 0.0 1.0
-101.87133333333334 -9.505783333333333 1887.7 0.0 0.0 1.0
-102.616 -4.978906666666667 1893.67 0.0 0.0 1.0
-100.241 13.8956 1802.41 0.0 0.0 1.0
-101.782 12.732766666666668 1797.0 0.0 0.0 1.0
-101.07800000000002 15.2495 1791.62 0.0 0.0 1.0
-101.07800000000002 15.2495 1791.62 0.0 0.0 1.0
-100.43923333333333 21.157666666666668 1791.62 0.0 0.0 1.0
-100.955 26.88463333333333 1822.54 0.9832154649477399 0.16360049591005318 0.08076030724052646
-102.15633333333335 29.831833333333332 1775.67 0.0 0.0 1.0
-100.67076666666667 33.3728 1770.41 0.0 0.0 1.0
-100.5129 59.250499999999995 1770.41 0.0 0.0 1.0
-98.56350000000002 83.46223333333334 1653.04 0.0 0.0 1.0
-100.3549 74.87180000000001 1770.41 0.0 0.0 1.0
-102.15633333333335 82.6904 1775.67 0.0 0.0 1.0
-101.144 84.81259999999999 1770.41 0.0 0.0 1.0
-101.144 87.65286666666667 1770.41 0.0 0.0 1.0
-109.46236666666665 99.59896666666667 1704.8666666666668 -0.2779584743606896 -0.9574875921324824 0.07717899612860289
-98.46153333333335 116.37099999999998 1770.41 0.0 0.0 1.0
-101.36500000000001 121.14766666666667 1775.67 0.0 0.0 1.0
-100.19709999999999 123.94466666666669 1770.41 0.0 0.0 1.0
-99.66746666666666 124.45400000000001 1737.8933333333334 -0.9967575508603054 0.001870177589862917 0.08044182518284863
-104.49366666666667 161.28366666666668 2216.3 0.0 0.0 1.0
-106.07366666666667 162.469 2216.3 0.0 0.0 1.0
-104.55366666666667 -152.843 2087.55 -0.49502567983372825 0.8662848898978656 0.06708253006407779
-102.25433333333335 -132.601 1891.68 -0.9698371962551418 0.24233956607659238 0.026217312481927317
-101.56733333333334 -126.98 1875.86 0.0 0.0 1.0
-101.86333333333334 -112.21499999999999 1858.39 0.0 0.0 1.0
-102.69133333333333 -89.35813333333333 1858.39 0.0 0.0 1.0
-101.36633333333333 -87.20496666666666 1858.39 0.0 0.0 1.0
-101.4329 -75.01556666666667 1864.17 0.0 0.0 1.0
-102.37633333333333 -65.86749999999999 1887.7 0.0 0.0 1.0
-102.37633333333333 -64.85803333333332 1887.7 0.0 0.0 1.0
-102.37633333333333 -64.85803333333332 1887.7 0.0 0.0 1.0
-102.71300000000001 -61.156666666666666 1887.7 0.0 0.0 1.0
-101.53500000000001 -44.16403333333333 1887.7 0.0 0.0 1.0
-102.474 -34.13 1881.76 0.0 0.0 1.0
-102.03966666666668 -13.543656666666665 1887.7 0.0 0.0 1.0
-102.03966666666668 -13.543656666666665 1887.7 0.0 0.0 1.0
-100.2298 -14.9634 1875.86 0.0 0.0 1.0
-101.87133333333334 -9.505783333333333 1887.7 0.0 0.0 1.0
-102.54466666666667 -0.5888526666666667 1887.7 0.0 0.0 1.0
-101.07800000000002 21.796399999999995 1791.62 0.0 0.0 1.0
-101.23766666666666 22.754499999999997 1791.62 0.0 0.0 1.0
-100.955 26.88463333333333 1822.54 0.9832154649477397 0.16360049591005354 0.08076030724052645
-101.30166666666668 42.20903333333334 1770.41 0.0 0.0 1.0
-101.68166666666666 47.71516666666667 1775.67 0.0 0.0 1.0
-100.03933333333333 70.29586666666667 1770.41 0.0 0.0 1.0
-103.26400000000001 72.7201 1775.67 0.0 0.0 1.0
-100.3549 75.34516666666667 1770.41 0.0 0.0 1.0
-101.144 84.81259999999999 1770.41 0.0 0.0 1.0
-101.144 93.17556666666667 1770.41 0.0 0.0 1.0
-101.96833333333332 106.74133333333333 1786.28 -0.9863839210040679 9.925355575242003e-08 0.16445899301841496
-102.156 112.918 1775.67 0.0 0.0 1.0
-99.40816666666667 119.84233333333333 1770.41 0.0 0.0 1.0
-100.19709999999999 123.94466666666669 1770.41 0.0 0.0 1.0
-100.61200000000001 124.23166666666668 1726.1933333333334 -0.9967589389174291 0.0022443225490152183 0.08041505272333603
-101.23333333333333 -134.1693333333333 1875.86 0.0 0.0 1.0
-101.23333333333333 -134.1693333333333 1875.86 0.0 0.0 1.0
-105.23666666666666 -135.01566666666668 1887.7 0.0 0.0 1.0
-103.21766666666666 -125.426 1887.7 0.0 0.0 1.0
-102.43 -104.92233333333336 1864.17 0.0 0.0 1.0
-102.43 -104.92233333333333 1864.17 0.0 0.0 1.0
-102.43 -104.92233333333333 1864.17 0.0 0.0 1.0
-99.71006666666666 -95.65216666666667 1858.39 0.0 0.0 1.0
-101.76523333333334 -80.33229999999999 1864.17 0.0 0.0 1.0
-101.4329 -75.01556666666667 1864.17 0.0 0.0 1.0
-102.37633333333333 -64.85803333333332 1887.7 0.0 0.0 1.0
-102.37633333333333 -62.8391 1887.7 0.0 0.0 1.0
-102.71300000000001 -61.156666666666666 1887.7 0.0 0.0 1.0
-102.474 -34.13 1881.76 0.0 0.0 1.0
-102.474 -34.13 1881.76 0.0 0.0 1.0
-103.291 -26.075933333333335 1893.67 0.0 0.0 1.0
-103.70366666666666 -19.555566666666667 1899.68 0.0 0.0 1.0
-103.04933333333334 -6.982123333333334 1887.7 0.0 0.0 1.0
-102.616 -4.978906666666667 1893.67 0.0 0.0 1.0
-103.21766666666667 -3.449 1887.7 0.0 0.0 1.0
-102.71300000000001 -1.766561333333333 1887.7 0.0 0.0 1.0
-102.54466666666667 -0.5888526666666667 1887.7 0.0 0.0 1.0
-101.71666666666665 22.914166666666663 1791.62 0.0 0.0 1.0
-99.73790000000001 26.288399999999996 1815.1666666666667 -0.4449975624494337 0.8899400577583587 0.09991928247896784
-101.30166666666666 42.20903333333334 1770.41 0.0 0.0 1.0
-100.5129 59.250499999999995 1770.41 0.0 0.0 1.0
-100.03953333333334 65.40433333333333 1770.41 0.0 0.0 1.0
-101.144 93.17556666666667 1770.41 0.0 0.0 1.0
-101.144 93.17556666666667 1770.41 0.0 0.0 1.0
-102.15633333333334 97.4085 1775.67 0.0 0.0 1.0
-100.03953333333334 102.95866666666666 1770.41 0.0 0.0 1.0
-101.68166666666666 120.67266666666666 1775.67 0.0 0.0 1.0
-104.52166666666666 -138.945 1897.6899999999998 -4.548725085738516e-15 0.9934046061307036 0.11466162618026114
-102.236 -126.47866666666665 1875.86 0.0 0.0 1.0
-103.21766666666666 -125.426 1887.7 0.0 0.0 1.0
-101.86333333333334 -112.21499999999999 1858.39 0.0 0.0 1.0
-102.97666666666667 -105.30733333333335 1868.0566666666666 0.9437785668355025 -0.3145928556118342 0.10155467483044103
-102.69133333333333 -89.35813333333333 1858.39 0.0 0.0 1.0
-101.76523333333334 -80.33229999999999 1864.17 0.0 0.0 1.0
-103.14333333333333 -80.5 1868.0566666666666 0.9403489464465732 -0.3134496488155244 0.13226177291358374
-96.81673333333333 -62.542566666666666 1797.0 0.0 0.0 1.0
-96.81673333333333 -62.542566666666666 1797.0 0.0 0.0 1.0
-102.71300000000001 -61.156666666666666 1887.7 0.0 0.0 1.0
-100.77299999999998 -41.62063333333334 1653.04 0.0 0.0 1.0
