ply
format ascii 1.0
comment VCGLIB generated
element vertex 758
property float x
property float y
property float z
property float nx
property float ny
property float nz
element face 0
property list uchar int vertex_indices
end_header
181.86666666666667 -163.73333333333332 2992.0 0.0 0.0 1.0
180.26666666666665 -122.39999999999999 2992.0 0.0 0.0 1.0
46.88716666666667 -49.13893333333334 1486.0933333333332 8.666241788011576e-18 -0.9972373721498875 0.07428070804446228
178.4 -90.93333333333332 2992.0 0.0 0.0 1.0
182.66666666666666 -57.06666666666666 2992.0 0.0 0.0 1.0
84.62126666666667 -23.095166666666668 1850.7233333333334 5.330524305973006e-17 0.8508805335001753 0.5253592273011459
183.73333333333335 1.6000000000000003 2992.0 0.0 0.0 1.0
184.26666666666665 92.80000000000001 2992.0 0.0 0.0 1.0
183.73333333333335 124.8 2992.0 0.0 0.0 1.0
180.26666666666665 150.13333333333335 2992.0 0.0 0.0 1.0
181.86666666666667 196.53333333333333 2992.0 0.0 0.0 1.0
181.86666666666667 196.53333333333333 2992.0 0.0 0.0 1.0
34.52016666666667 102.44703333333332 1315.16 0.0 0.0 1.0
179.73333333333335 232.26666666666668 2992.0 0.0 0.0 1.0
63.24476666666666 145.58433333333332 1635.0 0.29596379528978956 -0.8878235042649248 0.3523845302399247
182.13333333333335 351.73333333333335 2992.0 0.0 0.0 1.0
108.762 -278.8573333333334 2137.14 0.0 0.0 1.0
181.0666666666667 -194.13333333333333 2992.0 0.0 0.0 1.0
70.09776666666666 -104.60566666666666 1736.17 0.28960059765116264 0.86898916932867 0.40123474105510576
181.33333333333334 -117.60000000000001 2992.0 0.0 0.0 1.0
179.73333333333332 -95.73333333333333 2992.0 0.0 0.0 1.0
181.33333333333334 -81.86666666666667 2992.0 0.0 0.0 1.0
84.62126666666667 -23.095166666666668 1850.7233333333334 0.0 0.8508805335001752 0.5253592273011459
185.33333333333334 -6.133333333333333 2992.0 0.0 0.0 1.0
181.0666666666667 25.066666666666666 2992.0 0.0 0.0 1.0
181.0666666666667 63.73333333333334 2992.0 0.0 0.0 1.0
181.6 364.8 2992.0 0.0 0.0 1.0
180.79999999999998 370.40000000000003 2992.0 0.0 0.0 1.0
110.58833333333332 304.118 2200.0 0.0 0.0 1.0
183.73333333333335 438.1333333333334 2992.0 0.0 0.0 1.0
106.95333333333333 -315.98566666666665 2144.8 0.0 0.0 1.0
106.09533333333333 -266.857 2137.14 0.0 0.0 1.0
75.4884 -158.06633333333335 1807.8499999999997 -4.379069558289768e-28 -4.861655745434461e-28 1.0
74.08606666666667 -124.67766666666665 1793.4133333333332 -0.6814879984118267 0.6133961077980669 0.39914824684423283
179.20000000000002 -152.00000000000003 2992.0 0.0 0.0 1.0
72.13873333333333 -54.94976666666667 1761.75 0.9200988513846099 0.09587443126268481 0.3797712431329922
178.66666666666666 118.93333333333334 2992.0 0.0 0.0 1.0
32.87913333333333 56.263733333333334 1315.16 0.0 0.0 1.0
180.0 205.0666666666667 2992.0 0.0 0.0 1.0
179.73333333333335 210.9333333333333 2992.0 0.0 0.0 1.0
180.0 250.4 2992.0 0.0 0.0 1.0
62.43253333333334 144.02833333333334 1629.0433333333333 -0.3014937353680273 0.90441205616476 0.30189461770237797
63.172200000000004 144.47766666666666 1627.5666666666666 -0.10521596183717573 0.948664931486236 0.2982690884803409
62.1535 162.10333333333335 1577.5433333333333 7.686709973586731e-17 0.9888223243244532 0.14909866168945365
178.4 334.40000000000003 2992.0 0.0 0.0 1.0
180.79999999999998 370.40000000000003 2992.0 0.0 0.0 1.0
56.30236666666667 208.49933333333334 1563.7699999999998 1.7094740936178201e-16 0.9639936624990014 0.2659252125349554
105.14266666666667 -288.0 2137.14 0.0 0.0 1.0
77.90533333333333 -204.79366666666667 1807.8499999999997 0.0 0.0 1.0
73.1864 -105.94566666666667 1737.8500000000001 0.07610717606380454 0.91351525265057 0.3996217973614034
179.73333333333335 -163.20000000000002 2992.0 0.0 0.0 1.0
179.20000000000002 -152.00000000000003 2992.0 0.0 0.0 1.0
32.52746666666667 -40.205133333333336 1315.16 0.0 0.0 1.0
177.6 -62.93333333333333 2992.0 0.0 0.0 1.0
179.73333333333335 -56.800000000000004 2992.0 0.0 0.0 1.0
180.53333333333333 27.46666666666667 2992.0 0.0 0.0 1.0
181.33333333333334 80.0 2992.0 0.0 0.0 1.0
181.33333333333334 80.0 2992.0 0.0 0.0 1.0
178.4 89.60000000000001 2992.0 0.0 0.0 1.0
179.73333333333335 97.86666666666667 2992.0 0.0 0.0 1.0
180.26666666666665 150.13333333333333 2992.0 0.0 0.0 1.0
52.5617 166.98766666666666 1539.6366666666665 -0.5026162252699263 0.6212598864863738 0.6011764163191607
180.80000000000004 370.40000000000003 2992.0 0.0 0.0 1.0
178.785 418.522 2947.78 0.0 0.0 1.0
78.84056666666666 -265.176 1858.39 0.0 0.0 1.0
105.14266666666667 -288.0 2137.14 0.0 0.0 1.0
103.238 -254.47633333333337 2137.14 0.0 0.0 1.0
75.5399 -176.56233333333333 1786.28 0.33145330702682174 0.8275436928058915 0.45311162174255887
76.93856666666666 -172.89 1807.8499999999997 -4.305633901865432e-26 3.2163616929532104e-25 1.0
73.13373333333332 -155.20966666666666 1791.62 0.0 0.0 1.0
180.26666666666665 -122.39999999999999 2992.0 0.0 0.0 1.0
180.26666666666665 -122.39999999999999 2992.0 0.0 0.0 1.0
71.30746666666666 -46.79413333333333 1773.9166666666667 -0.6153401730948399 -0.17581015551977816 0.7684056614781829
177.6 55.20000000000001 2992.0 0.0 0.0 1.0
51.8213 72.9897 1542.2699999999998 2.9690812318648087e-28 -3.29884581133149e-29 1.0
35.92673333333334 68.80586666666666 1315.16 0.0 0.0 1.0
179.73333333333335 232.26666666666668 2992.0 0.0 0.0 1.0
179.46666666666667 328.2666666666667 2992.0 0.0 0.0 1.0
178.13333333333333 345.59999999999997 2992.0 0.0 0.0 1.0
178.4 346.6666666666667 2992.0 0.0 0.0 1.0
32.17583333333334 165.15766666666667 1315.16 0.0 0.0 1.0
104.38066666666667 -286.6666666666667 2137.14 0.0 0.0 1.0
103.42866666666667 -275.619 2137.14 0.0 0.0 1.0
102.09499999999998 -256.95233333333334 2137.14 0.0 0.0 1.0
76.17290000000001 -179.465 1789.8366666666668 0.6146009225001882 0.6914901923975241 0.3796143041034582
77.0997 -161.93333333333334 1807.8499999999997 1.29655439768885e-27 -7.2038069187188e-27 1.0
76.96603333333333 -139.08166666666668 1791.62 0.0 0.0 1.0
178.66666666666666 -112.0 2992.0 0.0 0.0 1.0
180.0 25.866666666666664 2992.0 0.0 0.0 1.0
179.20000000000002 60.26666666666667 2992.0 0.0 0.0 1.0
178.66666666666666 118.93333333333334 2992.0 0.0 0.0 1.0
34.754599999999996 58.490833333333335 1315.16 0.0 0.0 1.0
180.26666666666665 150.13333333333333 2992.0 0.0 0.0 1.0
34.051300000000005 78.53476666666666 1315.16 0.0 0.0 1.0
176.26666666666665 325.06666666666666 2992.0 0.0 0.0 1.0
178.785 418.522 2947.78 0.0 0.0 1.0
72.01596666666667 -190.659 1791.62 0.0 0.0 1.0
75.07416666666667 -174.4606666666667 1782.7233333333334 0.31388805638607264 0.8368005175705959 0.4485969035244856
73.11309999999999 -135.65566666666666 1797.0 0.0 0.0 1.0
72.53966666666666 -120.0 1780.95 0.0 0.0 1.0
180.53333333333333 -86.93333333333334 2992.0 0.0 0.0 1.0
71.11909999999999 -41.07013333333333 1779.1899999999998 0.33837908841070946 -0.9305247285825973 0.14008326817511385
177.6 55.199999999999996 2992.0 0.0 0.0 1.0
178.4 89.60000000000001 2992.0 0.0 0.0 1.0
178.4 89.60000000000001 2992.0 0.0 0.0 1.0
61.05643333333333 124.88166666666666 1634.97 0.0 0.0 1.0
178.9333333333333 236.53333333333333 2992.0 0.0 0.0 1.0
78.5093 -269.64833333333337 1858.39 0.0 0.0 1.0
78.5093 -269.317 1858.39 0.0 0.0 1.0
104.57166666666667 -302.0953333333334 2137.14 0.0 0.0 1.0
78.00726666666667 -254.27266666666665 1862.2433333333336 7.984828907077248e-17 -0.9595002038308845 0.2817079318167859
103.42866666666667 -275.61899999999997 2137.14 0.0 0.0 1.0
98.53453333333334 -257.9666666666667 2121.99 0.0 0.0 1.0
73.40833333333335 -207.92066666666668 1804.2233333333334 0.1215736949533539 0.972438223077099 0.19895662591138527
72.342 -193.33900000000003 1789.8366666666668 0.5329424968245212 -0.7614100020245079 0.36908956080534694
75.16616666666665 -172.56766666666667 1807.8499999999997 -1.53671887921419e-26 -2.766390728300172e-26 1.0
74.52166666666666 -162.09466666666665 1807.8499999999997 -9.15464059204709e-28 6.060966521337594e-27 1.0
71.35950000000001 -127.041 1795.2066666666667 -0.21782852302552255 0.9442057741304675 0.24703479644617649
48.804100000000005 -102.98533333333334 1548.9233333333334 -3.9616217396961405e-17 0.9859248225805883 0.1671892467218974
177.86666666666667 -160.8 2992.0 0.0 0.0 1.0
176.26666666666665 -156.26666666666668 2992.0 0.0 0.0 1.0
177.6 -152.79999999999998 2992.0 0.0 0.0 1.0
38.232933333333335 -46.6506 1441.93 0.0 0.0 1.0
179.73333333333335 -56.800000000000004 2992.0 0.0 0.0 1.0
177.33333333333334 -50.4 2992.0 0.0 0.0 1.0
179.20000000000002 -44.26666666666667 2992.0 0.0 0.0 1.0
174.66666666666666 10.133333333333333 2992.0 0.0 0.0 1.0
69.04213333333333 20.50623333333333 1756.5600000000002 -0.8509434367243113 -0.510558807717909 -0.12338951072714938
177.6 72.0 2992.0 0.0 0.0 1.0
179.73333333333335 97.86666666666667 2992.0 0.0 0.0 1.0
178.66666666666666 118.93333333333334 2992.0 0.0 0.0 1.0
178.4 242.66666666666666 2992.0 0.0 0.0 1.0
60.1081 165.76566666666668 1617.3 0.0 0.0 1.0
177.33333333333334 346.6666666666667 2992.0 0.0 0.0 1.0
32.17583333333334 165.15766666666667 1315.16 0.0 0.0 1.0
53.42593333333334 209.827 1552.9466666666667 -2.2765089223468864e-18 -0.9994880757010955 0.03199353889961122
78.33906666666667 -268.879 1862.2433333333336 -4.9071159401854294e-17 -0.9936017478665975 0.11294054469694455
78.17803333333335 -252.754 1858.39 0.0 0.0 1.0
78.17803333333333 -252.754 1858.39 0.0 0.0 1.0
104.38066666666667 -286.6666666666667 2137.14 0.0 0.0 1.0
75.49376666666667 -207.00133333333335 1806.0366666666666 -0.8701342786913916 0.4833434930290103 0.09615302799562053
75.1515 -134.14133333333334 1813.33 0.0 0.0 1.0
176.26666666666665 -156.26666666666668 2992.0 0.0 0.0 1.0
176.26666666666665 -156.26666666666668 2992.0 0.0 0.0 1.0
176.0 -112.26666666666667 2992.0 0.0 0.0 1.0
178.9333333333333 -74.93333333333334 2992.0 0.0 0.0 1.0
176.0 -71.46666666666667 2992.0 0.0 0.0 1.0
70.97263333333332 -40.5539 1777.43 -0.2078223047142146 -0.9352550900935626 0.28654459708281743
177.33333333333334 -67.73333333333333 2992.0 0.0 0.0 1.0
177.6 19.2 2992.0 0.0 0.0 1.0
177.6 55.199999999999996 2992.0 0.0 0.0 1.0
177.0666666666667 66.93333333333332 2992.0 0.0 0.0 1.0
171.46666666666667 168.26666666666665 2992.0 0.0 0.0 1.0
34.051300000000005 78.53476666666666 1315.16 0.0 0.0 1.0
180.0 205.0666666666667 2992.0 0.0 0.0 1.0
56.7928 163.60366666666667 1617.3 0.0 0.0 1.0
177.33333333333334 345.8666666666666 2992.0 0.0 0.0 1.0
104.57166666666667 -304.38100000000003 2137.14 0.0 0.0 1.0
102.09533333333333 -275.80966666666666 2137.14 0.0 0.0 1.0
103.04766666666667 -266.47633333333334 2137.14 0.0 0.0 1.0
71.09486666666668 -211.61333333333332 1815.1766666666665 -7.912790055872172e-17 0.9344783055459454 0.3560200787371113
177.0666666666667 -175.20000000000002 2992.0 0.0 0.0 1.0
175.20000000000002 -93.06666666666666 2992.0 0.0 0.0 1.0
32.52746666666667 -40.20513333333333 1315.16 0.0 0.0 1.0
176.0 15.200000000000001 2992.0 0.0 0.0 1.0
69.04213333333333 20.50623333333333 1756.5600000000002 -0.8509434367243113 -0.510558807717909 -0.12338951072714965
51.8213 72.9897 1542.2699999999998 2.9690812318648082e-28 -3.2988458113314896e-29 1.0
177.33333333333334 209.86666666666667 2992.0 0.0 0.0 1.0
57.1427 153.20033333333333 1623.1499999999999 0.8737593490777736 -0.48547162193762655 0.029358204857177505
176.79999999999998 343.4666666666667 2992.0 0.0 0.0 1.0
54.357933333333335 208.36033333333333 1563.7699999999998 2.1148254840102568e-16 0.9756609417599253 0.21928457931221657
53.22223333333333 209.81766666666667 1556.9833333333333 -0.07043441379018893 0.9852879279671639 0.1557134944576262
123.67456666666665 323.78 2355.91 0.0 0.0 1.0
173.33333333333334 437.8666666666666 2992.0 0.0 0.0 1.0
106.95333333333333 -315.98566666666665 2144.8 0.0 0.0 1.0
102.28533333333333 -260.0 2137.14 0.0 0.0 1.0
98.53453333333334 -257.9666666666667 2121.99 0.0 0.0 1.0
75.16616666666667 -172.56766666666667 1807.8499999999997 -6.147511356679953e-27 -1.383280153025082e-26 1.0
71.6966 -156.168 1791.62 0.0 0.0 1.0
73.11309999999999 -135.65566666666666 1797.0 0.0 0.0 1.0
66.70533333333333 -103.42066666666666 1734.49 0.0 0.0 1.0
46.887166666666666 -49.13893333333334 1486.0933333333332 -4.333120894005788e-18 -0.9972373721498876 0.07428070804446206
169.86666666666667 131.46666666666667 2992.0 0.0 0.0 1.0
50.934 151.22533333333334 1538.3 0.0 0.0 1.0
174.4 368.0 2992.0 0.0 0.0 1.0
70.57883333333334 -190.4993333333333 1791.62 0.0 0.0 1.0
71.6966 -156.168 1791.62 0.0 0.0 1.0
72.0011 -141.91633333333334 1795.2066666666667 -0.9722760525024878 0.07479645264608584 0.2215508257753548
70.73276666666668 -126.11466666666666 1793.4133333333332 0.08242306041161544 0.9891627615368934 0.12150502171141107
72.55973333333334 -129.09033333333332 1815.1666666666667 -0.050613975869120593 -0.35418825443505525 0.9338034621198235
172.79999999999998 -116.0 2992.0 0.0 0.0 1.0
66.86216666666667 25.80643333333333 1754.84 0.0 0.0 1.0
174.13333333333333 157.6 2992.0 0.0 0.0 1.0
58.4279 198.60133333333332 1540.96 0.5184630733054214 -0.561462256564693 0.6449466459111018
173.33333333333334 437.8666666666666 2992.0 0.0 0.0 1.0
100.76186666666666 -275.80966666666666 2137.14 0.0 0.0 1.0
101.52366666666667 -263.4286666666667 2137.14 0.0 0.0 1.0
74.19940000000001 -158.22766666666666 1807.8499999999997 2.7014620640758205e-28 1.8694295912834431e-28 1.0
71.35133333333333 -135.65566666666666 1797.0 0.0 0.0 1.0
173.33333333333334 -172.26666666666665 2992.0 0.0 0.0 1.0
32.52746666666667 -40.20513333333333 1315.16 0.0 0.0 1.0
80.3251 -21.629633333333334 1852.6433333333334 0.8062543220816265 0.5037385769794077 0.3101635281387196
170.66666666666666 -6.133333333333333 2992.0 0.0 0.0 1.0
51.8213 72.9897 1542.2699999999998 2.9690812318648087e-28 -3.29884581133149e-29 1.0
176.80000000000004 246.66666666666666 2992.0 0.0 0.0 1.0
168.53333333333333 309.8666666666666 2992.0 0.0 0.0 1.0
75.8592 -269.8136666666667 1858.39 0.0 0.0 1.0
75.8592 -269.8136666666667 1858.39 0.0 0.0 1.0
78.17803333333333 -252.754 1858.39 0.0 0.0 1.0
99.99990000000001 -254.66666666666666 2137.14 0.0 0.0 1.0
70.04883333333333 -205.25666666666666 1800.6066666666666 0.6420193514170937 0.6419305520600453 0.41920915869987846
72.74926666666666 -163.22266666666667 1807.8499999999997 -1.3173823993154216e-27 9.88552655894851e-28 1.0
71.6966 -156.168 1791.62 0.0 0.0 1.0
69.62073333333333 -145.15 1791.62 0.0 0.0 1.0
171.46666666666667 -168.0 2992.0 0.0 0.0 1.0
170.66666666666666 1.0666666666666667 2992.0 0.0 0.0 1.0
55.09406666666666 152.32666666666668 1624.62 0.08473631633104921 -0.9337785863706856 0.34767414101455457
61.15403333333333 206.33166666666668 1614.3933333333334 0.057571317390300275 -0.977046558905088 0.20509891551559142
77.01243333333333 -263.29566666666665 1860.3166666666668 0.4100419503215241 0.8199188938219879 0.3994979430863799
99.8094 -276.95233333333334 2137.14 0.0 0.0 1.0
99.8094 -276.95233333333334 2137.14 0.0 0.0 1.0
69.94013333333334 -183.79233333333335 1791.62 0.0 0.0 1.0
167.73333333333332 -193.6 2992.0 0.0 0.0 1.0
170.4 -160.26666666666665 2992.0 0.0 0.0 1.0
172.5333333333333 -56.53333333333333 2992.0 0.0 0.0 1.0
170.13333333333335 86.39999999999999 2992.0 0.0 0.0 1.0
32.879133333333336 56.263733333333334 1315.16 0.0 0.0 1.0
169.86666666666667 131.46666666666667 2992.0 0.0 0.0 1.0
57.1427 153.20033333333333 1623.1499999999999 0.8737593490777736 -0.48547162193762644 0.029358204857177626
172.26666666666665 323.7333333333333 2992.0 0.0 0.0 1.0
173.33333333333334 437.86666666666673 2992.0 0.0 0.0 1.0
76.51093333333333 -266.9986666666667 1864.17 0.0 0.0 1.0
71.16466666666668 -206.42566666666667 1802.41 0.0 0.0 1.0
69.78043333333333 -192.25566666666666 1791.62 0.0 0.0 1.0
70.57883333333334 -190.4993333333333 1791.62 0.0 0.0 1.0
69.94013333333334 -183.79233333333335 1791.62 0.0 0.0 1.0
71.4955 -172.32866666666666 1798.823333333333 0.8997795264942412 0.4362361029744843 -0.009739926254063312
70.49346666666666 -164.995 1807.8499999999997 -3.0732258118205893e-27 -7.689109176593241e-27 1.0
69.62073333333333 -145.15 1791.62 0.0 0.0 1.0
66.66666666666667 -106.512 1739.53 0.0 0.0 1.0
169.0666666666667 -157.33333333333331 2992.0 0.0 0.0 1.0
165.06666666666666 -138.9333333333333 2992.0 0.0 0.0 1.0
71.30746666666667 -46.79413333333333 1773.9166666666667 -0.6153401730948399 -0.17581015551977816 0.7684056614781829
170.66666666666666 1.0666666666666667 2992.0 0.0 0.0 1.0
174.4 70.13333333333333 2992.0 0.0 0.0 1.0
169.6 83.73333333333333 2992.0 0.0 0.0 1.0
170.66666666666666 84.53333333333333 2992.0 0.0 0.0 1.0
170.13333333333335 88.26666666666667 2992.0 0.0 0.0 1.0
176.26666666666665 149.33333333333334 2992.0 0.0 0.0 1.0
169.33333333333334 161.86666666666667 2992.0 0.0 0.0 1.0
161.86666666666665 393.8666666666666 2992.0 0.0 0.0 1.0
97.71426666666667 -252.76200000000003 2137.14 0.0 0.0 1.0
69.78043333333333 -192.25566666666668 1791.62 0.0 0.0 1.0
69.94013333333334 -183.79233333333335 1791.62 0.0 0.0 1.0
70.49346666666666 -164.995 1807.8499999999997 -3.073225811820588e-27 -7.689109176593238e-27 1.0
70.73853333333334 -156.32766666666666 1791.62 0.0 0.0 1.0
69.94013333333334 -153.93200000000002 1791.62 0.0 0.0 1.0
68.34333333333333 -152.814 1791.62 0.0 0.0 1.0
169.33333333333334 -164.79999999999998 2992.0 0.0 0.0 1.0
30.49473333333333 -62.30486666666667 1341.7066666666667 -0.632837484244118 0.5431468875025428 0.5518225957061524
46.65416666666667 -49.553266666666666 1478.76 0.23050005955973346 -0.9604955642829307 0.15594227629406207
46.887166666666666 -49.13893333333334 1486.0933333333332 -3.4664967152046305e-18 -0.9972373721498876 0.07428070804446206
171.73333333333335 -87.2 2992.0 0.0 0.0 1.0
168.79999999999998 -57.333333333333336 2992.0 0.0 0.0 1.0
169.06666666666666 -6.400000000000001 2992.0 0.0 0.0 1.0
169.06666666666666 -6.400000000000001 2992.0 0.0 0.0 1.0
168.53333333333333 -1.0666666666666667 2992.0 0.0 0.0 1.0
66.86216666666667 25.80643333333333 1754.84 0.0 0.0 1.0
30.417600000000004 99.7509 1315.16 0.0 0.0 1.0
170.66666666666666 237.6 2992.0 0.0 0.0 1.0
170.9333333333333 346.93333333333334 2992.0 0.0 0.0 1.0
30.652 164.923 1315.16 0.0 0.0 1.0
74.20293333333335 -271.1383333333333 1858.39 0.0 0.0 1.0
77.1791 -252.94766666666666 1862.2433333333336 6.780983623255015e-17 0.9303518280441071 0.3666680734056188
98.66676666666666 -268.7616666666667 2137.14 0.0 0.0 1.0
69.4294 -135.65566666666666 1797.0 0.0 0.0 1.0
173.86666666666665 -119.2 2992.0 0.0 0.0 1.0
69.69476666666667 -40.75363333333333 1779.1899999999998 -0.32696523250438275 0.8991372240556498 0.29093983751087593
67.49753333333332 -40.9891 1775.67 0.0 0.0 1.0
167.73333333333335 87.46666666666665 2992.0 0.0 0.0 1.0
162.93333333333334 110.66666666666667 2992.0 0.0 0.0 1.0
52.5617 166.98766666666666 1539.6366666666665 -0.5026162252699264 0.6212598864863735 0.6011764163191609
169.33333333333334 366.6666666666667 2992.0 0.0 0.0 1.0
30.652 164.923 1315.16 0.0 0.0 1.0
29.2454 169.02533333333335 1315.16 0.0 0.0 1.0
74.20293333333333 -271.1383333333333 1858.39 0.0 0.0 1.0
74.20293333333335 -271.1383333333333 1858.39 0.0 0.0 1.0
72.53966666666666 -120.0 1780.95 0.0 0.0 1.0
48.804100000000005 -102.98533333333334 1548.9233333333334 -1.3205405798987135e-17 0.9859248225805882 0.16718924672189736
28.959266666666664 -56.1086 1353.85 0.0 0.0 1.0
170.9333333333333 -90.39999999999999 2992.0 0.0 0.0 1.0
169.0666666666667 -6.3999999999999995 2992.0 0.0 0.0 1.0
64.67253333333333 25.3372 1754.84 0.0 0.0 1.0
167.73333333333332 84.53333333333333 2992.0 0.0 0.0 1.0
167.73333333333332 85.06666666666666 2992.0 0.0 0.0 1.0
28.776566666666668 74.19780000000002 1315.16 0.0 0.0 1.0
169.33333333333334 168.79999999999998 2992.0 0.0 0.0 1.0
61.05643333333333 124.88166666666666 1634.97 0.0 0.0 1.0
27.6044 170.1976666666667 1315.16 0.0 0.0 1.0
101.17649999999999 304.118 2200.0 0.0 0.0 1.0
75.352 -264.733 1862.2433333333336 0.8502279071677462 0.3401252811619275 0.40178016251138404
67.70456666666666 -182.35533333333333 1791.62 0.0 0.0 1.0
70.01010000000001 -165.96166666666667 1807.8499999999997 2.9773498230988127e-27 -7.686111401356319e-28 1.0
70.49346666666668 -164.995 1807.8499999999997 6.146451623641179e-27 1.5378218353186482e-26 1.0
67.70456666666666 -144.67100000000002 1791.62 0.0 0.0 1.0
165.6 -16.8 2992.0 0.0 0.0 1.0
166.9333333333333 -9.333333333333332 2992.0 0.0 0.0 1.0
167.46666666666667 84.53333333333333 2992.0 0.0 0.0 1.0
167.46666666666667 85.06666666666666 2992.0 0.0 0.0 1.0
34.40293333333333 46.30036666666666 1315.16 0.0 0.0 1.0
165.86666666666667 202.13333333333335 2992.0 0.0 0.0 1.0
168.53333333333333 309.8666666666666 2992.0 0.0 0.0 1.0
172.26666666666665 323.7333333333333 2992.0 0.0 0.0 1.0
168.0 350.1333333333334 2992.0 0.0 0.0 1.0
168.0 350.1333333333334 2992.0 0.0 0.0 1.0
165.6 425.3333333333333 2992.0 0.0 0.0 1.0
98.66676666666666 -268.7616666666667 2137.14 0.0 0.0 1.0
67.70456666666666 -182.35533333333333 1791.62 0.0 0.0 1.0
67.70456666666666 -182.35533333333333 1791.62 0.0 0.0 1.0
70.17123333333333 -162.57833333333335 1807.8499999999997 1.3272132365414222e-28 -8.157192596075011e-28 1.0
66.06606666666666 -129.08900000000003 1797.0 0.0 0.0 1.0
164.53333333333333 -190.4 2992.0 0.0 0.0 1.0
63.274233333333335 -105.327 1737.8500000000001 0.3445119689720692 0.8615021882165996 0.37299528540317867
166.66666666666666 -163.46666666666667 2992.0 0.0 0.0 1.0
30.494733333333333 -62.30486666666667 1341.7066666666667 -0.6328374842441179 0.5431468875025428 0.5518225957061526
71.76956666666666 -15.144033333333335 1846.91 0.0 0.0 1.0
167.46666666666667 87.46666666666665 2992.0 0.0 0.0 1.0
164.79999999999998 193.0666666666667 2992.0 0.0 0.0 1.0
165.86666666666667 202.13333333333335 2992.0 0.0 0.0 1.0
50.59460000000001 161.87400000000002 1617.3 0.0 0.0 1.0
51.32456666666667 209.7313333333333 1554.2933333333333 0.041644590768155944 0.9989266147212766 0.020281677969114096
73.70603333333334 -270.14466666666664 1858.39 0.0 0.0 1.0
76.02483333333333 -254.2446666666667 1858.39 0.0 0.0 1.0
96.17286666666666 -269.77233333333334 2134.6066666666666 -0.5225000634862019 -0.7836586691464694 0.33596543561577774
67.63053333333335 -206.26500000000001 1802.41 0.0 0.0 1.0
68.08866666666667 -203.29866666666666 1806.0366666666666 -0.9976124081523375 0.06650749387682095 0.018607427514802297
153.33333333333334 -333.59999999999997 2992.0 0.0 0.0 1.0
164.26666666666665 -192.26666666666665 2992.0 0.0 0.0 1.0
169.06666666666666 -157.33333333333331 2992.0 0.0 0.0 1.0
30.49123333333333 -59.6582 1354.8733333333332 2.4039597159665792e-17 0.27701326958748856 0.9608660928935152
165.06666666666666 -138.9333333333333 2992.0 0.0 0.0 1.0
164.79999999999998 -62.133333333333326 2992.0 0.0 0.0 1.0
166.13333333333333 -59.46666666666667 2992.0 0.0 0.0 1.0
167.73333333333335 -3.1999999999999997 2992.0 0.0 0.0 1.0
160.0 65.06666666666666 2992.0 0.0 0.0 1.0
54.195 36.62766666666667 1663.7633333333333 2.3201935485504386e-15 -0.926322620244011 0.37673120818996375
46.2725 151.77366666666668 1538.3 0.0 0.0 1.0
168.53333333333333 309.8666666666666 2992.0 0.0 0.0 1.0
165.6 425.3333333333333 2992.0 0.0 0.0 1.0
95.23806666666667 -251.619 2137.14 0.0 0.0 1.0
68.90353333333334 -205.99033333333333 1804.2233333333334 0.6821011779249105 0.6820068347467682 0.26382695167883047
69.4294 -135.65566666666666 1797.0 0.0 0.0 1.0
67.2323 -135.91933333333336 1813.33 0.0 0.0 1.0
164.53333333333333 -190.4 2992.0 0.0 0.0 1.0
166.9333333333333 0.5333333333333334 2992.0 0.0 0.0 1.0
166.66666666666666 82.39999999999999 2992.0 0.0 0.0 1.0
162.4 99.73333333333333 2992.0 0.0 0.0 1.0
162.66666666666666 242.4 2992.0 0.0 0.0 1.0
163.46666666666667 366.1333333333334 2992.0 0.0 0.0 1.0
94.5628 -255.697 2121.99 0.0 0.0 1.0
64.85870000000001 -220.92966666666666 1868.0666666666666 0.12368991635349295 -0.939745674957178 0.3187144034896192
66.26746666666666 -186.18766666666667 1791.62 0.0 0.0 1.0
68.34333333333332 -152.814 1791.62 0.0 0.0 1.0
66.9062 -125.18966666666667 1791.62 0.0 0.0 1.0
163.2 -163.73333333333332 2992.0 0.0 0.0 1.0
55.20343333333333 -64.83116666666666 1554.29 0.0 0.0 1.0
166.4 -8.799999999999999 2992.0 0.0 0.0 1.0
163.46666666666667 11.199999999999998 2992.0 0.0 0.0 1.0
163.46666666666667 11.199999999999998 2992.0 0.0 0.0 1.0
54.195 36.62766666666667 1663.7633333333333 -2.513543010929642e-15 -0.926322620244013 0.37673120818995887
169.86666666666667 131.46666666666667 2992.0 0.0 0.0 1.0
167.46666666666667 165.86666666666665 2992.0 0.0 0.0 1.0
164.79999999999998 193.0666666666667 2992.0 0.0 0.0 1.0
165.86666666666665 202.13333333333333 2992.0 0.0 0.0 1.0
162.66666666666666 224.5333333333333 2992.0 0.0 0.0 1.0
157.6 257.8666666666667 2992.0 0.0 0.0 1.0
42.8325 164.56 1550.26 0.0 0.0 1.0
53.070699999999995 167.62800000000001 1615.8466666666666 -0.2029436599805365 0.4244023018924346 0.8824378488154887
31.00363333333333 146.63733333333332 1315.16 0.0 0.0 1.0
157.00833333333333 409.4963333333333 2919.02 0.0 0.0 1.0
157.00833333333333 409.4963333333333 2919.02 0.0 0.0 1.0
163.20000000000002 429.3333333333333 2992.0 0.0 0.0 1.0
92.57143333333333 -280.1903333333334 2137.14 0.0 0.0 1.0
65.30936666666666 -191.45733333333337 1791.62 0.0 0.0 1.0
66.06606666666666 -129.08900000000003 1797.0 0.0 0.0 1.0
66.66666666666667 -117.647 1760.0 0.0 0.0 1.0
60.350966666666665 -104.45066666666666 1736.17 -0.25608536377710694 0.7684217827960196 0.5864710139331131
28.379066666666663 -60.82123333333334 1340.7 -3.46758266507296e-18 -0.9818009183136642 0.1899130242991401
162.9333333333333 -60.800000000000004 2992.0 0.0 0.0 1.0
161.6 22.133333333333336 2992.0 0.0 0.0 1.0
166.13333333333335 89.06666666666666 2992.0 0.0 0.0 1.0
162.4 245.33333333333334 2992.0 0.0 0.0 1.0
50.43476666666667 152.60866666666666 1626.09 0.0 0.0 1.0
70.89026666666666 -272.298 1858.39 0.0 0.0 1.0
66.74649999999998 -193.37333333333333 1791.62 0.0 0.0 1.0
65.62873333333333 -189.22166666666666 1791.62 0.0 0.0 1.0
67.70456666666666 -144.67100000000002 1791.62 0.0 0.0 1.0
67.23230000000001 -135.91933333333336 1813.33 0.0 0.0 1.0
161.60000000000002 -190.9333333333333 2992.0 0.0 0.0 1.0
159.46666666666667 -172.26666666666665 2992.0 0.0 0.0 1.0
38.23293333333333 -46.6506 1441.93 0.0 0.0 1.0
162.93333333333337 -70.13333333333334 2992.0 0.0 0.0 1.0
162.13333333333335 -18.933333333333334 2992.0 0.0 0.0 1.0
161.86666666666665 9.066666666666666 2992.0 0.0 0.0 1.0
161.0666666666667 25.066666666666666 2992.0 0.0 0.0 1.0
64.67253333333333 25.3372 1754.84 0.0 0.0 1.0
162.4 99.73333333333333 2992.0 0.0 0.0 1.0
160.0 118.40000000000002 2992.0 0.0 0.0 1.0
127.90100000000001 371.85200000000003 2770.3700000000003 7.006492321624085e-46 -0.9922778767136676 0.12403473458920843
70.72463333333333 -266.83233333333334 1858.39 0.0 0.0 1.0
92.57143333333333 -280.1903333333333 2137.14 0.0 0.0 1.0
95.23806666666667 -251.619 2137.14 0.0 0.0 1.0
67.23230000000001 -135.91933333333336 1813.33 0.0 0.0 1.0
48.804100000000005 -102.98533333333334 1548.9233333333334 0.0 0.9859248225805882 0.16718924672189736
162.93333333333334 -190.13333333333333 2992.0 0.0 0.0 1.0
25.728933333333334 99.0476 1315.16 0.0 0.0 1.0
155.73333333333335 -444.0 2992.0 0.0 0.0 1.0
70.72463333333333 -266.83233333333334 1858.39 0.0 0.0 1.0
89.90476666666667 -285.905 2137.14 0.0 0.0 1.0
161.60000000000002 -190.9333333333333 2992.0 0.0 0.0 1.0
27.709699999999998 -56.144466666666666 1351.8166666666666 3.449113110525893e-16 -0.9998444630621334 0.017636600692702578
159.20000000000002 -72.0 2992.0 0.0 0.0 1.0
66.21966666666667 -41.18883333333333 1777.43 -0.1876291457016669 0.938205011018824 0.29080347484586705
25.494533333333333 75.48716666666667 1315.16 0.0 0.0 1.0
157.6 210.66666666666666 2992.0 0.0 0.0 1.0
50.869566666666664 151.44933333333336 1626.09 0.0 0.0 1.0
157.00833333333333 409.4963333333333 2919.02 0.0 0.0 1.0
158.93333333333334 434.9333333333334 2992.0 0.0 0.0 1.0
90.4762 -281.52366666666666 2137.14 0.0 0.0 1.0
88.51063333333333 -257.21000000000004 2121.99 0.0 0.0 1.0
65.33736666666667 -160.64433333333332 1807.8499999999997 3.376029568347291e-26 4.536525032554778e-25 1.0
66.06606666666666 -129.08900000000003 1797.0 0.0 0.0 1.0
160.0 -176.5333333333333 2992.0 0.0 0.0 1.0
161.06666666666666 -60.26666666666667 2992.0 0.0 0.0 1.0
161.06666666666666 -60.26666666666667 2992.0 0.0 0.0 1.0
158.13333333333335 -50.666666666666664 2992.0 0.0 0.0 1.0
162.4 99.73333333333333 2992.0 0.0 0.0 1.0
162.93333333333334 110.66666666666667 2992.0 0.0 0.0 1.0
159.20000000000002 114.13333333333333 2992.0 0.0 0.0 1.0
160.0 240.79999999999998 2992.0 0.0 0.0 1.0
50.59459999999999 161.874 1617.3 0.0 0.0 1.0
161.86666666666667 393.8666666666666 2992.0 0.0 0.0 1.0
158.93333333333334 434.9333333333334 2992.0 0.0 0.0 1.0
63.614466666666665 -206.10433333333336 1802.41 0.0 0.0 1.0
158.13333333333333 -166.13333333333333 2992.0 0.0 0.0 1.0
158.13333333333333 -166.13333333333333 2992.0 0.0 0.0 1.0
156.0 -142.93333333333334 2992.0 0.0 0.0 1.0
160.0 7.466666666666668 2992.0 0.0 0.0 1.0
159.2 21.333333333333332 2992.0 0.0 0.0 1.0
159.99999999999997 247.73333333333335 2992.0 0.0 0.0 1.0
68.4058 -271.9666666666667 1858.39 0.0 0.0 1.0
87.61903333333333 -259.8096666666667 2137.14 0.0 0.0 1.0
64.85870000000001 -220.92966666666666 1868.0666666666666 0.12368991635349294 -0.939745674957178 0.3187144034896192
63.855 -123.394 1793.4133333333332 -0.33936101579948524 -0.7919132180100316 0.507649048158802
28.959266666666668 -56.1086 1353.85 0.0 0.0 1.0
57.619033333333334 -14.2857 1780.95 0.0 0.0 1.0
157.6 6.933333333333334 2992.0 0.0 0.0 1.0
24.322366666666667 70.09523333333333 1315.16 0.0 0.0 1.0
42.64383333333333 89.6764 1540.9466666666667 0.4910811764634904 0.31327765754132525 0.8128323242887516
50.43476666666667 152.60866666666666 1626.09 0.0 0.0 1.0
50.43476666666667 152.60866666666666 1626.09 0.0 0.0 1.0
50.59459999999999 161.874 1617.3 0.0 0.0 1.0
89.14286666666665 -274.47599999999994 2137.14 0.0 0.0 1.0
60.518966666666664 -180.12 1791.62 0.0 0.0 1.0
63.0816 -167.57333333333332 1807.8499999999997 8.449696971848027e-28 4.6090122881797e-28 1.0
62.43710000000001 -164.35033333333334 1807.8499999999997 3.4046580859531544e-28 -1.3651041864454794e-26 1.0
62.87773333333333 -141.43733333333333 1795.2066666666667 0.8935741551337796 0.27495359730253255 0.35486018177212925
61.1385 -138.57966666666667 1793.4133333333332 0.40715745433762496 -0.8143574094533659 0.413575648516336
63.855 -123.394 1793.4133333333332 -0.3393610157994855 -0.7919132180100317 0.5076490481588017
160.0 -176.53333333333333 2992.0 0.0 0.0 1.0
160.0 -117.33333333333333 2992.0 0.0 0.0 1.0
156.53333333333333 -50.93333333333334 2992.0 0.0 0.0 1.0
157.06666666666666 -37.6 2992.0 0.0 0.0 1.0
155.73333333333335 -36.0 2992.0 0.0 0.0 1.0
158.13333333333333 13.866666666666667 2992.0 0.0 0.0 1.0
158.4 25.86666666666667 2992.0 0.0 0.0 1.0
155.73333333333332 64.00000000000001 2992.0 0.0 0.0 1.0
160.0 118.40000000000002 2992.0 0.0 0.0 1.0
24.322366666666667 70.09523333333334 1315.16 0.0 0.0 1.0
155.46666666666667 213.0666666666667 2992.0 0.0 0.0 1.0
157.06666666666663 249.6 2992.0 0.0 0.0 1.0
23.150199999999998 170.43200000000002 1315.16 0.0 0.0 1.0
62.43710000000001 -164.35033333333334 1807.8499999999997 3.4046580859531544e-28 -1.3651041864454794e-26 1.0
62.5948 -155.529 1791.62 0.0 0.0 1.0
156.53333333333333 -150.93333333333337 2992.0 0.0 0.0 1.0
156.0 -142.93333333333334 2992.0 0.0 0.0 1.0
38.23293333333333 -46.6506 1441.93 0.0 0.0 1.0
156.53333333333333 -50.93333333333334 2992.0 0.0 0.0 1.0
155.20000000000002 -19.2 2992.0 0.0 0.0 1.0
155.73333333333332 64.00000000000001 2992.0 0.0 0.0 1.0
152.53333333333333 143.46666666666667 2992.0 0.0 0.0 1.0
41.611 149.71733333333336 1538.3 0.0 0.0 1.0
41.33676666666667 150.53966666666668 1538.3 0.0 0.0 1.0
153.86666666666667 371.2 2992.0 0.0 0.0 1.0
66.58386666666667 -270.64166666666665 1858.39 0.0 0.0 1.0
68.83906666666667 -210.80766666666668 1815.1766666666665 1.3778897663296591e-17 0.8571486449407829 0.5150691220372076
60.67863333333333 -182.03599999999997 1791.62 0.0 0.0 1.0
56.5024 -103.88433333333334 1734.49 0.0 0.0 1.0
158.13333333333333 -166.13333333333335 2992.0 0.0 0.0 1.0
156.53333333333333 -150.93333333333337 2992.0 0.0 0.0 1.0
55.348833333333324 -89.76746666666666 1739.53 0.0 0.0 1.0
25.778766666666666 -55.788199999999996 1354.8733333333332 -7.37727700226781e-16 -0.9543183273599563 0.29879178379750576
156.26666666666668 -52.53333333333334 2992.0 0.0 0.0 1.0
155.73333333333335 -36.0 2992.0 0.0 0.0 1.0
152.79999999999998 52.79999999999999 2992.0 0.0 0.0 1.0
52.097033333333336 43.37263333333333 1701.6133333333335 -0.1347516154227719 0.8083911253431223 0.5730146513025945
23.38463333333333 69.74356666666667 1315.16 0.0 0.0 1.0
156.53333333333333 202.4 2992.0 0.0 0.0 1.0
41.611 149.71733333333336 1538.3 0.0 0.0 1.0
153.86666666666667 353.3333333333333 2992.0 0.0 0.0 1.0
153.6 398.6666666666667 2992.0 0.0 0.0 1.0
108.51350000000001 314.25533333333334 2292.9933333333333 1.9145857566418104e-16 0.9964971937072232 0.0836262096093596
158.93333333333334 434.93333333333334 2992.0 0.0 0.0 1.0
63.0816 -167.57333333333332 1807.8499999999997 8.449696971848024e-28 4.6090122881797e-28 1.0
63.40383333333333 -161.611 1807.8499999999997 -9.877187894990027e-28 9.87567988105633e-28 1.0
63.081566666666674 -159.19400000000002 1807.8499999999997 1.9205343471853613e-28 -5.762149384194757e-28 1.0
156.53333333333333 -50.93333333333334 2992.0 0.0 0.0 1.0
57.142833333333336 -19.206366666666668 1780.95 0.0 0.0 1.0
156.26666666666665 5.6000000000000005 2992.0 0.0 0.0 1.0
156.26666666666668 5.6000000000000005 2992.0 0.0 0.0 1.0
157.33333333333334 24.0 2992.0 0.0 0.0 1.0
156.0 79.46666666666665 2992.0 0.0 0.0 1.0
49.338366666666666 46.445166666666665 1669.9566666666667 -0.02871759264856941 -0.3446303896476666 0.9382990964526016
151.46666666666667 96.0 2992.0 0.0 0.0 1.0
153.33333333333334 244.0 2992.0 0.0 0.0 1.0
154.39999999999998 255.4666666666667 2992.0 0.0 0.0 1.0
46.425466666666665 161.578 1610.08 -0.5816849595287645 0.8092145056548249 0.08254993455985736
42.8325 164.56 1550.26 0.0 0.0 1.0
23.73623333333333 152.0293333333333 1315.16 0.0 0.0 1.0
151.73333333333335 344.0 2992.0 0.0 0.0 1.0
153.86666666666667 371.2 2992.0 0.0 0.0 1.0
154.9333333333333 394.93333333333334 2992.0 0.0 0.0 1.0
154.13333333333333 437.3333333333333 2992.0 0.0 0.0 1.0
155.73333333333332 -444.0 2992.0 0.0 0.0 1.0
87.80953333333333 -281.9046666666666 2137.14 0.0 0.0 1.0
59.560900000000004 -189.54133333333334 1791.62 0.0 0.0 1.0
59.560900000000004 -188.26366666666664 1791.62 0.0 0.0 1.0
59.401199999999996 -139.401 1791.62 0.0 0.0 1.0
60.15786666666667 -138.07899999999998 1795.2066666666667 0.35932224720363476 -0.8386845567277768 0.4092624304414743
66.66666666666667 -117.647 1760.0 0.0 0.0 1.0
159.20000000000002 -72.0 2992.0 0.0 0.0 1.0
154.66666666666666 -34.13333333333333 2992.0 0.0 0.0 1.0
58.72923333333333 24.868033333333333 1754.84 0.0 0.0 1.0
54.195 36.62766666666667 1663.7633333333333 -1.78848252700763e-15 -0.9263226202440127 0.3767312081899596
22.212466666666668 59.54579999999999 1315.16 0.0 0.0 1.0
152.0 170.9333333333333 2992.0 0.0 0.0 1.0
155.46666666666667 213.0666666666667 2992.0 0.0 0.0 1.0
155.46666666666667 213.0666666666667 2992.0 0.0 0.0 1.0
155.73333333333332 252.53333333333333 2992.0 0.0 0.0 1.0
49.27536666666666 149.71 1626.09 0.0 0.0 1.0
47.885799999999996 154.06766666666667 1623.1499999999999 -0.8683194676249529 -3.4083121793726514e-16 0.4960053448739423
47.885799999999996 154.06766666666667 1623.1499999999999 -0.8683194676249529 -3.4083121793726514e-16 0.4960053448739423
41.33676666666667 150.53966666666668 1538.3 0.0 0.0 1.0
44.01083333333333 163.902 1621.68 0.0 0.0 1.0
21.1575 165.27466666666666 1315.16 0.0 0.0 1.0
65.25883333333333 -269.97933333333333 1858.39 0.0 0.0 1.0
63.09063333333334 -254.01133333333334 1860.3166666666668 -0.7912707272439596 -0.43960467840733836 0.42501572080241434
86.47616666666666 -258.0953333333334 2137.14 0.0 0.0 1.0
86.47616666666666 -258.0953333333334 2137.14 0.0 0.0 1.0
59.08183333333333 -156.80666666666667 1791.62 0.0 0.0 1.0
63.5035 -129.89000000000001 1797.0 0.0 0.0 1.0
152.26666666666665 -116.0 2992.0 0.0 0.0 1.0
155.73333333333335 -36.0 2992.0 0.0 0.0 1.0
53.9187 44.80983333333334 1721.2666666666667 0.1610255439291983 -0.9662229113018127 0.20120651052526897
47.4227 71.7526 1542.2699999999998 0.0 0.0 1.0
152.79999999999998 238.4 2992.0 0.0 0.0 1.0
154.13333333333333 246.4 2992.0 0.0 0.0 1.0
154.39999999999998 255.4666666666667 2992.0 0.0 0.0 1.0
152.53333333333333 327.2 2992.0 0.0 0.0 1.0
153.86666666666667 353.3333333333333 2992.0 0.0 0.0 1.0
23.150199999999998 170.43200000000002 1315.16 0.0 0.0 1.0
65.0932 -271.3043333333333 1858.39 0.0 0.0 1.0
84.19046666666667 -302.0953333333333 2137.14 0.0 0.0 1.0
87.42856666666667 -287.80966666666666 2137.14 0.0 0.0 1.0
154.66666666666666 -340.8 2992.0 0.0 0.0 1.0
59.5609 -189.54133333333334 1791.62 0.0 0.0 1.0
60.825799999999994 -163.54466666666667 1807.8499999999997 -2.762356143225232e-27 -7.231660883525138e-27 1.0
24.507833333333334 -62.06516666666667 1341.7066666666667 0.5653005763323186 0.04835276039882731 0.8234666167855028
60.70590000000001 -59.92156666666667 1760.0 0.0 0.0 1.0
65.82733333333333 -15.495700000000001 1848.8166666666666 -2.7194901622670683e-17 0.5178201149986951 0.8554895256534344
153.60000000000002 15.200000000000001 2992.0 0.0 0.0 1.0
54.50633333333334 22.522000000000002 1754.84 0.0 0.0 1.0
152.0 58.133333333333326 2992.0 0.0 0.0 1.0
52.097033333333336 43.37263333333333 1701.6133333333335 -0.13475161542277156 0.8083911253431224 0.5730146513025943
152.53333333333333 122.39999999999999 2992.0 0.0 0.0 1.0
21.39193333333333 57.318666666666665 1315.16 0.0 0.0 1.0
150.66666666666666 196.0 2992.0 0.0 0.0 1.0
152.53333333333333 327.2 2992.0 0.0 0.0 1.0
23.150199999999998 170.43200000000002 1315.16 0.0 0.0 1.0
47.3889 209.67866666666666 1556.9833333333333 9.537878625046341e-18 0.9974861980058437 0.07086102446229874
155.73333333333332 -444.0 2992.0 0.0 0.0 1.0
64.5963 -270.642 1858.39 0.0 0.0 1.0
86.47616666666666 -258.0953333333334 2137.14 0.0 0.0 1.0
59.5609 -189.54133333333334 1791.62 0.0 0.0 1.0
55.348833333333324 -89.76746666666666 1739.53 0.0 0.0 1.0
153.6 -141.60000000000002 2992.0 0.0 0.0 1.0
154.4 -140.53333333333333 2992.0 0.0 0.0 1.0
150.9333333333333 -108.8 2992.0 0.0 0.0 1.0
62.91973333333334 -48.851499999999994 1773.9166666666667 0.48428807808111585 -0.19730045150001013 0.8523717435874979
154.4 -52.800000000000004 2992.0 0.0 0.0 1.0
57.77776666666667 -14.920633333333333 1780.95 0.0 0.0 1.0
55.57816666666667 20.662666666666667 1756.5600000000002 0.0 0.7777416494767992 0.6285840649182156
152.53333333333333 143.46666666666667 2992.0 0.0 0.0 1.0
23.38463333333333 69.74356666666667 1315.16 0.0 0.0 1.0
152.0 170.9333333333333 2992.0 0.0 0.0 1.0
42.8325 164.56 1550.26 0.0 0.0 1.0
150.93333333333334 352.0 2992.0 0.0 0.0 1.0
152.889 389.333 2849.52 0.0 0.0 1.0
152.26666666666668 430.6666666666667 2992.0 0.0 0.0 1.0
83.63203333333333 -317.1326666666667 2144.8 0.0 0.0 1.0
84.38096666666667 -268.95233333333334 2137.14 0.0 0.0 1.0
86.2857 -256.95266666666663 2137.14 0.0 0.0 1.0
58.443099999999994 -185.54866666666666 1791.62 0.0 0.0 1.0
57.603199999999994 -149.52700000000002 1807.8499999999997 -1.1315062867978055e-26 -2.392072022190698e-26 1.0
36.779500000000006 -98.32156666666667 1569.2300000000002 3.3233286067059513e-17 -0.9992279136445392 0.03928837733453884
22.798533333333335 71.50183333333332 1315.16 0.0 0.0 1.0
150.66666666666666 196.0 2992.0 0.0 0.0 1.0
153.33333333333331 244.0 2992.0 0.0 0.0 1.0
47.74356666666667 161.5856666666667 1615.8466666666666 -0.32193495378316533 -0.6429777090801119 0.6949370843167907
149.6 330.40000000000003 2992.0 0.0 0.0 1.0
150.66666666666666 332.2666666666667 2992.0 0.0 0.0 1.0
127.90100000000001 371.85200000000003 2770.3700000000003 7.006492321624085e-46 -0.9922778767136676 0.12403473458920843
154.13333333333333 437.3333333333333 2992.0 0.0 0.0 1.0
83.63203333333333 -317.1326666666667 2144.8 0.0 0.0 1.0
81.71426666666666 -298.6666666666667 2137.14 0.0 0.0 1.0
60.28986666666666 -254.2446666666667 1858.39 0.0 0.0 1.0
84.0 -282.66633333333334 2137.14 0.0 0.0 1.0
84.38096666666667 -268.95233333333334 2137.14 0.0 0.0 1.0
59.73526666666667 -206.79366666666667 1804.2233333333334 0.09052873814210022 0.995665864396067 -0.021308074686199083
56.84633333333333 -180.91833333333332 1791.62 0.0 0.0 1.0
55.348833333333324 -89.76746666666666 1739.53 0.0 0.0 1.0
146.4 -60.800000000000004 2992.0 0.0 0.0 1.0
153.6 4.533333333333334 2992.0 0.0 0.0 1.0
150.13333333333335 17.866666666666667 2992.0 0.0 0.0 1.0
149.33333333333334 98.13333333333334 2992.0 0.0 0.0 1.0
21.39193333333333 57.318666666666665 1315.16 0.0 0.0 1.0
20.337 96.70330000000001 1315.16 0.0 0.0 1.0
151.73333333333332 344.0 2992.0 0.0 0.0 1.0
83.42856666666667 -286.857 2137.14 0.0 0.0 1.0
84.1905 -270.47600000000006 2137.14 0.0 0.0 1.0
58.569966666666666 -170.47333333333333 1807.8499999999997 0.0 0.0 1.0
58.89226666666667 -164.028 1807.8499999999997 2.559049108107936e-28 1.408854754385521e-27 1.0
54.003366666666665 -104.91433333333333 1736.17 -4.808104181178091e-17 0.9476061526186471 0.31944104232124804
151.20000000000002 -168.79999999999998 2992.0 0.0 0.0 1.0
148.26666666666665 -87.2 2992.0 0.0 0.0 1.0
152.8 52.800000000000004 2992.0 0.0 0.0 1.0
147.20000000000002 165.86666666666665 2992.0 0.0 0.0 1.0
150.4 169.0666666666667 2992.0 0.0 0.0 1.0
149.86666666666667 236.53333333333333 2992.0 0.0 0.0 1.0
146.93333333333334 280.8 2992.0 0.0 0.0 1.0
149.6 330.40000000000003 2992.0 0.0 0.0 1.0
151.73333333333332 344.0 2992.0 0.0 0.0 1.0
147.73333333333335 372.5333333333333 2992.0 0.0 0.0 1.0
154.9333333333333 394.93333333333334 2992.0 0.0 0.0 1.0
89.01456666666665 304.295 2202.7066666666665 4.7516002559655466e-17 -0.9978686400423766 0.06525471032789609
84.38096666666667 -268.95233333333334 2137.14 0.0 0.0 1.0
88.51063333333333 -257.21000000000004 2121.99 0.0 0.0 1.0
55.888233333333325 -182.35533333333333 1791.62 0.0 0.0 1.0
57.603199999999994 -149.52700000000002 1807.8499999999997 -1.1315062867978055e-26 -2.392072022190698e-26 1.0
57.41743333333333 -139.33933333333334 1797.0 0.0 0.0 1.0
148.26666666666668 -87.2 2992.0 0.0 0.0 1.0
65.82733333333333 -15.4957 1848.8166666666668 0.0 0.5178201149986951 0.8554895256534344
53.9187 44.80983333333334 1721.2666666666667 0.16102554392919832 -0.9662229113018126 0.20120651052526894
149.33333333333334 98.13333333333333 2992.0 0.0 0.0 1.0
149.33333333333334 98.13333333333334 2992.0 0.0 0.0 1.0
21.39193333333333 57.318666666666665 1315.16 0.0 0.0 1.0
149.0666666666667 144.79999999999998 2992.0 0.0 0.0 1.0
150.4 208.0 2992.0 0.0 0.0 1.0
39.96573333333333 151.225 1538.3 0.0 0.0 1.0
19.750899999999998 165.39166666666665 1315.16 0.0 0.0 1.0
147.73333333333335 430.40000000000003 2992.0 0.0 0.0 1.0
56.6866 -184.431 1791.62 0.0 0.0 1.0
54.12696666666667 -173.8096666666667 1780.95 0.0 0.0 1.0
145.06666666666666 -163.46666666666667 2992.0 0.0 0.0 1.0
54.50633333333334 22.522000000000002 1754.84 0.0 0.0 1.0
149.86666666666665 78.66666666666667 2992.0 0.0 0.0 1.0
52.097033333333336 43.37263333333333 1701.6133333333335 -0.13475161542277156 0.8083911253431223 0.5730146513025943
148.0 195.20000000000002 2992.0 0.0 0.0 1.0
148.26666666666668 203.20000000000002 2992.0 0.0 0.0 1.0
149.33333333333334 257.8666666666667 2992.0 0.0 0.0 1.0
146.93333333333334 283.2 2992.0 0.0 0.0 1.0
42.854533333333336 166.0703333333333 1621.68 0.0 0.0 1.0
149.6 330.40000000000003 2992.0 0.0 0.0 1.0
145.86666666666667 363.2 2992.0 0.0 0.0 1.0
146.93333333333334 364.79999999999995 2992.0 0.0 0.0 1.0
147.73333333333335 372.5333333333333 2992.0 0.0 0.0 1.0
58.89226666666667 -164.02800000000002 1807.8499999999997 1.280858176528627e-27 -3.33018614162996e-27 1.0
54.003366666666665 -104.91433333333333 1736.17 -3.4343601294129224e-17 0.9476061526186471 0.31944104232124804
18.164199999999997 -52.546099999999996 1390.63 5.77824845671808e-17 -0.9996093482324974 0.027949077376580492
148.26666666666665 -108.8 2992.0 0.0 0.0 1.0
147.73333333333332 -52.26666666666667 2992.0 0.0 0.0 1.0
146.13333333333335 21.600000000000005 2992.0 0.0 0.0 1.0
54.50633333333334 22.522000000000002 1754.84 0.0 0.0 1.0
152.26666666666668 62.93333333333334 2992.0 0.0 0.0 1.0
146.93333333333334 121.86666666666667 2992.0 0.0 0.0 1.0
149.6 349.06666666666666 2992.0 0.0 0.0 1.0
19.750899999999998 165.39166666666665 1315.16 0.0 0.0 1.0
81.71426666666666 -298.6666666666667 2137.14 0.0 0.0 1.0
60.28986666666666 -254.2446666666667 1858.39 0.0 0.0 1.0
55.888233333333325 -182.35533333333333 1791.62 0.0 0.0 1.0
55.88823333333334 -156.80666666666667 1791.62 0.0 0.0 1.0
57.781866666666666 -139.21966666666665 1793.4133333333332 -0.09710212767834525 -0.9711023641552384 0.21801691478517266
19.432199999999998 -63.92876666666667 1345.7300000000002 -0.38398537080641526 -0.9215392595846901 0.057624890895865054
20.740733333333335 -55.1474 1356.92 0.0 0.0 1.0
146.66666666666669 -87.73333333333333 2992.0 0.0 0.0 1.0
145.6 -14.666666666666666 2992.0 0.0 0.0 1.0
145.6 -14.666666666666666 2992.0 0.0 0.0 1.0
149.86666666666665 78.66666666666667 2992.0 0.0 0.0 1.0
148.00000000000003 97.33333333333333 2992.0 0.0 0.0 1.0
146.13333333333335 146.9333333333333 2992.0 0.0 0.0 1.0
21.7436 69.1575 1315.16 0.0 0.0 1.0
147.20000000000002 165.86666666666667 2992.0 0.0 0.0 1.0
149.86666666666667 214.13333333333335 2992.0 0.0 0.0 1.0
149.86666666666667 236.53333333333333 2992.0 0.0 0.0 1.0
145.6 257.06666666666666 2992.0 0.0 0.0 1.0
44.01083333333333 163.902 1621.68 0.0 0.0 1.0
148.00000000000003 324.2666666666667 2992.0 0.0 0.0 1.0
89.20206666666667 315.4493333333333 2337.57 2.522068556126977e-17 -0.9104729894432559 0.41356853784380243
105.13316666666667 319.61466666666666 2346.74 2.0126332619755794e-16 -0.9104729894432562 0.4135685378438024
61.283633333333334 -269.317 1858.39 0.0 0.0 1.0
60.10406666666666 -267.43766666666664 1860.3166666666668 -0.9602792728557515 -0.16001434295172076 0.22860255504555993
145.86666666666665 -340.8 2992.0 0.0 0.0 1.0
55.3688 -205.06866666666667 1806.0366666666669 0.615776909007094 0.7525187268610712 0.2335259387242913
55.72853333333333 -183.3133333333333 1791.62 0.0 0.0 1.0
50.9381 -122.31566666666667 1791.62 0.0 0.0 1.0
144.26666666666665 -192.53333333333333 2992.0 0.0 0.0 1.0
148.0 -116.0 2992.0 0.0 0.0 1.0
54.54286666666667 -42.718333333333334 1843.1233333333337 -0.6611951102231538 -0.03673250898221448 0.7493141857731395
144.79999999999998 -35.46666666666667 2992.0 0.0 0.0 1.0
49.338366666666666 46.445166666666665 1669.9566666666667 -0.028717592648569316 -0.34463038964766657 0.9382990964526016
146.13333333333333 139.2 2992.0 0.0 0.0 1.0
147.20000000000002 165.86666666666667 2992.0 0.0 0.0 1.0
44.01083333333333 163.902 1621.68 0.0 0.0 1.0
142.13333333333333 310.93333333333334 2992.0 0.0 0.0 1.0
37.55603333333334 164.03333333333333 1561.08 -6.698539835521815e-17 0.9988174588594063 0.048617732131788154
147.73333333333335 372.5333333333333 2992.0 0.0 0.0 1.0
61.283633333333334 -269.317 1858.39 0.0 0.0 1.0
54.45113333333333 -179.4813333333333 1791.62 0.0 0.0 1.0
52.85713333333334 -173.33333333333334 1780.95 0.0 0.0 1.0
51.87876666666667 -134.626 1813.33 0.0 0.0 1.0
31.68733333333333 -101.38799999999999 1533.1033333333332 3.230809816086377e-17 0.9962352785101481 0.08669065608130855
144.26666666666668 -192.53333333333333 2992.0 0.0 0.0 1.0
148.0 -116.0 2992.0 0.0 0.0 1.0
31.042833333333334 -49.20883333333333 1476.3166666666666 -4.123147969925442e-17 -0.768152084686781 0.6402674244340036
145.33333333333334 -91.73333333333333 2992.0 0.0 0.0 1.0
145.33333333333334 -91.73333333333333 2992.0 0.0 0.0 1.0
144.8 -86.39999999999999 2992.0 0.0 0.0 1.0
145.33333333333334 -53.86666666666667 2992.0 0.0 0.0 1.0
144.79999999999998 -35.46666666666667 2992.0 0.0 0.0 1.0
144.79999999999998 195.73333333333335 2992.0 0.0 0.0 1.0
146.4 325.33333333333337 2992.0 0.0 0.0 1.0
144.53333333333333 367.46666666666664 2992.0 0.0 0.0 1.0
19.750899999999998 165.39166666666668 1315.16 0.0 0.0 1.0
33.66576666666667 207.45400000000004 1570.5999999999997 -3.503246160812043e-46 0.9922778767136676 0.12403473458920843
148.09533333333334 372.143 2671.43 0.0 0.0 1.0
82.85713333333332 -284.7616666666667 2137.14 0.0 0.0 1.0
78.66666666666667 -264.762 2137.14 0.0 0.0 1.0
53.81236666666667 -188.58266666666668 1791.62 0.0 0.0 1.0
