ply
format ascii 1.0
comment VCGLIB generated
element vertex 635
property float x
property float y
property float z
property float nx
property float ny
property float nz
element face 0
property list uchar int vertex_indices
end_header
-120.08333333333333 35.912499999999994 1756.58 0.9448982564034544 -0.32549518752532014 -0.03493090241560581
-119.63566666666668 32.13113333333333 1634.97 0.0 0.0 1.0
-127.46666666666665 41.86666666666667 1994.67 0.0 0.0 1.0
-115.19733333333333 33.6458 1659.1533333333334 4.5465284964704676e-14 -0.5385008084442527 0.8426249932828281
-111.51633333333332 33.14743333333333 1354.8799999999999 -0.0004591976055535049 -0.9997001988907644 0.024480634700208233
-129.0666666666667 79.02223333333335 1994.67 0.0 0.0 1.0
-116.55833333333332 81.23110000000001 1530.4399999999998 0.9295494390418477 0.30959462989454967 0.20022239015016008
-116.55833333333332 81.23110000000001 1530.4399999999998 0.9295494390418477 0.30959462989454956 0.2002223901501602
-117.59566666666667 89.54463333333335 1634.97 0.0 0.0 1.0
-120.30666666666666 -119.92333333333333 1719.54 0.0 0.0 1.0
-120.30666666666666 -119.92333333333333 1719.54 0.0 0.0 1.0
-121.10799999999999 -103.99266666666666 1714.61 0.0 0.0 1.0
-120.344 -102.61733333333332 1714.61 0.0 0.0 1.0
-120.344 -101.54733333333333 1714.61 0.0 0.0 1.0
-120.344 -101.54733333333333 1714.61 0.0 0.0 1.0
-120.613 -96.32183333333334 1719.54 0.0 0.0 1.0
-120.656 -94.22273333333334 1734.5 -0.891391790429927 -0.44643199279212664 0.07822500729165677
-120.22866666666668 -73.06666666666666 1709.71 0.0 0.0 1.0
-119.16199999999999 -64.2286 1709.71 0.0 0.0 1.0
-119.57966666666665 -63.34290000000001 1714.61 0.0 0.0 1.0
-123.28266666666667 -41.41843333333333 1818.84 0.0 0.0 1.0
-122.27633333333331 -33.902433333333335 1824.39 0.0 0.0 1.0
-123.252 -24.1463 1824.39 0.0 0.0 1.0
-123.317 -17.900586666666666 1883.7533333333333 0.8020002459506539 0.3436722346860509 0.48855398944332284
-123.60666666666667 -9.483273333333335 1818.84 0.0 0.0 1.0
-118.65566666666666 5.885556666666666 1630.5199999999998 1.5936643750056891e-27 -1.0625200874719194e-27 1.0
-118.65566666666666 5.885556666666666 1630.5199999999998 1.5936643750056871e-27 -1.0625200874719181e-27 1.0
-111.51633333333332 33.14743333333333 1354.8799999999999 -0.00045919760555239805 -0.9997001988907644 0.024480634700208167
-126.57766666666667 51.64443333333333 1994.67 0.0 0.0 1.0
-118.46999999999998 74.97269999999999 1634.97 0.0 0.0 1.0
-123.58433333333333 97.4301 1964.176666666667 0.2833078259772781 -0.9441117294548508 0.16849248661527644
-126.695 98.0607 1977.1000000000001 -1.9265855883317752e-17 0.9818499847859125 0.18965918742814242
-119.89633333333335 89.5758 1604.2966666666664 0.7308963968055513 0.3916795125101428 0.5589075206297359
-118.17866666666667 98.8707 1634.97 0.0 0.0 1.0
-118.17866666666667 98.8707 1634.97 0.0 0.0 1.0
-117.30400000000002 104.84499999999998 1634.97 0.0 0.0 1.0
-118.907 108.92533333333334 1634.97 0.0 0.0 1.0
-113.52733333333333 93.24386666666668 1338.7 0.0 0.0 1.0
-119.19833333333334 115.19133333333333 1634.97 0.0 0.0 1.0
-116.86836666666666 109.06033333333333 1563.8100000000002 0.5067309424291759 0.2540742220360989 0.823814324761102
-117.44500000000001 -108.18566666666668 1539.6366666666665 0.20833019770667421 -0.849069674281728 0.48546803904955343
-130.90800000000002 -135.95533333333333 1990.25 0.12776399512381217 -0.478919761693536 0.8685114987203159
-120.69433333333335 -95.48693333333334 1729.49 0.9458949268924297 0.3152129604827443 -0.07696477650762665
-111.907 -88.20203333333332 1673.07 -0.0701410483076486 0.9469316153671713 0.3136889369429908
-120.68599999999999 -73.52383333333333 1709.71 0.0 0.0 1.0
-119.16199999999999 -64.2286 1709.71 0.0 0.0 1.0
-117.48633333333333 -48.71453333333333 1737.8500000000001 0.08867192191253795 0.798066362343329 0.5960095398233347
-123.28266666666667 -41.41843333333333 1818.84 0.0 0.0 1.0
-122.92666666666666 -39.2683 1824.39 0.0 0.0 1.0
-122.79633333333334 -20.992933333333337 1818.84 0.0 0.0 1.0
-123.769 -10.7801 1818.84 0.0 0.0 1.0
-118.94633333333333 3.7057199999999995 1630.5199999999998 2.549638814955631e-26 -7.9687178715597275e-28 1.0
-118.94633333333333 3.70572 1630.5199999999998 2.549638814955631e-26 4.431677361762974e-43 1.0
-120.26433333333334 21.617366666666666 1666.86 0.8339120745107846 -0.2774874997229793 0.477065340894315
-116.50466666666667 23.815299999999997 1685.6433333333334 -0.38391101735222966 -0.8366596913898154 0.39065699988490504
-128.178 39.2 1994.67 0.0 0.0 1.0
-118.76133333333333 46.26593333333333 1634.97 0.0 0.0 1.0
-112.98899999999999 48.4066 1423.6333333333334 -0.08551647950244692 -0.9406812745269152 0.32833773996896215
-118.76133333333333 77.5956 1634.97 0.0 0.0 1.0
-126.93333333333334 105.15533333333333 1994.67 0.0 0.0 1.0
-119.78166666666665 107.32233333333333 1634.97 0.0 0.0 1.0
-129.14933333333332 -134.70633333333333 1848.8666666666668 0.20336429321457672 -0.9608669204584648 0.18808967386329786
-120.766 -109.19533333333334 1719.54 0.0 0.0 1.0
-120.766 -109.19533333333334 1719.54 0.0 0.0 1.0
-121.339 -95.00510000000001 1717.8966666666665 -0.9395971630619694 -0.2682978476429157 0.2125404340733257
-122.95166666666667 -84.29473333333334 1721.1933333333334 -0.1783305163615397 -0.9509926622846755 0.25260875522224396
-111.54766666666667 -61.011900000000004 1335.71 0.0 0.0 1.0
-111.54766666666667 -61.011900000000004 1335.71 0.0 0.0 1.0
-120.11399999999999 -77.113 1704.84 0.0 0.0 1.0
-124.8 -86.13333333333333 1994.67 0.0 0.0 1.0
-121.14299999999999 -74.13336666666667 1709.71 0.0 0.0 1.0
-120.038 -60.43933333333333 1714.61 0.0 0.0 1.0
-123.05533333333334 -58.922 1626.0966666666666 0.30808717871868085 0.36996644115664457 0.8764742567394952
-124.55266666666667 -56.5041 1824.39 0.0 0.0 1.0
-124.06466666666667 -55.85366666666667 1824.39 0.0 0.0 1.0
-123.72366666666666 -51.65166666666667 1797.0 0.0 0.0 1.0
-123.28266666666667 -41.41843333333333 1818.84 0.0 0.0 1.0
-124.065 -38.4553 1824.39 0.0 0.0 1.0
-123.73966666666666 -25.284533333333332 1824.39 0.0 0.0 1.0
-124.41766666666668 -22.28976666666667 1818.84 0.0 0.0 1.0
-121.30066666666666 -19.593500000000002 1824.39 0.0 0.0 1.0
-123.931 -12.239066666666666 1818.84 0.0 0.0 1.0
-123.769 -10.7801 1818.84 0.0 0.0 1.0
-123.60666666666667 -9.483273333333335 1818.84 0.0 0.0 1.0
-118.94633333333333 3.70572 1630.5199999999998 2.549638814955631e-26 0.0 1.0
-118.801 5.013623333333333 1630.5199999999998 -1.133177138695009e-26 2.8331702800073947e-27 1.0
-133.511 15.911133333333334 1994.67 0.0 0.0 1.0
-123.649 28.81376666666667 1724.506666666667 -0.7139268575568487 -0.6665221839090042 -0.21460806232798882
-114.95899999999999 35.148900000000005 1431.5933333333332 -0.9773777507817922 0.19554721667556144 0.08058547218429415
-115.34466666666667 47.52450000000001 1431.5933333333332 0.8777510677003771 -0.47893968036438644 -0.013032487226442001
-120.39533333333333 61.3056 1601.4366666666665 0.7347939833156806 0.678212580181805 -0.01027123002439326
-123.52466666666665 67.04983333333334 1719.54 0.0 0.0 1.0
-118.46999999999998 74.97269999999999 1634.97 0.0 0.0 1.0
-118.22866666666668 95.48883333333333 1871.9766666666667 0.8343081423397684 -0.12011807903024681 0.5380535017223179
-113.09266666666667 77.12903333333333 1321.0600000000002 0.9709073504042407 0.15621846163132536 0.18147922519274476
-120.36433333333333 93.62476666666667 1634.97 0.0 0.0 1.0
-118.51033333333334 107.61133333333333 1630.5199999999998 -1.5291951369975645e-27 -1.0880811551713472e-27 1.0
-119.63566666666667 109.50833333333333 1634.97 0.0 0.0 1.0
-113.52733333333333 93.24386666666668 1338.7 0.0 0.0 1.0
-118.907 114.60833333333333 1634.97 0.0 0.0 1.0
-130.489 143.55566666666667 1994.67 0.0 0.0 1.0
-123.55933333333333 -118.248 1744.6466666666665 0.7899151616374388 0.4613466183488839 0.4039719484733417
-123.65166666666669 -110.57600000000001 1595.74 -0.3885929161366395 -0.6227698390313073 0.6790826703144045
-120.80233333333332 -113.31400000000001 1714.61 0.0 0.0 1.0
-122.33066666666666 -95.5874 1714.61 0.0 0.0 1.0
-118.182 -89.16666666666667 1700.0 0.0 0.0 1.0
-121.14299999999999 -74.13336666666667 1709.71 0.0 0.0 1.0
-121.53533333333333 -61.68526666666666 1719.55 0.6964721742191599 0.6968356127740601 0.17130860838917666
-119.03333333333335 -58.81496666666667 1494.756666666667 -0.952450213945983 0.2993414958115941 -0.05686175199136929
-124.06466666666667 -55.85366666666667 1824.39 0.0 0.0 1.0
-123.72366666666666 -51.651666666666664 1797.0 0.0 0.0 1.0
-124.878 -42.845499999999994 1824.39 0.0 0.0 1.0
-118.819 -35.94246666666667 1837.4633333333331 0.6850632606760698 0.513832340742417 0.5163958311983551
-121.33366666666666 -30.5988 1782.7466666666667 0.2635868413822189 0.7314050012154913 0.6289425261874984
-124.39033333333333 -24.1463 1824.39 0.0 0.0 1.0
-120.46233333333333 -11.89673 1868.0666666666666 0.696278189661661 -0.5569938685473337 0.4527190221342102
-124.57933333333334 -13.211733333333333 1818.84 0.0 0.0 1.0
-124.25533333333334 -10.7801 1818.84 0.0 0.0 1.0
-121.04966666666667 -3.1875633333333333 1744.61 0.0 0.0 1.0
-118.801 7.048136666666667 1630.5199999999998 -2.467018264570606e-26 -1.3103342144175293e-26 1.0
-119.08133333333335 20.4225 1654.5666666666666 0.47254235641934994 -0.8776070267253601 0.0806822659072061
-123.86833333333334 29.131966666666667 1763.5233333333333 0.7411376660348309 0.5429935562508219 0.3948074946787724
-120.36433333333333 29.799633333333333 1634.97 0.0 0.0 1.0
-126.93299999999999 50.93333333333334 1994.67 0.0 0.0 1.0
-115.699 38.702799999999996 1430.4433333333334 0.8764927918169094 -0.17536282746245443 0.44833945246584456
-120.87766666666666 47.51873333333333 1637.9566666666667 0.3158974462556372 0.9478604843165863 0.042063115912794075
-112.98899999999999 48.4066 1423.6333333333334 -0.08551647950244684 -0.9406812745269154 0.3283377399689619
-116.40666666666668 53.63516666666666 1565.1266666666668 -0.6777370240409027 -0.6779797375507574 0.2846331001742192
-118.76133333333333 57.486333333333334 1634.97 0.0 0.0 1.0
-116.733 60.13986666666667 1597.17 0.29634623841741803 -0.9548732516540043 -0.019899252537600734
-126.06233333333334 75.07103333333333 1700.006666666667 0.47911622067062337 0.742987031464481 0.4673520280964842
-126.695 98.0607 1977.1000000000001 -1.9265855883317752e-17 0.9818499847859125 0.18965918742814242
-119.62633333333332 85.27576666666667 1517.5 -0.7683090318355997 0.5122480647706541 0.383800927224731
-116.25466666666667 90.70013333333334 1601.43 0.08738406698372099 0.4659938868915279 0.8804622207778767
-117.62166666666667 84.7924 1416.9133333333332 -0.4223190525205639 -0.9049302046122935 -0.05242082275666981
-120.25433333333335 110.082 1630.5199999999998 -1.0198555259821842e-25 -1.104843486480697e-25 1.0
-119.19833333333334 115.19133333333332 1634.97 0.0 0.0 1.0
-121.108 -114.231 1714.61 0.0 0.0 1.0
-122.33066666666666 -94.8233 1714.61 0.0 0.0 1.0
-122.48366666666668 -93.75356666666669 1714.61 0.0 0.0 1.0
-123.42866666666667 -85.40953333333333 1709.71 0.0 0.0 1.0
-124.92866666666667 -82.5979 1714.61 0.0 0.0 1.0
-120.11399999999999 -77.113 1704.84 0.0 0.0 1.0
-122.94200000000001 -68.8443 1714.61 0.0 0.0 1.0
-122.92266666666667 -62.384899999999995 1726.1599999999999 -0.9402257341239819 0.31334060827814075 0.13339127443316504
-123.72366666666666 -51.651666666666664 1797.0 0.0 0.0 1.0
-125.85366666666665 -47.561 1824.39 0.0 0.0 1.0
-124.878 -42.845499999999994 1824.39 0.0 0.0 1.0
-124.878 -37.9675 1824.39 0.0 0.0 1.0
-121.28500000000001 -23.534133333333333 1802.41 0.0 0.0 1.0
-124.25533333333334 -10.7801 1818.84 0.0 0.0 1.0
-123.64999999999999 -0.8413653333333332 1724.506666666667 -0.8406940113932038 0.5176015829132764 -0.1591294459654587
-116.387 14.098933333333333 1639.46 0.4000689085576575 0.8570158703934411 0.32475939755341543
-120.36433333333333 29.799633333333333 1634.97 0.0 0.0 1.0
-113.08033333333333 34.6043 1369.3700000000001 0.00455574189113986 -0.9899193000356419 0.14155926191092597
-118.76133333333333 57.486333333333334 1634.97 0.0 0.0 1.0
-123.47733333333333 73.42036666666667 1676.2 -0.11032818259274524 0.8297824195701817 0.5470729643274623
-118.90733333333333 77.15846666666667 1634.97 0.0 0.0 1.0
-125.495 89.3756 1724.5 0.0 0.0 1.0
-120.219 107.61399999999999 1634.97 0.0 0.0 1.0
-120.219 107.61399999999999 1634.97 0.0 0.0 1.0
-120.51033333333334 108.34266666666667 1634.97 0.0 0.0 1.0
-119.02233333333334 109.30266666666667 1627.5666666666666 0.5970552927142747 0.7962263451151229 0.09771686029792793
-118.22566666666667 100.80006666666667 1531.75 0.994913141353197 -0.06087426447382612 -0.08026309916445704
-125.36 113.29266666666668 1585.8766666666668 -0.656109396152984 0.6969890898155475 0.28935560986070624
-126.34133333333334 -134.39 1824.39 0.0 0.0 1.0
-126.66666666666667 -128.69933333333333 1824.39 0.0 0.0 1.0
-126.01633333333332 -127.88633333333333 1824.39 0.0 0.0 1.0
-119.20966666666668 -118.83466666666668 1773.9800000000002 0.5869343850171936 0.7726090274758748 0.2420399106496118
-119.335 -102.34393333333333 1506.04 0.16718264808556588 -0.20519293231227895 0.9643369860729113
-121.10799999999999 -103.99266666666666 1714.61 0.0 0.0 1.0
-132.62199999999999 -101.95566666666667 1994.67 0.0 0.0 1.0
-123.09466666666667 -70.3725 1714.61 0.0 0.0 1.0
-123.49666666666667 -61.709900000000005 1724.5 0.0 0.0 1.0
-124.11533333333334 -52.027433333333335 1793.4233333333334 -0.7073977214374667 0.7068087141756334 0.0031472639654058234
-120.548 -51.27 1756.5600000000002 -0.67311188230748 -0.6249614654193721 0.39540303569567126
-125.36566666666666 -44.47153333333333 1824.39 0.0 0.0 1.0
-124.878 -42.845499999999994 1824.39 0.0 0.0 1.0
-125.69133333333333 -31.9512 1824.39 0.0 0.0 1.0
-123.85466666666667 -23.283833333333334 1597.17 0.8169638233741802 0.09096745528719853 0.5694690802637249
-125.38999999999999 -14.994933333333334 1818.84 0.0 0.0 1.0
-125.38999999999999 -14.994933333333334 1818.84 0.0 0.0 1.0
-121.04966666666667 -3.1875633333333333 1744.61 0.0 0.0 1.0
-120.656 29.071033333333332 1634.97 0.0 0.0 1.0
-123.25099999999999 27.835633333333334 1639.45 0.0 0.0 1.0
-115.67966666666666 34.8612 1424.7766666666666 -0.9746728940026024 0.19500604698528232 0.1094778120706003
-117.26799999999999 37.94263333333333 1371.4399999999998 -0.6400185114854046 -0.7681313053521199 0.018724387681714673
-120.21866666666666 44.80873333333333 1634.97 0.0 0.0 1.0
-114.479 49.29409999999999 1504.7933333333333 0.6153062319768757 -0.4324654464222563 0.6590689482453392
-121.38433333333334 68.85246666666667 1634.97 0.0 0.0 1.0
-124.89633333333335 70.43696666666666 1651.5199999999998 0.023335311126222523 -0.5133768447769056 0.8578459526637352
-120.36433333333333 93.62476666666664 1634.97 0.0 0.0 1.0
-120.80166666666668 98.87066666666665 1634.97 0.0 0.0 1.0
-120.80166666666668 98.87066666666668 1634.97 0.0 0.0 1.0
-113.69733333333333 84.23236666666666 1317.1200000000001 0.9618793747496698 0.1729202277653415 0.21186472868499526
-120.25433333333335 110.082 1630.5199999999998 -1.0198555259821842e-25 -1.104843486480697e-25 1.0
-120.25433333333335 110.082 1630.5199999999998 -1.0198555259821834e-25 -1.104843486480696e-25 1.0
-117.55233333333332 101.86563333333334 1526.5566666666666 0.9991748487652853 0.03995198369612538 0.00731167515786375
-127.80499999999999 -120.56933333333335 1824.39 0.0 0.0 1.0
-129.3696666666667 -129.88966666666667 1992.46 0.967429703642607 0.10762655453023948 0.2291206958568492
-123.09466666666667 -96.5043 1714.61 0.0 0.0 1.0
-123.24766666666666 -94.05919999999999 1714.61 0.0 0.0 1.0
-121.89666666666666 -76.13029999999999 1703.2266666666667 -0.8252874141256948 0.4123268807000728 0.38585907730397095
-123.09466666666667 -71.13656666666667 1714.61 0.0 0.0 1.0
-123.40033333333334 -68.99713333333334 1714.61 0.0 0.0 1.0
-123.49666666666667 -61.709900000000005 1724.5 0.0 0.0 1.0
-118.72500000000001 -51.31496666666667 1177.2 0.11730043019158902 -0.3284281209354344 0.9372169324418375
-126.17899999999999 -58.780499999999996 1824.39 0.0 0.0 1.0
-126.17899999999999 -58.780499999999996 1824.39 0.0 0.0 1.0
-126.17899999999999 -57.154500000000006 1824.39 0.0 0.0 1.0
-125.20333333333333 -56.3415 1824.39 0.0 0.0 1.0
-125.85366666666665 -47.561 1824.39 0.0 0.0 1.0
-126.17899999999999 -40.5691 1824.39 0.0 0.0 1.0
-125.854 -39.4309 1824.39 0.0 0.0 1.0
-125.69099999999999 -37.642300000000006 1824.39 0.0 0.0 1.0
-125.69133333333333 -31.9512 1824.39 0.0 0.0 1.0
-125.69133333333333 -31.9512 1824.39 0.0 0.0 1.0
-125.854 -30.9756 1824.39 0.0 0.0 1.0
-127.173 -29.260366666666666 1818.84 0.0 0.0 1.0
-125.85366666666665 -23.333299999999998 1824.39 0.0 0.0 1.0
-125.06566666666667 -14.022266666666667 1818.84 0.0 0.0 1.0
-119.51633333333332 4.176493333333333 1488.5633333333333 -0.25239107539084016 -0.8711136187181263 0.4212597872416333
-122.37066666666665 15.185166666666667 1662.22 0.0 0.0 1.0
-120.656 29.071033333333332 1634.97 0.0 0.0 1.0
-120.36433333333333 31.111100000000004 1634.97 0.0 0.0 1.0
-115.54200000000002 35.33473333333333 1558.3400000000001 -0.10752251735956718 0.39662319188604106 0.9116627402273223
-120.21866666666666 44.80873333333333 1634.97 0.0 0.0 1.0
-123.99933333333333 53.626599999999996 1756.5600000000002 0.7045595230808765 0.6263270382073001 0.3336320123227372
-114.81933333333335 53.86663333333333 1508.58 0.5473321902046288 -0.4631352535677246 0.697089097941263
-130.84433333333334 79.02223333333335 1994.67 0.0 0.0 1.0
-118.93733333333334 81.49153333333334 1538.323333333333 -3.58040684980363e-16 0.7755239049389233 0.6313182025478783
-132.97766666666666 101.95533333333333 1994.67 0.0 0.0 1.0
-121.20233333333333 85.0313 1657.6266666666668 -0.35742614039551296 -0.2166192989962607 0.9084726927455419
-118.97433333333333 84.85466666666667 1534.36 0.0 0.0 1.0
-122.157 100.5899 1751.4399999999998 0.5504500121641035 -0.7952475914104955 -0.2541378611390753
-120.36433333333333 93.62476666666664 1634.97 0.0 0.0 1.0
-120.80166666666668 98.87066666666668 1634.97 0.0 0.0 1.0
-120.51033333333334 108.34266666666667 1634.97 0.0 0.0 1.0
-126.34133333333334 -134.39 1824.39 0.0 0.0 1.0
-115.416 -137.57500000000002 1957.7233333333334 0.03177048178852263 -0.9918386613044421 0.12347755435194359
-134.57766666666666 -123.46633333333334 1994.67 0.0 0.0 1.0
-122.97166666666665 -74.74286666666667 1709.71 0.0 0.0 1.0
-123.09466666666667 -71.13656666666667 1714.61 0.0 0.0 1.0
-123.85833333333333 -69.6084 1714.61 0.0 0.0 1.0
-123.40033333333334 -68.99713333333334 1714.61 0.0 0.0 1.0
-124.904 -67.66283333333334 1719.54 0.0 0.0 1.0
-126.99166666666667 -52.6016 1824.39 0.0 0.0 1.0
-125.69099999999999 -44.14633333333333 1824.39 0.0 0.0 1.0
-125.69099999999999 -37.642300000000006 1824.39 0.0 0.0 1.0
-126.829 -35.3659 1824.39 0.0 0.0 1.0
-126.68700000000001 -23.748733333333334 1818.84 0.0 0.0 1.0
-121.26966666666665 3.3129546666666663 1727.82 0.7831850881898628 -0.609145295664471 0.12475226012734662
-119.856 8.510683333333334 1632.0033333333333 0.7963986835064416 0.5973435393844905 0.09449779290976222
-120.74066666666666 18.5926 1662.22 0.0 0.0 1.0
-123.649 28.81376666666667 1724.506666666667 -0.7139268575568488 -0.6665221839090043 -0.21460806232798882
-127.46666666666665 41.86666666666667 1994.67 0.0 0.0 1.0
-128.711 53.244433333333326 1994.67 0.0 0.0 1.0
-131.20033333333333 70.31113333333333 1994.67 0.0 0.0 1.0
-131.378 71.3778 1994.67 0.0 0.0 1.0
-130.84433333333334 79.02223333333335 1994.67 0.0 0.0 1.0
-121.38433333333334 68.85246666666667 1634.97 0.0 0.0 1.0
-122.45566666666667 73.37426666666666 1671.5166666666664 -0.96738430989589 -0.0001736474751558236 0.25331317931329067
-128.53366666666668 92.53333333333335 1994.67 0.0 0.0 1.0
-128.53366666666668 92.53333333333335 1994.67 0.0 0.0 1.0
-118.97433333333333 84.85466666666667 1534.36 0.0 0.0 1.0
-115.25166666666667 74.98743333333333 1340.71 0.19718401199122582 -0.8345141817499512 0.5144944566010925
-125.69599999999998 98.75016666666666 1669.9566666666667 0.6793208188934869 9.987246349815759e-16 0.733841416804668
-125.33466666666665 101.71933333333334 1640.9533333333331 -0.5999502646129617 -0.1998313428900947 0.7746787168817656
-131.02233333333334 144.26666666666668 1994.67 0.0 0.0 1.0
-127.15433333333333 -115.69099999999999 1824.39 0.0 0.0 1.0
-123.42866666666667 -85.40953333333334 1709.71 0.0 0.0 1.0
-124.19066666666667 -81.60003333333333 1709.71 0.0 0.0 1.0
-124.19066666666667 -77.4857 1709.71 0.0 0.0 1.0
-123.73366666666668 -75.65713333333333 1709.71 0.0 0.0 1.0
-123.85833333333333 -69.6084 1714.61 0.0 0.0 1.0
-123.85833333333333 -69.6084 1714.61 0.0 0.0 1.0
-123.49666666666667 -61.709900000000005 1724.5 0.0 0.0 1.0
-126.17899999999999 -58.78050000000001 1824.39 0.0 0.0 1.0
-127.31666666666666 -53.5772 1824.39 0.0 0.0 1.0
-126.55033333333334 -50.559400000000004 1845.04 0.8606138970991115 -0.17147931893722887 0.4795190958624108
-125.85366666666665 -47.561 1824.39 0.0 0.0 1.0
-126.66666666666667 -42.357699999999994 1824.39 0.0 0.0 1.0
-126.829 -35.3659 1824.39 0.0 0.0 1.0
-123.77199999999999 9.038273333333334 1676.1899999999998 4.639100010949636e-27 -1.8566392343599588e-27 1.0
-123.82900000000001 11.363730000000002 1666.86 0.8454439788746326 0.39429784668981743 0.3602133904790365
-122.81500000000001 13.851833333333333 1662.22 0.0 0.0 1.0
-122.81500000000001 14.592566666666668 1662.22 0.0 0.0 1.0
-122.37066666666668 15.185166666666666 1662.22 0.0 0.0 1.0
-121.66366666666666 19.57576666666667 1657.6266666666668 0.6297038887711358 -0.7550215976613868 0.18279879521308662
-122.42133333333334 20.313399999999998 1669.9566666666667 0.835470030214414 -0.25710752207765275 0.48568050270174035
-121.16266666666667 27.711633333333335 1632.01 -0.6882180026749068 -0.6879031728475125 0.2305324393235957
-114.41666666666667 17.932753333333334 1234.7333333333333 -0.6881834997475917 0.6881834997475231 -0.22979760954023767
-115.372 43.74483333333334 1432.7266666666667 0.6979292565427344 -0.3808209723074174 0.6065229920724681
-131.378 71.3778 1994.67 0.0 0.0 1.0
-121.82133333333333 68.12386666666667 1634.97 0.0 0.0 1.0
-121.82133333333333 68.12386666666667 1634.97 0.0 0.0 1.0
-127.12933333333335 95.25509999999998 1756.57 -0.6074754875237726 0.7593578060296987 0.23312926560069075
-118.97433333333333 84.85466666666667 1534.36 0.0 0.0 1.0
-121.853 93.07903333333333 1630.5199999999998 1.0 0.0 0.0
-121.853 93.07903333333333 1630.5199999999998 1.0 0.0 0.0
-121.853 93.07903333333333 1630.5199999999998 1.0 0.0 0.0
-117.34100000000001 85.37096666666666 1507.3100000000002 -0.5858024652233269 0.4218722508702726 0.6919965864684035
-121.52999999999999 106.448 1634.97 0.0 0.0 1.0
-120.80133333333333 110.09133333333334 1634.97 0.0 0.0 1.0
-118.93433333333333 98.62326666666667 1451.256666666667 -0.7943164538113147 0.5825241864110985 0.17241503255431556
-126.34133333333334 -134.39 1824.39 0.0 0.0 1.0
-123.65166666666669 -110.57600000000001 1595.74 -0.3885929161366396 -0.622769839031307 0.6790826703144047
-128.13 -125.61 1824.39 0.0 0.0 1.0
-127.15433333333333 -115.69099999999999 1824.39 0.0 0.0 1.0
-127.15433333333333 -115.69099999999999 1824.39 0.0 0.0 1.0
-113.20133333333332 -75.52276666666667 1271.3933333333332 0.9934171244563341 -0.05229642876229189 0.10191908739592903
-124.62266666666666 -98.03246666666666 1714.61 0.0 0.0 1.0
-124.62266666666666 -98.03246666666666 1714.61 0.0 0.0 1.0
-124.16433333333333 -93.75356666666666 1714.61 0.0 0.0 1.0
-113.20133333333332 -75.52276666666667 1271.3933333333332 0.993417124456334 -0.052296428762292 0.1019190873959292
-124.49533333333333 -90.43813333333333 1709.71 0.0 0.0 1.0
-124.49533333333333 -90.43813333333334 1709.71 0.0 0.0 1.0
-123.42866666666667 -85.40953333333334 1709.71 0.0 0.0 1.0
-127.15433333333333 -35.040666666666674 1824.39 0.0 0.0 1.0
-127.15433333333333 -35.040666666666674 1824.39 0.0 0.0 1.0
-127.82166666666667 -30.070933333333333 1818.84 0.0 0.0 1.0
-125.85366666666665 -23.333299999999998 1824.39 0.0 0.0 1.0
-127.984 -12.076999999999998 1818.84 0.0 0.0 1.0
-123.64999999999999 -0.8413653333333332 1724.506666666667 -0.8406940113932035 0.5176015829132771 -0.15912944596545944
-123.77199999999999 9.038273333333334 1676.1899999999998 4.639100010949636e-27 -1.8566392343599588e-27 1.0
-122.81500000000001 13.851833333333333 1662.22 0.0 0.0 1.0
-114.41666666666667 17.932753333333334 1234.7333333333333 -0.6881834997475917 0.6881834997475231 -0.22979760954023767
-125.742 33.3446 1588.6833333333334 -0.032233100419013325 0.9990292002518996 0.030028058236053076
-120.28266666666667 33.90153333333333 1416.8933333333334 -0.2472229013006148 0.24721824383558344 0.9368905896567413
-112.60180000000001 39.8054 1542.3166666666666 -0.11197873012842012 -0.9776134767627729 0.1781366162545749
-122.484 58.761066666666665 1637.9566666666667 0.8425107474408999 0.421101616854415 0.33593015453985897
-121.34566666666666 62.82096666666667 1633.4866666666667 -0.9184151473042711 -0.24171147507911503 0.31319192201771795
-131.73333333333332 79.37776666666667 1994.67 0.0 0.0 1.0
-122.27300000000001 67.60763333333334 1646.99 -0.9768684203065742 0.21372109593268795 -0.007168163019169693
-134.933 127.911 1994.67 0.0 0.0 1.0
-121.52999999999999 106.448 1634.97 0.0 0.0 1.0
-132.62199999999999 138.22233333333335 1994.67 0.0 0.0 1.0
-118.93433333333333 98.62326666666667 1451.256666666667 -0.7943164538113143 0.5825241864110984 0.17241503255431614
-123.21466666666667 115.25533333333333 1637.9566666666667 0.25328946178411416 0.928599616168226 0.27119587275867113
-122.41966666666667 -123.392 1782.7366666666667 -0.27775880110003087 0.6110577309794859 0.7412546781111574
-128.13 -125.61 1824.39 0.0 0.0 1.0
-124.62266666666666 -98.03246666666666 1714.61 0.0 0.0 1.0
-124.16433333333333 -93.75356666666666 1714.61 0.0 0.0 1.0
-124.49533333333333 -90.43813333333333 1709.71 0.0 0.0 1.0
-135.11133333333333 -92.35556666666668 1994.67 0.0 0.0 1.0
-124.19066666666667 -79.3143 1709.71 0.0 0.0 1.0
-125.51700000000001 -68.73563333333333 1719.54 0.0 0.0 1.0
-109.149 -55.81120000000001 1292.4533333333331 0.750254263703956 0.517390974033534 0.4116128275244417
-126.99166666666667 -52.6016 1824.39 0.0 0.0 1.0
-128.455 -43.00809999999999 1824.39 0.0 0.0 1.0
-126.82933333333334 -40.7317 1824.39 0.0 0.0 1.0
-127.15433333333334 -36.5041 1824.39 0.0 0.0 1.0
-127.82166666666667 -30.070933333333333 1818.84 0.0 0.0 1.0
-127.984 -12.076999999999998 1818.84 0.0 0.0 1.0
-128.95666666666668 -7.537993333333333 1818.84 0.0 0.0 1.0
-133.86666666666667 1.6888866666666666 1994.67 0.0 0.0 1.0
-125.65000000000002 2.6365363333333334 1690.4000000000003 2.933244377845804e-26 1.5104756718212206e-26 1.0
-125.09366666666666 6.0674133333333335 1680.9000000000003 -2.0498421599519775e-27 -9.057235022724558e-28 1.0
-123.67899999999999 15.673633333333333 1666.86 0.9770491645514894 0.0011887057752837447 0.21301060308777245
-122.08033333333333 36.916333333333334 1584.4833333333333 -0.9819724943762534 -0.18813754665903115 0.01828343035644854
-124.77733333333333 38.57613333333333 1636.4633333333334 0.6181189512747632 0.6180659287472753 0.4857195382077552
-119.84633333333333 26.543733333333336 1326.8566666666668 -0.6658216441843874 0.7075146560261182 0.23686398975750342
-131.378 70.31113333333333 1994.67 0.0 0.0 1.0
-123.54333333333334 63.34246666666667 1639.45 0.0 0.0 1.0
-123.54333333333334 63.34246666666667 1639.45 0.0 0.0 1.0
-122.45566666666666 73.37426666666666 1671.5166666666664 -0.96738430989589 -0.00017364747515599194 0.25331317931329067
-114.69366666666667 71.48193333333332 1337.7066666666667 -0.9884345663074957 5.516253859722982e-17 0.15164797436336958
-122.83933333333334 85.27013333333333 1691.9966666666667 0.767767671523406 -0.2985961833824148 0.5668978054578996
-114.69366666666667 71.48193333333332 1337.7066666666667 -0.9884345663074956 1.6618484105974547e-16 0.15164797436336946
-124.18266666666666 118.09100000000001 1646.9733333333334 -0.445436546201093 -0.891885448188983 -0.0782727961502473
-127.805 -124.63433333333334 1824.39 0.0 0.0 1.0
-113.20133333333332 -75.52276666666667 1271.3933333333332 0.993417124456334 -0.05229642876229209 0.10191908739592924
-108.70033333333333 -74.3172 1314.2 0.24983182326508405 -0.2498221352298504 0.9355067935794171
-124.92833333333333 -95.5874 1714.61 0.0 0.0 1.0
-125.51700000000001 -68.73563333333333 1719.54 0.0 0.0 1.0
-128.61800000000002 -64.1463 1824.39 0.0 0.0 1.0
-128.293 -63.495900000000006 1824.39 0.0 0.0 1.0
-128.78066666666666 -62.5203 1824.39 0.0 0.0 1.0
-128.3083333333333 -32.178333333333335 1818.84 0.0 0.0 1.0
-124.07099999999998 7.39496 1676.1899999999998 8.719776163139403e-27 -1.6071654349459357e-27 1.0
-129.07466666666667 21.8107 1793.4233333333334 0.9103314887950676 -0.41372049308656345 0.011486257369849732
-127.60166666666667 25.550933333333333 1786.3133333333335 0.00017030457531687422 0.9995357994207458 0.0304656638313114
-123.02066666666667 31.162066666666664 1717.8966666666665 0.1478917332772836 -0.6655168205115565 0.7315841693506151
-115.70400000000001 48.45746666666667 1488.6366666666665 0.6015635322827719 -0.7723461233157745 -0.20396760141397183
-116.54266666666666 47.63216666666667 1438.4766666666667 0.8333406453833765 -0.45470739600490767 0.31430009985753066
-132.79999999999998 78.84443333333333 1994.67 0.0 0.0 1.0
-121.01166666666666 80.06733333333334 1513.6633333333332 -0.978396399413967 -0.19577106644077855 0.06643925916523649
-119.62633333333333 85.27576666666668 1517.5 -0.7683090318355997 0.5122480647706538 0.3838009272247312
-133.511 140.711 1994.67 0.0 0.0 1.0
-114.89299999999999 94.10106666666667 1340.7066666666667 0.47333902931863425 0.8790096198194446 -0.05737814556578389
-129.59333333333333 -110.97533333333332 1824.39 0.0 0.0 1.0
-126.21866666666666 -95.51786666666668 1595.74 0.3861103412184981 0.46475230977950927 0.7968212440433212
-134.57766666666666 -101.95566666666666 1994.67 0.0 0.0 1.0
-120.5 -63.7483 1494.756666666667 0.972102702857562 -5.001229159071126e-15 0.2345556119495389
-111.54066666666665 -53.04286666666667 1286.9166666666667 -0.3943964403937493 -0.9133188874581775 0.1014891995086013
-125.517 -68.73563333333334 1719.54 0.0 0.0 1.0
-127.80466666666666 -53.252 1824.39 0.0 0.0 1.0
-127.15433333333333 -47.3984 1824.39 0.0 0.0 1.0
-129.10533333333333 -43.17069999999999 1824.39 0.0 0.0 1.0
-128.455 -43.00809999999999 1824.39 0.0 0.0 1.0
-127.82166666666667 -30.070933333333333 1818.84 0.0 0.0 1.0
-129.2806666666667 -17.912833333333335 1818.84 0.0 0.0 1.0
-129.11866666666666 -14.022266666666667 1818.84 0.0 0.0 1.0
-125.28399999999999 1.1329296666666666 1693.5866666666668 -3.766511878188843e-17 -0.9618053164552595 0.2737344209966994
-125.39333333333333 7.865166666666667 1680.9000000000003 -7.995596364971026e-27 -3.3029415243166056e-28 1.0
-123.772 9.038273333333333 1676.1899999999998 -2.319550005474818e-27 9.28319617179979e-28 1.0
-123.36633333333333 13.247566666666666 1660.6866666666667 -0.8394962502968845 -0.419323135484103 0.34556353075122254
-125.289 13.929233333333334 1671.51 0.0 0.0 1.0
-119.58033333333334 43.82906666666667 1558.3400000000001 -0.8947158169146253 -0.03958768898514739 0.4448779853438582
-126.14566666666667 50.96136666666666 1612.9399999999998 -3.4622112057651625e-27 -2.3961629042532578e-27 1.0
-125.29700000000001 48.29226666666667 1639.45 0.0 0.0 1.0
-120.07133333333333 56.39920000000001 1600.006666666667 -0.9143043874707356 0.4040034256449975 0.028787481982109425
-125.495 89.3756 1724.5 0.0 0.0 1.0
-122.40366666666667 89.17063333333333 1607.1633333333332 0.6841466137086443 0.6841664964897113 0.25270460231659597
-121.56233333333334 111.09933333333333 1630.5199999999998 -1.630381283032792e-26 -1.9425819542518332e-26 1.0
-133.511 140.711 1994.67 0.0 0.0 1.0
-124.18266666666666 118.09100000000001 1646.9733333333334 -0.4454365462010925 -0.8918854481889833 -0.0782727961502477
-128.61766666666668 -126.58566666666667 1824.39 0.0 0.0 1.0
-128.78033333333335 -126.423 1824.39 0.0 0.0 1.0
-130.894 -118.78033333333333 1824.39 0.0 0.0 1.0
-124.92866666666667 -82.5979 1714.61 0.0 0.0 1.0
-124.92866666666667 -82.5979 1714.61 0.0 0.0 1.0
-119.967 -68.73053333333333 1470.2699999999998 -4.647851819034101e-27 9.293338920785818e-27 1.0
-124.95233333333334 -78.09523333333333 1709.71 0.0 0.0 1.0
-125.34266666666667 -75.0358 1712.9766666666667 -0.8150656327764779 0.5434297655820488 -0.2008783316988644
-120.099 -66.16510000000001 1465.4833333333336 0.9596943924893949 -0.25844698558721113 -0.11041661408182588
-129.26833333333335 -64.95933333333333 1824.39 0.0 0.0 1.0
-128.20833333333334 -49.409400000000005 1797.0 0.0 0.0 1.0
-130.1316666666667 -37.87276666666667 1797.01 0.954895086303485 -0.17804264503475375 0.23764719796894046
-128.3083333333333 -32.178333333333335 1818.84 0.0 0.0 1.0
-129.98866666666666 -30.8176 1815.1666666666667 -0.5786689259476075 0.8101317224213933 -0.09396204802572604
-129.30499999999998 -24.72236666666667 1656.1233333333332 0.8815720567536001 -0.4444662517823279 0.15899830117896088
-129.76733333333334 -13.373866666666666 1818.84 0.0 0.0 1.0
-128.95666666666668 -7.537993333333333 1818.84 0.0 0.0 1.0
-126.71033333333332 -3.1092999999999997 1701.6133333333335 2.0517693518172868e-16 0.9954312345460035 0.09548118814834504
-125.39333333333333 7.865166666666666 1680.9000000000003 -7.996152336451944e-27 1.6959484806317792e-28 1.0
-125.289 13.929233333333334 1671.51 0.0 0.0 1.0
-115.68066666666668 27.438633333333332 1558.3400000000001 -0.35876459094923413 -0.17900032830013582 0.9161041702500171
-126.06233333333334 26.031433333333336 1775.71 0.08294452785975383 -0.9959180558986012 -0.03560100045326471
-126.40933333333334 28.78526666666667 1712.9966666666667 -0.9927616770325086 0.03980233423508203 0.11331384207165611
-127.469 27.071133333333336 1701.6133333333335 0.2746953421218439 -0.9614790217046628 0.010027952852274615
-123.25099999999999 27.835633333333334 1639.45 0.0 0.0 1.0
-132.97766666666666 50.9333 1994.67 0.0 0.0 1.0
-115.90433333333334 46.73080000000001 1408.0133333333333 0.22520801799794174 0.6080658458737256 0.761273456591854
-132.8 78.84443333333333 1994.67 0.0 0.0 1.0
-120.76666666666667 78.92533333333334 1494.7633333333333 1.990527233130774e-15 0.6824222619874175 0.7309581768774301
-124.153 103.67933333333333 1634.97 0.0 0.0 1.0
-125.353 107.58666666666666 1668.403333333333 -0.6405755207658655 -0.5274581858332108 0.5580778300497864
-126.50633333333333 111.37066666666668 1640.9533333333331 -0.7196755373024808 -0.5398592878224527 0.43659943925779365
-130.56933333333333 -115.20333333333333 1824.39 0.0 0.0 1.0
-129.59333333333333 -110.97533333333332 1824.39 0.0 0.0 1.0
-124.693 -79.6839 1389.4966666666667 -0.38084285190944484 0.9232315990880482 -0.05101114186926139
-125.38666666666666 -92.37823333333334 1714.61 0.0 0.0 1.0
-119.967 -68.73053333333334 1470.2699999999998 2.3239259095170514e-27 -4.646669460392908e-27 1.0
-119.967 -68.73053333333333 1470.2699999999998 -4.6478518190341014e-27 9.29333892078582e-27 1.0
-120.5 -63.74829999999999 1494.756666666667 0.9721027028575622 -6.1790448143549384e-15 0.234555611949538
-120.5 -63.74829999999999 1494.756666666667 0.972102702857562 -5.001229159071126e-15 0.2345556119495389
-129.26833333333335 -61.869899999999994 1824.39 0.0 0.0 1.0
-129.26833333333335 -61.869899999999994 1824.39 0.0 0.0 1.0
-133.496 -48.426700000000004 1695.1933333333334 0.40205691474012045 -0.9050763658552571 0.13851718045028408
-126.55033333333334 -50.559400000000004 1845.04 0.8606138970991154 -0.17147931893721388 0.47951909586240954
-129.10533333333333 -43.17069999999999 1824.39 0.0 0.0 1.0
-129.43066666666667 -42.5203 1824.39 0.0 0.0 1.0
-128.45533333333336 -38.6179 1824.39 0.0 0.0 1.0
-129.76733333333334 -13.373866666666666 1818.84 0.0 0.0 1.0
-127.13866666666667 2.4929166666666664 1695.18 0.0 0.0 1.0
-135.822 7.911110000000001 1994.67 0.0 0.0 1.0
-125.64999999999999 2.6365363333333334 1690.4000000000003 -1.4666221889229022e-26 -7.552378359106105e-27 1.0
-125.693 7.116103333333332 1680.9000000000003 -9.494577024704629e-27 1.0615296311885874e-26 1.0
-126.02733333333333 27.397266666666667 1639.45 0.0 0.0 1.0
-125.67233333333333 51.01793333333333 1642.4566666666667 -0.869574281678913 -0.38642861152465613 0.3074304748032127
-132.62233333333333 71.2 1994.67 0.0 0.0 1.0
-123.54333333333334 63.34246666666667 1639.45 0.0 0.0 1.0
-122.07666666666667 63.04266666666667 1605.7266666666667 0.7334999909295827 0.677018229200662 0.060200337509869174
-122.07666666666667 63.04266666666667 1605.7266666666667 0.7334999909295826 0.6770182292006619 0.06020033750986923
-133.689 79.7333 1994.67 0.0 0.0 1.0
-134.57766666666666 101.06656666666667 1994.67 0.0 0.0 1.0
-134.57766666666666 101.06656666666667 1994.67 0.0 0.0 1.0
-121.48166666666667 81.2832 1511.1166666666668 0.9637944513623289 0.2410864760185608 -0.11391912308361295
-125.15033333333334 88.4749 1639.45 0.0 0.0 1.0
-125.15033333333334 88.4749 1639.45 0.0 0.0 1.0
-120.76666666666667 78.92533333333334 1494.7633333333333 1.990527233130774e-15 0.6824222619874175 0.7309581768774301
-115.25166666666667 74.98743333333333 1340.71 0.19718401199122546 -0.8345141817499513 0.5144944566010924
-124.685 92.855 1478.75 0.6093505596030683 0.6092734363832801 0.5074226790646399
-134.7553333333333 141.77766666666665 1994.67 0.0 0.0 1.0
-130.08133333333333 -110.16233333333332 1824.39 0.0 0.0 1.0
-130.56933333333333 -109.02433333333333 1824.39 0.0 0.0 1.0
-135.28866666666667 -106.75533333333334 1994.67 0.0 0.0 1.0
-134.57766666666666 -101.95566666666666 1994.67 0.0 0.0 1.0
-127.81599999999999 -84.98083333333334 1719.54 0.0 0.0 1.0
-127.81599999999999 -84.98083333333334 1719.54 0.0 0.0 1.0
-112.62533333333333 -71.95186666666667 1544.9533333333331 -0.15211406092078922 0.9527195470901691 0.26303379452551223
-112.82233333333333 -70.27956666666667 1566.5433333333333 0.32676632094412295 -0.8657396401146797 0.37910242287638757
-132.97766666666666 -87.37776666666667 1994.67 0.0 0.0 1.0
-130.73166666666668 -71.95119999999999 1824.39 0.0 0.0 1.0
-131.057 -70.6504 1824.39 0.0 0.0 1.0
-130.40633333333332 -65.44716666666666 1824.39 0.0 0.0 1.0
-131.54466666666664 -27.886200000000002 1824.39 0.0 0.0 1.0
-131.226 -25.369799999999998 1818.84 0.0 0.0 1.0
-122.894 -20.5869 1598.6066666666666 0.9382359638783101 0.23895459440749506 0.2502278519607445
-130.09133333333332 -7.700099999999999 1818.84 0.0 0.0 1.0
-127.42433333333334 -2.6515166666666663 1700.0 0.0 0.0 1.0
-125.64999999999999 2.6365363333333334 1690.4000000000003 -1.466622188922902e-26 -7.552378359106103e-27 1.0
-135.822 7.911110000000001 1994.67 0.0 0.0 1.0
-125.693 7.116103333333332 1680.9000000000003 -9.494577024704629e-27 1.0615296311885874e-26 1.0
-125.289 13.929233333333334 1671.51 0.0 0.0 1.0
-131.388 25.369799999999998 1818.84 0.0 0.0 1.0
-125.589 36.6027 1639.45 0.0 0.0 1.0
-124.14833333333333 43.79933333333333 1577.5199999999998 0.44230992699411215 0.8847807274520973 -0.14671398301389074
-126.02733333333333 74.00916666666667 1639.45 0.0 0.0 1.0
-121.83766666666668 73.04933333333332 1499.75 0.0 0.0 1.0
-134.57766666666666 101.06656666666667 1994.67 0.0 0.0 1.0
-120.94133333333333 78.58279999999999 1511.1166666666668 -0.9811404824962658 -0.16358419788373865 0.10297360734541852
-121.04566666666666 82.56813333333334 1514.9433333333334 -0.8727711307068516 -0.39754015653376934 0.28325320359669354
-132.86800000000002 103.64333333333333 1739.53 0.0 0.0 1.0
-134.22833333333332 109.66233333333332 1773.956666666667 0.8194058175135488 -0.5368442320300865 0.2009287852971276
-128.66299999999998 117.26566666666668 1727.82 0.7999529726475302 -0.5999647294856482 -0.010842736075041482
-113.52733333333333 93.24386666666668 1338.7 0.0 0.0 1.0
-124.18266666666666 118.09100000000001 1646.9733333333334 -0.4454365462010932 -0.891885448188983 -0.07827279615024725
-130.90800000000002 -135.95533333333333 1990.25 0.12776399512381217 -0.4789197616935361 0.8685114987203159
-130.56933333333333 -115.20333333333333 1824.39 0.0 0.0 1.0
-131.21966666666665 -103.171 1824.39 0.0 0.0 1.0
-105.11966666666666 -64.35949999999998 1214.6233333333332 0.13455104312597843 0.9288422672733389 0.34517830076676964
-134.57766666666666 -101.95566666666666 1994.67 0.0 0.0 1.0
-120.32666666666667 -68.93593333333334 1469.07 -0.9823242335017371 -1.2775053746762991e-16 0.1871873400506155
-130.08133333333333 -64.79673333333334 1824.39 0.0 0.0 1.0
-131.545 -58.6179 1824.39 0.0 0.0 1.0
-131.21966666666665 -50.4878 1824.39 0.0 0.0 1.0
-133.37633333333335 -27.451999999999998 1687.2733333333333 0.32462909679473595 0.9404828386313202 0.1005384491336943
-133.70833333333334 -33.366099999999996 1804.2233333333334 0.6482178688819943 -0.7479476742826013 0.1427861022555527
-131.226 -25.369799999999998 1818.84 0.0 0.0 1.0
-130.7396666666667 -19.2097 1818.84 0.0 0.0 1.0
-129.76733333333334 -13.373866666666666 1818.84 0.0 0.0 1.0
-131.064 -12.401233333333332 1818.84 0.0 0.0 1.0
-127.42433333333334 -2.6515166666666663 1700.0 0.0 0.0 1.0
-126.50966666666666 3.988436666666667 1688.8100000000002 -0.8853581194844147 0.4426986481779657 0.14198206634791072
-126.28800000000001 22.997633333333336 1659.1533333333334 0.7568896152989301 0.5505159838061257 0.3522076970008054
-127.46900000000001 27.071133333333336 1701.6133333333335 0.2746953421218438 -0.9614790217046628 0.010027952852274601
-115.68133333333333 10.049886666666666 1191.3166666666666 0.9579211622139506 -0.24393688584241688 0.15126745422653776
-125.735 36.31046666666666 1639.45 0.0 0.0 1.0
-125.589 36.6027 1639.45 0.0 0.0 1.0
-125.88133333333333 37.333333333333336 1639.45 0.0 0.0 1.0
-122.117 39.44786666666666 1458.3533333333335 0.8510729698699288 -0.5004117109579608 0.15894313289005502
-125.29700000000001 48.29226666666667 1639.45 0.0 0.0 1.0
-132.19066666666666 70.5461 1753.13 0.27466990244512346 -0.9612909987538841 0.021818808527198162
-127.15233333333333 74.16316666666667 1679.33 0.45960120102045815 0.34467022250788865 0.8185164468334861
-121.83766666666666 73.04933333333334 1499.75 0.0 0.0 1.0
-117.61666666666667 86.22946666666667 1569.24 -0.78674237449664 0.6119238764223269 0.08115174450165279
-128.26133333333334 88.91449999999999 1724.5 0.0 0.0 1.0
-124.685 92.855 1478.75 0.6093505596030683 0.6092734363832801 0.5074226790646399
-124.51966666666665 112.46833333333335 1648.493333333333 0.9609629707911272 -0.2542264372772268 0.10917457285292957
-128.663 117.26566666666668 1727.82 0.7999529726475302 -0.5999647294856484 -0.010842736075041649
-126.38166666666666 114.714 1636.4633333333334 0.7450598829123488 -0.4972749027828386 0.44452608690261985
-115.29899999999999 93.61196666666667 1333.7633333333333 -0.47163161283702776 -0.8758388787239321 0.10232243296730797
-130.56933333333333 -115.20333333333333 1824.39 0.0 0.0 1.0
-131.21966666666665 -108.86166666666668 1824.39 0.0 0.0 1.0
-131.21966666666665 -103.171 1824.39 0.0 0.0 1.0
-130.10533333333333 -88.39020000000001 1887.7466666666667 0.21381578946556998 -0.9365396747263519 0.27780612995157966
-136.0 -89.6889 1994.67 0.0 0.0 1.0
-132.52066666666664 -77.64229999999999 1824.39 0.0 0.0 1.0
-130.89466666666667 -69.5122 1824.39 0.0 0.0 1.0
-131.22 -68.5366 1824.39 0.0 0.0 1.0
-131.70766666666665 -67.72359999999999 1824.39 0.0 0.0 1.0
-131.545 -58.6179 1824.39 0.0 0.0 1.0
-131.54466666666667 -49.8374 1824.39 0.0 0.0 1.0
-132.03266666666664 -36.5041 1824.39 0.0 0.0 1.0
-125.717 -21.943933333333334 1602.8733333333332 0.9530794739490053 -0.2847292183625418 -0.1028046134555432
-131.226 -7.537993333333333 1818.84 0.0 0.0 1.0
-136.8886666666667 14.488900000000001 1994.67 0.0 0.0 1.0
-127.68533333333333 14.471466666666666 1682.4766666666667 0.9782900711373684 -0.07517966726696165 0.19312315848616263
-131.388 25.369799999999998 1818.84 0.0 0.0 1.0
-120.32533333333333 39.3964 1610.0466666666664 0.22423181315768567 -0.2955744214486612 0.9286311729385924
-126.02733333333333 36.74883333333333 1639.45 0.0 0.0 1.0
-124.14833333333333 43.79933333333333 1577.5199999999998 0.4423099269941123 0.8847807274520973 -0.1467139830138908
-131.198 68.60776666666666 1751.42 -0.7890913575359765 0.6137689575894377 0.024949872977722838
-125.96 70.90683333333334 1632.0033333333333 0.3576863148961454 0.8941132277969309 0.2694847602640432
-126.46566666666666 75.3242 1639.45 0.0 0.0 1.0
-124.45833333333333 79.4637 1696.7866666666669 -0.4655524197758295 0.1810602098336368 0.8663014168612846
-128.98333333333335 88.36836666666666 1722.8466666666666 0.5528309817016618 -0.8290666316345662 0.08382377932837275
-126.46566666666666 87.45210000000002 1639.45 0.0 0.0 1.0
-127.894 103.87166666666667 1695.18 0.0 0.0 1.0
-123.12033333333333 -117.57166666666667 1753.1499999999999 -0.0694135729923137 -0.957508484073974 0.2799272384224171
-132.03233333333333 -118.94266666666665 1824.39 0.0 0.0 1.0
-132.03233333333333 -118.94266666666665 1824.39 0.0 0.0 1.0
-131.21966666666665 -103.171 1824.39 0.0 0.0 1.0
-131.38199999999998 -102.358 1824.39 0.0 0.0 1.0
-128.27599999999998 -86.97316666666667 1719.54 0.0 0.0 1.0
-128.27599999999998 -86.97316666666667 1719.54 0.0 0.0 1.0
-132.683 -81.0569 1824.39 0.0 0.0 1.0
-132.683 -71.62599999999999 1824.39 0.0 0.0 1.0
-131.54466666666667 -66.2602 1824.39 0.0 0.0 1.0
-121.875 -55.43653333333333 1957.71 0.19445333912225524 0.429427700986099 0.8819182209989761
-131.54466666666664 -51.3008 1824.39 0.0 0.0 1.0
-132.03266666666667 -48.861799999999995 1824.39 0.0 0.0 1.0
-131.7073333333333 -44.47153333333333 1824.39 0.0 0.0 1.0
-131.87433333333334 -14.670733333333333 1818.84 0.0 0.0 1.0
-127.42433333333332 -2.6515166666666663 1700.0 0.0 0.0 1.0
-126.29200000000002 9.063656666666667 1680.9000000000003 1.1751356231526702e-26 6.472981064620964e-27 1.0
-136.8886666666667 14.488900000000001 1994.67 0.0 0.0 1.0
-134.75566666666668 38.31113333333333 1994.67 0.0 0.0 1.0
-126.02733333333333 36.74883333333333 1639.45 0.0 0.0 1.0
-126.61200000000001 39.2329 1639.45 0.0 0.0 1.0
-125.21566666666666 39.7451 1636.4633333333334 0.6920781764490798 0.6920188096652934 0.20527485172896062
-133.689 52.5333 1994.67 0.0 0.0 1.0
-125.29466666666667 47.06236666666667 1583.0766666666666 0.9475875203211589 0.20305916649770478 0.24666752164169256
-126.46566666666666 48.43836666666667 1639.45 0.0 0.0 1.0
-126.758 51.7991 1639.45 0.0 0.0 1.0
-126.11066666666666 52.333 1642.4566666666667 -0.8897377077589192 -0.3953890015773991 0.22811038736438802
-130.90466666666666 59.654066666666665 1736.18 -0.8357270870185646 -0.4182004396744406 0.3559053642185929
-126.46566666666666 75.3242 1639.45 0.0 0.0 1.0
-121.83766666666666 73.04933333333334 1499.75 0.0 0.0 1.0
-126.46566666666666 87.45210000000002 1639.45 0.0 0.0 1.0
-129.26133333333334 98.0075 1669.9566666666667 -0.635477788085817 -2.2144722080447056e-14 0.7721191493866457
-129.26133333333334 98.0075 1669.9566666666667 -0.6354777880858117 -5.195478041121951e-15 0.7721191493866502
-127.89399999999999 103.87166666666667 1695.18 0.0 0.0 1.0
-127.894 103.87166666666667 1695.18 0.0 0.0 1.0
-127.93966666666665 104.87833333333333 1696.7866666666669 0.6714726765015713 -0.6714726765015475 0.3134467888233414
-125.94466666666666 102.46066666666667 1636.4633333333334 0.4783705324217288 0.7970411462453398 0.3686286002231331
-137.24433333333332 129.33333333333334 1994.67 0.0 0.0 1.0
-138.311 130.7553333333333 1994.67 0.0 0.0 1.0
-126.67399999999999 113.545 1636.4633333333334 0.8115562872596698 -0.5416565609093867 0.21905378936032174
-134.7553333333333 141.77766666666665 1994.67 0.0 0.0 1.0
-125.36 113.29266666666668 1585.8766666666668 -0.6561093961529838 0.6969890898155481 0.28935560986070546
-133.604 -134.827 1828.11 -0.7796442576851934 -0.5848327901287083 0.22388711228825545
-127.88066666666667 -114.093 1637.9899999999998 -0.9976512831063338 0.0014851153678348326 0.06848147011148585
-132.683 -125.28466666666667 1824.39 0.0 0.0 1.0
-132.683 -125.28466666666667 1824.39 0.0 0.0 1.0
-131.7073333333333 -116.99166666666667 1824.39 0.0 0.0 1.0
-132.19533333333334 -109.34966666666666 1824.39 0.0 0.0 1.0
-133.49566666666666 -97.80489999999999 1824.39 0.0 0.0 1.0
-135.11133333333333 -92.35556666666668 1994.67 0.0 0.0 1.0
-131.87 -63.17069999999999 1824.39 0.0 0.0 1.0
-132.35766666666666 -51.3008 1824.39 0.0 0.0 1.0
-121.02566666666667 -49.38333333333333 1717.8966666666665 -0.30661360107563834 0.11495300850505709 0.9448671364118162
-132.03266666666664 -36.5041 1824.39 0.0 0.0 1.0
