ply
format ascii 1.0
comment VCGLIB generated
element vertex 786
property float x
property float y
property float z
property float nx
property float ny
property float nz
element face 0
property list uchar int vertex_indices
end_header
-58.532466666666664 -138.616 1881.76 0.0 0.0 1.0
-58.36476666666667 -137.44233333333332 1881.76 0.0 0.0 1.0
-58.0392 -120.78433333333332 1852.63 0.0 0.0 1.0
-58.0392 -120.78433333333334 1852.63 0.0 0.0 1.0
-58.930033333333334 -118.92966666666666 1846.91 0.0 0.0 1.0
-57.448566666666665 -111.35833333333335 1846.91 0.0 0.0 1.0
-57.543866666666666 -102.95133333333332 1852.63 0.0 0.0 1.0
-58.6992 -77.1545 1824.39 0.0 0.0 1.0
-59.08813333333333 -68.9767 1818.84 0.0 0.0 1.0
-58.6018 -68.49036666666666 1818.84 0.0 0.0 1.0
-59.08813333333333 -68.00406666666667 1818.84 0.0 0.0 1.0
-58.2776 -59.574466666666666 1818.84 0.0 0.0 1.0
-58.343466666666664 -45.979800000000004 1813.33 0.0 0.0 1.0
-58.828300000000006 -43.717166666666664 1813.33 0.0 0.0 1.0
-58.828300000000006 -43.07070000000001 1813.33 0.0 0.0 1.0
-58.439699999999995 -40.607866666666666 1818.84 0.0 0.0 1.0
-58.1155 -30.233033333333335 1818.84 0.0 0.0 1.0
-58.439699999999995 -18.07496666666667 1818.84 0.0 0.0 1.0
-58.60183333333333 -14.3465 1818.84 0.0 0.0 1.0
-57.953399999999995 -6.241136666666667 1818.84 0.0 0.0 1.0
-58.763933333333334 -0.24316266666666667 1818.84 0.0 0.0 1.0
-58.666666666666664 11.070696666666668 1813.33 0.0 0.0 1.0
-59.37563333333333 26.8278 1807.8499999999997 -1.0370706721913712e-26 -1.0370706721913712e-26 1.0
-59.37563333333333 28.116799999999998 1807.8499999999997 -4.321217200358797e-27 1.7286299194417773e-27 1.0
-58.40886666666666 44.55186666666666 1807.8499999999997 3.2411252076109988e-28 -2.430637182226591e-27 1.0
-59.2771 57.269066666666674 1802.41 0.0 0.0 1.0
-55.385933333333334 66.94893333333333 1663.7633333333333 -0.032034908178602536 0.8329869069708382 0.5523645331419683
-61.43106666666667 65.5497 1566.49 0.0 0.0 1.0
-59.764700000000005 85.09806666666667 1760.0 0.0 0.0 1.0
-60.13686666666666 88.75853333333333 1754.84 0.0 0.0 1.0
-60.76246666666666 99.55033333333334 1754.84 0.0 0.0 1.0
-59.10333333333333 105.80900000000001 1749.71 0.0 0.0 1.0
-59.571133333333336 113.606 1749.71 0.0 0.0 1.0
-59.571133333333336 113.606 1749.71 0.0 0.0 1.0
-54.50123333333334 150.949 2183.94 0.0 0.0 1.0
-54.3066 151.92233333333334 2183.94 0.0 0.0 1.0
-54.89053333333334 152.50633333333334 2183.94 0.0 0.0 1.0
-54.3066 153.28466666666665 2183.94 0.0 0.0 1.0
-60.50683333333333 125.77 1749.71 0.0 0.0 1.0
-58.36476666666667 -137.44233333333332 1881.76 0.0 0.0 1.0
-59.37106666666667 -128.218 1881.76 0.0 0.0 1.0
-58.930033333333334 -118.92966666666666 1846.91 0.0 0.0 1.0
-58.7321 -85.15339999999999 1835.58 0.0 0.0 1.0
-60.12916666666667 -77.34683333333334 1651.5199999999998 3.739295658812783e-16 -0.6074421963192331 0.7943638826953717
-54.8905 -89.635 2183.94 0.0 0.0 1.0
-59.250233333333334 -65.24820000000001 1818.84 0.0 0.0 1.0
-56.4477 -73.09003333333334 2183.94 0.0 0.0 1.0
-59.250233333333334 -17.588633333333334 1818.84 0.0 0.0 1.0
-59.08813333333333 -2.674773333333333 1818.84 0.0 0.0 1.0
-60.2229 6.889563333333332 1818.84 0.0 0.0 1.0
-58.34343333333334 10.100996666666667 1813.33 0.0 0.0 1.0
-59.31313333333333 15.272733333333335 1813.33 0.0 0.0 1.0
-59.375633333333326 32.95066666666667 1807.8499999999997 3.3032621410540494e-26 3.8410024895977266e-27 1.0
-59.375633333333326 32.95066666666667 1807.8499999999997 3.3032621410540494e-26 3.8410024895977266e-27 1.0
-58.020199999999996 37.41413333333333 1813.33 0.0 0.0 1.0
-60.3424 40.36253333333333 1807.8499999999997 3.318763428021246e-27 4.978373990699669e-27 1.0
-59.11646666666667 53.25300000000001 1802.41 0.0 0.0 1.0
-59.2771 57.269066666666674 1802.41 0.0 0.0 1.0
-63.325966666666666 70.70776666666667 1533.0533333333333 -1.1808018379405192e-16 0.9939603505446427 0.10973979016369115
-63.32470000000001 72.9716 1546.25 0.0 0.0 1.0
-59.7647 85.09806666666667 1760.0 0.0 0.0 1.0
-59.8967 68.57323333333333 1464.2833333333335 -0.4586775056800388 0.4586775056800357 0.7610715416872968
-55.279833333333336 111.241 2183.94 0.0 0.0 1.0
-59.571133333333336 113.606 1749.71 0.0 0.0 1.0
-58.532466666666664 -138.61599999999999 1881.76 0.0 0.0 1.0
-58.700199999999995 -138.11299999999997 1881.76 0.0 0.0 1.0
-59.03563333333333 -129.05666666666664 1881.76 0.0 0.0 1.0
-58.53453333333334 -120.94966666666666 1852.63 0.0 0.0 1.0
-56.4477 -73.09003333333334 2183.94 0.0 0.0 1.0
-59.6364 -43.87876666666667 1813.33 0.0 0.0 1.0
-59.8987 -26.01823333333333 1818.84 0.0 0.0 1.0
-59.859033333333336 26.988933333333332 1807.8499999999997 -2.4198315684464957e-26 6.91380448127571e-27 1.0
-59.859033333333336 26.988933333333332 1807.8499999999997 -2.4198315684464957e-26 6.91380448127571e-27 1.0
-59.375633333333326 28.1168 1807.8499999999997 8.642434400717589e-27 -3.457259838883552e-27 1.0
-59.375633333333326 32.95066666666667 1807.8499999999997 3.30326214105405e-26 3.841002489597723e-27 1.0
-60.02013333333333 34.239666666666665 1807.8499999999997 2.4000908795114953e-27 1.7131346239970907e-28 1.0
-60.34243333333333 41.65156666666667 1807.8499999999997 6.049578921116275e-27 -3.456902240637894e-27 1.0
-59.919666666666664 52.4498 1802.41 0.0 0.0 1.0
-59.2771 57.269066666666674 1802.41 0.0 0.0 1.0
-61.43106666666667 65.5497 1566.49 0.0 0.0 1.0
-57.8811 66.54943333333334 1580.2833333333335 -1.1400013576403735e-16 -0.9991157546430545 0.04204412948366848
-60.07843333333333 85.56866666666667 1760.0 0.0 0.0 1.0
-59.35486666666667 87.0381 1754.84 0.0 0.0 1.0
-55.27983333333333 111.241 2183.94 0.0 0.0 1.0
-55.27983333333333 111.241 2183.94 0.0 0.0 1.0
-61.80393333333334 89.64706666666667 1760.0 0.0 0.0 1.0
-55.86376666666666 117.66399999999999 2183.94 0.0 0.0 1.0
-60.19493333333333 107.21233333333333 1749.71 0.0 0.0 1.0
-58.2313 114.519 1744.61 0.0 0.0 1.0
-55.279833333333336 150.5596666666667 2183.94 0.0 0.0 1.0
-60.50683333333333 125.77 1749.71 0.0 0.0 1.0
-53.33336666666667 158.15066666666667 2183.94 0.0 0.0 1.0
-59.58846666666667 -118.765 1846.91 0.0 0.0 1.0
-59.9177 -108.39533333333333 1846.91 0.0 0.0 1.0
-60.02063333333333 -97.17236666666668 1852.63 0.0 0.0 1.0
-60.02063333333333 -97.17236666666668 1852.63 0.0 0.0 1.0
-60.246900000000004 -94.2387 1846.91 0.0 0.0 1.0
-55.66909999999999 -106.95833333333333 2183.94 0.0 0.0 1.0
-55.66909999999999 -100.34073333333333 2183.94 0.0 0.0 1.0
-61.9164 -79.10520000000001 1828.11 -0.0794207143550392 0.9530485722604711 0.2922169896559962
-58.6992 -77.1545 1824.39 0.0 0.0 1.0
-60.812999999999995 -72.6016 1824.39 0.0 0.0 1.0
-60.385 -68.9767 1818.84 0.0 0.0 1.0
-60.547133333333335 -68.49040000000001 1818.84 0.0 0.0 1.0
-60.385 -58.2776 1818.84 0.0 0.0 1.0
-60.385 -58.2776 1818.84 0.0 0.0 1.0
-60.385 -37.52786666666666 1818.84 0.0 0.0 1.0
-60.2229 -31.854100000000003 1818.84 0.0 0.0 1.0
-59.73656666666667 -30.881466666666665 1818.84 0.0 0.0 1.0
-59.8987 -26.01823333333333 1818.84 0.0 0.0 1.0
-59.8987 -26.01823333333333 1818.84 0.0 0.0 1.0
-61.3008 -23.9837 1824.39 0.0 0.0 1.0
-58.763933333333334 -19.047633333333334 1818.84 0.0 0.0 1.0
-59.250233333333334 -17.588633333333334 1818.84 0.0 0.0 1.0
-59.73656666666667 -14.184400000000002 1818.84 0.0 0.0 1.0
-60.2229 -0.8915936666666667 1818.84 0.0 0.0 1.0
-60.2229 6.889563333333332 1818.84 0.0 0.0 1.0
-60.121199999999995 16.0808 1813.33 0.0 0.0 1.0
-61.25253333333333 20.444466666666667 1813.33 0.0 0.0 1.0
-59.859033333333336 26.988933333333335 1807.8499999999997 -3.45690224063786e-26 2.765521792510314e-26 1.0
-61.0909 37.57576666666667 1813.33 0.0 0.0 1.0
-59.536766666666665 43.90736666666666 1807.8499999999997 9.877593306821486e-28 -9.877739263131951e-28 1.0
-60.9073 63.826433333333334 1770.41 0.0 0.0 1.0
-57.76526666666666 75.0423 1685.63 0.0 0.0 1.0
-60.07843333333333 85.56866666666667 1760.0 0.0 0.0 1.0
-59.35486666666667 87.0381 1754.84 0.0 0.0 1.0
-55.66913333333333 112.21433333333333 2183.94 0.0 0.0 1.0
-55.86376666666666 117.66399999999999 2183.94 0.0 0.0 1.0
-55.86376666666666 117.66399999999999 2183.94 0.0 0.0 1.0
-60.60606666666666 100.4889 1754.84 0.0 0.0 1.0
-61.3881 103.77299999999998 1754.84 0.0 0.0 1.0
-60.91890000000001 104.55499999999999 1754.84 0.0 0.0 1.0
-60.19493333333333 107.21233333333333 1749.71 0.0 0.0 1.0
-60.97463333333334 112.04666666666667 1749.71 0.0 0.0 1.0
-60.5068 112.98233333333333 1749.71 0.0 0.0 1.0
-60.662733333333335 114.85366666666668 1749.71 0.0 0.0 1.0
-55.27983333333333 150.5596666666667 2183.94 0.0 0.0 1.0
-54.89053333333334 152.50633333333334 2183.94 0.0 0.0 1.0
-59.8742 -130.39833333333334 1881.76 0.0 0.0 1.0
-60.0823 -118.43599999999999 1846.91 0.0 0.0 1.0
-60.0823 -118.43599999999999 1846.91 0.0 0.0 1.0
-60.84623333333334 -100.805 1852.63 0.0 0.0 1.0
-60.246900000000004 -94.2387 1846.91 0.0 0.0 1.0
-60.204499999999996 -85.15339999999999 1835.58 0.0 0.0 1.0
-60.812999999999995 -72.6016 1824.39 0.0 0.0 1.0
-63.2044 -56.206266666666664 1653.04 0.0 0.0 1.0
-60.60606666666666 -54.06063333333333 1813.33 0.0 0.0 1.0
-61.41416666666667 -50.1818 1813.33 0.0 0.0 1.0
-60.44446666666667 -44.0404 1813.33 0.0 0.0 1.0
-60.385 -37.52786666666666 1818.84 0.0 0.0 1.0
-61.19553333333334 -37.04153333333333 1818.84 0.0 0.0 1.0
-60.2229 -31.8541 1818.84 0.0 0.0 1.0
-59.73656666666667 -14.184400000000002 1818.84 0.0 0.0 1.0
-61.51976666666667 4.457953333333333 1818.84 0.0 0.0 1.0
-61.09093333333333 14.626266666666666 1813.33 0.0 0.0 1.0
-60.34243333333333 29.405833333333334 1807.8499999999997 4.493972912829222e-26 2.4198315684465167e-26 1.0
-60.34243333333333 29.405833333333334 1807.8499999999997 4.493972912829222e-26 2.4198315684465167e-26 1.0
-60.82580000000001 41.00703333333333 1807.8499999999997 -4.841666101439421e-26 1.3830470044480596e-26 1.0
-60.34243333333333 41.65156666666667 1807.8499999999997 6.049578921116275e-27 -3.456902240637894e-27 1.0
-61.365433333333335 51.3253 1802.41 0.0 0.0 1.0
-61.38066666666666 63.66863333333333 1770.41 0.0 0.0 1.0
-60.9073 63.826433333333334 1770.41 0.0 0.0 1.0
-62.41759999999999 64.10253333333334 1643.96 0.0 0.0 1.0
-60.91890000000001 104.55499999999999 1754.84 0.0 0.0 1.0
-60.97463333333334 112.04666666666667 1749.71 0.0 0.0 1.0
-61.13056666666666 116.10133333333333 1749.71 0.0 0.0 1.0
-61.44246666666666 117.03699999999999 1749.71 0.0 0.0 1.0
-61.048233333333336 -132.57866666666666 1881.76 0.0 0.0 1.0
-60.35086666666667 -120.94966666666666 1852.63 0.0 0.0 1.0
-59.690400000000004 -102.621 1852.63 0.0 0.0 1.0
-60.516 -100.30963333333334 1852.63 0.0 0.0 1.0
-61.17646666666667 -99.31903333333332 1852.63 0.0 0.0 1.0
-60.02063333333333 -97.17236666666668 1852.63 0.0 0.0 1.0
-60.246900000000004 -94.2387 1846.91 0.0 0.0 1.0
-61.033433333333335 -69.46300000000001 1818.84 0.0 0.0 1.0
-60.8713 -65.0861 1818.84 0.0 0.0 1.0
-61.19553333333334 -57.305 1818.84 0.0 0.0 1.0
-61.19553333333334 -57.305 1818.84 0.0 0.0 1.0
-59.57443333333333 -54.22496666666666 1818.84 0.0 0.0 1.0
-61.575766666666674 -45.333333333333336 1813.33 0.0 0.0 1.0
-62.00606666666667 -8.348533333333332 1818.84 0.0 0.0 1.0
-60.92929999999999 15.757566666666667 1813.33 0.0 0.0 1.0
-61.25253333333333 20.444466666666667 1813.33 0.0 0.0 1.0
-60.181266666666666 34.07853333333333 1807.8499999999997 0.0 0.0 1.0
-61.4703 40.52363333333333 1807.8499999999997 3.8406846573684824e-27 -1.9971623850511074e-26 1.0
-61.0651 64.93096666666666 1770.41 0.0 0.0 1.0
-56.168933333333335 69.55376666666666 1736.17 -2.0731289902708335e-17 0.9216814957308234 0.3879474454451173
-55.86376666666666 99.75673333333333 2183.94 0.0 0.0 1.0
-60.862766666666666 85.25493333333334 1760.0 0.0 0.0 1.0
-62.0137 102.36566666666666 1754.84 0.0 0.0 1.0
-61.44246666666666 117.03699999999999 1749.71 0.0 0.0 1.0
-56.25306666666666 149.58633333333333 2183.94 0.0 0.0 1.0
-61.910333333333334 125.302 1749.71 0.0 0.0 1.0
-60.37736666666667 -131.74 1881.76 0.0 0.0 1.0
-61.88676666666667 -128.5533333333333 1881.76 0.0 0.0 1.0
-61.17646666666667 -120.45400000000001 1852.63 0.0 0.0 1.0
-61.1861 -84.6626 1835.58 0.0 0.0 1.0
-57.615566666666666 -100.34073333333333 2183.94 0.0 0.0 1.0
-61.19556666666667 -68.8146 1818.84 0.0 0.0 1.0
-61.19553333333334 -57.305 1818.84 0.0 0.0 1.0
-61.41416666666667 -50.1818 1813.33 0.0 0.0 1.0
-61.575766666666674 -45.333333333333336 1813.33 0.0 0.0 1.0
-61.35766666666667 -28.9362 1818.84 0.0 0.0 1.0
-62.1138 -24.471500000000002 1824.39 0.0 0.0 1.0
-62.04096666666667 -13.509433333333334 1815.1666666666667 0.19410663793498126 0.9706132666707545 0.14224099153304823
-62.4924 4.944276666666666 1818.84 0.0 0.0 1.0
-61.09093333333333 14.626266666666666 1813.33 0.0 0.0 1.0
-61.79253333333333 39.717999999999996 1807.8499999999997 1.3443409385883358e-27 -4.801849096228577e-28 1.0
-62.75933333333333 46.6465 1807.8499999999997 -1.037070672191325e-26 2.419831568446438e-26 1.0
-61.365433333333335 50.52206666666667 1802.41 0.0 0.0 1.0
-61.365433333333335 50.52206666666667 1802.41 0.0 0.0 1.0
-61.52610000000001 52.12853333333334 1802.41 0.0 0.0 1.0
-62.81123333333333 54.377500000000005 1802.41 0.0 0.0 1.0
-61.85403333333333 62.564099999999996 1770.41 0.0 0.0 1.0
-62.011833333333335 63.51083333333333 1770.41 0.0 0.0 1.0
-61.3333 76.78433333333334 1760.0 0.0 0.0 1.0
-62.6393 98.7683 1754.84 0.0 0.0 1.0
-62.0137 102.36566666666666 1754.84 0.0 0.0 1.0
-62.0137 102.36566666666666 1754.84 0.0 0.0 1.0
-62.79569999999999 107.05766666666666 1754.84 0.0 0.0 1.0
-62.79569999999999 107.05766666666666 1754.84 0.0 0.0 1.0
-63.421299999999995 114.565 1754.84 0.0 0.0 1.0
-60.71276666666666 -138.95133333333334 1881.76 0.0 0.0 1.0
-61.21593333333333 -133.585 1881.76 0.0 0.0 1.0
-62.07393333333332 -128.92133333333334 1879.7933333333333 0.9873386097750213 1.7325151572517333e-15 0.15862682511961407
-61.17646666666667 -120.45400000000001 1852.63 0.0 0.0 1.0
-61.893 -114.97933333333333 1846.91 0.0 0.0 1.0
-61.893 -114.97933333333333 1846.91 0.0 0.0 1.0
-62.716033333333336 -108.06599999999999 1846.91 0.0 0.0 1.0
-60.84623333333334 -100.805 1852.63 0.0 0.0 1.0
-61.8405 -84.6626 1835.58 0.0 0.0 1.0
-60.812999999999995 -72.6016 1824.39 0.0 0.0 1.0
-61.51976666666667 -69.3009 1818.84 0.0 0.0 1.0
-61.41416666666667 -50.1818 1813.33 0.0 0.0 1.0
-61.575766666666674 -45.333333333333336 1813.33 0.0 0.0 1.0
-59.48716666666667 -28.3516 1643.96 0.0 0.0 1.0
-62.764199999999995 -31.1382 1824.39 0.0 0.0 1.0
-61.51976666666667 -17.588633333333334 1818.84 0.0 0.0 1.0
-62.00606666666667 -8.348533333333332 1818.84 0.0 0.0 1.0
-61.68186666666667 -1.7021300000000001 1818.84 0.0 0.0 1.0
-62.22223333333333 10.747483333333333 1813.33 0.0 0.0 1.0
-62.383833333333335 11.717166666666666 1813.33 0.0 0.0 1.0
-62.5982 32.46726666666667 1807.8499999999997 3.456902240637919e-27 -2.5926766804784423e-27 1.0
-62.48996666666667 52.931733333333334 1802.41 0.0 0.0 1.0
-60.34063333333333 69.97566666666665 2183.94 0.0 0.0 1.0
-61.47703333333334 60.59876666666667 1791.62 0.0 0.0 1.0
-62.4852 63.353033333333336 1770.41 0.0 0.0 1.0
-59.56206666666666 109.87833333333333 2183.94 0.0 0.0 1.0
-59.17276666666667 110.657 2183.94 0.0 0.0 1.0
-62.6393 98.7683 1754.84 0.0 0.0 1.0
-63.421299999999995 114.565 1754.84 0.0 0.0 1.0
-66.08016666666667 120.82133333333336 1754.84 0.0 0.0 1.0
-55.402899999999995 107.76333333333332 1553.006666666667 0.5773671040477303 -0.6630327096948802 0.4764817447061348
-62.38993333333334 -138.616 1881.76 0.0 0.0 1.0
-61.21593333333334 -133.585 1881.76 0.0 0.0 1.0
-61.892999999999994 -117.44866666666667 1846.91 0.0 0.0 1.0
-61.893 -114.97933333333333 1846.91 0.0 0.0 1.0
-61.67183333333333 -97.50259999999999 1852.63 0.0 0.0 1.0
-61.67183333333333 -97.50259999999999 1852.63 0.0 0.0 1.0
-61.069933333333324 -94.4033 1846.91 0.0 0.0 1.0
-59.56203333333334 -104.81733333333334 2183.94 0.0 0.0 1.0
-59.56203333333334 -104.81733333333334 2183.94 0.0 0.0 1.0
-61.8405 -84.6626 1835.58 0.0 0.0 1.0
-62.168200000000006 -66.7072 1818.84 0.0 0.0 1.0
-62.00606666666667 -65.73453333333333 1818.84 0.0 0.0 1.0
-58.978133333333325 -72.89536666666667 2183.94 0.0 0.0 1.0
-63.302933333333335 -59.412366666666664 1818.84 0.0 0.0 1.0
-62.16816666666667 -37.68996666666666 1818.84 0.0 0.0 1.0
-62.764199999999995 -31.9512 1824.39 0.0 0.0 1.0
-61.35766666666667 -27.47723333333333 1818.84 0.0 0.0 1.0
-62.92680000000001 -26.4228 1824.39 0.0 0.0 1.0
-62.1138 -24.471500000000002 1824.39 0.0 0.0 1.0
-62.6016 -24.1463 1824.39 0.0 0.0 1.0
-62.816633333333336 -17.750766666666667 1818.84 0.0 0.0 1.0
-62.4924 4.944276666666666 1818.84 0.0 0.0 1.0
-62.54546666666666 9.45455 1813.33 0.0 0.0 1.0
-63.030333333333324 18.8283 1813.33 0.0 0.0 1.0
-62.38386666666667 20.121233333333333 1813.33 0.0 0.0 1.0
-63.191966666666666 22.383866666666666 1813.33 0.0 0.0 1.0
-63.515166666666666 25.616133333333334 1813.33 0.0 0.0 1.0
-62.75933333333333 32.6284 1807.8499999999997 8.296565377531136e-28 -3.0420739717613573e-27 1.0
-61.4703 40.52363333333333 1807.8499999999997 3.8406846573684824e-27 -1.997162385051107e-26 1.0
-63.250699999999995 61.176233333333336 1789.8366666666668 -1.872397912706784e-17 0.9984801582613048 0.05511237209991884
-62.4852 63.353033333333336 1770.41 0.0 0.0 1.0
-63.264900000000004 98.14269999999999 1754.84 0.0 0.0 1.0
-63.1085 98.7683 1754.84 0.0 0.0 1.0
-63.1085 100.01943333333334 1754.84 0.0 0.0 1.0
-62.6393 100.95800000000001 1754.84 0.0 0.0 1.0
-60.34063333333333 154.453 2183.94 0.0 0.0 1.0
-61.88676666666667 -128.55333333333334 1881.76 0.0 0.0 1.0
-61.88676666666667 -128.55333333333334 1881.76 0.0 0.0 1.0
-62.551433333333335 -109.218 1846.91 0.0 0.0 1.0
-71.8263 -60.24136666666667 1454.7933333333333 -0.6285932845936731 0.3951399106648656 0.6698768047659955
-63.302933333333335 -59.412366666666664 1818.84 0.0 0.0 1.0
-62.70706666666666 -54.06063333333333 1813.33 0.0 0.0 1.0
-62.9787 -49.84806666666666 1818.84 0.0 0.0 1.0
-63.95136666666667 -40.9321 1818.84 0.0 0.0 1.0
-62.92679999999999 -26.4228 1824.39 0.0 0.0 1.0
-62.6016 -24.1463 1824.39 0.0 0.0 1.0
-63.302933333333335 -16.129666666666665 1818.84 0.0 0.0 1.0
-63.140800000000006 -8.024316666666666 1818.84 0.0 0.0 1.0
-63.140800000000006 -6.889566666666667 1818.84 0.0 0.0 1.0
-63.46503333333334 -2.8368800000000003 1818.84 0.0 0.0 1.0
-63.78926666666667 0.7294846666666667 1818.84 0.0 0.0 1.0
-63.03033333333334 8.48485 1813.33 0.0 0.0 1.0
-62.8687 12.363633333333333 1813.33 0.0 0.0 1.0
-63.030333333333324 18.8283 1813.33 0.0 0.0 1.0
-63.515166666666666 23.83836666666667 1813.33 0.0 0.0 1.0
-62.92046666666667 32.30613333333334 1807.8499999999997 1.7284511203189597e-26 6.568114257212093e-26 1.0
-63.24273333333334 45.03523333333334 1807.8499999999997 -4.424291392656879e-25 -1.1752609471149814e-25 1.0
-63.24273333333334 45.03523333333334 1807.8499999999997 -4.424291392656879e-25 -1.1752609471149814e-25 1.0
-62.75933333333334 46.6465 1807.8499999999997 -4.148282688765308e-26 8.642255601594396e-26 1.0
-62.81123333333333 54.3775 1802.41 0.0 0.0 1.0
-60.34063333333333 69.97566666666665 2183.94 0.0 0.0 1.0
-62.41759999999999 64.10253333333334 1643.96 0.0 0.0 1.0
-64.3137 76.62746666666668 1760.0 0.0 0.0 1.0
-64.7547 84.79446666666666 1763.46 9.418206751644026e-17 -0.9746371652355342 0.22379096528153622
-63.57769999999999 98.7683 1754.84 0.0 0.0 1.0
-64.0469 105.02433333333333 1754.84 0.0 0.0 1.0
-63.001933333333334 125.45800000000001 1749.71 0.0 0.0 1.0
-63.001933333333334 125.45800000000001 1749.71 0.0 0.0 1.0
-63.20986666666666 -116.95466666666668 1846.91 0.0 0.0 1.0
-63.37446666666667 -110.20566666666667 1846.91 0.0 0.0 1.0
-64.0 -44.8485 1813.33 0.0 0.0 1.0
-63.302933333333335 -38.3384 1818.84 0.0 0.0 1.0
-62.92679999999999 -26.4228 1824.39 0.0 0.0 1.0
-62.9787 -9.807506666666667 1818.84 0.0 0.0 1.0
-63.44820000000001 -10.467053333333332 1820.6899999999998 -0.9999587695332669 -4.1921921528379915e-17 0.009080706663869956
-62.8166 -8.672746666666667 1818.84 0.0 0.0 1.0
-63.62713333333334 -5.754813333333334 1818.84 0.0 0.0 1.0
-63.62713333333334 -3.6474166666666665 1818.84 0.0 0.0 1.0
-63.95133333333334 3.647413333333333 1818.84 0.0 0.0 1.0
-63.140800000000006 4.133736666666667 1818.84 0.0 0.0 1.0
-63.03033333333334 8.48485 1813.33 0.0 0.0 1.0
-63.67676666666667 12.686866666666667 1813.33 0.0 0.0 1.0
-63.515166666666666 19.474766666666664 1813.33 0.0 0.0 1.0
-64.854 21.0272 1807.8499999999997 0.0 1.0 0.0
-63.191966666666666 22.383866666666666 1813.33 0.0 0.0 1.0
-63.191966666666666 22.383866666666666 1813.33 0.0 0.0 1.0
-63.403866666666666 31.983866666666668 1807.8499999999997 0.0 0.0 1.0
-63.0816 32.628400000000006 1807.8499999999997 -9.218405975034569e-27 1.1523007468793164e-26 1.0
-63.24273333333334 45.84086666666667 1807.8499999999997 -3.2840303110494445e-26 -1.728361716134312e-27 1.0
-62.971900000000005 53.5743 1802.41 0.0 0.0 1.0
-65.42543333333333 60.3003 1797.0 0.0 0.0 1.0
-63.58973333333333 62.564099999999996 1770.41 0.0 0.0 1.0
-68.93083333333334 63.9623 1411.32 0.0 0.0 1.0
-61.3139 114.16066666666666 2183.94 0.0 0.0 1.0
-63.57769999999999 98.7683 1754.84 0.0 0.0 1.0
-64.2033 104.24233333333332 1754.84 0.0 0.0 1.0
-64.35969999999999 107.05733333333332 1754.84 0.0 0.0 1.0
-64.2033 108.62166666666667 1754.84 0.0 0.0 1.0
-62.89306666666667 -132.243 1881.76 0.0 0.0 1.0
-64.06706666666666 -131.73966666666666 1881.76 0.0 0.0 1.0
-63.53906666666666 -107.73666666666666 1846.91 0.0 0.0 1.0
-59.56203333333334 -104.81733333333334 2183.94 0.0 0.0 1.0
-62.6585 -84.82620000000001 1835.58 0.0 0.0 1.0
-62.48173333333333 -91.58146666666669 2183.94 0.0 0.0 1.0
-58.783433333333335 -90.60823333333333 2183.94 0.0 0.0 1.0
-63.9514 -68.97666666666667 1818.84 0.0 0.0 1.0
-64.48486666666666 -45.49496666666666 1813.33 0.0 0.0 1.0
-64.11346666666667 -39.79736666666667 1818.84 0.0 0.0 1.0
-64.22763333333334 -33.4146 1824.39 0.0 0.0 1.0
-64.22763333333334 -33.4146 1824.39 0.0 0.0 1.0
-63.252 -30.0 1824.39 0.0 0.0 1.0
-63.7398 -28.536600000000004 1824.39 0.0 0.0 1.0
-63.78926666666667 -17.42656666666667 1818.84 0.0 0.0 1.0
-63.0136 -12.5368 1815.1666666666667 -0.18923845941229417 -0.9462703657328453 0.26222356952625153
-63.46503333333334 -2.8368800000000003 1818.84 0.0 0.0 1.0
-64.4377 0.7294846666666667 1818.84 0.0 0.0 1.0
-64.48483333333333 10.262616666666666 1813.33 0.0 0.0 1.0
-63.67676666666667 11.2323 1813.33 0.0 0.0 1.0
-64.1616 16.0808 1813.33 0.0 0.0 1.0
-64.1616 16.0808 1813.33 0.0 0.0 1.0
-64.80806666666666 38.8687 1813.33 0.0 0.0 1.0
-64.80806666666666 38.8687 1813.33 0.0 0.0 1.0
-63.74753333333333 62.87966666666667 1770.41 0.0 0.0 1.0
-63.3247 72.9716 1546.25 0.0 0.0 1.0
-64.00003333333333 84.62746666666668 1760.0 0.0 0.0 1.0
-60.145999999999994 112.01966666666665 2183.94 0.0 0.0 1.0
-63.05883333333333 93.09803333333332 1760.0 0.0 0.0 1.0
-65.09806666666667 97.17646666666667 1760.0 0.0 0.0 1.0
-64.0469 105.02433333333333 1754.84 0.0 0.0 1.0
-64.35969999999999 107.05733333333332 1754.84 0.0 0.0 1.0
-60.34063333333334 154.453 2183.94 0.0 0.0 1.0
-61.31386666666666 -162.044 2183.94 0.0 0.0 1.0
-63.56396666666666 -138.28066666666666 1881.76 0.0 0.0 1.0
-63.868300000000005 -116.13166666666667 1846.91 0.0 0.0 1.0
-63.868300000000005 -116.13166666666667 1846.91 0.0 0.0 1.0
-64.03293333333333 -110.86399999999999 1846.91 0.0 0.0 1.0
-63.53906666666666 -107.73666666666666 1846.91 0.0 0.0 1.0
-63.53906666666668 -94.56790000000001 1846.91 0.0 0.0 1.0
-64.69133333333333 -94.23866666666667 1846.91 0.0 0.0 1.0
-71.67809999999999 -71.54333333333334 1581.6766666666665 -0.3128550914656579 0.41714559695253034 0.8532943470380733
-61.83406666666667 -57.947333333333326 1556.9833333333333 0.21937214935658042 -0.044618124775067075 0.974620481535367
-63.302933333333335 -59.412366666666664 1818.84 0.0 0.0 1.0
-64.3232 -52.929300000000005 1813.33 0.0 0.0 1.0
-64.64646666666667 -44.36363333333333 1813.33 0.0 0.0 1.0
-65.52846666666666 -36.178900000000006 1824.39 0.0 0.0 1.0
-63.46503333333334 -7.537993333333333 1818.84 0.0 0.0 1.0
-63.789233333333335 -4.620063333333333 1818.84 0.0 0.0 1.0
-64.4377 0.7294846666666667 1818.84 0.0 0.0 1.0
-63.67676666666667 12.686866666666667 1813.33 0.0 0.0 1.0
-64.64643333333333 16.888899999999996 1813.33 0.0 0.0 1.0
-64.48483333333333 19.636366666666664 1813.33 0.0 0.0 1.0
-64.854 21.0272 1807.8499999999997 0.0 1.0 0.0
-65.49846666666667 25.055366666666668 1807.8499999999997 -9.6725507856607e-28 2.873374639992247e-28 1.0
-64.37060000000001 34.239666666666665 1807.8499999999997 -8.187519193795296e-26 -3.429755128510126e-26 1.0
-65.0151 48.09666666666667 1807.8499999999997 1.9053815890700072e-29 5.1428753133272e-28 1.0
-63.5366 60.9788 1793.4133333333332 7.016724995515771e-17 0.9984797077186757 0.05512053405064062
-69.46836666666665 63.25736666666666 1514.9399999999998 -9.842832724876259e-28 -8.85879274931401e-27 1.0
-61.50853333333333 96.0584 2183.94 0.0 0.0 1.0
-66.41966666666666 70.87603333333334 1539.6233333333332 2.6788859043637943e-17 -0.8706861689914537 0.49183899309325374
-66.36846666666668 71.0731 1529.13 2.9673928281953416e-17 0.9983088882390494 0.05813229449207429
-61.50853333333333 112.993 2183.94 0.0 0.0 1.0
-61.89783333333333 118.832 2183.94 0.0 0.0 1.0
-65.7255 98.11763333333334 1760.0 0.0 0.0 1.0
-64.2033 104.24233333333332 1754.84 0.0 0.0 1.0
-60.34063333333334 154.453 2183.94 0.0 0.0 1.0
-65.7998 -121.77499999999999 1852.63 0.0 0.0 1.0
-64.03293333333333 -110.86399999999999 1846.91 0.0 0.0 1.0
-64.64396666666667 -99.31886666666666 1852.63 0.0 0.0 1.0
-71.17880000000001 -71.23036666666667 1501.03 0.5344623436717677 0.843194849243587 -0.05807279402582279
-61.31386666666666 -98.78343333333333 2183.94 0.0 0.0 1.0
-61.119233333333334 -70.9489 2183.94 0.0 0.0 1.0
-65.41033333333333 -48.22696666666667 1818.84 0.0 0.0 1.0
-63.95136666666667 -40.9321 1818.84 0.0 0.0 1.0
-64.22763333333334 -33.4146 1824.39 0.0 0.0 1.0
-63.78926666666667 -18.723433333333332 1818.84 0.0 0.0 1.0
-65.0861 -15.805466666666666 1818.84 0.0 0.0 1.0
-65.0861 -15.805466666666666 1818.84 0.0 0.0 1.0
-64.4377 0.7294846666666667 1818.84 0.0 0.0 1.0
-64.27556666666668 2.5126633333333337 1818.84 0.0 0.0 1.0
-65.41033333333333 5.754813333333334 1818.84 0.0 0.0 1.0
-65.49846666666667 25.055366666666668 1807.8499999999997 -9.672550785660703e-28 2.873374639992247e-28 1.0
-63.8384 23.83836666666667 1813.33 0.0 0.0 1.0
-65.17623333333334 29.7281 1807.8499999999997 -8.815100713626574e-26 2.2469864564146296e-26 1.0
-64.53173333333334 30.533733333333334 1807.8499999999997 0.0 0.0 1.0
-65.82076666666667 36.0121 1807.8499999999997 -4.148282688765552e-27 -5.531043585020722e-27 1.0
-72.86423333333333 43.105500000000006 1283.37 -0.6233252289647601 -0.6935754852932411 0.36113530031869584
-65.42543333333333 60.3003 1797.0 0.0 0.0 1.0
-68.93083333333334 63.9623 1411.32 0.0 0.0 1.0
-60.34063333333334 110.07300000000002 2183.94 0.0 0.0 1.0
-67.57126666666666 92.11410000000001 1765.1899999999998 3.2640249877248895e-26 5.984058618573878e-26 1.0
-62.481766666666665 117.46933333333334 2183.94 0.0 0.0 1.0
-63.421299999999995 114.565 1754.84 0.0 0.0 1.0
-62.6764 148.613 2183.94 0.0 0.0 1.0
-65.07339999999999 -138.28066666666666 1881.76 0.0 0.0 1.0
-66.3415 -71.9512 1824.39 0.0 0.0 1.0
-62.28713333333334 -74.06326666666666 2183.94 0.0 0.0 1.0
-66.4242 -50.1818 1813.33 0.0 0.0 1.0
-65.61613333333334 -48.40403333333333 1813.33 0.0 0.0 1.0
-65.0861 -15.805466666666666 1818.84 0.0 0.0 1.0
-65.41033333333333 5.754813333333334 1818.84 0.0 0.0 1.0
-64.48483333333333 10.262616666666666 1813.33 0.0 0.0 1.0
-65.2929 17.21213333333333 1813.33 0.0 0.0 1.0
-65.13126666666666 18.989900000000002 1813.33 0.0 0.0 1.0
-65.49849999999999 29.083566666666666 1807.8499999999997 5.531043585020893e-26 -4.148282688765644e-26 1.0
-65.65963333333333 41.97383333333334 1807.8499999999997 1.3827608962552643e-26 1.3827608962551016e-26 1.0
-65.65963333333333 41.97383333333334 1807.8499999999997 1.3827608962552643e-26 1.3827608962551013e-26 1.0
-64.89963333333333 53.09236666666667 1802.41 0.0 0.0 1.0
-64.89963333333333 53.09236666666667 1802.41 0.0 0.0 1.0
-65.79880000000001 63.66863333333333 1770.41 0.0 0.0 1.0
-63.0657 85.15813333333334 2183.94 0.0 0.0 1.0
-65.16766666666666 68.24459999999999 1770.41 0.0 0.0 1.0
-64.00003333333333 84.62746666666668 1760.0 0.0 0.0 1.0
-62.481766666666665 114.16066666666666 2183.94 0.0 0.0 1.0
-62.481766666666665 117.46933333333334 2183.94 0.0 0.0 1.0
-65.09806666666667 97.17646666666667 1760.0 0.0 0.0 1.0
-67.76473333333333 105.01933333333334 1760.0 0.0 0.0 1.0
-67.05653333333333 123.74266666666666 1749.71 0.0 0.0 1.0
-65.07336666666666 -131.4043333333333 1881.76 0.0 0.0 1.0
-65.67899999999999 -105.92566666666666 1846.91 0.0 0.0 1.0
-65.7998 -101.13513333333333 1852.63 0.0 0.0 1.0
-64.14863333333334 -97.66766666666668 1852.63 0.0 0.0 1.0
-65.67899999999999 -93.74483333333335 1846.91 0.0 0.0 1.0
-68.7462 -79.5107 1829.97 0.0 0.0 1.0
-67.0314 -67.6798 1818.84 0.0 0.0 1.0
-66.383 -57.62916666666666 1818.84 0.0 0.0 1.0
-66.383 -57.62916666666666 1818.84 0.0 0.0 1.0
-66.26263333333334 -45.333333333333336 1813.33 0.0 0.0 1.0
-65.9394 -45.010099999999994 1813.33 0.0 0.0 1.0
-66.26263333333334 -44.525233333333325 1813.33 0.0 0.0 1.0
-65.52846666666666 -36.178900000000006 1824.39 0.0 0.0 1.0
-65.85366666666667 -28.6992 1824.39 0.0 0.0 1.0
-65.73456666666667 -5.26849 1818.84 0.0 0.0 1.0
-65.41033333333334 5.754813333333334 1818.84 0.0 0.0 1.0
-65.2929 17.212133333333334 1813.33 0.0 0.0 1.0
-66.143 29.083566666666666 1807.8499999999997 0.0 0.0 1.0
-65.82076666666667 36.0121 1807.8499999999997 -4.148282688765552e-27 -5.531043585020722e-27 1.0
-65.65963333333333 41.97383333333334 1807.8499999999997 1.3827608962552643e-26 1.3827608962551013e-26 1.0
-62.28709999999999 70.1703 2183.94 0.0 0.0 1.0
-58.821333333333335 49.493533333333325 1298.99 -4.900626917128178e-16 -0.9992742021107044 0.038092899548542405
-63.0657 85.15813333333334 2183.94 0.0 0.0 1.0
-65.2253 85.26506666666667 1763.46 -1.222225613206786e-16 0.9991019716360422 0.0423703938260296
-62.481766666666665 117.46933333333334 2183.94 0.0 0.0 1.0
-65.72550000000001 98.11763333333333 1760.0 0.0 0.0 1.0
-66.98036666666667 101.25493333333333 1760.0 0.0 0.0 1.0
-62.6764 148.613 2183.94 0.0 0.0 1.0
-62.6764 148.613 2183.94 0.0 0.0 1.0
-66.24736666666666 -134.75866666666664 1881.76 0.0 0.0 1.0
-66.5828 -127.88266666666668 1881.76 0.0 0.0 1.0
-65.7998 -121.77499999999999 1852.63 0.0 0.0 1.0
-64.85593333333333 -115.967 1846.91 0.0 0.0 1.0
-61.1192 -105.985 2183.94 0.0 0.0 1.0
-69.5279 -71.25366666666667 1487.33 -9.374476947962337e-17 0.9533422253507449 0.30189170469439813
-67.3171 -76.5041 1824.39 0.0 0.0 1.0
-66.3415 -71.95119999999999 1824.39 0.0 0.0 1.0
-65.08613333333334 -40.121566666666666 1818.84 0.0 0.0 1.0
-66.66669999999999 -35.040666666666674 1824.39 0.0 0.0 1.0
-66.66669999999999 -35.040666666666674 1824.39 0.0 0.0 1.0
-66.143 21.0272 1807.8499999999997 0.0 1.0 0.0
-66.78753333333334 36.173233333333336 1807.8499999999997 -4.225764960269945e-27 -2.6893109759533515e-27 1.0
-66.58583333333333 39.676766666666666 1813.33 0.0 0.0 1.0
-66.6264 41.65156666666667 1807.8499999999997 -3.073225811820589e-27 -1.5362950298437143e-27 1.0
-69.36556666666667 58.570033333333335 1807.8499999999997 0.0 0.0 1.0
-63.64963333333333 85.54743333333333 2183.94 0.0 0.0 1.0
-63.0657 115.52300000000001 2183.94 0.0 0.0 1.0
-67.36843333333333 125.302 1749.71 0.0 0.0 1.0
-66.4151 -138.44833333333335 1881.76 0.0 0.0 1.0
-66.24736666666666 -134.75866666666664 1881.76 0.0 0.0 1.0
-66.24736666666666 -134.75866666666667 1881.76 0.0 0.0 1.0
-66.07966666666665 -130.566 1881.76 0.0 0.0 1.0
-66.24736666666666 -129.22433333333333 1881.76 0.0 0.0 1.0
-66.77666666666666 -123.72033333333333 1854.5500000000002 -0.7788195800817062 0.5839575065385617 0.22898404363322006
-66.62536666666666 -121.27966666666667 1852.63 0.0 0.0 1.0
-67.81893333333333 -114.15633333333334 1846.91 0.0 0.0 1.0
-66.8313 -111.02866666666667 1846.91 0.0 0.0 1.0
-65.01216666666666 -98.1995 2183.94 0.0 0.0 1.0
-67.3171 -76.5041 1824.39 0.0 0.0 1.0
-68.95029999999998 -56.500933333333336 1653.04 0.0 0.0 1.0
-66.58586666666666 -44.84846666666667 1813.33 0.0 0.0 1.0
-66.58586666666666 -44.68683333333333 1813.33 0.0 0.0 1.0
-67.80489999999999 -22.6829 1824.39 0.0 0.0 1.0
-67.67983333333332 -16.2918 1818.84 0.0 0.0 1.0
-67.3556 -11.428566666666667 1818.84 0.0 0.0 1.0
-67.0314 -10.780133333333334 1818.84 0.0 0.0 1.0
-67.03143333333333 -5.26849 1818.84 0.0 0.0 1.0
-67.55556666666666 13.656533333333334 1813.33 0.0 0.0 1.0
-67.55556666666666 13.656533333333334 1813.33 0.0 0.0 1.0
-67.27086666666668 25.69986666666667 1807.8499999999997 -5.358198472988676e-26 -1.2099157842232572e-26 1.0
-66.94863333333333 29.7281 1807.8499999999997 4.84650990761097e-19 4.846259264957166e-19 1.0
-67.27086666666668 42.4572 1807.8499999999997 -3.871158435171579e-25 1.3826464766526264e-25 1.0
-67.75426666666668 49.707966666666664 1807.8499999999997 -6.243686217993458e-27 1.647246933889023e-27 1.0
-65.20683333333334 70.1703 2183.94 0.0 0.0 1.0
-67.8501 64.29983333333334 1770.41 0.0 0.0 1.0
-64.42823333333332 86.13136666666666 2183.94 0.0 0.0 1.0
-65.20683333333334 88.2725 2183.94 0.0 0.0 1.0
-69.46836666666665 63.25736666666666 1514.9399999999998 -9.842832724876259e-28 -8.85879274931401e-27 1.0
-66.35293333333334 76.78433333333334 1760.0 0.0 0.0 1.0
-73.271 74.2056 1398.13 0.0 0.0 1.0
-68.1134 120.039 1754.84 0.0 0.0 1.0
-67.05653333333333 123.74266666666666 1749.71 0.0 0.0 1.0
-67.36843333333333 125.302 1749.71 0.0 0.0 1.0
-67.45096666666667 -120.94966666666666 1852.63 0.0 0.0 1.0
-67.98353333333334 -107.901 1846.91 0.0 0.0 1.0
-66.66666666666667 -105.92566666666666 1846.91 0.0 0.0 1.0
-66.79050000000001 -99.97946666666667 1852.63 0.0 0.0 1.0
-67.1605 -94.07403333333333 1846.91 0.0 0.0 1.0
-69.5279 -71.25366666666667 1487.33 -9.374476947962337e-17 0.9533422253507449 0.30189170469439813
-67.1545 -72.439 1824.39 0.0 0.0 1.0
-67.84193333333333 -67.51769999999999 1818.84 0.0 0.0 1.0
-67.51773333333334 -58.1155 1818.84 0.0 0.0 1.0
-67.1545 -35.52850000000001 1824.39 0.0 0.0 1.0
-68.13010000000001 -23.8211 1824.39 0.0 0.0 1.0
-67.3556 -10.780133333333334 1818.84 0.0 0.0 1.0
-68.16616666666665 4.133736666666667 1818.84 0.0 0.0 1.0
-66.143 21.0272 1807.8499999999997 0.0 1.0 0.0
-67.27086666666668 25.69986666666667 1807.8499999999997 -5.358198472988676e-26 -1.2099157842232572e-26 1.0
-67.27086666666666 25.69986666666667 1807.8499999999997 2.938366904542179e-26 8.642255601594715e-27 1.0
-68.52523333333333 26.747466666666668 1813.33 0.0 0.0 1.0
-67.75426666666667 31.983900000000002 1807.8499999999997 2.5926677409846225e-26 -2.5927660731043645e-27 1.0
-67.10976666666666 41.8127 1807.8499999999997 3.1119630172798684e-26 2.765950910405027e-26 1.0
-67.75426666666667 42.134966666666664 1807.8499999999997 -6.913804481275812e-27 -2.765521792510284e-26 1.0
-66.94863333333333 48.902300000000004 1807.8499999999997 -2.5611392823271663e-28 1.075922267389107e-26 1.0
-67.02703333333334 59.97996666666666 1797.0 0.0 0.0 1.0
-67.83626666666667 124.99000000000001 1749.71 0.0 0.0 1.0
-67.25366666666667 -127.21166666666666 1881.76 0.0 0.0 1.0
-67.7812 -122.931 1852.63 0.0 0.0 1.0
-67.6161 -119.133 1852.63 0.0 0.0 1.0
-69.5279 -71.25366666666667 1487.33 -9.374476947962337e-17 0.9533422253507449 0.30189170469439813
-67.1545 -72.439 1824.39 0.0 0.0 1.0
-67.84193333333333 -67.51769999999999 1818.84 0.0 0.0 1.0
-67.84193333333333 -66.8693 1818.84 0.0 0.0 1.0
-66.76403333333333 -75.0365 2183.94 0.0 0.0 1.0
-68.95029999999998 -56.500933333333336 1653.04 0.0 0.0 1.0
-67.84193333333333 -55.35966666666667 1818.84 0.0 0.0 1.0
-67.80489999999999 -35.691100000000006 1824.39 0.0 0.0 1.0
-67.1545 -34.55283333333333 1824.39 0.0 0.0 1.0
-67.4797 -29.187 1824.39 0.0 0.0 1.0
-68.13010000000001 -23.8211 1824.39 0.0 0.0 1.0
-67.67983333333332 -16.2918 1818.84 0.0 0.0 1.0
-68.16616666666665 -14.832833333333333 1818.84 0.0 0.0 1.0
-67.3556 -11.428566666666667 1818.84 0.0 0.0 1.0
-68.68686666666667 8.48485 1813.33 0.0 0.0 1.0
-66.42423333333333 17.21213333333333 1813.33 0.0 0.0 1.0
-67.71716666666667 24.646433333333334 1813.33 0.0 0.0 1.0
-67.91539999999999 30.050366666666665 1807.8499999999997 3.4569022406378996e-27 -2.592676680478404e-27 1.0
-67.75426666666667 31.983900000000002 1807.8499999999997 2.592667740984621e-26 -2.5927660731043638e-27 1.0
-67.59316666666666 36.4955 1807.8499999999997 0.0 1.0 0.0
-68.0079 63.19526666666667 1770.41 0.0 0.0 1.0
-67.8501 64.29983333333334 1770.41 0.0 0.0 1.0
-64.42823333333332 86.13136666666666 2183.94 0.0 0.0 1.0
-68.86273333333334 76.78433333333334 1760.0 0.0 0.0 1.0
-69.91493333333334 71.0731 1529.13 -8.889107150009034e-18 0.9983088882390495 0.05813229449207407
-63.26036666666666 111.43566666666668 2183.94 0.0 0.0 1.0
-68.67256666666667 93.68733333333334 1765.1899999999998 -7.25296196391518e-27 1.813080413105391e-27 1.0
-68.54903333333333 104.392 1760.0 0.0 0.0 1.0
-65.92373333333333 113.15766666666666 1754.84 0.0 0.0 1.0
-68.1134 120.039 1754.84 0.0 0.0 1.0
-67.83626666666667 124.99000000000001 1749.71 0.0 0.0 1.0
-66.56936666666667 158.15099999999998 2183.94 0.0 0.0 1.0
-67.58909999999999 -138.616 1881.76 0.0 0.0 1.0
-66.91823333333333 -134.25566666666666 1881.76 0.0 0.0 1.0
-68.27659999999999 -117.97733333333333 1852.63 0.0 0.0 1.0
-68.64196666666668 -114.15633333333334 1846.91 0.0 0.0 1.0
-67.98353333333334 -107.901 1846.91 0.0 0.0 1.0
-67.73723333333334 -90.99756666666667 2183.94 0.0 0.0 1.0
-67.84193333333333 -67.51769999999999 1818.84 0.0 0.0 1.0
-68.3636 -50.34343333333334 1813.33 0.0 0.0 1.0
-67.0314 -49.68593333333333 1818.84 0.0 0.0 1.0
-68.1301 -36.6667 1824.39 0.0 0.0 1.0
-67.80489999999999 -35.691100000000006 1824.39 0.0 0.0 1.0
-68.16616666666665 -15.481266666666665 1818.84 0.0 0.0 1.0
-68.16616666666665 -14.832833333333333 1818.84 0.0 0.0 1.0
-68.32826666666666 -9.159066666666666 1818.84 0.0 0.0 1.0
-68.32826666666666 -5.26849 1818.84 0.0 0.0 1.0
-69.46303333333333 -1.8642363333333334 1818.84 0.0 0.0 1.0
-68.16616666666665 4.133736666666667 1818.84 0.0 0.0 1.0
-68.72106666666666 28.43903333333333 1807.8499999999997 8.64225560159465e-27 -1.3827608962551575e-26 1.0
-68.55993333333333 28.92243333333333 1807.8499999999997 -2.281555478820993e-25 -8.29656537753093e-26 1.0
-67.59316666666666 36.4955 1807.8499999999997 0.0 1.0 0.0
-68.39880000000001 41.490433333333335 1807.8499999999997 -3.4569022406378996e-27 2.592676680478404e-27 1.0
-67.75426666666668 42.134966666666664 1807.8499999999997 -2.765521792510355e-26 -4.8396631368930276e-26 1.0
-67.02703333333334 59.97996666666666 1797.0 0.0 0.0 1.0
-68.95466666666667 62.721900000000005 1770.41 0.0 0.0 1.0
-70.62270000000001 65.7143 1643.96 0.0 0.0 1.0
-68.6107 70.2177 1677.7933333333333 -0.7329248483842792 0.6191708589476527 0.2818663052777102
-65.20683333333334 88.2725 2183.94 0.0 0.0 1.0
-68.08946666666667 77.02193333333332 1758.28 -0.44579287104239884 -0.8915857420848116 -0.07964659841356353
-69.30186666666667 95.10323333333334 1765.1899999999998 -3.453800124392637e-27 -2.3031838953680743e-28 1.0
-63.26036666666666 120.0 2183.94 0.0 0.0 1.0
-69.45920000000001 100.295 1765.1899999999998 -5.440009553080978e-27 1.8123762471473507e-27 1.0
-68.54903333333333 104.392 1760.0 0.0 0.0 1.0
-68.54903333333333 104.392 1760.0 0.0 0.0 1.0
-69.33333333333333 108.47066666666667 1760.0 0.0 0.0 1.0
-69.01963333333333 110.353 1760.0 0.0 0.0 1.0
-68.1134 120.03899999999999 1754.84 0.0 0.0 1.0
-66.56936666666667 158.15099999999998 2183.94 0.0 0.0 1.0
-68.5954 -138.2806666666667 1881.76 0.0 0.0 1.0
-67.25366666666667 -127.21166666666666 1881.76 0.0 0.0 1.0
-68.44166666666668 -121.445 1852.63 0.0 0.0 1.0
-68.64196666666668 -114.15633333333334 1846.91 0.0 0.0 1.0
-68.80656666666665 -108.55966666666666 1846.91 0.0 0.0 1.0
-68.44166666666668 -100.64006666666667 1852.63 0.0 0.0 1.0
-67.1605 -94.07403333333333 1846.91 0.0 0.0 1.0
-67.3171 -76.50410000000001 1824.39 0.0 0.0 1.0
-68.95030000000001 -56.500933333333336 1653.04 0.0 0.0 1.0
-68.36363333333334 -45.81816666666666 1813.33 0.0 0.0 1.0
-62.6764 -39.221399999999996 2183.94 0.0 0.0 1.0
-68.6179 -29.837400000000002 1824.39 0.0 0.0 1.0
-68.7805 -27.3984 1824.39 0.0 0.0 1.0
-68.9767 5.1063833333333335 1818.84 0.0 0.0 1.0
-68.68686666666667 8.48485 1813.33 0.0 0.0 1.0
-69.49496666666666 13.0101 1813.33 0.0 0.0 1.0
-69.17173333333334 13.656566666666668 1813.33 0.0 0.0 1.0
-69.0433 29.7281 1807.8499999999997 -6.743856525490993e-26 -5.014332344051664e-26 1.0
-69.0433 48.902300000000004 1807.8499999999997 4.322379549574672e-27 3.1990921098636306e-26 1.0
-68.93083333333334 63.9623 1411.32 0.0 0.0 1.0
-68.67256666666667 93.68733333333334 1765.1899999999998 -7.25296196391518e-27 1.813080413105391e-27 1.0
-69.33333333333333 108.47066666666667 1760.0 0.0 0.0 1.0
-68.2698 120.82133333333336 1754.84 0.0 0.0 1.0
-68.32116666666667 153.285 2183.94 0.0 0.0 1.0
-68.93706666666667 -117.48200000000001 1852.63 0.0 0.0 1.0
-68.64196666666668 -114.15633333333334 1846.91 0.0 0.0 1.0
-69.95886666666667 -111.19366666666667 1846.91 0.0 0.0 1.0
-69.97656666666667 -93.06006666666667 1843.1233333333332 0.0 0.9906976604207808 0.1360813934261078
-70.7034 -79.5107 1829.97 0.0 0.0 1.0
-67.73723333333334 -90.99756666666667 2183.94 0.0 0.0 1.0
-69.62509999999999 -57.953399999999995 1818.84 0.0 0.0 1.0
-68.36363333333334 -45.81816666666666 1813.33 0.0 0.0 1.0
-69.2683 -30.9756 1824.39 0.0 0.0 1.0
-68.1301 -23.8211 1824.39 0.0 0.0 1.0
-70.43566666666668 -18.399200000000004 1818.84 0.0 0.0 1.0
-68.68686666666667 8.48485 1813.33 0.0 0.0 1.0
-68.72106666666666 28.43903333333333 1807.8499999999997 8.64225560159465e-27 -1.3827608962551573e-26 1.0
-68.68683333333333 39.676766666666666 1813.33 0.0 0.0 1.0
-69.36556666666667 42.2961 1807.8499999999997 1.152261013741062e-27 4.60904407140278e-27 1.0
-70.14139999999999 53.899 1813.33 0.0 0.0 1.0
-72.23443333333334 67.033 1643.96 0.0 0.0 1.0
-69.4592 100.295 1765.1899999999998 1.0878290472684758e-26 1.8128947639435888e-26 1.0
-69.33336666666666 111.76466666666666 1760.0 0.0 0.0 1.0
-70.4314 112.392 1760.0 0.0 0.0 1.0
-67.1533 148.41833333333332 2183.94 0.0 0.0 1.0
-69.7694 -138.28066666666666 1881.76 0.0 0.0 1.0
-69.43240000000002 -122.43566666666668 1852.63 0.0 0.0 1.0
-68.93706666666667 -117.48200000000001 1852.63 0.0 0.0 1.0
-69.46503333333334 -109.21833333333332 1846.91 0.0 0.0 1.0
-69.26726666666667 -101.46566666666666 1852.63 0.0 0.0 1.0
-69.26726666666667 -101.46566666666666 1852.63 0.0 0.0 1.0
-70.25796666666666 -98.32816666666668 1852.63 0.0 0.0 1.0
-69.9187 -73.252 1824.39 0.0 0.0 1.0
-69.9187 -73.252 1824.39 0.0 0.0 1.0
-69.62509999999999 -65.8967 1818.84 0.0 0.0 1.0
-69.62509999999999 -57.953399999999995 1818.84 0.0 0.0 1.0
-69.62509999999999 -57.953399999999995 1818.84 0.0 0.0 1.0
-70.11143333333332 -57.304966666666665 1818.84 0.0 0.0 1.0
-70.7879 -54.22223333333333 1813.33 0.0 0.0 1.0
-69.4309 -35.69106666666667 1824.39 0.0 0.0 1.0
-69.26830000000001 -30.9756 1824.39 0.0 0.0 1.0
-70.08130000000001 -26.748 1824.39 0.0 0.0 1.0
-70.11143333333332 -13.535966666666667 1818.84 0.0 0.0 1.0
-69.94933333333334 -12.725433333333333 1818.84 0.0 0.0 1.0
-69.94933333333334 -9.159066666666666 1818.84 0.0 0.0 1.0
-68.32826666666666 -5.26849 1818.84 0.0 0.0 1.0
-68.9767 5.1063833333333335 1818.84 0.0 0.0 1.0
-70.30303333333332 14.9495 1813.33 0.0 0.0 1.0
-69.84893333333333 30.856000000000005 1807.8499999999997 7.78538312665487e-26 6.228220611123248e-26 1.0
-69.6878 34.400800000000004 1807.8499999999997 2.4985116478937055e-26 -1.3551118937140027e-26 1.0
-70.17116666666666 43.74623333333333 1807.8499999999997 2.0741234663198705e-26 -1.7284511156954752e-27 1.0
-70.53253333333333 63.35306666666667 1770.41 0.0 0.0 1.0
-72.9631 71.26876666666666 1409.11 -0.8755520346513072 -0.05150225801446129 0.4803708484466645
-69.14456666666666 97.4631 1765.1899999999998 2.5071608924098226e-27 -1.7908653428855528e-28 1.0
-70.40313333333333 100.45233333333334 1765.1899999999998 -1.2893243998377683e-26 7.574260135437993e-26 1.0
-71.3471 108.319 1765.1899999999998 -2.719716670960944e-27 1.2691242869951888e-26 1.0
-69.33333333333333 108.47066666666667 1760.0 0.0 0.0 1.0
-69.7694 -138.2806666666667 1881.76 0.0 0.0 1.0
-69.7694 -138.2806666666667 1881.76 0.0 0.0 1.0
-71.2788 -130.734 1881.76 0.0 0.0 1.0
-70.58823333333333 -122.931 1852.63 0.0 0.0 1.0
-70.28806666666667 -109.87666666666667 1846.91 0.0 0.0 1.0
-78.48206666666667 -75.87873333333334 1566.51 -4.6072334142019214e-17 -0.9926647394041358 0.12089960770705308
-71.67809999999999 -71.54333333333334 1581.6766666666665 -0.3128550914656578 0.4171455969525304 0.8532943470380734
-70.2439 -73.4146 1824.39 0.0 0.0 1.0
-69.94936666666666 -68.65246666666667 1818.84 0.0 0.0 1.0
-78.19396666666667 -50.29146666666667 1452.4333333333334 0.3240277184473938 0.8635034127615944 0.38648142753159054
-71.94076666666668 -57.99066666666666 1732.8400000000001 -0.3710084814009658 0.8348164399822523 0.40673605478726355
-69.4309 -35.69106666666667 1824.39 0.0 0.0 1.0
-70.56909999999999 -22.0325 1824.39 0.0 0.0 1.0
-69.78726666666667 -15.481266666666668 1818.84 0.0 0.0 1.0
-69.94933333333334 -12.725433333333333 1818.84 0.0 0.0 1.0
-70.30303333333332 15.434366666666667 1813.33 0.0 0.0 1.0
-70.303 18.0202 1813.33 0.0 0.0 1.0
-69.49493333333334 18.505033333333333 1813.33 0.0 0.0 1.0
-69.36553333333335 21.993966666666665 1807.8499999999997 -5.474402051697152e-27 -8.644043685302086e-27 1.0
-70.3323 23.605233333333334 1807.8499999999997 1.0 0.0 0.0
-69.81816666666667 24.646433333333334 1813.33 0.0 0.0 1.0
-71.46023333333333 26.344399999999997 1807.8499999999997 -3.7334544198889194e-27 -1.0785534990790224e-26 1.0
-69.3333 26.9091 1813.33 0.0 0.0 1.0
-68.68683333333333 39.676766666666666 1813.33 0.0 0.0 1.0
-69.84893333333333 42.77946666666667 1807.8499999999997 2.304760393430537e-27 2.3047604098724192e-27 1.0
-70.65456666666667 44.55186666666666 1807.8499999999997 -9.402774094535157e-27 -1.4380713321053787e-26 1.0
-70.14139999999999 53.899 1813.33 0.0 0.0 1.0
-67.1533 69.3917 2183.94 0.0 0.0 1.0
-71.78246666666666 58.408899999999996 1807.8499999999997 1.20943568904655e-28 -4.49234629710063e-28 1.0
-70.53253333333333 63.35306666666667 1770.41 0.0 0.0 1.0
-66.81056666666667 70.1321 1557.0233333333333 0.38601559742033903 0.8878904255591239 0.25028493911671296
-70.94406666666667 71.56156666666666 1539.6233333333332 -0.26177973988319336 -0.942386697558694 0.2082754907594897
-76.36123333333333 71.5607 1513.6633333333332 0.08572173604898216 0.2314503803502946 0.9690626942589693
-69.29443333333332 154.06333333333336 2183.94 0.0 0.0 1.0
-70.60796666666666 -137.77766666666668 1881.76 0.0 0.0 1.0
-71.27569999999999 -112.51033333333334 1846.91 0.0 0.0 1.0
-71.08356666666667 -103.447 1852.63 0.0 0.0 1.0
-70.5882 -98.82353333333333 1852.63 0.0 0.0 1.0
-71.08356666666667 -97.00723333333333 1852.63 0.0 0.0 1.0
-68.51583333333333 -97.81023333333333 2183.94 0.0 0.0 1.0
-70.8943 -73.4146 1824.39 0.0 0.0 1.0
-70.11143333333332 -57.7913 1818.84 0.0 0.0 1.0
-70.7879 -54.22223333333333 1813.33 0.0 0.0 1.0
-70.43566666666668 -18.399200000000004 1818.84 0.0 0.0 1.0
-70.27356666666667 -14.832833333333333 1818.84 0.0 0.0 1.0
-70.9495 13.656566666666668 1813.33 0.0 0.0 1.0
-70.62626666666667 14.303033333333333 1813.33 0.0 0.0 1.0
-70.30303333333332 15.434366666666667 1813.33 0.0 0.0 1.0
-70.97683333333333 31.983900000000002 1807.8499999999997 2.1021353007687655e-26 2.0469141304847245e-26 1.0
-70.1712 49.70793333333334 1807.8499999999997 2.1607650436319598e-27 1.7284958177877953e-27 1.0
-71.4602 50.99696666666667 1807.8499999999997 7.778342928340732e-27 4.3211724982662376e-27 1.0
-70.14139999999999 53.899 1813.33 0.0 0.0 1.0
-70.073 69.58636666666666 2183.94 0.0 0.0 1.0
-70.53253333333333 63.35306666666667 1770.41 0.0 0.0 1.0
-71.16369999999999 64.93096666666666 1770.41 0.0 0.0 1.0
-77.19366666666666 65.45196666666668 1497.25 -0.5307151536070205 -0.15163290103057822 0.8338758235234595
-71.49366666666667 63.932500000000005 1514.9399999999998 3.446395170625747e-27 8.861672847917019e-27 1.0
-68.86273333333334 76.78433333333334 1760.0 0.0 0.0 1.0
-71.3471 108.319 1765.1899999999998 -2.719716670960944e-27 1.2691242869951888e-26 1.0
-70.77566666666667 -138.44833333333335 1881.76 0.0 0.0 1.0
-70.9465 -110.69966666666669 1846.91 0.0 0.0 1.0
