ply
format ascii 1.0
comment VCGLIB generated
element vertex 734
property float x
property float y
property float z
property float nx
property float ny
property float nz
element face 0
property list uchar int vertex_indices
end_header
-55.944633333333336 -20.969333333333335 1775.67 0.0 0.0 1.0
-54.836800000000004 -8.94164 1775.67 0.0 0.0 1.0
-55.06903333333333 -3.3925066666666672 1770.41 0.0 0.0 1.0
-55.929233333333336 18.800366666666665 1765.1899999999998 -3.6266730862598126e-27 5.440393851562209e-27 1.0
-54.19863333333333 30.757099999999998 1765.1899999999998 1.1331552575712917e-28 -3.682949658592866e-28 1.0
-54.90193333333334 33.64706666666667 1760.0 0.0 0.0 1.0
-54.827933333333334 47.2763 1765.1899999999998 0.0 0.0 1.0
-55.37253333333333 51.843133333333334 1760.0 0.0 0.0 1.0
-55.215666666666664 52.784333333333336 1760.0 0.0 0.0 1.0
-53.880766666666666 60.13686666666666 1754.84 0.0 0.0 1.0
-53.880766666666666 60.13686666666666 1754.84 0.0 0.0 1.0
-55.215666666666664 63.92156666666667 1760.0 0.0 0.0 1.0
-47.3846 98.35896666666667 2301.54 0.0 0.0 1.0
-55.89896666666667 77.04566666666666 1744.61 0.0 0.0 1.0
-55.89896666666667 77.04566666666666 1744.61 0.0 0.0 1.0
-55.03873333333333 82.71316666666667 1739.53 0.0 0.0 1.0
-55.50386666666666 84.72866666666665 1739.53 0.0 0.0 1.0
-54.4186 86.89923333333333 1739.53 0.0 0.0 1.0
-55.65893333333333 89.37986666666666 1739.53 0.0 0.0 1.0
-55.57489999999999 94.84056666666667 1734.49 0.0 0.0 1.0
-55.49133333333333 99.03663333333333 1729.4800000000002 1.5099030548369895e-26 4.530362519267756e-26 1.0
-55.95373333333333 100.11560000000001 1729.4800000000002 -1.2616120659821963e-27 -5.6698969580592964e-27 1.0
-48.82053333333334 -168.30766666666668 2301.54 0.0 0.0 1.0
-48.0 -166.25633333333334 2301.54 0.0 0.0 1.0
-54.214200000000005 -118.27833333333332 1797.0 0.0 0.0 1.0
-54.214200000000005 -117.15733333333333 1797.0 0.0 0.0 1.0
-56.02393333333333 -114.84333333333335 1793.4133333333332 0.8772900644836655 -0.43857636878779094 0.1949690013801204
-55.976 -108.50833333333334 1797.0 0.0 0.0 1.0
-55.24946666666667 -90.9381 1791.62 0.0 0.0 1.0
-54.2914 -81.3573 1791.62 0.0 0.0 1.0
-54.4073 -69.32453333333332 1761.7300000000002 -1.9526413765096247e-16 0.8967098904698385 0.4426187663594603
-55.409166666666664 -71.4571 1791.62 0.0 0.0 1.0
-52.549033333333334 -68.4706 1760.0 0.0 0.0 1.0
-55.96020000000001 -65.0348 1786.2699999999998 -2.2133585437545534e-27 -7.746754903140956e-28 1.0
-55.32339999999999 -57.074600000000004 1786.2699999999998 -2.0078907732692335e-40 -7.082747340014861e-27 1.0
-54.52736666666667 -48.1592 1786.2699999999998 -2.090229843310967e-27 1.8935786835814723e-27 1.0
-54.444433333333336 -42.4603 1780.95 0.0 0.0 1.0
-55.944633333333336 -18.595466666666663 1775.67 0.0 0.0 1.0
-55.628099999999996 -16.696366666666666 1775.67 0.0 0.0 1.0
-55.944633333333336 -14.638966666666667 1775.67 0.0 0.0 1.0
-54.836800000000004 -8.94164 1775.67 0.0 0.0 1.0
-55.542399999999994 -1.341222 1770.41 0.0 0.0 1.0
-55.614533333333334 24.778766666666666 1765.1899999999998 3.6263315840820695e-27 -8.058704337139485e-28 1.0
-54.98523333333333 25.5654 1765.1899999999998 0.0 0.0 1.0
-55.843133333333334 33.9608 1760.0 0.0 0.0 1.0
-54.827933333333334 47.27629999999999 1765.1899999999998 -6.7982112004084695e-28 -4.7596842559066675e-27 1.0
-55.37253333333334 56.70590000000001 1760.0 0.0 0.0 1.0
-56.156866666666666 57.960766666666665 1760.0 0.0 0.0 1.0
-55.37253333333334 64.54903333333334 1760.0 0.0 0.0 1.0
-47.3846 97.74360000000001 2301.54 0.0 0.0 1.0
-54.96596666666667 80.93293333333334 1744.61 0.0 0.0 1.0
-47.17946666666666 116.82033333333334 2301.54 0.0 0.0 1.0
-55.65893333333333 89.37986666666666 1739.53 0.0 0.0 1.0
-55.65893333333333 89.37986666666666 1739.53 0.0 0.0 1.0
-56.03866666666667 97.6232 1734.49 0.0 0.0 1.0
-55.49133333333333 99.03663333333333 1729.4800000000002 1.5099030548369912e-26 4.530362519267759e-26 1.0
-56.79153333333333 104.59166666666665 1724.5 0.0 0.0 1.0
-57.47126666666666 107.66300000000001 1719.54 0.0 0.0 1.0
-57.72726666666667 116.74233333333332 1700.0 0.0 0.0 1.0
-48.82053333333334 -166.87166666666667 2301.54 0.0 0.0 1.0
-48.20513333333333 -160.10233333333335 2301.54 0.0 0.0 1.0
-56.13613333333333 -106.266 1797.0 0.0 0.0 1.0
-55.976 -96.97700000000002 1797.0 0.0 0.0 1.0
-55.4092 -88.86226666666666 1791.62 0.0 0.0 1.0
-55.800999999999995 -64.55720000000001 1786.2699999999998 2.9730050563023855e-27 -2.0111504792633904e-27 1.0
-55.3234 -60.7363 1786.2699999999998 2.7544017433389524e-27 3.9348596333413455e-28 1.0
-55.4826 -59.9403 1786.2699999999998 4.249648404008529e-26 3.187236303006404e-26 1.0
-56.278600000000004 -55.004999999999995 1786.2699999999998 3.541373670007227e-27 2.478961569005056e-26 1.0
-55.800999999999995 -53.73133333333334 1786.2699999999998 -4.631667272158936e-32 -7.081310877987336e-27 1.0
-55.80100000000001 -51.02486666666667 1786.2699999999998 -6.138216265445412e-26 1.1803425568952413e-26 1.0
-55.96020000000001 -50.38803333333334 1786.2699999999998 -9.44349835515236e-27 -5.508199364163731e-27 1.0
-55.873 -32.619033333333334 1780.95 0.0 0.0 1.0
-55.87303333333333 -28.333299999999998 1780.95 0.0 0.0 1.0
-56.26113333333333 -14.164166666666667 1775.67 0.0 0.0 1.0
-56.01576666666667 -3.5502966666666667 1770.41 0.0 0.0 1.0
-56.01576666666667 -0.23668566666666666 1770.41 0.0 0.0 1.0
-55.38463333333333 5.601576666666666 1770.41 0.0 0.0 1.0
-55.38463333333333 5.601576666666666 1770.41 0.0 0.0 1.0
-56.33136666666667 7.96844 1770.41 0.0 0.0 1.0
-55.929233333333336 18.800366666666665 1765.1899999999998 -3.626673086259815e-27 5.440393851562211e-27 1.0
-56.401166666666676 24.3068 1765.1899999999998 -1.885620029540997e-27 -1.5470608928115019e-27 1.0
-55.37253333333333 51.843133333333334 1760.0 0.0 0.0 1.0
-56.31373333333334 64.86276666666667 1760.0 0.0 0.0 1.0
-49.025666666666666 93.2308 2301.54 0.0 0.0 1.0
-49.025666666666666 93.2308 2301.54 0.0 0.0 1.0
-55.658899999999996 85.65890000000002 1739.53 0.0 0.0 1.0
-57.056000000000004 114.796 1704.84 0.0 0.0 1.0
-48.20513333333333 168.718 2301.54 0.0 0.0 1.0
-48.82053333333334 -163.795 2301.54 0.0 0.0 1.0
-56.7768 -110.911 1797.0 0.0 0.0 1.0
-55.976 -106.426 1797.0 0.0 0.0 1.0
-56.2963 -99.53953333333334 1797.0 0.0 0.0 1.0
-56.13616666666667 -99.05906666666668 1797.0 0.0 0.0 1.0
-55.976 -95.6957 1797.0 0.0 0.0 1.0
-57.09713333333334 -93.13313333333333 1797.0 0.0 0.0 1.0
-55.4092 -88.86226666666666 1791.62 0.0 0.0 1.0
-56.0479 -83.43313333333333 1791.62 0.0 0.0 1.0
-56.119400000000006 -58.666666666666664 1786.2699999999998 -1.664234328319727e-25 -5.311170840699222e-26 1.0
-55.96019999999999 -56.9154 1786.2699999999998 4.721831560009683e-27 2.360915780004842e-27 1.0
-56.278600000000004 -51.3433 1786.2699999999998 -5.312060505010959e-27 -5.312060505010919e-27 1.0
-56.19046666666666 -40.7143 1780.95 0.0 0.0 1.0
-56.26113333333333 -17.804166666666664 1775.67 0.0 0.0 1.0
-56.26113333333333 -14.164166666666667 1775.67 0.0 0.0 1.0
-55.46983333333333 -9.258153333333333 1775.67 0.0 0.0 1.0
-56.33136666666667 7.96844 1770.41 0.0 0.0 1.0
-56.87316666666667 17.6991 1765.1899999999998 -3.626929247944048e-27 -5.122419645108585e-31 1.0
-58.0392 39.29410000000001 1760.0 0.0 0.0 1.0
-55.91396666666666 44.9658 1754.84 0.0 0.0 1.0
-55.843133333333334 57.17646666666667 1760.0 0.0 0.0 1.0
-49.025666666666666 95.69233333333334 2301.54 0.0 0.0 1.0
-56.8116 94.99516666666666 1734.49 0.0 0.0 1.0
-56.72446666666667 100.26993333333333 1729.4800000000002 5.672677899408044e-26 3.4034104150164047e-26 1.0
-56.9452 103.20866666666666 1724.5 0.0 0.0 1.0
-56.9452 103.20866666666666 1724.5 0.0 0.0 1.0
-57.09889999999999 103.97700000000002 1724.5 0.0 0.0 1.0
-50.666666666666664 -167.077 2301.54 0.0 0.0 1.0
-48.82053333333334 -163.795 2301.54 0.0 0.0 1.0
-49.43593333333334 -161.53833333333333 2301.54 0.0 0.0 1.0
-50.256400000000006 -151.69233333333332 2301.54 0.0 0.0 1.0
-56.456466666666664 -109.30933333333333 1797.0 0.0 0.0 1.0
-56.456466666666664 -106.90666666666665 1797.0 0.0 0.0 1.0
-56.61663333333333 -98.73873333333334 1797.0 0.0 0.0 1.0
-56.13616666666667 -94.09410000000001 1797.0 0.0 0.0 1.0
-56.36723333333333 -90.29936666666667 1791.62 0.0 0.0 1.0
-56.36723333333333 -70.33933333333333 1791.62 0.0 0.0 1.0
-56.4378 -64.55720000000001 1786.2699999999998 1.1899015531224237e-26 -1.1049085850422526e-26 1.0
-56.597 -56.9154 1786.2699999999998 -1.416549468002933e-26 2.124824202004421e-26 1.0
-56.278600000000004 -55.004999999999995 1786.2699999999998 3.541373670007231e-27 2.4789615690050572e-26 1.0
-56.278600000000004 -55.004999999999995 1786.2699999999998 3.541373670007228e-27 2.478961569005056e-26 1.0
-56.4378 -50.228833333333334 1786.2699999999998 -3.541373670007281e-27 3.541002961991999e-27 1.0
-57.14286666666666 -24.841266666666666 1780.95 0.0 0.0 1.0
-57.46033333333333 -24.206333333333333 1780.95 0.0 0.0 1.0
-56.26113333333333 -14.164166666666668 1775.67 0.0 0.0 1.0
-56.96253333333333 -0.07889533333333333 1770.41 0.0 0.0 1.0
-56.33136666666667 7.96844 1770.41 0.0 0.0 1.0
-57.59366666666667 10.019739999999999 1770.41 0.0 0.0 1.0
-57.1878 18.013766666666665 1765.1899999999998 -1.0883093483992116e-26 1.5367259011440576e-30 1.0
-57.030499999999996 31.07176666666666 1765.1899999999998 8.971245733656912e-28 -1.511891643605825e-27 1.0
-55.843133333333334 33.9608 1760.0 0.0 0.0 1.0
-57.499500000000005 66.79610000000001 1753.1299999999999 3.6129976118346685e-16 0.9733222814342835 0.22944222903284697
-49.025666666666666 93.2308 2301.54 0.0 0.0 1.0
-57.76483333333332 77.20116666666667 1744.61 0.0 0.0 1.0
-56.5703 100.88633333333333 1729.4800000000002 1.1265266798676107e-27 6.56110327579721e-27 1.0
-56.79153333333333 104.59166666666665 1724.5 0.0 0.0 1.0
-58.14706666666667 113.77233333333334 1714.61 0.0 0.0 1.0
-50.46156666666667 168.718 2301.54 0.0 0.0 1.0
-51.48716666666667 -156.0 2301.54 0.0 0.0 1.0
-55.703599999999994 -116.12466666666667 1793.4133333333332 -0.8612204959190759 0.43054284223327327 0.2700594719882934
-50.256400000000006 -151.69233333333332 2301.54 0.0 0.0 1.0
-57.9365 -114.20633333333335 1780.95 0.0 0.0 1.0
-56.936933333333336 -107.38733333333333 1797.0 0.0 0.0 1.0
-56.2963 -99.53953333333334 1797.0 0.0 0.0 1.0
-60.6136 -84.10396666666666 1768.67 2.636911550029461e-17 0.5333101414953288 0.845919791102107
-56.278600000000004 -65.194 1786.2699999999998 -2.360915780004856e-27 -3.147887706673131e-27 1.0
-56.597 -56.9154 1786.2699999999998 -1.416549468002933e-26 2.124824202004421e-26 1.0
-56.4378 -53.89053333333334 1786.2699999999998 -2.4208959968718127e-31 -3.0348881885782143e-27 1.0
-56.597 -50.86566666666667 1786.2699999999998 -5.901959931776791e-27 -2.3605862617694762e-27 1.0
-55.7143 -45.15873333333334 1780.95 0.0 0.0 1.0
-56.50796666666667 -27.063466666666667 1780.95 0.0 0.0 1.0
-57.52723333333333 -18.911966666666668 1775.67 0.0 0.0 1.0
-58.00196666666667 -6.884273333333334 1775.67 0.0 0.0 1.0
-56.96253333333333 -4.023666666666667 1770.41 0.0 0.0 1.0
-57.1878 16.597833333333334 1765.1899999999998 0.0 0.0 1.0
-57.1878 18.013766666666665 1765.1899999999998 -1.0883093483992116e-26 1.5367259011440576e-30 1.0
-57.1878 18.013766666666665 1765.1899999999998 -1.0883093483992116e-26 1.5367259011440576e-30 1.0
-57.1878 18.328433333333333 1765.1899999999998 -1.4509766610957717e-26 -7.253346253931144e-27 1.0
-56.78433333333333 50.274499999999996 1760.0 0.0 0.0 1.0
-56.4706 57.8039 1760.0 0.0 0.0 1.0
-56.9412 64.54903333333333 1760.0 0.0 0.0 1.0
-56.9412 64.54903333333333 1760.0 0.0 0.0 1.0
-57.499500000000005 66.79610000000001 1753.1299999999999 3.6129976118346685e-16 0.9733222814342835 0.22944222903284697
-57.76483333333332 77.20116666666667 1744.61 0.0 0.0 1.0
-57.5194 87.82946666666668 1739.53 0.0 0.0 1.0
-57.27536666666666 96.54106666666667 1734.49 0.0 0.0 1.0
-57.47126666666666 107.66300000000001 1719.54 0.0 0.0 1.0
-58.7879 117.197 1700.0 0.0 0.0 1.0
-58.78786666666667 120.37866666666666 1700.0 0.0 0.0 1.0
-58.78786666666667 120.37866666666666 1700.0 0.0 0.0 1.0
-50.666666666666664 -167.077 2301.54 0.0 0.0 1.0
-50.666666666666664 -167.077 2301.54 0.0 0.0 1.0
-51.48716666666667 -156.0 2301.54 0.0 0.0 1.0
-56.936933333333336 -107.38733333333333 1797.0 0.0 0.0 1.0
-56.936933333333336 -98.89890000000001 1797.0 0.0 0.0 1.0
-56.6866 -89.66066666666666 1791.62 0.0 0.0 1.0
-57.80436666666666 -84.07186666666666 1791.62 0.0 0.0 1.0
-58.60373333333334 -77.48280000000001 1765.1899999999998 -9.285389921223037e-25 -6.818821820453235e-25 1.0
-58.12376666666666 -74.81036666666667 1791.62 0.0 0.0 1.0
-57.32533333333333 -69.22156666666666 1791.62 0.0 0.0 1.0
-58.25393333333333 -39.2857 1780.95 0.0 0.0 1.0
-57.301566666666666 -32.9365 1780.95 0.0 0.0 1.0
-58.160266666666665 -19.86153333333333 1775.67 0.0 0.0 1.0
-57.527233333333335 -18.911966666666668 1775.67 0.0 0.0 1.0
-57.52723333333333 -18.911966666666668 1775.67 0.0 0.0 1.0
-57.84373333333334 -14.797233333333333 1775.67 0.0 0.0 1.0
-56.96253333333333 -4.023666666666667 1770.41 0.0 0.0 1.0
-57.97443333333334 16.125866666666667 1765.1899999999998 -1.4503619056059864e-26 3.625904764014944e-26 1.0
-57.502433333333336 18.013766666666665 1765.1899999999998 -3.625904764015001e-27 -7.251809528030055e-27 1.0
-57.030466666666676 25.093433333333333 1765.1899999999998 -1.740581790533446e-27 -2.1758655405656782e-27 1.0
-58.13176666666667 26.037366666666667 1765.1899999999998 -2.5383254092671397e-26 -9.066106443443032e-27 1.0
-58.1961 50.7451 1760.0 0.0 0.0 1.0
-59.1033 67.29043333333334 1749.71 0.0 0.0 1.0
-58.54226666666667 74.8688 1744.61 0.0 0.0 1.0
-52.71793333333333 117.02566666666667 2301.54 0.0 0.0 1.0
-58.357499999999995 94.68599999999999 1734.49 0.0 0.0 1.0
-58.697300000000006 107.81633333333333 1719.54 0.0 0.0 1.0
-59.00383333333334 110.42133333333334 1719.54 0.0 0.0 1.0
-58.14706666666667 113.77233333333334 1714.61 0.0 0.0 1.0
-58.14706666666667 113.77233333333334 1714.61 0.0 0.0 1.0
-58.7879 116.894 1700.0 0.0 0.0 1.0
-57.43803333333333 -121.67766666666667 1795.2066666666667 -0.7589896534353155 0.6506367148048379 0.024628668784723674
-58.09523333333333 -114.68266666666666 1780.95 0.0 0.0 1.0
-57.25726666666666 -109.14933333333333 1797.0 0.0 0.0 1.0
-58.92216666666667 -75.60876666666667 1791.62 0.0 0.0 1.0
-57.80440000000001 -68.2635 1791.62 0.0 0.0 1.0
-58.6028 -67.62476666666667 1791.62 0.0 0.0 1.0
-58.66669999999999 -60.7363 1786.2699999999998 4.7218315600096825e-27 -2.3609157800048412e-27 1.0
-57.93646666666666 -38.65076666666667 1780.95 0.0 0.0 1.0
-58.25393333333333 -37.38093333333334 1780.95 0.0 0.0 1.0
-57.936499999999995 -25.634933333333333 1780.95 0.0 0.0 1.0
-59.10976666666667 -12.739866666666666 1775.67 0.0 0.0 1.0
-58.00196666666667 -6.884273333333334 1775.67 0.0 0.0 1.0
-58.224866666666664 -0.23668633333333333 1770.41 0.0 0.0 1.0
-57.593700000000005 4.18146 1770.41 0.0 0.0 1.0
-58.761066666666665 19.901666666666667 1765.1899999999998 0.0 0.0 1.0
-59.075700000000005 21.317633333333333 1765.1899999999998 -5.655766163257882e-25 4.13297834639102e-25 1.0
-58.603766666666665 46.64703333333333 1765.1899999999998 0.0 0.0 1.0
-53.743599999999994 86.46153333333332 2301.54 0.0 0.0 1.0
-58.85323333333333 76.5792 1744.61 0.0 0.0 1.0
-58.07583333333333 79.06703333333333 1744.61 0.0 0.0 1.0
-59.31973333333334 79.37803333333333 1744.61 0.0 0.0 1.0
-59.00383333333334 110.42133333333334 1719.54 0.0 0.0 1.0
-58.72743333333333 114.948 1704.84 0.0 0.0 1.0
-52.10256666666666 -168.9226666666667 2301.54 0.0 0.0 1.0
-51.48716666666667 -166.46166666666667 2301.54 0.0 0.0 1.0
-57.936499999999995 -114.20633333333335 1780.95 0.0 0.0 1.0
-57.39573333333333 -111.82433333333334 1798.8033333333333 0.8274039077170778 0.4728479245439942 0.30301421377378746
-58.2182 -105.30533333333334 1797.0 0.0 0.0 1.0
-57.57756666666666 -99.37936666666667 1797.0 0.0 0.0 1.0
-58.2182 -87.2072 1797.0 0.0 0.0 1.0
-59.23303333333333 -77.0108 1765.1899999999998 7.685257652850238e-31 -2.176464999786676e-26 1.0
-58.66669999999999 -60.7363 1786.2699999999998 4.721831560009683e-27 -2.3609157800048423e-27 1.0
-58.507466666666666 -50.547266666666665 1786.2699999999998 0.0 0.0 1.0
-57.39306666666667 -48.1592 1786.2699999999998 -3.6134640586589165e-28 5.059071616043442e-28 1.0
-59.047599999999996 -35.634933333333336 1780.95 0.0 0.0 1.0
-58.730133333333335 -33.25393333333333 1780.95 0.0 0.0 1.0
-58.95153333333334 -16.379833333333334 1775.67 0.0 0.0 1.0
-59.1098 -8.783383333333333 1775.67 0.0 0.0 1.0
-58.79326666666666 -7.042533333333334 1775.67 0.0 0.0 1.0
-59.3294 3.86588 1770.41 0.0 0.0 1.0
-57.278099999999995 7.96844 1770.41 0.0 0.0 1.0
-58.9184 14.709933333333334 1765.1899999999998 -1.0075088135842138e-27 4.029352168569753e-28 1.0
-58.44643333333334 15.496566666666666 1765.1899999999998 -9.971472848460965e-27 3.626246216451418e-27 1.0
-58.761066666666665 19.901666666666667 1765.1899999999998 0.0 0.0 1.0
-58.60373333333334 27.6106 1765.1899999999998 -7.883016651114602e-26 -2.9447468970250586e-26 1.0
-58.98036666666667 38.82353333333333 1760.0 0.0 0.0 1.0
-58.98036666666667 39.60783333333333 1760.0 0.0 0.0 1.0
-59.354833333333325 44.809400000000004 1754.84 0.0 0.0 1.0
-58.603766666666665 46.64703333333333 1765.1899999999998 0.0 0.0 1.0
-58.603766666666665 46.64703333333333 1765.1899999999998 0.0 0.0 1.0
-53.94873333333334 85.43589999999999 2301.54 0.0 0.0 1.0
-58.85323333333333 76.5792 1744.61 0.0 0.0 1.0
-58.85323333333333 76.5792 1744.61 0.0 0.0 1.0
-60.465133333333334 84.7287 1739.53 0.0 0.0 1.0
-59.06976666666666 86.74419999999999 1739.53 0.0 0.0 1.0
-59.097 104.59166666666665 1724.5 0.0 0.0 1.0
-59.242466666666665 116.894 1700.0 0.0 0.0 1.0
-59.8485 117.34866666666666 1700.0 0.0 0.0 1.0
-52.10256666666666 -168.9226666666667 2301.54 0.0 0.0 1.0
-51.48716666666667 -156.0 2301.54 0.0 0.0 1.0
-59.36506666666667 -116.11133333333333 1780.95 0.0 0.0 1.0
-58.730133333333335 -115.47633333333333 1780.95 0.0 0.0 1.0
-57.09713333333334 -93.13313333333333 1797.0 0.0 0.0 1.0
-59.23303333333333 -77.0108 1765.1899999999998 7.6852576528493294e-31 -2.176464999786676e-26 1.0
-58.6028 -73.37326666666667 1791.62 0.0 0.0 1.0
-59.72056666666666 -70.3393 1791.62 0.0 0.0 1.0
-59.7811 -55.80100000000001 1786.2699999999998 2.1248242020043924e-26 -7.43688470701543e-26 1.0
-58.25393333333333 -39.2857 1780.95 0.0 0.0 1.0
-59.20633333333333 -25.793666666666667 1780.95 0.0 0.0 1.0
-60.0 -23.73013333333333 1780.95 0.0 0.0 1.0
-58.160266666666665 -19.86153333333333 1775.67 0.0 0.0 1.0
-58.47676666666666 -17.645899999999997 1775.67 0.0 0.0 1.0
-59.26806666666667 -14.322466666666665 1775.67 0.0 0.0 1.0
-59.58456666666667 -13.531166666666666 1775.67 0.0 0.0 1.0
-58.95153333333334 -7.517309999999999 1775.67 0.0 0.0 1.0
-59.17159999999999 10.6509 1770.41 0.0 0.0 1.0
-59.5477 13.766 1765.1899999999998 0.0 0.0 1.0
-59.23303333333333 19.744333333333334 1765.1899999999998 0.0 0.0 1.0
-59.23303333333333 20.531000000000002 1765.1899999999998 2.4170990953576815e-27 4.834198263060849e-27 1.0
-59.5477 29.655833333333334 1765.1899999999998 0.0 0.0 1.0
-58.98036666666667 38.82353333333333 1760.0 0.0 0.0 1.0
-58.98036666666667 39.60783333333333 1760.0 0.0 0.0 1.0
-60.86273333333333 42.274499999999996 1760.0 0.0 0.0 1.0
-59.13726666666667 51.5294 1760.0 0.0 0.0 1.0
-59.98043333333334 60.60606666666666 1754.84 0.0 0.0 1.0
-59.1033 67.29043333333334 1749.71 0.0 0.0 1.0
-52.1026 93.2308 2301.54 0.0 0.0 1.0
-58.882466666666666 101.19466666666666 1729.4800000000002 -1.5107522578404467e-27 7.552781341791754e-27 1.0
-58.882466666666666 101.19466666666666 1729.4800000000002 -1.5107522578404464e-27 7.552781341791753e-27 1.0
-59.00383333333334 108.889 1719.54 0.0 0.0 1.0
-59.00383333333334 110.42133333333334 1719.54 0.0 0.0 1.0
-59.828066666666665 113.16133333333333 1714.61 0.0 0.0 1.0
-60.0 118.25766666666668 1700.0 0.0 0.0 1.0
-53.743599999999994 168.923 2301.54 0.0 0.0 1.0
-59.45993333333333 -124.77666666666666 1800.6066666666666 0.8621377624438535 0.15675749525212407 0.48181486719546723
-59.5574 -123.829 1791.6299999999999 -0.0007189141239396393 -0.9608613025962726 0.2770289521610994
-59.17916666666667 -103.86399999999999 1797.0 0.0 0.0 1.0
-59.56086666666667 -89.02193333333334 1791.62 0.0 0.0 1.0
-59.56086666666667 -89.02193333333334 1791.62 0.0 0.0 1.0
-60.039899999999996 -85.1896 1791.62 0.0 0.0 1.0
-59.23303333333333 -77.0108 1765.1899999999998 7.685257652848636e-31 -2.176464999786676e-26 1.0
-59.401199999999996 -72.09583333333335 1791.62 0.0 0.0 1.0
-59.7811 -61.532333333333334 1786.2699999999998 -2.754429206066579e-27 -3.9351342031241097e-28 1.0
-59.462700000000005 -60.8955 1786.2699999999998 9.316171502662103e-12 -1.8632343005324277e-11 1.0
-59.144299999999994 -58.985099999999996 1786.2699999999998 2.1248242020043708e-25 9.207571542018904e-26 1.0
-60.0995 -57.870666666666665 1786.2699999999998 0.0 0.0 1.0
-59.26806666666667 -14.322466666666665 1775.67 0.0 0.0 1.0
-59.4263 -9.574673333333335 1775.67 0.0 0.0 1.0
-59.1098 -7.200793333333333 1775.67 0.0 0.0 1.0
-59.645 -0.07889566666666666 1770.41 0.0 0.0 1.0
-59.54766666666666 19.901666666666667 1765.1899999999998 4.532380955018717e-26 1.2690666674052468e-26 1.0
-59.54766666666666 20.373666666666665 1765.1899999999998 7.976990480832953e-26 -2.3568380966097437e-26 1.0
-59.705033333333326 48.22026666666667 1765.1899999999998 2.065544809231842e-25 1.630735701393641e-25 1.0
-60.07843333333333 54.98036666666667 1760.0 0.0 0.0 1.0
-60.70589999999999 56.549033333333334 1760.0 0.0 0.0 1.0
-60.293233333333326 59.82403333333334 1754.84 0.0 0.0 1.0
-59.1033 67.29043333333334 1749.71 0.0 0.0 1.0
-52.1026 93.2308 2301.54 0.0 0.0 1.0
-61.08526666666666 90.31006666666667 1739.53 0.0 0.0 1.0
-60.67633333333333 92.9855 1734.49 0.0 0.0 1.0
-60.36716666666666 93.75843333333334 1734.49 0.0 0.0 1.0
-61.915699999999994 105.21033333333332 1719.54 0.0 0.0 1.0
-61.00663333333333 114.948 1704.84 0.0 0.0 1.0
-60.60606666666666 117.80333333333333 1700.0 0.0 0.0 1.0
-53.743599999999994 168.923 2301.54 0.0 0.0 1.0
-59.36506666666667 -116.11133333333333 1780.95 0.0 0.0 1.0
-59.17916666666667 -103.86399999999999 1797.0 0.0 0.0 1.0
-59.56086666666667 -89.02193333333334 1791.62 0.0 0.0 1.0
-60.03990000000001 -85.1896 1791.62 0.0 0.0 1.0
-61.956066666666665 -80.55886666666667 1791.62 0.0 0.0 1.0
-59.72056666666666 -70.3393 1791.62 0.0 0.0 1.0
-59.72056666666666 -66.98603333333334 1791.62 0.0 0.0 1.0
-59.7811 -55.80100000000001 1786.2699999999998 2.124824202004391e-26 -7.436884707015428e-26 1.0
-60.258700000000005 -54.368166666666674 1786.2699999999998 -2.0462753115175335e-26 -8.657020746084224e-27 1.0
-60.2587 -51.9801 1786.2699999999998 1.6821524932534505e-26 -7.082747340014496e-27 1.0
-59.462700000000005 -50.86566666666667 1786.2699999999998 -5.903030978162449e-27 3.54186799910687e-27 1.0
-58.888866666666665 -36.90476666666667 1780.95 0.0 0.0 1.0
-58.730133333333335 -33.25393333333333 1780.95 0.0 0.0 1.0
-60.059333333333335 -13.214666666666666 1775.67 0.0 0.0 1.0
-60.059333333333335 -10.20772 1775.67 0.0 0.0 1.0
-60.806266666666666 16.597833333333334 1765.1899999999998 0.0 0.0 1.0
-60.96360000000001 26.50933333333333 1765.1899999999998 -1.5377204504082e-26 -1.3636303048516836e-26 1.0
-59.233066666666666 46.332366666666665 1765.1899999999998 0.0 0.0 1.0
-60.39216666666667 52.156866666666666 1760.0 0.0 0.0 1.0
-60.07843333333333 54.98036666666667 1760.0 0.0 0.0 1.0
-60.07843333333333 54.98036666666667 1760.0 0.0 0.0 1.0
-61.130599999999994 69.62963333333333 1749.71 0.0 0.0 1.0
-61.603833333333334 71.03383333333333 1734.49 0.0 0.0 1.0
-61.03013333333334 77.66763333333333 1744.61 0.0 0.0 1.0
-60.465133333333334 85.96900000000001 1739.53 0.0 0.0 1.0
-59.439600000000006 96.85023333333334 1734.49 0.0 0.0 1.0
-60.1729 103.82333333333332 1724.5 0.0 0.0 1.0
-60.172900000000006 103.82333333333334 1724.5 0.0 0.0 1.0
-61.50906666666666 114.38366666666667 1714.61 0.0 0.0 1.0
-61.37313333333333 -118.687 1786.2699999999998 0.0 1.0 0.0
-60.940933333333334 -96.97696666666667 1797.0 0.0 0.0 1.0
-60.35926666666666 -70.65866666666666 1791.62 0.0 0.0 1.0
-61.37313333333333 -64.71640000000001 1786.2699999999998 2.3607880006883712e-27 -2.6981961878251826e-27 1.0
-60.417899999999996 -61.3731 1786.2699999999998 6.9480024665564696e-12 -1.3896004933112886e-11 1.0
-60.5771 -55.80100000000001 1786.2699999999998 -2.360915780004841e-27 -3.30528209200684e-26 1.0
-60.0 -26.11113333333333 1780.95 0.0 0.0 1.0
-60.63493333333333 -25.793666666666667 1780.95 0.0 0.0 1.0
-60.63493333333333 -24.206333333333333 1780.95 0.0 0.0 1.0
-60.0 -23.73013333333333 1780.95 0.0 0.0 1.0
-60.692366666666665 -10.840766666666667 1775.67 0.0 0.0 1.0
-60.11833333333334 4.339253333333333 1770.41 0.0 0.0 1.0
-60.49163333333333 13.608666666666666 1765.1899999999998 0.0 0.0 1.0
-60.49163333333333 30.914433333333335 1765.1899999999998 1.4162569200353471e-27 1.6308291792258956e-27 1.0
-59.705033333333326 48.22026666666667 1765.1899999999998 2.065544809231842e-25 1.630735701393641e-25 1.0
-59.98043333333334 60.60606666666666 1754.84 0.0 0.0 1.0
-61.130599999999994 69.62963333333333 1749.71 0.0 0.0 1.0
-61.03013333333334 77.66763333333333 1744.61 0.0 0.0 1.0
-61.08526666666666 90.31006666666667 1739.53 0.0 0.0 1.0
-61.44926666666667 91.7488 1734.49 0.0 0.0 1.0
-60.36716666666666 93.75843333333334 1734.49 0.0 0.0 1.0
-61.20343333333333 113.467 1714.61 0.0 0.0 1.0
-53.743599999999994 168.923 2301.54 0.0 0.0 1.0
-60.31746666666667 -113.41233333333332 1780.95 0.0 0.0 1.0
-61.26126666666667 -108.82866666666666 1797.0 0.0 0.0 1.0
-60.940933333333334 -96.97696666666667 1797.0 0.0 0.0 1.0
-60.67863333333333 -84.5509 1791.62 0.0 0.0 1.0
-60.64893333333333 -77.32546666666667 1765.1899999999998 5.3739873120470105e-28 -3.2234817348558252e-27 1.0
-60.64893333333333 -77.32546666666667 1765.1899999999998 5.373987312047011e-28 -3.2234817348558252e-27 1.0
-60.35926666666666 -70.65866666666666 1791.62 0.0 0.0 1.0
-61.532333333333334 -62.80596666666667 1786.2699999999998 2.623239717233707e-28 -1.2240198952410133e-27 1.0
-60.7363 -53.73133333333334 1786.2699999999998 -5.312431198471676e-27 -1.2393510333017268e-26 1.0
-61.58733333333333 -42.77776666666666 1780.95 0.0 0.0 1.0
-60.63493333333333 -25.0 1780.95 0.0 0.0 1.0
-60.37586666666667 -17.3294 1775.67 0.0 0.0 1.0
-60.37586666666667 -17.3294 1775.67 0.0 0.0 1.0
-61.008900000000004 -12.898133333333334 1775.67 0.0 0.0 1.0
-62.32743333333334 -4.654833333333333 1770.41 0.0 0.0 1.0
-61.538466666666665 -0.39447733333333335 1770.41 0.0 0.0 1.0
-60.11833333333334 4.339253333333333 1770.41 0.0 0.0 1.0
-60.806266666666666 16.597833333333334 1765.1899999999998 0.0 0.0 1.0
-60.806266666666666 16.597833333333334 1765.1899999999998 0.0 0.0 1.0
-61.27823333333333 18.485733333333332 1765.1899999999998 -2.8199774386423378e-27 -8.057566142255515e-28 1.0
-61.43556666666666 22.104266666666664 1765.1899999999998 4.423606885029121e-26 -4.641367057758267e-27 1.0
-60.96359999999999 26.509333333333334 1765.1899999999998 1.378144991017159e-26 1.1605415305989663e-26 1.0
-61.490199999999994 36.62743333333333 1760.0 0.0 0.0 1.0
-61.960766666666665 38.98036666666666 1760.0 0.0 0.0 1.0
-61.960766666666665 41.64706666666667 1760.0 0.0 0.0 1.0
-61.960766666666665 50.74506666666667 1760.0 0.0 0.0 1.0
-61.33336666666667 56.54903333333334 1760.0 0.0 0.0 1.0
-61.33336666666667 56.54903333333334 1760.0 0.0 0.0 1.0
-61.44926666666667 91.7488 1734.49 0.0 0.0 1.0
-61.66186666666667 112.55033333333334 1714.61 0.0 0.0 1.0
-61.51513333333333 118.56099999999999 1700.0 0.0 0.0 1.0
-62.96516666666667 -125.05466666666666 1786.2699999999998 2.8335735962938998e-27 1.4171428492794722e-26 1.0
-62.009966666666664 -122.02966666666667 1786.2699999999998 7.081264585564182e-27 -2.3603391690821713e-27 1.0
-60.90573333333333 -121.24266666666666 1800.6066666666666 3.768743115685391e-16 -0.9608981438505905 0.2769020713979755
-61.37313333333333 -118.687 1786.2699999999998 0.0 1.0 0.0
-60.476200000000006 -113.88866666666667 1780.95 0.0 0.0 1.0
-61.26126666666667 -108.82866666666666 1797.0 0.0 0.0 1.0
-61.63673333333333 -84.5509 1791.62 0.0 0.0 1.0
-61.79643333333333 -74.65069999999999 1791.62 0.0 0.0 1.0
-61.3174 -74.33133333333332 1791.62 0.0 0.0 1.0
-61.79643333333333 -73.37326666666667 1791.62 0.0 0.0 1.0
-61.317366666666665 -66.66666666666667 1791.62 0.0 0.0 1.0
-60.8955 -62.16913333333334 1786.2699999999998 5.058923668879603e-27 -3.0350999977446753e-27 1.0
-61.373133333333335 -56.9154 1786.2699999999998 0.0 0.0 1.0
-61.2139 -55.64180000000001 1786.2699999999998 -2.5497890424051535e-25 -3.9663385104080277e-25 1.0
-60.7363 -53.73133333333334 1786.2699999999998 -5.312431198471677e-27 -1.2393510333017268e-26 1.0
-61.58733333333333 -42.77776666666666 1780.95 0.0 0.0 1.0
-61.58733333333333 -28.968233333333334 1780.95 0.0 0.0 1.0
-61.58733333333333 -28.968233333333334 1780.95 0.0 0.0 1.0
-61.325433333333336 -20.336299999999998 1775.67 0.0 0.0 1.0
-61.64193333333333 -11.315533333333333 1775.67 0.0 0.0 1.0
-61.538466666666665 -0.39447733333333335 1770.41 0.0 0.0 1.0
-61.85403333333333 10.966466666666667 1770.41 0.0 0.0 1.0
-61.4356 14.237966666666665 1765.1899999999998 -2.619271011611251e-27 -1.4103586379355162e-27 1.0
-61.435566666666666 19.587033333333334 1765.1899999999998 5.4384730459415434e-27 1.8129523820074988e-27 1.0
-62.0649 20.058999999999997 1765.1899999999998 -1.208634921338341e-27 -3.625904764015005e-27 1.0
-62.06486666666666 23.362866666666665 1765.1899999999998 4.351085716817988e-26 6.526782226110412e-26 1.0
-60.96359999999999 26.509333333333334 1765.1899999999998 1.378144991017159e-26 1.1605415305989663e-26 1.0
-62.22223333333333 31.8584 1765.1899999999998 1.958214444217401e-27 7.68738827668892e-27 1.0
-62.11763333333334 52.4706 1760.0 0.0 0.0 1.0
-61.33336666666667 56.549033333333334 1760.0 0.0 0.0 1.0
-60.76246666666666 60.293233333333326 1754.84 0.0 0.0 1.0
-61.910333333333334 63.703700000000005 1749.71 0.0 0.0 1.0
-61.910333333333334 63.703700000000005 1749.71 0.0 0.0 1.0
-61.603833333333334 71.03383333333333 1734.49 0.0 0.0 1.0
-61.6521 76.5792 1744.61 0.0 0.0 1.0
-62.32560000000001 85.50386666666667 1739.53 0.0 0.0 1.0
-61.91303333333334 91.90336666666667 1734.49 0.0 0.0 1.0
-61.502900000000004 101.81099999999999 1729.4800000000002 9.829078321473444e-26 6.35702042549684e-25 1.0
-61.66186666666667 112.55033333333334 1714.61 0.0 0.0 1.0
-62.57576666666666 119.16699999999999 1700.0 0.0 0.0 1.0
-56.41026666666667 -169.12800000000001 2301.54 0.0 0.0 1.0
-61.26126666666667 -108.82866666666666 1797.0 0.0 0.0 1.0
-62.38236666666666 -98.0981 1797.0 0.0 0.0 1.0
-61.421400000000006 -97.77776666666666 1797.0 0.0 0.0 1.0
-61.4214 -87.36736666666667 1797.0 0.0 0.0 1.0
-61.5323 -54.84576666666667 1786.2699999999998 1.2394900526880045e-26 -1.770594153148868e-27 1.0
-61.373133333333335 -51.02486666666667 1786.2699999999998 0.0 0.0 1.0
-62.53966666666667 -35.4762 1780.95 0.0 0.0 1.0
-62.0635 -28.492033333333335 1780.95 0.0 0.0 1.0
-61.111133333333335 -25.634933333333333 1780.95 0.0 0.0 1.0
-62.433233333333334 -12.423333333333332 1775.67 0.0 0.0 1.0
-62.1696 -2.4457596666666666 1770.41 0.0 0.0 1.0
-61.538466666666665 -0.39447733333333335 1770.41 0.0 0.0 1.0
-61.85403333333333 10.966466666666667 1770.41 0.0 0.0 1.0
-61.85403333333333 10.966466666666667 1770.41 0.0 0.0 1.0
-61.435566666666666 16.4405 1765.1899999999998 0.0 0.0 1.0
-62.11763333333334 35.05883333333333 1760.0 0.0 0.0 1.0
-61.96076666666667 38.98036666666667 1760.0 0.0 0.0 1.0
-61.96076666666667 41.64706666666667 1760.0 0.0 0.0 1.0
-62.11763333333334 51.68626666666666 1760.0 0.0 0.0 1.0
-61.910333333333334 63.703700000000005 1749.71 0.0 0.0 1.0
-62.22220000000001 69.47370000000001 1749.71 0.0 0.0 1.0
-63.61353333333333 73.97103333333332 1734.49 0.0 0.0 1.0
-62.32556666666667 89.5349 1739.53 0.0 0.0 1.0
-61.91303333333334 91.90336666666667 1734.49 0.0 0.0 1.0
-61.91303333333334 93.44923333333332 1734.49 0.0 0.0 1.0
-62.98850000000001 105.21033333333334 1719.54 0.0 0.0 1.0
-62.27316666666667 114.68933333333332 1714.61 0.0 0.0 1.0
-56.8205 168.30733333333333 2301.54 0.0 0.0 1.0
-62.009966666666664 -122.02966666666667 1786.2699999999998 7.08126458556418e-27 -2.3603391690821724e-27 1.0
-62.009966666666664 -122.02966666666667 1786.2699999999998 7.08126458556418e-27 -2.3603391690821716e-27 1.0
-61.373133333333335 -118.687 1786.2699999999998 0.0 1.0 0.0
-61.956066666666665 -90.29939999999999 1791.62 0.0 0.0 1.0
-62.009966666666664 -62.9652 1786.2699999999998 -3.935134203124141e-28 -3.1479426263790343e-27 1.0
-62.48756666666667 -57.552233333333334 1786.2699999999998 2.1273477045306156e-26 -5.67213553960834e-26 1.0
-62.32840000000001 -49.273599999999995 1786.2699999999998 -0.9995120760870788 -2.80804168013915e-18 0.03123475237772131
-62.32840000000001 -49.273599999999995 1786.2699999999998 -0.9995120760870788 -2.80804168013915e-18 0.03123475237772131
-62.48760000000001 -48.796 1786.2699999999998 -3.8955110370080675e-26 -7.082747340014631e-27 1.0
-61.58733333333333 -44.047599999999996 1780.95 0.0 0.0 1.0
-63.1746 -41.34923333333333 1780.95 0.0 0.0 1.0
-63.1746 -23.412666666666667 1780.95 0.0 0.0 1.0
-61.8002 -13.056399999999998 1775.67 0.0 0.0 1.0
-62.80076666666667 -3.7080866666666665 1770.41 0.0 0.0 1.0
-62.8008 9.546346666666667 1770.41 0.0 0.0 1.0
-61.96076666666667 38.98036666666667 1760.0 0.0 0.0 1.0
-62.74506666666667 41.96076666666667 1760.0 0.0 0.0 1.0
-63.57769999999999 44.809400000000004 1754.84 0.0 0.0 1.0
-63.32353333333333 46.4897 1765.1899999999998 2.1760038517558197e-26 -4.3517771946290303e-26 1.0
-63.0588 50.431333333333335 1760.0 0.0 0.0 1.0
-62.431333333333335 50.90193333333334 1760.0 0.0 0.0 1.0
-62.43136666666666 53.411766666666665 1760.0 0.0 0.0 1.0
-57.64106666666667 86.25639999999999 2301.54 0.0 0.0 1.0
-63.0515 75.80176666666667 1744.61 0.0 0.0 1.0
-63.19846666666667 101.34866666666666 1729.4800000000002 -1.8893390817648438e-26 2.646129229837436e-26 1.0
-62.98850000000001 105.21033333333334 1719.54 0.0 0.0 1.0
-62.83523333333333 105.82366666666667 1719.54 0.0 0.0 1.0
-63.29503333333334 109.65499999999999 1719.54 0.0 0.0 1.0
-61.81816666666666 117.34866666666666 1700.0 0.0 0.0 1.0
-63.4428 -128.87566666666666 1786.2699999999998 -7.192836308690043e-28 2.2115057552992617e-28 1.0
-63.4428 -128.87566666666666 1786.2699999999998 -7.192836308690043e-28 2.211505755299262e-28 1.0
-64.12696666666666 -115.794 1780.95 0.0 0.0 1.0
-64.14413333333333 -112.99300000000001 1797.0 0.0 0.0 1.0
-62.27546666666667 -83.9122 1791.62 0.0 0.0 1.0
-62.27546666666667 -83.9122 1791.62 0.0 0.0 1.0
-63.233533333333334 -81.0379 1791.62 0.0 0.0 1.0
-62.43513333333333 -73.8523 1791.62 0.0 0.0 1.0
-63.3932 -72.89423333333333 1791.62 0.0 0.0 1.0
-63.233533333333334 -66.82633333333335 1791.62 0.0 0.0 1.0
-62.9652 -64.8756 1786.2699999999998 7.082747340014381e-28 -1.5582044148031917e-27 1.0
-62.16916666666666 -62.48756666666666 1786.2699999999998 -6.052176634522752e-31 6.0705026332839604e-27 1.0
-62.806000000000004 -48.4776 1786.2699999999998 0.0 -1.0 0.0
-63.01583333333334 -35.15873333333334 1780.95 0.0 0.0 1.0
-63.01583333333334 -35.15873333333334 1780.95 0.0 0.0 1.0
-63.49203333333333 -33.730133333333335 1780.95 0.0 0.0 1.0
-62.0635 -28.492033333333335 1780.95 0.0 0.0 1.0
-62.591499999999996 -17.962433333333333 1775.67 0.0 0.0 1.0
-62.1167 -13.847700000000001 1775.67 0.0 0.0 1.0
-62.749766666666666 -11.948533333333332 1775.67 0.0 0.0 1.0
-62.85153333333333 19.901666666666667 1765.1899999999998 7.704471512825002e-27 -1.1329464105262294e-26 1.0
-63.37253333333333 33.9608 1760.0 0.0 0.0 1.0
-63.215666666666664 43.0588 1760.0 0.0 0.0 1.0
-63.215666666666664 43.0588 1760.0 0.0 0.0 1.0
-63.57769999999999 44.809400000000004 1754.84 0.0 0.0 1.0
-63.32353333333333 46.4897 1765.1899999999998 2.1760038517558197e-26 -4.3517771946290303e-26 1.0
-63.37253333333333 54.19606666666667 1760.0 0.0 0.0 1.0
-57.64106666666667 86.2564 2301.54 0.0 0.0 1.0
-57.64106666666667 86.25639999999999 2301.54 0.0 0.0 1.0
-63.246900000000004 103.36233333333332 1724.5 0.0 0.0 1.0
-63.448266666666676 105.21033333333332 1719.54 0.0 0.0 1.0
-63.29503333333334 109.65499999999999 1719.54 0.0 0.0 1.0
-63.29503333333334 109.65499999999999 1719.54 0.0 0.0 1.0
-63.4957 114.07833333333333 1714.61 0.0 0.0 1.0
-63.7417 114.796 1704.84 0.0 0.0 1.0
-63.63636666666667 119.46999999999998 1700.0 0.0 0.0 1.0
-54.76923333333334 -134.87199999999999 2301.54 0.0 0.0 1.0
-63.82383333333333 -93.2933 1797.0 0.0 0.0 1.0
-63.233533333333334 -80.55886666666667 1791.62 0.0 0.0 1.0
-63.3932 -72.89423333333333 1791.62 0.0 0.0 1.0
-63.233533333333334 -66.82633333333335 1791.62 0.0 0.0 1.0
-62.806000000000004 -48.4776 1786.2699999999998 0.0 -1.0 0.0
-63.1746 -41.34923333333333 1780.95 0.0 0.0 1.0
-63.01583333333334 -35.15873333333334 1780.95 0.0 0.0 1.0
-63.80949999999999 -23.095199999999995 1780.95 0.0 0.0 1.0
-62.90803333333333 -20.019766666666666 1775.67 0.0 0.0 1.0
-63.54103333333334 -11.157233333333332 1775.67 0.0 0.0 1.0
-64.1741 -7.83383 1775.67 0.0 0.0 1.0
-63.74753333333333 -5.128203333333333 1770.41 0.0 0.0 1.0
-63.1164 4.18146 1770.41 0.0 0.0 1.0
-62.06486666666667 23.362866666666665 1765.1899999999998 0.0 0.0 1.0
-63.0588 42.274499999999996 1760.0 0.0 0.0 1.0
-62.74506666666667 51.37253333333334 1760.0 0.0 0.0 1.0
-64.15686666666666 56.862766666666666 1760.0 0.0 0.0 1.0
-63.31383333333334 69.31776666666667 1749.71 0.0 0.0 1.0
-63.61353333333333 73.97103333333332 1734.49 0.0 0.0 1.0
-63.410833333333336 89.68993333333333 1739.53 0.0 0.0 1.0
-63.448266666666676 105.21033333333332 1719.54 0.0 0.0 1.0
-64.56543333333333 112.55033333333334 1714.61 0.0 0.0 1.0
-64.39800000000001 -125.214 1786.2699999999998 -9.745082967519604e-27 1.4173653905560522e-26 1.0
-63.9204 -124.09933333333333 1786.2699999999998 3.543598927454018e-26 7.08571424639741e-27 1.0
-60.90573333333333 -121.24266666666666 1800.6066666666666 3.768743115685391e-16 -0.9608981438505905 0.2769020713979755
-63.66366666666667 -106.74666666666667 1797.0 0.0 0.0 1.0
-62.38236666666666 -98.0981 1797.0 0.0 0.0 1.0
-63.82383333333333 -93.2933 1797.0 0.0 0.0 1.0
-63.71256666666667 -90.13973333333333 1791.62 0.0 0.0 1.0
-63.393233333333335 -81.0379 1791.62 0.0 0.0 1.0
-63.233533333333334 -80.55886666666667 1791.62 0.0 0.0 1.0
-64.99 -76.40716666666667 1791.62 0.0 0.0 1.0
-63.233533333333334 -66.82633333333335 1791.62 0.0 0.0 1.0
-62.9652 -64.8756 1786.2699999999998 7.082747340014381e-28 -1.5582044148031917e-27 1.0
-63.9204 -58.348299999999995 1786.2699999999998 -1.4165494680029116e-26 2.8330989360057814e-26 1.0
-63.9204 -58.348299999999995 1786.2699999999998 -1.416549468002912e-26 2.8330989360057814e-26 1.0
-63.44276666666667 -54.6866 1786.2699999999998 1.0623008885976163e-26 3.5411512451981605e-26 1.0
-64.55720000000001 -50.706500000000005 1786.2699999999998 -5.508803486677994e-27 -3.934859633341473e-27 1.0
-63.96823333333333 -41.34923333333333 1780.95 0.0 0.0 1.0
-63.96823333333333 -29.60316666666667 1780.95 0.0 0.0 1.0
-63.80953333333334 -26.11113333333333 1780.95 0.0 0.0 1.0
-63.80949999999999 -23.095199999999995 1780.95 0.0 0.0 1.0
-63.3828 -18.911966666666668 1775.67 0.0 0.0 1.0
-64.1741 -7.83383 1775.67 0.0 0.0 1.0
-64.2209 -5.601576666666666 1770.41 0.0 0.0 1.0
-63.74753333333333 -5.128203333333333 1770.41 0.0 0.0 1.0
-64.73943333333334 13.923333333333332 1765.1899999999998 -1.5230305859578365e-27 -7.262258443568611e-29 1.0
-64.11013333333334 19.901666666666667 1765.1899999999998 -4.533341339453026e-28 4.531900777638603e-28 1.0
-65.05406666666667 28.86923333333333 1765.1899999999998 -1.5865013913938607e-27 -4.873257917739226e-27 1.0
-64.31373333333333 50.11763333333334 1760.0 0.0 0.0 1.0
-64.31373333333333 50.11763333333334 1760.0 0.0 0.0 1.0
-64.0 55.92156666666667 1760.0 0.0 0.0 1.0
-63.31383333333334 69.31776666666667 1749.71 0.0 0.0 1.0
-63.517966666666666 76.73470000000002 1744.61 0.0 0.0 1.0
-52.71793333333333 117.02566666666667 2301.54 0.0 0.0 1.0
-64.18603333333333 90.0 1739.53 0.0 0.0 1.0
-64.7399 99.49919999999999 1729.4800000000002 7.556048468969865e-27 1.132427449971645e-26 1.0
-64.67433333333334 108.88900000000001 1719.54 0.0 0.0 1.0
-64.56543333333333 112.856 1714.61 0.0 0.0 1.0
-58.666666666666664 168.10233333333335 2301.54 0.0 0.0 1.0
-56.41026666666667 -169.12800000000001 2301.54 0.0 0.0 1.0
-64.8756 -122.66633333333334 1786.2699999999998 -5.926985221650342e-30 -2.1206772962772888e-26 1.0
-64.14413333333333 -112.99300000000001 1797.0 0.0 0.0 1.0
-64.30426666666666 -87.52753333333334 1797.0 0.0 0.0 1.0
-65.36873333333334 -77.16816666666666 1765.1899999999998 7.251809528029976e-27 9.669420829171884e-27 1.0
-63.3932 -72.89423333333333 1791.62 0.0 0.0 1.0
-65.25493333333334 -68.4706 1760.0 0.0 0.0 1.0
-64.1916 -67.78443333333335 1791.62 0.0 0.0 1.0
-64.5572 -59.30349999999999 1786.2699999999998 4.328345596675501e-27 3.934859633341415e-27 1.0
-63.9204 -58.348299999999995 1786.2699999999998 -1.416549468002912e-26 2.8330989360057814e-26 1.0
-64.7619 -37.222233333333335 1780.95 0.0 0.0 1.0
-63.80950000000001 -23.095199999999995 1780.95 0.0 0.0 1.0
-63.06626666666667 -21.1276 1775.67 0.0 0.0 1.0
-64.4906 -10.524213333333334 1775.67 0.0 0.0 1.0
-64.2209 10.019713333333334 1770.41 0.0 0.0 1.0
-64.85206666666666 12.386600000000001 1770.41 0.0 0.0 1.0
-64.85206666666666 12.386600000000001 1770.41 0.0 0.0 1.0
-64.89676666666666 16.125866666666667 1765.1899999999998 8.612820311267125e-27 1.3596662396578194e-27 1.0
-64.73946666666666 31.229133333333333 1765.1899999999998 7.287223581532842e-25 -1.957865660542197e-25 1.0
-64.31373333333333 41.8039 1760.0 0.0 0.0 1.0
-64.11016666666666 46.17503333333334 1765.1899999999998 -9.42643054624495e-26 3.6253824074355083e-25 1.0
-64.62746666666668 55.137233333333334 1760.0 0.0 0.0 1.0
-64.85026666666666 74.2802 1734.49 0.0 0.0 1.0
-64.13993333333333 75.3353 1744.61 0.0 0.0 1.0
-65.1163 85.1938 1739.53 0.0 0.0 1.0
-64.96123333333333 90.4651 1739.53 0.0 0.0 1.0
-65.15943333333333 95.14976666666666 1734.49 0.0 0.0 1.0
-64.7399 99.49920000000002 1729.4800000000002 7.556048468969516e-27 -2.264854899943273e-26 1.0
-64.67433333333334 108.88900000000001 1719.54 0.0 0.0 1.0
-64.98086666666667 109.502 1719.54 0.0 0.0 1.0
-65.30303333333335 119.46999999999998 1700.0 0.0 0.0 1.0
-66.66666666666667 122.803 1700.0 0.0 0.0 1.0
-65.51243333333332 -129.83066666666664 1786.2699999999998 -8.499297180627242e-26 1.2752505685990204e-25 1.0
-64.12696666666666 -115.794 1780.95 0.0 0.0 1.0
-65.39683333333333 -114.68266666666666 1780.95 0.0 0.0 1.0
-64.3043 -92.8128 1797.0 0.0 0.0 1.0
-64.14413333333333 -92.65266666666668 1797.0 0.0 0.0 1.0
-64.3513 -70.81836666666668 1791.62 0.0 0.0 1.0
-64.55720000000001 -55.004999999999995 1786.2699999999998 -1.1017606973356131e-26 6.2957754133464004e-27 1.0
-64.5572 -50.706500000000005 1786.2699999999998 3.934859633341373e-27 -6.295775413346226e-27 1.0
-64.92063333333333 -41.98413333333333 1780.95 0.0 0.0 1.0
-64.12696666666666 -38.80953333333334 1780.95 0.0 0.0 1.0
-65.23809999999999 -32.936499999999995 1780.95 0.0 0.0 1.0
-64.22089999999999 -0.7100576666666667 1770.41 0.0 0.0 1.0
-64.85210000000001 4.18146 1770.41 0.0 0.0 1.0
-64.4248 15.0246 1765.1899999999998 -4.475816223690329e-27 -8.499114596752887e-28 1.0
-65.0541 30.4425 1765.1899999999998 -7.617858028484887e-26 3.6268267995556673e-26 1.0
-65.0541 30.4425 1765.1899999999998 -7.617858028484883e-26 3.626826799555663e-26 1.0
-65.09803333333333 33.9608 1760.0 0.0 0.0 1.0
-64.9412 41.96076666666667 1760.0 0.0 0.0 1.0
-63.57769999999999 44.809400000000004 1754.84 0.0 0.0 1.0
-64.11016666666666 46.17503333333334 1765.1899999999998 -9.426430546244952e-26 3.6253824074355083e-25 1.0
-64.31373333333333 50.11763333333334 1760.0 0.0 0.0 1.0
-64.9412 52.0 1760.0 0.0 0.0 1.0
-64.78433333333334 53.411766666666665 1760.0 0.0 0.0 1.0
-64.15686666666666 56.862766666666666 1760.0 0.0 0.0 1.0
-64.13993333333333 75.3353 1744.61 0.0 0.0 1.0
-65.58139999999999 83.48836666666666 1739.53 0.0 0.0 1.0
-64.96126666666667 84.41859999999998 1739.53 0.0 0.0 1.0
-65.5814 86.43413333333335 1739.53 0.0 0.0 1.0
-65.93236666666667 97.46863333333333 1734.49 0.0 0.0 1.0
-64.7399 99.49919999999999 1729.4800000000002 7.556048468969865e-27 1.132427449971645e-26 1.0
-65.44063333333334 110.115 1719.54 0.0 0.0 1.0
-65.02386666666666 112.70333333333333 1714.61 0.0 0.0 1.0
-65.02386666666666 112.70333333333333 1714.61 0.0 0.0 1.0
-60.307700000000004 168.71766666666667 2301.54 0.0 0.0 1.0
-64.8756 -122.66633333333334 1786.2699999999998 -5.926985221648929e-30 -2.120677296277289e-26 1.0
-64.8756 -122.66633333333334 1786.2699999999998 -5.926985221650342e-30 -2.1206772962772888e-26 1.0
-54.76923333333334 -134.87199999999999 2301.54 0.0 0.0 1.0
-65.5856 -100.34033333333333 1797.0 0.0 0.0 1.0
-65.78843333333333 -88.86226666666666 1791.62 0.0 0.0 1.0
-64.83033333333333 -81.19760000000001 1791.62 0.0 0.0 1.0
-65.36873333333334 -77.16816666666666 1765.1899999999998 7.251809528029976e-27 9.669420829171884e-27 1.0
-65.25493333333333 -68.4706 1760.0 0.0 0.0 1.0
-65.1497 -67.46506666666667 1791.62 0.0 0.0 1.0
-64.8756 -59.30350000000001 1786.2699999999998 -2.3018928855047152e-26 -1.7706868350036375e-26 1.0
-65.3532 -58.66669999999999 1786.2699999999998 2.12482420200439e-26 1.0624121010021836e-26 1.0
-65.99006666666666 -56.4378 1786.2699999999998 6.374769203472611e-26 -1.7000669860354344e-25 1.0
-64.5572 -50.706500000000005 1786.2699999999998 3.934859633341373e-27 -6.295775413346226e-27 1.0
-64.92063333333333 -35.79366666666667 1780.95 0.0 0.0 1.0
-65.2381 -34.68253333333333 1780.95 0.0 0.0 1.0
-65.07936666666667 -33.73013333333333 1780.95 0.0 0.0 1.0
-65.55556666666666 -30.873033333333336 1780.95 0.0 0.0 1.0
-64.33233333333332 -11.157233333333332 1775.67 0.0 0.0 1.0
-65.2819 -7.83383 1775.67 0.0 0.0 1.0
-64.37866666666667 -5.443786666666667 1770.41 0.0 0.0 1.0
-64.73943333333334 13.923333333333332 1765.1899999999998 -1.5230305859578358e-27 -7.262258443568642e-29 1.0
-65.36873333333334 16.597833333333334 1765.1899999999998 0.0 0.0 1.0
-65.84070000000001 20.845633333333335 1765.1899999999998 -4.713560950987463e-26 -3.2635447598687295e-26 1.0
-65.05406666666667 28.082600000000003 1765.1899999999998 -1.2087309531404497e-27 1.611502557874092e-27 1.0
-65.52603333333333 29.3412 1765.1899999999998 2.0301994008040375e-25 -7.251194967900564e-26 1.0
-65.21140000000001 29.9705 1765.1899999999998 -1.8499721871238772e-25 9.429196457520316e-26 1.0
-65.25493333333333 42.5882 1760.0 0.0 0.0 1.0
-65.7255 42.745066666666666 1760.0 0.0 0.0 1.0
-65.56863333333334 54.66663333333333 1760.0 0.0 0.0 1.0
-66.24156666666666 72.73426666666667 1734.49 0.0 0.0 1.0
-66.62783333333334 80.93293333333334 1744.61 0.0 0.0 1.0
-65.5814 86.43413333333335 1739.53 0.0 0.0 1.0
-65.93239999999999 94.68596666666667 1734.49 0.0 0.0 1.0
-66.08696666666667 98.08696666666667 1734.49 0.0 0.0 1.0
-65.2023 100.26993333333333 1729.4800000000002 -8.942579734899961e-27 -9.244874655603699e-28 1.0
-65.85976666666666 102.594 1724.5 0.0 0.0 1.0
-65.51243333333333 -129.83066666666664 1786.2699999999998 -1.6995035936644756e-25 2.337484794946938e-25 1.0
-65.19403333333334 -126.00999999999999 1786.2699999999998 -1.6205975904440153e-26 3.0381464135014085e-26 1.0
-65.42539999999998 -112.99300000000001 1797.0 0.0 0.0 1.0
-65.5856 -105.94566666666667 1797.0 0.0 0.0 1.0
-65.5856 -100.34033333333333 1797.0 0.0 0.0 1.0
-66.10776666666666 -90.29939999999999 1791.62 0.0 0.0 1.0
-64.83033333333333 -80.71856666666667 1791.62 0.0 0.0 1.0
-65.94806666666666 -76.72653333333334 1791.62 0.0 0.0 1.0
-65.78839999999998 -76.0878 1791.62 0.0 0.0 1.0
-65.25493333333333 -68.4706 1760.0 0.0 0.0 1.0
-66.62686666666666 -63.4428 1786.2699999999998 3.5416795584570406e-26 -3.1877183117246253e-26 1.0
-65.3532 -58.66669999999999 1786.2699999999998 2.1248242020043967e-26 1.0624121010021856e-26 1.0
-66.03176666666667 -45.0 1780.95 0.0 0.0 1.0
-66.50796666666666 -44.04760000000001 1780.95 0.0 0.0 1.0
-65.2381 -32.9365 1780.95 0.0 0.0 1.0
-66.03176666666667 -30.396833333333337 1780.95 0.0 0.0 1.0
-66.34923333333333 -26.904799999999998 1780.95 0.0 0.0 1.0
-65.5984 -9.732933333333333 1775.67 0.0 0.0 1.0
-66.27216666666668 -2.9191300000000004 1770.41 0.0 0.0 1.0
-65.48323333333333 -1.4990113333333335 1770.41 0.0 0.0 1.0
