ply
format ascii 1.0
comment VCGLIB generated
element vertex 668
property float x
property float y
property float z
property float nx
property float ny
property float nz
element face 0
property list uchar int vertex_indices
end_header
-131.11800000000002 103.46666666666668 1841.2300000000002 3.3375592816836e-26 -1.3339392092512944e-26 1.0
-131.77933333333334 106.74866666666667 1835.58 0.0 0.0 1.0
-131.605 120.08233333333334 1846.91 0.0 0.0 1.0
-133.78833333333333 -144.619 2042.32 0.0 0.0 1.0
-137.23366666666666 -137.415 2035.37 0.0 0.0 1.0
-136.32666666666668 -133.424 2035.37 0.0 0.0 1.0
-135.601 -125.80499999999999 2035.37 0.0 0.0 1.0
-135.96366666666668 -116.55333333333333 2035.37 0.0 0.0 1.0
-135.601 -114.01366666666667 2035.37 0.0 0.0 1.0
-136.31633333333332 -96.63276666666665 2028.47 0.0 0.0 1.0
-136.31633333333332 -96.0904 2028.47 0.0 0.0 1.0
-136.31666666666666 -88.1356 2028.47 0.0 0.0 1.0
-136.859 -87.05086666666666 2028.47 0.0 0.0 1.0
-135.58533333333335 -77.56760000000001 2021.62 0.0 0.0 1.0
-135.40533333333335 -74.5045 2021.62 0.0 0.0 1.0
-135.76566666666668 -68.91893333333333 2021.62 0.0 0.0 1.0
-135.76566666666668 -68.37836666666668 2021.62 0.0 0.0 1.0
-136.126 -66.03603333333335 2021.62 0.0 0.0 1.0
-135.76566666666668 -59.00900000000001 2021.62 0.0 0.0 1.0
-135.21900000000002 -54.321 2014.8100000000002 4.6963221764418123e-26 2.96765579306562e-26 1.0
-135.03966666666668 -53.063966666666666 2014.8100000000002 0.0 0.0 1.0
-136.65566666666666 -44.98316666666667 2014.8100000000002 -4.949230265086332e-27 -8.237488808985591e-28 1.0
-136.117 -44.26486666666667 2014.8100000000002 -1.7758876499610472e-26 -2.0887965455388186e-27 1.0
-125.78466666666667 -19.074166666666667 1665.3066666666666 -0.4674323409947657 0.3024250106322547 0.8306901465265094
-142.202 -26.57003333333333 2184.0 -3.229745829619911e-16 0.9999259943271813 0.012165766264314037
-133.758 -2.8025466666666667 1905.7300000000002 1.2635582189950785e-26 -1.169455925279916e-26 1.0
-130.53099999999998 8.734046666666666 1831.8400000000001 -4.458708437715158e-16 0.9858520718453108 0.1676176972706291
-130.47899999999998 9.215086666666666 1829.97 0.0 0.0 1.0
-130.479 9.215086666666666 1829.97 0.0 0.0 1.0
-133.8853333333333 18.8911 1953.4366666666665 0.9940500620490711 -9.914139862497085e-16 0.10892416692468962
-133.8853333333333 18.8911 1953.4366666666665 0.9940500620490712 -1.289886105796767e-15 0.10892416692468963
-132.588 20.952366666666666 1858.39 0.0 0.0 1.0
-131.44633333333334 32.7385 1841.2300000000002 1.9757599383142357e-27 -9.872779703947193e-28 1.0
-131.59966666666665 44.004133333333336 1852.63 0.0 0.0 1.0
-132.10266666666666 54.564099999999996 1841.2300000000002 -1.0011186643666983e-25 3.6038048920191165e-25 1.0
-132.26999999999998 55.8691 1835.58 0.0 0.0 1.0
-129.33733333333333 58.307866666666676 1829.97 0.0 0.0 1.0
-129.8373333333333 60.5691 1824.39 0.0 0.0 1.0
-129.941 72.7503 1828.11 0.8416764779469504 0.42148336657538715 0.33753885431323954
-129.43633333333332 73.46966666666667 1809.6766666666665 0.9135134733002245 0.4058893331546556 -0.02733099577822156
-131.909 76.77303333333334 1811.5033333333333 0.6706933067860178 0.7377142219428342 -0.07712467164089125
-130.96833333333333 84.0775 1829.97 0.0 0.0 1.0
-130.96833333333333 84.0775 1829.97 0.0 0.0 1.0
-129.97966666666667 89.24333333333333 1835.58 0.0 0.0 1.0
-131.28833333333333 97.2597 1835.58 0.0 0.0 1.0
-131.446 101.98966666666666 1841.2300000000002 0.0 0.0 1.0
-131.77933333333334 106.74866666666667 1835.58 0.0 0.0 1.0
-131.4523333333333 113.78333333333335 1835.58 0.0 0.0 1.0
-131.111 128.14833333333334 1846.91 0.0 0.0 1.0
-126.57966666666665 130.37333333333333 1811.5033333333333 0.336276077535993 0.9416839993045831 0.012232952657973915
-136.32666666666668 -133.424 2035.37 0.0 0.0 1.0
-137.052 -121.99533333333333 2035.37 0.0 0.0 1.0
-136.32666666666668 -111.11133333333333 2035.37 0.0 0.0 1.0
-136.32666666666668 -111.11133333333333 2035.37 0.0 0.0 1.0
-135.41233333333332 -99.70623333333333 2028.47 0.0 0.0 1.0
-137.03966666666665 -89.03953333333334 2028.47 0.0 0.0 1.0
-136.126 -76.12613333333333 2021.62 0.0 0.0 1.0
-135.58533333333332 -64.41443333333333 2021.62 0.0 0.0 1.0
-136.4863333333333 -58.288266666666665 2021.62 0.0 0.0 1.0
-137.01466666666667 -48.2155 2014.8100000000002 8.34149924046432e-27 0.0 1.0
-130.08833333333334 -20.495366666666666 1775.6966666666667 -0.9966178606150905 -0.08085698837177892 0.014662446400453662
-122.61333333333334 -25.67963333333333 1408.0233333333333 0.8159199989779938 -0.5707860326294965 -0.09207529648515873
-142.202 -26.57003333333333 2184.0 -3.229745829619911e-16 0.9999259943271813 0.012165766264314037
-126.88499999999999 -22.704766666666668 1786.28 0.30489538819131917 0.48246797646455586 0.8211354662574631
-125.348 -17.216123333333332 1643.96 0.0 0.0 1.0
-128.432 -13.438276666666667 1784.4966666666667 0.7681739353338697 1.3335999914879046e-17 0.640241208509477
-134.09766666666667 -1.613587 1905.7300000000002 6.187704949484225e-28 1.5653331268124294e-27 1.0
-114.81166666666667 -3.0423500000000003 1270.54 -0.9928076943298714 -0.06943578400202029 0.09752719610154792
-131.95566666666664 11.104333333333335 1818.84 0.0 0.0 1.0
-130.488 12.7642 1824.39 0.0 0.0 1.0
-130.488 12.7642 1824.39 0.0 0.0 1.0
-133.085 25.836133333333333 1852.6433333333334 -0.6854991661228335 -0.6850677072905728 -0.24652206731353304
-138.59833333333333 26.500199999999996 1875.9099999999999 -0.10747170579727304 -0.9940531510100944 0.01755464097971573
-127.23566666666669 26.932333333333332 1793.4133333333332 0.5694685573403725 -0.7595819819242201 0.3142304487740622
-131.32899999999998 42.1017 1848.8166666666668 0.6905531817927923 -0.6908328712143371 0.2142107540848628
-131.76466666666667 43.34366666666667 1852.63 0.0 0.0 1.0
-132.095 44.82973333333334 1852.63 0.0 0.0 1.0
-131.145 62.49236666666667 1818.84 0.0 0.0 1.0
-130.99 61.81816666666666 1813.33 0.0 0.0 1.0
-130.99 61.81816666666666 1813.33 0.0 0.0 1.0
-132.4333333333333 67.6483 1835.58 0.0 0.0 1.0
-130.83366666666666 68.79486666666668 1848.8166666666668 -2.6778664755847273e-17 0.9987860724842671 0.04925831312024655
-131.72966666666665 73.07549999999999 1828.11 -0.8235108073626984 -0.41238660767269236 0.3895731458520281
-134.83333333333334 76.30593333333333 1839.3466666666666 -0.5411477433685516 0.27060822154738123 0.7961974066009558
-131.30066666666664 80.2439 1824.39 0.0 0.0 1.0
-131.12466666666668 90.71569999999998 1835.58 0.0 0.0 1.0
-131.28833333333333 97.2597 1835.58 0.0 0.0 1.0
-130.95399999999998 102.81033333333335 1841.2300000000002 -3.172286726945576e-26 5.020905481173347e-27 1.0
-131.11800000000002 103.46666666666668 1841.2300000000002 3.3375592816836e-26 -1.3339392092512947e-26 1.0
-137.77766666666668 -138.14033333333333 2035.37 0.0 0.0 1.0
-137.959 -135.41933333333333 2035.37 0.0 0.0 1.0
-138.14033333333333 -130.15866666666668 2035.37 0.0 0.0 1.0
-136.49733333333333 -96.45196666666668 2028.47 0.0 0.0 1.0
-137.56733333333332 -57.747733333333336 2021.62 0.0 0.0 1.0
-137.01466666666667 -43.54656666666667 2014.8100000000002 4.4578911956260575e-28 1.6924603741779263e-26 1.0
-137.37366666666665 -39.23683333333333 2014.8100000000002 -1.639398792341473e-26 6.727034513617553e-27 1.0
-137.37366666666665 -39.23683333333333 2014.8100000000002 -1.639398792341473e-26 6.727034513617553e-27 1.0
-126.972 -20.627066666666668 1371.4766666666667 -0.08475858984425787 0.795086657395668 0.6005440772158164
-145.409 -20.818766666666665 2213.5733333333333 0.36546205773391094 0.47965088292367086 0.7977296000948181
-130.29733333333334 37.1692 1841.2300000000002 1.2006263782798866e-27 2.133146746142683e-27 1.0
-132.42533333333333 42.51806666666667 1852.63 0.0 0.0 1.0
-132.7553333333333 50.278600000000004 1852.63 0.0 0.0 1.0
-132.7553333333333 50.278600000000004 1852.63 0.0 0.0 1.0
-131.626 62.0325 1824.39 0.0 0.0 1.0
-131.779 68.3027 1835.58 0.0 0.0 1.0
-130.609 71.90916666666668 1852.63 0.0 0.0 1.0
-131.30066666666667 80.2439 1824.39 0.0 0.0 1.0
-131.30066666666667 80.2439 1824.39 0.0 0.0 1.0
-130.96833333333333 84.0775 1829.97 0.0 0.0 1.0
-131.28833333333333 97.25970000000001 1835.58 0.0 0.0 1.0
-131.118 101.33333333333333 1841.2300000000002 4.16079994490587e-28 2.9155228912014055e-27 1.0
-131.605 120.08233333333334 1846.91 0.0 0.0 1.0
-131.605 120.08233333333334 1846.91 0.0 0.0 1.0
-132.92033333333333 122.931 1852.63 0.0 0.0 1.0
-131.111 128.14833333333334 1846.91 0.0 0.0 1.0
-139.95066666666665 161.87633333333335 2216.3 0.0 0.0 1.0
-137.77766666666665 -138.14033333333333 2035.37 0.0 0.0 1.0
-137.959 -137.95899999999997 2035.37 0.0 0.0 1.0
-137.77766666666665 -137.77766666666668 2035.37 0.0 0.0 1.0
-137.95899999999997 -135.41933333333333 2035.37 0.0 0.0 1.0
-138.50333333333333 -127.80066666666669 2035.37 0.0 0.0 1.0
-137.5533333333333 -48.2155 2014.8100000000002 -6.698029880291455e-26 -1.2963538524974053e-44 1.0
-137.73266666666666 -47.67676666666667 2014.8100000000002 -3.348937354569845e-26 8.348207964712112e-27 1.0
-137.01466666666667 -46.0606 2014.8100000000002 0.0 0.0 1.0
-138.96899999999997 -40.1387 2070.6066666666666 0.7293095808987516 0.60772883551861 0.31428203526208953
-125.68433333333333 -23.624066666666664 1527.83 -0.41941754553985394 -0.7189931184566023 0.5542001606868899
-138.457 -34.29013333333333 2119.5066666666667 -0.9439072354086768 -7.227353887363229e-15 0.330210737171202
-138.457 -34.29013333333333 2119.5066666666667 -0.9439072354086757 1.4359764564932242e-14 0.33021073717120547
-135.40466666666669 -8.937276666666667 1909.79 0.8909168652377936 -0.445517253967829 -0.0882128995772606
-116.17999999999999 1.8514266666666668 1258.9733333333334 8.539748715909401e-06 -0.9999989192359353 0.0014701884348244782
-128.921 7.810573333333333 1845.0166666666667 -0.46903160629975515 0.879504011893976 0.0805111504965141
-133.25066666666666 18.4679 1858.39 0.0 0.0 1.0
-139.02 20.2322 2035.4366666666665 -0.9118021887376547 0.11915047686777841 0.39296301667638284
-133.251 30.8642 1846.91 0.0 0.0 1.0
-132.1026666666667 54.564099999999996 1841.2300000000002 6.006928901570863e-26 -2.0023728622861408e-25 1.0
-132.27 55.8691 1835.58 0.0 0.0 1.0
-118.89066666666668 32.3976 1402.533333333333 -0.20872063528252394 0.4591219595388917 0.8635060640646526
-130.99 61.81816666666666 1813.33 0.0 0.0 1.0
-132.4333333333333 67.6483 1835.58 0.0 0.0 1.0
-131.45766666666668 84.893 1829.97 0.0 0.0 1.0
-131.94266666666667 91.8609 1835.58 0.0 0.0 1.0
-132.59733333333335 92.6789 1835.58 0.0 0.0 1.0
-126.28066666666666 117.921 2012.62 -0.2886992040664197 -0.9460595075174633 0.14705161613267148
-133.25066666666666 123.75666666666666 1852.63 0.0 0.0 1.0
-139.0476666666667 -141.40566666666666 2035.37 0.0 0.0 1.0
-137.95899999999997 -135.41933333333333 2035.37 0.0 0.0 1.0
-138.1403333333333 -130.15866666666668 2035.37 0.0 0.0 1.0
-138.32166666666666 -129.07033333333334 2035.37 0.0 0.0 1.0
-137.05200000000002 -121.26966666666665 2035.37 0.0 0.0 1.0
-137.76266666666666 -89.7627 2028.47 0.0 0.0 1.0
-138.84733333333335 -89.40113333333333 2028.47 0.0 0.0 1.0
-137.94366666666667 -86.50849999999998 2028.47 0.0 0.0 1.0
-137.56766666666667 -78.46849999999999 2021.62 0.0 0.0 1.0
-138.64866666666668 -66.03603333333335 2021.62 0.0 0.0 1.0
-137.5533333333333 -48.2155 2014.8100000000002 6.698029880291455e-26 0.0 -1.0
-137.91233333333332 -47.3176 2014.8100000000002 -4.4487995949145375e-26 -6.66741958591963e-26 1.0
-138.27133333333333 -42.11 2014.8100000000002 0.0 0.0 1.0
-127.52533333333334 -23.950066666666668 1706.4633333333331 -1.5828150319986484e-14 -0.583264332044833 0.8122824133048154
-132.37033333333332 -24.9923 1850.7233333333334 -0.2097155236708506 0.7968478654983737 0.5666152825172887
-130.29866666666666 -22.820733333333333 1835.5933333333335 -0.6096069682979317 -0.6092609974023286 0.5071295507529848
-136.64966666666666 -19.11713333333333 1940.7633333333333 0.860375175521168 -0.4780986687493866 -0.176567891438345
-136.24133333333333 -18.5744 1938.6666666666667 -0.9614259741630504 0.2623083612221957 0.08279142369566582
-129.00633333333334 -12.348266666666666 1765.2 0.07023912805989353 -0.9834409564863128 0.16706390991076484
-138.989 -2.9011063333333333 1972.7533333333333 -0.7066514981803852 0.7065810742617651 0.037240376132729215
-131.95566666666664 11.104333333333335 1818.84 0.0 0.0 1.0
-131.46366666666665 13.252 1824.39 0.0 0.0 1.0
-132.588 20.952366666666666 1858.39 0.0 0.0 1.0
-146.23866666666666 26.857366666666667 2176.02 0.9186334319337006 -0.09775927279395641 0.38282599482860086
-133.57933333333332 32.9026 1841.2300000000002 -5.000408635573889e-27 1.9998925991146958e-26 1.0
-133.57933333333332 32.9026 1841.2300000000002 -5.0004086355738884e-27 1.9998925991146952e-26 1.0
-134.23333333333335 37.3824 1835.58 0.0 0.0 1.0
-132.42533333333333 42.51806666666667 1852.63 0.0 0.0 1.0
-133.58100000000002 45.325066666666665 1852.63 0.0 0.0 1.0
-133.25133333333335 54.071799999999996 1841.2300000000002 3.003464450785445e-26 -5.0059321557153755e-26 1.0
-131.78833333333333 80.2439 1824.39 0.0 0.0 1.0
-137.27033333333335 116.44900000000001 1992.6033333333332 0.9353000255468029 0.34070347721749994 -0.09557720870612782
-132.53133333333332 119.04666666666667 1856.47 -0.11195419353066106 0.8954082882985439 0.4309411279944985
-133.25066666666666 123.75666666666666 1852.63 0.0 0.0 1.0
-139.59199999999998 -140.67999999999998 2035.37 0.0 0.0 1.0
-138.50333333333333 -135.78233333333336 2035.37 0.0 0.0 1.0
-139.0476666666667 -127.43766666666666 2035.37 0.0 0.0 1.0
-139.59199999999998 -116.916 2035.37 0.0 0.0 1.0
-137.56766666666667 -78.46849999999999 2021.62 0.0 0.0 1.0
-138.64866666666666 -67.2973 2021.62 0.0 0.0 1.0
-139.009 -65.13513333333333 2021.62 0.0 0.0 1.0
-139.36933333333332 -61.171166666666664 2021.62 0.0 0.0 1.0
-137.91233333333332 -48.93376666666666 2014.8100000000002 -1.7426069081771576e-26 6.277193438355835e-27 1.0
-137.91233333333332 -47.3176 2014.8100000000002 -4.4487995949145387e-26 -6.66741958591963e-26 1.0
-137.73266666666666 -43.18743333333333 2014.8100000000002 -7.157041841678617e-27 -4.769688213591106e-27 1.0
-137.73266666666666 -40.853 2014.8100000000002 -7.59038282058697e-27 3.0348756631616737e-27 1.0
-127.52533333333334 -23.950066666666668 1706.4633333333331 1.6928503016028351e-16 -0.583264332044841 0.8122824133048095
-128.739 -24.73023333333333 1831.8400000000001 -0.26162645337549145 -0.7558388000370155 0.6002160504791306
-139.94466666666665 -21.239266666666666 2080.226666666667 -0.7030988581450852 0.2811494474360062 0.6531515780287955
-135.45666666666668 -6.878979999999999 1905.7300000000002 5.831742202680178e-26 -4.639932441543274e-27 1.0
-133.758 -2.8025466666666667 1905.7300000000002 1.263558218995084e-26 -1.1694559252799212e-26 1.0
-134.619 2.134583333333333 1917.9633333333331 0.9028417079875722 -0.3869537255267753 0.18746643597997062
-134.619 2.134583333333333 1917.9633333333331 0.9028417079875722 -0.386953725526775 0.18746643597997092
-131.95566666666664 11.104333333333335 1818.84 0.0 0.0 1.0
-137.84866666666667 19.33973333333333 1911.82 0.0 0.0 1.0
-130.40533333333335 29.271800000000002 1809.6766666666665 0.8895654280004525 -0.17814128311151753 0.4206412159522104
-133.7446666666667 29.71193333333333 1846.91 0.0 0.0 1.0
-133.58 30.534966666666666 1846.91 0.0 0.0 1.0
-133.251 30.8642 1846.91 0.0 0.0 1.0
-133.746 40.041266666666665 1852.63 0.0 0.0 1.0
-133.58100000000002 45.325066666666665 1852.63 0.0 0.0 1.0
-133.58100000000002 45.325066666666665 1852.63 0.0 0.0 1.0
-133.25066666666666 47.63673333333333 1852.63 0.0 0.0 1.0
-133.746 49.78326666666666 1852.63 0.0 0.0 1.0
-131.63633333333334 62.1414 1813.33 0.0 0.0 1.0
-131.626 62.0325 1824.39 0.0 0.0 1.0
-133.08966666666666 76.8293 1824.39 0.0 0.0 1.0
-133.08966666666666 76.8293 1824.39 0.0 0.0 1.0
-133.415 88.9704 1829.97 0.0 0.0 1.0
-133.415 88.9704 1829.97 0.0 0.0 1.0
-132.59733333333335 92.6789 1835.58 0.0 0.0 1.0
-123.831 113.06266666666666 1953.4899999999998 0.14508299245623177 0.9191866500696333 0.3661240604408709
-132.92033333333333 122.931 1852.63 0.0 0.0 1.0
-133.251 130.1233333333333 1846.91 0.0 0.0 1.0
-135.11766666666665 129.29333333333332 1789.8366666666668 0.734355974760972 -3.8509386099564104e-17 0.6787645411575819
-139.59199999999998 -140.67999999999998 2035.37 0.0 0.0 1.0
-141.894 -100.57073333333334 1612.9466666666667 0.22285510007046752 0.39202660075459017 0.8925529388632267
-139.59199999999998 -116.916 2035.37 0.0 0.0 1.0
-139.57066666666665 -100.61033333333332 2028.47 0.0 0.0 1.0
-140.11333333333334 -96.81353333333334 2028.47 0.0 0.0 1.0
-139.39 -93.55933333333333 2028.47 0.0 0.0 1.0
-139.39 -93.55933333333333 2028.47 0.0 0.0 1.0
-139.39 -93.55933333333333 2028.47 0.0 0.0 1.0
-139.20899999999997 -87.23166666666667 2028.47 0.0 0.0 1.0
-140.83633333333333 -81.44633333333333 2028.47 0.0 0.0 1.0
-138.64866666666666 -67.2973 2021.62 0.0 0.0 1.0
-139.54933333333335 -59.189166666666665 2021.62 0.0 0.0 1.0
-139.54933333333335 -59.189166666666665 2021.62 0.0 0.0 1.0
-138.46833333333333 -56.3063 2021.62 0.0 0.0 1.0
-126.158 -19.1146 1494.7633333333333 0.4053708681173278 -0.9061231169681446 0.12089398735147364
-128.12199999999999 -10.913773333333333 1761.7300000000002 -0.6073994857005219 0.3270478197449864 0.7239513715511507
-135.45666666666668 -6.878979999999999 1905.7300000000002 5.831742202680166e-26 -4.639932441543261e-27 1.0
-131.62066666666666 8.888886666666666 1829.97 0.0 0.0 1.0
-131.38366666666664 22.135566666666666 1483.6466666666668 0.3517226369295136 0.2344853462363598 0.906260342877125
-134.23866666666666 29.0535 1846.91 0.0 0.0 1.0
-133.746 40.041266666666665 1852.63 0.0 0.0 1.0
-133.74233333333333 55.5419 1835.58 0.0 0.0 1.0
-134.23033333333333 66.6259 1829.97 0.0 0.0 1.0
-134.23033333333333 66.6259 1829.97 0.0 0.0 1.0
-132.43333333333334 67.64829999999999 1835.58 0.0 0.0 1.0
-134.06533333333334 70.0 1824.39 0.0 0.0 1.0
-134.06533333333334 70.0 1824.39 0.0 0.0 1.0
-134.22766666666666 73.0894 1824.39 0.0 0.0 1.0
-133.41466666666668 76.3415 1824.39 0.0 0.0 1.0
-130.29933333333335 74.4428 1806.0366666666669 -0.8978796741118982 -0.3989429743841607 0.18616281585276487
-133.252 89.4597 1829.97 0.0 0.0 1.0
-134.06933333333333 97.25970000000001 1835.58 0.0 0.0 1.0
-134.06933333333333 97.2597 1835.58 0.0 0.0 1.0
-134.06933333333333 98.56846666666667 1835.58 0.0 0.0 1.0
-132.43066666666667 101.66133333333333 1841.2300000000002 3.3303349921773476e-27 -3.330334992177315e-27 1.0
-134.72833333333332 112.82066666666667 1841.2300000000002 0.0 0.0 1.0
-133.251 130.1233333333333 1846.91 0.0 0.0 1.0
-140.705 -150.808 2042.32 0.0 0.0 1.0
-140.705 -150.80800000000002 2042.32 0.0 0.0 1.0
-139.592 -140.68 2035.37 0.0 0.0 1.0
-140.136 -127.61900000000001 2035.37 0.0 0.0 1.0
-139.592 -116.916 2035.37 0.0 0.0 1.0
-141.5873333333333 -112.01799999999999 2035.37 0.0 0.0 1.0
-139.932 -88.85876666666667 2028.47 0.0 0.0 1.0
-140.27033333333333 -73.42343333333332 2021.62 0.0 0.0 1.0
-140.27033333333333 -73.42343333333332 2021.62 0.0 0.0 1.0
-111.74466666666666 -26.062766666666665 1288.7566666666664 0.09827148350172656 0.4930037533716722 0.8644593771206449
-138.70333333333335 -30.737466666666663 2134.6266666666666 0.8663169638962406 0.1547004281609351 0.47493441188486574
-129.181 -24.827566666666666 1561.0866666666668 0.4302393360090386 -0.8935540312152579 0.12827824074824182
-125.68433333333333 -23.624066666666664 1527.83 -0.41941754553985394 -0.7189931184566023 0.5542001606868899
-137.10733333333334 -20.132833333333334 1938.6666666666667 0.9578940680994746 -0.26134474206021735 0.11890281786954046
-127.57766666666667 -16.847466666666666 1581.6766666666665 0.9390120708658384 -0.33145594096545694 0.09161490035443674
-127.57766666666667 -16.847466666666666 1581.6766666666665 0.9390120708658384 -0.33145594096545694 0.09161490035443663
-136.99699999999999 -13.887100000000002 1911.82 0.0 0.0 1.0
-136.65633333333332 -12.694333333333333 1911.82 0.0 0.0 1.0
-139.256 -2.71355 1964.1200000000001 -0.7066114056831628 0.7066248754672901 0.037169970800385435
-134.947 -2.2929936666666664 1905.7300000000002 -8.066602017037637e-31 -7.540688971713618e-30 1.0
-134.23333333333332 37.3824 1835.58 0.0 0.0 1.0
-134.564 53.4154 1841.2300000000002 -1.6018115545238035e-25 2.803088877152662e-25 1.0
-134.22766666666666 73.0894 1824.39 0.0 0.0 1.0
-133.41466666666668 76.3415 1824.39 0.0 0.0 1.0
-133.415 88.9704 1829.97 0.0 0.0 1.0
-127.69233333333334 99.95376666666668 1873.9066666666665 0.3291411118251209 0.12741260375950436 0.9356453157632687
-134.72400000000002 105.43966666666667 1835.58 0.0 0.0 1.0
-134.72400000000002 105.43966666666667 1835.58 0.0 0.0 1.0
-133.581 121.77499999999999 1852.63 0.0 0.0 1.0
-140.83633333333333 -97.17513333333333 2028.47 0.0 0.0 1.0
-140.11333333333332 -94.46326666666666 2028.47 0.0 0.0 1.0
-140.11333333333332 -94.46326666666666 2028.47 0.0 0.0 1.0
-140.83633333333333 -81.44633333333333 2028.47 0.0 0.0 1.0
-139.54966666666667 -70.36036666666666 2021.62 0.0 0.0 1.0
-139.72966666666667 -64.95496666666668 2021.62 0.0 0.0 1.0
-139.72966666666667 -64.95496666666668 2021.62 0.0 0.0 1.0
-140.09 -61.35136666666667 2021.62 0.0 0.0 1.0
-140.27 -59.9099 2021.62 0.0 0.0 1.0
-138.81000000000003 -46.778866666666666 2014.8100000000002 1.3346398784743578e-25 2.3356817253233876e-25 1.0
-142.284 -23.715633333333333 2208.14 -0.8737006528343025 0.4493740401827354 0.18630657864594816
-128.75766666666667 -23.37376666666667 1547.5966666666666 0.9113430140496848 -0.385518761928191 0.14432323078489837
-136.65633333333332 -12.694333333333333 1911.82 0.0 0.0 1.0
-116.17999999999999 1.8514266666666668 1258.9733333333334 8.539748715909401e-06 -0.9999989192359353 0.0014701884348244782
-133.25066666666666 18.4679 1858.39 0.0 0.0 1.0
-135.391 28.395066666666665 1846.91 0.0 0.0 1.0
-135.22066666666666 32.9026 1841.2300000000002 6.656617936063853e-27 1.3332165925165326e-26 1.0
-134.90200000000002 49.78326666666667 1852.63 0.0 0.0 1.0
-138.02466666666666 49.958866666666665 1846.91 0.0 0.0 1.0
-133.57666666666668 58.92603333333333 1818.84 0.0 0.0 1.0
-134.1113333333333 61.69413333333333 1809.6766666666665 -0.23459393438361642 -0.9385698574636291 0.25308557566783363
-133.57666666666668 61.0334 1818.84 0.0 0.0 1.0
-134.88266666666667 87.82873333333333 1829.97 0.0 0.0 1.0
-134.06933333333333 97.2597 1835.58 0.0 0.0 1.0
-134.72833333333332 112.82066666666667 1841.2300000000002 0.0 0.0 1.0
-135.05633333333333 113.80533333333334 1841.2300000000002 1.6651687828561306e-27 -1.6668593095392416e-27 1.0
-133.08666666666667 120.08233333333334 1846.91 0.0 0.0 1.0
-140.705 -150.808 2042.32 0.0 0.0 1.0
-142.52566666666667 -144.619 2042.32 0.0 0.0 1.0
-140.31733333333332 -141.043 2035.37 0.0 0.0 1.0
-141.61533333333333 -143.16266666666667 2042.32 0.0 0.0 1.0
-141.58733333333333 -138.50333333333333 2035.37 0.0 0.0 1.0
-141.40566666666666 -128.34433333333334 2035.37 0.0 0.0 1.0
-142.67566666666667 -123.447 2035.37 0.0 0.0 1.0
-140.86133333333333 -119.99966666666667 2035.37 0.0 0.0 1.0
-141.37866666666665 -92.83616666666667 2028.47 0.0 0.0 1.0
-141.892 -75.94596666666668 2021.62 0.0 0.0 1.0
-138.9896666666667 -49.11333333333334 2014.8100000000002 5.236325263498865e-27 -2.1744190591098533e-27 1.0
-125.81166666666667 -32.141533333333335 1612.96 0.4438176500417061 0.5030061778636236 0.741627048146497
-127.05333333333334 -23.271599999999996 1646.9866666666667 0.23884713702672533 0.7962476884461249 0.5558252097362438
-137.1676666666667 -21.015733333333333 1940.7633333333333 0.8732444978659333 -0.48524997443066864 0.044457949366891875
-125.78466666666667 -19.074166666666667 1665.3066666666666 -0.46743234099476566 0.3024250106322547 0.8306901465265094
-137.508 -14.7391 1911.82 0.0 0.0 1.0
-139.256 -2.7135499999999997 1964.1200000000001 -0.7066114056831625 0.7066248754672902 0.03716997080038549
-134.225 12.887566666666666 1818.84 0.0 0.0 1.0
-137.84866666666667 19.33973333333333 1911.82 0.0 0.0 1.0
-138.17433333333332 21.656066666666664 1905.7300000000002 -1.866653997820987e-27 3.111191749107363e-27 1.0
-137.83466666666666 22.845033333333333 1905.7300000000002 0.0 0.0 1.0
-135.22066666666666 32.9026 1841.2300000000002 6.656617936063856e-27 1.3332165925165332e-26 1.0
-135.22066666666666 32.9026 1841.2300000000002 6.656617936063853e-27 1.3332165925165326e-26 1.0
-134.46433333333334 41.07533333333333 1854.5500000000002 0.8513140349789994 -0.3402781389814347 0.39934346367394863
-134.90200000000002 49.78326666666667 1852.63 0.0 0.0 1.0
-135.21466666666666 55.0511 1835.58 0.0 0.0 1.0
-136.08933333333334 69.8463 1837.4633333333331 1.8503144621031e-16 0.9987986310870145 0.04900300540483348
-135.86133333333333 86.19779999999999 1829.97 0.0 0.0 1.0
-135.04066666666665 89.02440000000001 1824.39 0.0 0.0 1.0
-135.04066666666665 89.02440000000001 1824.39 0.0 0.0 1.0
-135.04600000000002 90.9276 1829.97 0.0 0.0 1.0
-136.851 111.98333333333335 1835.58 0.0 0.0 1.0
-135.05633333333333 113.80533333333334 1841.2300000000002 1.6651687828561306e-27 -1.6668593095392412e-27 1.0
-135.87699999999998 125.12833333333333 1841.2300000000002 -1.0678743696825275e-25 8.0009267494997e-26 1.0
-136.20533333333333 127.42566666666669 1841.2300000000002 -5.932231569985558e-28 -2.9643090139562098e-27 1.0
-136.14866666666668 128.76933333333332 1839.3466666666666 0.36624931977848474 -0.9159955040394923 -0.16374880867119
-142.52566666666667 -144.619 2042.32 0.0 0.0 1.0
-141.043 -139.41033333333334 2035.37 0.0 0.0 1.0
-141.58733333333333 -138.50333333333333 2035.37 0.0 0.0 1.0
-142.49433333333332 -130.88433333333333 2035.37 0.0 0.0 1.0
-141.5873333333333 -112.01799999999999 2035.37 0.0 0.0 1.0
-141.01666666666665 -88.85876666666667 2028.47 0.0 0.0 1.0
-141.01666666666665 -88.85876666666667 2028.47 0.0 0.0 1.0
-140.99099999999999 -74.14416666666666 2021.62 0.0 0.0 1.0
-140.6303333333333 -60.63063333333333 2021.62 0.0 0.0 1.0
-133.25833333333333 -31.770166666666668 1685.6433333333334 0.8594326095969821 -0.44530699356851877 0.25115188838686514
-126.21266666666666 -16.466593333333332 1719.57 0.8082925080049211 -0.493952150207774 0.32042861109493836
-140.662 -5.564710000000001 1981.4733333333334 -0.703846092424376 0.7040885334329812 0.09412765410404311
-136.118 1.2658216666666666 1893.67 0.0 0.0 1.0
-135.03566666666669 12.563333333333333 1818.84 0.0 0.0 1.0
-135.03566666666666 12.563333333333333 1818.84 0.0 0.0 1.0
-134.23333333333332 37.3824 1835.58 0.0 0.0 1.0
-140.462 47.964800000000004 1974.92 0.0 0.0 1.0
-140.462 47.964800000000004 1974.92 0.0 0.0 1.0
-135.13199999999998 53.07769999999999 1744.6466666666665 0.8798537701407103 -0.4736908584441895 -0.03839679407951454
-134.23033333333333 66.6259 1829.97 0.0 0.0 1.0
-134.87833333333333 70.1626 1824.39 0.0 0.0 1.0
-135.04066666666668 73.252 1824.39 0.0 0.0 1.0
-135.04066666666668 89.02440000000001 1824.39 0.0 0.0 1.0
-135.37833333333333 105.11233333333332 1835.58 0.0 0.0 1.0
-136.36933333333332 124.964 1841.2300000000002 -1.067874369682529e-25 -1.6039820308849009e-25 1.0
-142.857 -134.87533333333332 2035.37 0.0 0.0 1.0
-141.76866666666663 -117.09733333333334 2035.37 0.0 0.0 1.0
-143.00566666666668 -86.68926666666665 2028.47 0.0 0.0 1.0
-141.35133333333332 -75.04506666666667 2021.62 0.0 0.0 1.0
-141.68366666666665 -51.62736666666667 2014.8100000000002 -4.509986717773809e-27 1.3811318852467195e-27 1.0
-125.79733333333333 -39.64416666666666 1437.3433333333332 0.9457285460612364 -0.3209923771057336 0.05061038435845484
-131.8983333333333 -32.58593333333334 1629.0566666666666 -0.6181870018426548 0.7732605115280257 -0.1411134722987333
-121.408 -22.508866666666666 1472.6833333333334 -0.5564015812455325 -4.175993580602107e-16 0.8309135216058715
-132.37033333333332 -24.9923 1850.7233333333334 -0.20971552367085058 0.7968478654983737 0.5666152825172885
-138.53033333333335 -15.0799 1911.82 0.0 0.0 1.0
-143.52166666666665 -8.770760000000001 1988.04 0.0 0.0 1.0
-139.68266666666668 24.634933333333333 1899.68 0.0 0.0 1.0
-137.18966666666668 30.933300000000003 1841.2300000000002 3.1801523190884287e-26 2.81020008842201e-26 1.0
-149.35233333333335 50.16786666666667 2152.52 0.0 0.0 1.0
-137.35366666666667 52.26669999999999 1841.2300000000002 -4.443754424481295e-27 2.666433185033065e-26 1.0
-134.71133333333333 59.898666666666664 1818.84 0.0 0.0 1.0
-136.687 69.4479 1835.58 0.0 0.0 1.0
-134.87833333333333 69.8374 1824.39 0.0 0.0 1.0
-135.04066666666668 73.252 1824.39 0.0 0.0 1.0
-131.909 76.77303333333333 1811.5033333333333 0.6706933067860176 0.7377142219428342 -0.07712467164089129
-135.69833333333335 87.17636666666665 1829.97 0.0 0.0 1.0
-135.20333333333332 88.5366 1824.39 0.0 0.0 1.0
-136.83966666666666 96.7992 1829.97 0.0 0.0 1.0
-134.88733333333332 97.5869 1835.58 0.0 0.0 1.0
-135.37833333333333 105.11233333333332 1835.58 0.0 0.0 1.0
-136.36933333333332 124.964 1841.2300000000002 -1.067874369682529e-25 -1.6039820308849009e-25 1.0
-103.81836666666668 87.78293333333333 1393.7966666666669 0.40916208015705385 0.33477215541997174 0.8488309585052957
-136.23933333333332 129.5203333333333 1795.2066666666667 -0.5902337780390696 -0.7872514374678035 0.17849162856168677
-141.61533333333333 -150.26200000000003 2042.32 0.0 0.0 1.0
-142.857 -134.87533333333332 2035.37 0.0 0.0 1.0
-142.49433333333332 -132.88 2035.37 0.0 0.0 1.0
-143.03833333333333 -129.07000000000002 2035.37 0.0 0.0 1.0
-142.67566666666667 -123.447 2035.37 0.0 0.0 1.0
-142.13133333333332 -118.54866666666668 2035.37 0.0 0.0 1.0
-142.49433333333334 -110.748 2035.37 0.0 0.0 1.0
-143.40133333333333 -108.75266666666668 2035.37 0.0 0.0 1.0
-143.367 -100.068 2028.47 0.0 0.0 1.0
-143.548 -95.54803333333332 2028.47 0.0 0.0 1.0
-143.18633333333335 -91.75143333333331 2028.47 0.0 0.0 1.0
-143.00533333333337 -85.24296666666666 2028.47 0.0 0.0 1.0
-141.92100000000002 -82.1695 2028.47 0.0 0.0 1.0
-142.79266666666666 -77.92796666666668 2021.62 0.0 0.0 1.0
-142.97299999999998 -62.97296666666667 2021.62 0.0 0.0 1.0
-141.30766666666668 -41.92926666666667 1924.12 0.0 0.0 1.0
-125.98433333333332 -30.72616666666666 1570.5999999999997 1.1706386669576398e-28 1.0044574096301927e-28 1.0
-128.33066666666664 -31.732599999999994 1538.3100000000002 0.9724631896313088 -0.0003225443315753874 0.23305630387795837
-131.489 -34.00286666666667 1837.4866666666667 -0.5642716389737069 0.4582804290182576 0.6867143262148885
-122.61333333333333 -25.67963333333333 1408.0233333333333 0.8159199989779933 -0.5707860326294971 -0.09207529648515983
-129.95366666666666 -27.185933333333335 1636.4833333333333 -0.9628166881686704 0.22956996285195208 -0.14241368312092215
-130.167 -21.282999999999998 1653.0733333333335 0.9829385486338137 -0.17346396397477623 0.061172402370756454
-139.04166666666666 -16.954233333333335 1911.82 0.0 0.0 1.0
-139.296 -3.613896333333333 1977.1000000000001 0.7040010697125423 -0.7039309099319863 -0.09414758566167235
-139.256 -2.71355 1964.1200000000001 -0.7066114056831628 0.7066248754672901 0.037169970800385435
-138.67466666666667 16.5207 1961.9833333333336 0.6271866141961294 -0.7663700984030204 0.1389741819437712
-146.23866666666666 26.857366666666667 2176.02 0.9186334319337006 -0.09775927279395641 0.38282599482860086
-137.83466666666666 22.845033333333333 1905.7300000000002 0.0 0.0 1.0
-151.792 40.82406666666667 2068.21 -0.8050841611362406 -0.5366904589138696 0.2525922500758402
-137.037 28.55966666666667 1846.91 0.0 0.0 1.0
-149.35233333333335 50.16786666666667 2152.52 0.0 0.0 1.0
-135.21466666666666 55.0511 1835.58 0.0 0.0 1.0
-135.303 57.571933333333334 1817.0033333333333 -0.7598259482877051 -0.5699085228006188 0.3128399014638419
-137.559 51.43343333333333 1734.5333333333335 -0.8023631549014137 0.5960995869829426 0.029642031904292213
-136.63633333333334 61.309133333333335 1807.8499999999997 -3.2730151847003796e-28 8.179152550927045e-28 1.0
-136.687 69.4479 1835.58 0.0 0.0 1.0
-137.47966666666667 76.5041 1824.39 0.0 0.0 1.0
-135.85333333333332 81.86989999999999 1824.39 0.0 0.0 1.0
-135.69833333333335 87.17636666666665 1829.97 0.0 0.0 1.0
-136.51399999999998 91.2538 1829.97 0.0 0.0 1.0
-136.86166666666668 125.29233333333332 1841.2300000000002 2.4233805346040815e-20 2.4233808676376163e-20 1.0
-143.982 -146.439 2042.32 0.0 0.0 1.0
-142.857 -134.87533333333332 2035.37 0.0 0.0 1.0
-143.367 -100.972 2028.47 0.0 0.0 1.0
-143.367 -92.11299999999999 2028.47 0.0 0.0 1.0
-143.00566666666668 -86.68926666666668 2028.47 0.0 0.0 1.0
-143.00533333333337 -85.24296666666666 2028.47 0.0 0.0 1.0
-142.79266666666666 -77.92796666666668 2021.62 0.0 0.0 1.0
-143.5136666666667 -76.4865 2021.62 0.0 0.0 1.0
-142.97299999999998 -62.97296666666667 2021.62 0.0 0.0 1.0
-126.125 -38.66206666666667 1423.66 0.9116935970434131 -0.34577506841090394 -0.22193329442757573
-141.68366666666665 -51.62736666666667 2014.8100000000002 -4.509986717773809e-27 1.3811318852467195e-27 1.0
-141.30766666666668 -41.92926666666667 1924.12 0.0 0.0 1.0
-138.969 -40.1387 2070.6066666666666 0.7293095808987516 0.60772883551861 0.31428203526208953
-127.57766666666667 -16.847466666666666 1581.6766666666665 0.9390120708658384 -0.33145594096545694 0.09161490035443674
-139.04166666666666 -16.954233333333335 1911.82 0.0 0.0 1.0
-138.53033333333335 -15.0799 1911.82 0.0 0.0 1.0
-138.58766666666665 0.5904503333333333 1891.68 -0.7068133678368418 0.7070524255424213 -0.022174999024129647
-137.30533333333335 8.67273 1818.84 0.0 0.0 1.0
-141.49333333333334 15.175533333333334 1968.4366666666667 0.8863965560672622 -0.44151355355240335 0.13916510849212907
-139.68266666666668 24.634933333333333 1899.68 0.0 0.0 1.0
-137.18966666666668 30.9333 1841.2300000000002 4.6223437641986493e-26 4.3636657362298514e-26 1.0
-140.9226666666667 45.4557 1972.7533333333333 0.0 -0.6804876397753581 0.7327595595507181
-140.462 47.964800000000004 1974.92 0.0 0.0 1.0
-137.91166666666666 58.5542 1802.41 0.0 0.0 1.0
-133.57566666666665 62.30303333333333 1813.33 0.0 0.0 1.0
-137.178 68.7935 1835.58 0.0 0.0 1.0
-137.166 97.61469999999998 1829.97 0.0 0.0 1.0
-137.166 97.61470000000001 1829.97 0.0 0.0 1.0
-137.16599999999997 98.26709999999999 1829.97 0.0 0.0 1.0
-134.295 103.081 1843.1233333333337 0.5988041348989921 -0.49907101561317135 0.6263878426364191
-137.83266666666665 111.82000000000001 1835.58 0.0 0.0 1.0
-137.518 125.45633333333335 1841.2300000000002 4.440451232959331e-27 -6.204021925482018e-26 1.0
-143.982 -146.439 2042.32 0.0 0.0 1.0
-143.982 -146.439 2042.32 0.0 0.0 1.0
-144.30866666666665 -137.95899999999997 2035.37 0.0 0.0 1.0
-144.30866666666665 -137.95899999999997 2035.37 0.0 0.0 1.0
-144.30833333333334 -122.90266666666668 2035.37 0.0 0.0 1.0
-143.548 -95.54803333333332 2028.47 0.0 0.0 1.0
-144.27133333333333 -90.66669999999999 2028.47 0.0 0.0 1.0
-143.90966666666668 -86.50846666666666 2028.47 0.0 0.0 1.0
-143.51366666666667 -76.4865 2021.62 0.0 0.0 1.0
-144.05433333333335 -70.54053333333333 2021.62 0.0 0.0 1.0
-144.05433333333335 -69.45946666666667 2021.62 0.0 0.0 1.0
-142.97299999999998 -62.97296666666667 2021.62 0.0 0.0 1.0
-128.33066666666664 -31.732599999999994 1538.3100000000002 0.9724631896313087 -0.0003225443315751245 0.23305630387795806
-140.76066666666665 -30.256766666666667 1944.97 0.936796348445079 -0.3345195205235817 -0.10251483760236353
-126.55766666666666 -23.85833333333333 1525.2366666666667 0.4965397873058935 0.8512011333558257 0.17001432350239162
-140.59799999999998 -20.940166666666666 1917.95 0.0 0.0 1.0
-144.84033333333332 -11.746166666666667 2012.5733333333335 -0.8560628826993951 0.5137142606081779 0.05704383675906808
-138.58766666666665 0.5904503333333332 1891.68 -0.7068133678368418 0.7070524255424214 -0.022174999024129654
-129.328 2.2391966666666665 1522.6533333333334 3.241277452515399e-06 -0.9999989194721682 0.0014700489755521693
-118.34666666666665 8.012756666666666 1294.3066666666666 -0.022448138597421764 0.23794941352595392 0.9710181036809589
-139.703 20.8068 1905.7300000000002 2.4546288908639505e-26 -7.121701555004802e-26 1.0
-148.42033333333333 25.805200000000003 2183.96 0.98341473426946 0.17882269674144163 -0.030296923141560243
-137.846 31.58973333333333 1841.2300000000002 6.0059790703668e-26 4.0012751558840974e-26 1.0
-133.09533333333331 33.09523333333333 1780.95 0.0 0.0 1.0
-144.19433333333336 42.649 1981.46 0.0 0.0 1.0
-137.35366666666667 52.26669999999999 1841.2300000000002 -4.443754424481295e-27 2.666433185033065e-26 1.0
-137.35366666666667 52.26669999999999 1841.2300000000002 -4.443754424481295e-27 2.666433185033065e-26 1.0
-135.742 57.36156666666667 1820.6899999999998 0.6904860574758848 0.5179000400253536 0.5049837155524388
-137.178 68.7935 1835.58 0.0 0.0 1.0
-137.71433333333334 84.1608 1831.8400000000001 0.15064382768716844 0.8284948708484989 0.53935395257427
-137.166 97.61470000000001 1829.97 0.0 0.0 1.0
-137.178 99.71376666666667 1835.58 0.0 0.0 1.0
-138.487 101.51333333333332 1835.58 0.0 0.0 1.0
-137.846 126.277 1841.2300000000002 0.0 0.0 1.0
-139.16866666666667 129.318 1826.25 -1.113864462331847e-16 0.9946046242205209 0.10373833177353833
-144.67133333333334 -140.67999999999998 2035.37 0.0 0.0 1.0
-145.39666666666668 -106.03166666666665 2035.37 0.0 0.0 1.0
-143.367 -100.972 2028.47 0.0 0.0 1.0
-144.09033333333332 -99.52546666666666 2028.47 0.0 0.0 1.0
-143.548 -95.54803333333332 2028.47 0.0 0.0 1.0
-144.81366666666665 -91.75139999999999 2028.47 0.0 0.0 1.0
-144.09033333333332 -90.3051 2028.47 0.0 0.0 1.0
-144.271 -89.58193333333332 2028.47 0.0 0.0 1.0
-144.271 -89.58193333333332 2028.47 0.0 0.0 1.0
-143.874 -76.30630000000001 2021.62 0.0 0.0 1.0
-143.874 -76.30630000000001 2021.62 0.0 0.0 1.0
-144.054 -75.76576666666666 2021.62 0.0 0.0 1.0
-144.05433333333335 -70.54053333333333 2021.62 0.0 0.0 1.0
-143.5136666666667 -63.873866666666665 2021.62 0.0 0.0 1.0
-145.09533333333334 -63.47923333333333 2014.8100000000002 3.616550745291262e-25 -2.4573990570032708e-25 1.0
-128.37466666666668 -52.67053333333333 1788.0533333333333 0.3911731535157572 -1.0497285868253033e-15 0.9203170996827875
-119.01100000000001 -37.1872 1239.79 -0.26218378821320854 -0.7473823213457135 0.610474673461614
-133.55800000000002 -38.5052 1671.5433333333333 0.9557156910792894 0.29405099695946085 -0.011896596655472212
-127.14033333333333 -22.5164 1526.5366666666669 -0.4055491421513314 0.9124681365840455 0.05414603419604425
-142.67966666666666 -28.896 1924.12 0.0 0.0 1.0
-141.282 -22.307699999999997 1917.95 0.0 0.0 1.0
-141.282 -22.307699999999997 1917.95 0.0 0.0 1.0
-144.51066666666665 -22.794300000000003 1974.92 0.0 0.0 1.0
-138.42433333333335 8.48485 1813.33 0.0 0.0 1.0
-141.49333333333334 15.175533333333334 1968.4366666666667 0.8863965560672622 -0.44151355355240346 0.13916510849212907
-137.84866666666665 19.33973333333333 1911.82 0.0 0.0 1.0
-148.42033333333333 25.805200000000003 2183.96 0.98341473426946 0.17882269674144163 -0.030296923141560243
-137.846 31.58973333333333 1841.2300000000002 6.0059790703668e-26 4.0012751558840974e-26 1.0
-138.2926666666667 76.1789 1824.39 0.0 0.0 1.0
-138.14499999999998 91.2538 1829.97 0.0 0.0 1.0
-139.14133333333334 106.91233333333332 1835.58 0.0 0.0 1.0
-137.83266666666665 111.82000000000001 1835.58 0.0 0.0 1.0
-137.83266666666665 111.82000000000001 1835.58 0.0 0.0 1.0
-135.72766666666666 120.61933333333333 1852.63 0.0 0.0 1.0
-138.99466666666666 120.36933333333332 1841.2300000000002 3.004413042621852e-26 8.009057772618494e-26 1.0
-138.99466666666666 120.36933333333332 1841.2300000000002 3.004413042621854e-26 8.0090577726185e-26 1.0
-137.518 125.45633333333335 1841.2300000000002 4.440451232959331e-27 -6.204021925482018e-26 1.0
-136.823 130.03033333333332 1793.4133333333332 0.999495258786568 3.75560107842375e-17 0.03176834372723438
-136.23933333333332 129.9993333333333 1795.2066666666667 -0.5995540640412995 -0.7996827974235883 -0.032285411509622455
-136.823 130.03033333333332 1793.4133333333332 0.999495258786568 3.75560107842375e-17 0.03176834372723438
-150.81466666666668 162.864 2216.3 0.0 0.0 1.0
-144.30866666666668 -137.959 2035.37 0.0 0.0 1.0
-145.39666666666665 -133.6053333333333 2035.37 0.0 0.0 1.0
-144.48966666666664 -130.52133333333333 2035.37 0.0 0.0 1.0
-145.39666666666665 -111.65533333333333 2035.37 0.0 0.0 1.0
-144.99466666666666 -91.02826666666665 2028.47 0.0 0.0 1.0
-144.99466666666663 -91.02826666666665 2028.47 0.0 0.0 1.0
-143.90966666666668 -86.50846666666666 2028.47 0.0 0.0 1.0
-144.05433333333335 -70.54053333333333 2021.62 0.0 0.0 1.0
-129.86066666666667 -47.764100000000006 1470.2699999999998 -1.890004372404398e-25 1.2547313209895671e-25 1.0
-129.436 -33.787266666666675 1501.0433333333333 0.954488169567416 0.25323123262152764 0.15756356488993734
-141.0376666666667 -44.4939 2017.08 0.6953270536080295 -0.41715492969653406 0.5852367496583379
-124.38999999999999 -31.532766666666664 1416.9399999999998 -0.0796924950732727 0.8890312506495471 0.45085756242686936
-126.867 -32.57893333333333 1381.99 0.0 0.0 1.0
-129.46133333333333 -29.22713333333333 1543.61 0.9821795135883151 0.026354466238676242 0.18608827259313127
-144.47799999999998 -9.667029999999999 1990.25 -0.6241391862903302 0.7799391498482826 0.046316289475547064
-143.52166666666668 -8.770760000000001 1988.04 0.0 0.0 1.0
-140.347 -3.752993333333333 1959.8333333333333 -0.7069533520004534 0.7069668283029343 -0.020368155896216274
-136.16233333333335 -5.282768 1883.74 -0.40348522489679206 -0.6517765648400924 0.6421736391469475
-140.06966666666665 -0.9704263333333332 1979.28 0.753944018060082 0.3015958225112057 0.5836166357080717
-138.42433333333335 8.48485 1813.33 0.0 0.0 1.0
-137.037 28.55966666666667 1846.91 0.0 0.0 1.0
-138.01033333333334 30.933300000000003 1841.2300000000002 9.528779143590922e-28 -1.9051479899231742e-27 1.0
-138.20399999999998 35.02066666666666 1831.8500000000001 -0.6247551936194786 0.7807848754815574 -0.007478386506241675
-133.09533333333331 33.09523333333333 1780.95 0.0 0.0 1.0
-146.80566666666667 53.435766666666666 2144.86 2.9529429836949153e-15 -0.992353693149669 0.12342668954570844
-138.02466666666666 49.958866666666665 1846.91 0.0 0.0 1.0
-137.91166666666666 58.5542 1802.41 0.0 0.0 1.0
-138.2926666666667 76.1789 1824.39 0.0 0.0 1.0
-138.293 77.4797 1824.39 0.0 0.0 1.0
-138.293 77.4797 1824.39 0.0 0.0 1.0
-138.12733333333333 121.27366666666667 1845.0166666666667 -0.5219184722363467 -0.8349850001351025 0.17435927818117633
-139.16866666666667 129.318 1826.25 -1.2252509085650318e-16 0.9946046242205208 0.10373833177353832
-150.81466666666665 162.864 2216.3 0.0 0.0 1.0
-144.67133333333334 -140.67999999999998 2035.37 0.0 0.0 1.0
-144.671 -134.331 2035.37 0.0 0.0 1.0
-145.39666666666665 -133.6053333333333 2035.37 0.0 0.0 1.0
-146.12233333333336 -115.46466666666667 2035.37 0.0 0.0 1.0
-145.578 -113.46933333333334 2035.37 0.0 0.0 1.0
-146.304 -109.11566666666666 2035.37 0.0 0.0 1.0
-145.39666666666668 -106.03166666666668 2035.37 0.0 0.0 1.0
-145.53666666666666 -99.52546666666666 2028.47 0.0 0.0 1.0
-145.17533333333333 -91.38983333333333 2028.47 0.0 0.0 1.0
-145.17533333333333 -90.66669999999999 2028.47 0.0 0.0 1.0
-145.17533333333333 -90.66669999999999 2028.47 0.0 0.0 1.0
-132.52233333333336 -35.21136666666667 1662.256666666667 0.9575171636905594 -0.2680754685532607 -0.10628463857931783
-132.75766666666667 -34.781666666666666 1679.3466666666666 -0.8231750265729425 0.47006949144248267 -0.31846122031048185
-144.548 -34.49013333333334 1949.2033333333336 0.6583112572791912 0.41160913879773653 0.630241386611254
-133.25833333333333 -31.770166666666668 1685.6433333333334 0.8594326095969819 -0.44530699356851927 0.2511518883868653
-128.42333333333332 -27.745966666666664 1567.8666666666668 0.8611505267269596 0.15379649667275871 0.48452699401485005
-146.9466666666667 -8.85697 2005.8133333333333 -0.5087729984056268 0.3053092827354017 0.8049448912620929
-136.88333333333333 49.45303333333334 1852.63 0.0 0.0 1.0
-139.756 72.43900000000001 1824.39 0.0 0.0 1.0
-138.29266666666666 76.1789 1824.39 0.0 0.0 1.0
-138.94266666666667 82.6829 1824.39 0.0 0.0 1.0
-139.28633333333335 96.30990000000001 1829.97 0.0 0.0 1.0
-138.96 98.4302 1829.97 0.0 0.0 1.0
-138.96 98.43020000000001 1829.97 0.0 0.0 1.0
-138.96 98.43020000000001 1829.97 0.0 0.0 1.0
-150.81466666666665 162.864 2216.3 0.0 0.0 1.0
-146.166 -147.89533333333335 2042.32 0.0 0.0 1.0
-147.258 -143.1626666666667 2042.32 0.0 0.0 1.0
-144.3083333333333 -122.90266666666668 2035.37 0.0 0.0 1.0
-146.12233333333336 -115.46466666666667 2035.37 0.0 0.0 1.0
-145.39666666666668 -106.03166666666668 2035.37 0.0 0.0 1.0
-145.71766666666667 -85.78529999999999 2028.47 0.0 0.0 1.0
-146.44033333333334 -79.45763333333333 2028.47 0.0 0.0 1.0
-147.16366666666667 -78.91526666666667 2028.47 0.0 0.0 1.0
-145.09533333333331 -63.47923333333333 2014.8100000000002 -5.659307543694159e-25 3.83777673055024e-25 1.0
-144.84266666666667 -62.690733333333334 2012.5566666666666 -0.7967504772835176 0.5978678926017282 0.08799238571862619
-145.37300000000002 -55.396366666666665 2001.3533333333335 -0.9882062557287584 0.09405358816301443 0.12084005417166026
-130.6543333333333 -26.226333333333333 1489.7966666666664 0.5576372695408828 0.6970319924538996 0.4507627725475295
-142.67966666666666 -28.896 1924.12 0.0 0.0 1.0
-142.479 -23.675233333333335 1917.95 0.0 0.0 1.0
-142.479 -23.675233333333335 1917.95 0.0 0.0 1.0
-144.12466666666668 -16.498856666666665 1957.6966666666667 0.9483196717357838 -0.08614919956950243 0.3053982901269576
-152.71966666666665 21.59923333333333 2012.5733333333335 -2.6166965601212764e-14 0.802151242734178 0.5971209121945182
-141.40133333333333 19.957533333333334 1905.7300000000002 0.0 0.0 1.0
-141.88366666666667 23.788366666666665 1899.68 0.0 0.0 1.0
-142.298 26.385033333333336 1891.68 0.5547015450602475 -0.8320249303313119 0.0063805340646120425
-145.25366666666667 41.766 1981.46 0.0 0.0 1.0
-138.02466666666666 49.958866666666665 1846.91 0.0 0.0 1.0
-140.73166666666665 66.09756666666665 1824.39 0.0 0.0 1.0
-139.141 97.09609999999999 1835.58 0.0 0.0 1.0
-139.46833333333333 106.09433333333332 1835.58 0.0 0.0 1.0
-140.12266666666667 108.71166666666666 1835.58 0.0 0.0 1.0
-140.12266666666667 108.71166666666666 1835.58 0.0 0.0 1.0
-140.61333333333334 113.947 1835.58 0.0 0.0 1.0
-146.12233333333333 -115.46466666666667 2035.37 0.0 0.0 1.0
-146.304 -109.11566666666666 2035.37 0.0 0.0 1.0
-147.211 -108.57133333333333 2035.37 0.0 0.0 1.0
-146.98299999999998 -89.03953333333334 2028.47 0.0 0.0 1.0
-146.80233333333334 -88.3164 2028.47 0.0 0.0 1.0
-146.62166666666667 -87.774 2028.47 0.0 0.0 1.0
-145.09533333333331 -63.47923333333333 2014.8100000000002 -5.659307543694159e-25 3.83777673055024e-25 1.0
-149.94066666666666 -57.7936 2129.54 0.0 0.0 1.0
-149.94066666666666 -57.7936 2129.54 0.0 0.0 1.0
-128.75766666666667 -23.373766666666665 1547.5966666666666 0.9113430140496847 -0.3855187619281907 0.14432323078489837
-142.479 -23.675233333333335 1917.95 0.0 0.0 1.0
-141.94966666666667 -3.8409703333333334 1911.8333333333333 0.4330528940176511 0.5778866546022334 0.6917457664601757
-129.328 2.2391966666666665 1522.6533333333334 3.2412774523050697e-06 -0.9999989194721681 0.0014700489755522402
-142.42033333333333 18.938433333333332 1905.7300000000002 -4.7128594430109034e-26 1.8847990891172745e-26 1.0
-143.713 25.907166666666665 1893.67 0.0 0.0 1.0
-139.756 72.43900000000001 1824.39 0.0 0.0 1.0
-140.59133333333332 86.85016666666667 1829.97 0.0 0.0 1.0
-138.96033333333332 92.8848 1829.97 0.0 0.0 1.0
-139.28633333333335 96.30990000000001 1829.97 0.0 0.0 1.0
-141.268 103.14933333333333 1835.58 0.0 0.0 1.0
-140.80033333333333 117.57966666666668 1841.2300000000002 -6.662924781234958e-27 -1.998200995306409e-26 1.0
-140.80033333333333 117.57966666666668 1841.2300000000002 -6.662924781234958e-27 -1.998200995306409e-26 1.0
-140.80033333333333 121.02566666666667 1841.2300000000002 0.0 0.0 1.0
-140.308 122.17433333333334 1841.2300000000002 1.0 0.0 0.0
-140.636 123.97933333333333 1841.2300000000002 -4.00723647852421e-26 -5.404200283469228e-29 1.0
-147.44000000000003 -142.98066666666668 2042.32 0.0 0.0 1.0
-147.75533333333334 -136.68966666666665 2035.37 0.0 0.0 1.0
-147.75533333333334 -136.68966666666665 2035.37 0.0 0.0 1.0
-146.66666666666669 -115.82766666666667 2035.37 0.0 0.0 1.0
-146.30366666666666 -104.94299999999998 2035.37 0.0 0.0 1.0
-147.88700000000003 -100.068 2028.47 0.0 0.0 1.0
