ply
format ascii 1.0
comment VCGLIB generated
element vertex 680
property float x
property float y
property float z
property float nx
property float ny
property float nz
element face 0
property list uchar int vertex_indices
end_header
36.966499999999996 59.611999999999995 1583.07 0.0 0.0 1.0
36.095 85.34743333333334 1578.89 0.0 0.0 1.0
35.81356666666667 87.17676666666667 1578.89 0.0 0.0 1.0
36.235733333333336 100.96766666666667 1578.89 0.0 0.0 1.0
36.235733333333336 102.09366666666666 1578.89 0.0 0.0 1.0
36.235733333333336 102.09366666666666 1578.89 0.0 0.0 1.0
45.7143 118.01866666666666 1709.71 0.0 0.0 1.0
44.95239999999999 119.84766666666667 1709.71 0.0 0.0 1.0
43.520900000000005 118.70266666666667 1663.7633333333333 3.010248463003549e-16 -0.9862438311288313 0.16529702223671486
46.323800000000006 125.63833333333334 1709.71 0.0 0.0 1.0
36.42796666666666 -107.02033333333334 1587.2699999999998 -3.585361558159449e-26 -4.473478047282322e-26 1.0
36.42796666666666 -106.87866666666666 1587.2699999999998 -3.585361558159449e-26 4.473478047282322e-26 1.0
35.72063333333333 -98.39076666666666 1587.2699999999998 2.5627815638228672e-27 5.1255631276457474e-27 1.0
36.56943333333333 -96.97609999999999 1587.2699999999998 -8.637523048440075e-27 1.3177759522620105e-26 1.0
36.14503333333334 -87.49783333333333 1587.2699999999998 8.969735473380192e-27 8.969735473380268e-27 1.0
36.2865 -83.96106666666667 1587.2699999999998 -1.79394709467598e-26 -1.345460321006993e-26 1.0
35.9399 -73.92776666666667 1584.47 0.9996142004176943 -9.599103068118232e-17 0.027774994568748736
35.9399 -73.92776666666667 1584.47 0.9996142004176943 -9.599103068118232e-17 0.027774994568748736
36.1199 -63.56263333333333 1583.07 0.0 0.0 1.0
35.69663333333333 -62.716066666666656 1583.07 0.0 0.0 1.0
36.2865 -61.46776666666667 1587.2699999999998 -2.562781563822892e-27 -1.9220861728671717e-27 1.0
35.57916666666666 -50.15033333333333 1587.2699999999998 -7.047649300512978e-27 5.1255631276457775e-27 1.0
36.2865 -47.60393333333334 1587.2699999999998 -1.1212169341725348e-25 -1.4800063531077445e-25 1.0
36.56943333333333 -42.08663333333333 1587.2699999999998 -3.36365080251753e-27 1.009095240755253e-26 1.0
35.579166666666666 -31.05213333333333 1587.2699999999998 1.2813907819114559e-27 2.5627815638228988e-27 1.0
36.99383333333333 -19.3103 1587.2699999999998 -3.7672888988196344e-27 -3.5878941893520643e-28 1.0
36.85236666666666 -14.217500000000001 1587.2699999999998 -6.727301605035263e-26 9.866709020718424e-26 1.0
36.7109 -11.954033333333333 1587.2699999999998 2.1704545096080122e-26 8.637523048440061e-27 1.0
36.99383333333333 -10.539356666666666 1587.2699999999998 -1.5149281103072371e-27 1.3953203648783177e-27 1.0
35.4377 -5.305040000000001 1587.2699999999998 -1.401512911866734e-28 -1.4015046560664463e-28 1.0
36.85236666666666 6.295316666666667 1587.2699999999998 -1.009095240755255e-26 1.3454603210070174e-26 1.0
45.104733333333336 14.704733333333335 1709.71 0.0 0.0 1.0
44.647600000000004 15.7714 1709.71 0.0 0.0 1.0
45.71426666666667 20.19046666666667 1709.71 0.0 0.0 1.0
45.4095 21.561899999999998 1709.71 0.0 0.0 1.0
45.71426666666667 30.247633333333336 1709.71 0.0 0.0 1.0
36.11993333333333 38.73016666666667 1583.07 0.0 0.0 1.0
35.83773333333334 47.619033333333334 1583.07 0.0 0.0 1.0
36.85236666666666 -113.38600000000001 1587.2699999999998 1.5244112979777038e-25 -2.8688153071679736e-25 1.0
36.2865 -107.30333333333333 1587.2699999999998 -1.2567784080249074e-25 2.426146121185244e-25 1.0
36.7109 -104.04933333333332 1587.2699999999998 2.193522178627366e-28 7.642817052557075e-27 1.0
36.003566666666664 -102.069 1587.2699999999998 -4.3172659086789676e-26 -4.1377188110674074e-26 1.0
35.72063333333333 -97.54196666666667 1587.2699999999998 0.0 0.0 1.0
35.8621 -85.0928 1587.2699999999998 -1.7939470946760257e-26 1.1959647297840109e-26 1.0
35.8621 -83.8196 1587.2699999999998 5.97982364892029e-27 1.1959647297840383e-26 1.0
35.8621 -81.2732 1587.2699999999998 -1.9151378419993522e-12 -1.2767585613328997e-12 1.0
37.418233333333326 -73.77543333333334 1587.2699999999998 -7.121452697758468e-28 -1.9327169029669682e-27 1.0
36.00356666666667 -70.2387 1587.2699999999998 2.690920642014267e-25 4.126078317755233e-25 1.0
35.4377 -67.40936666666667 1587.2699999999998 3.295004867772315e-27 -2.196669911848198e-27 1.0
36.14503333333332 -49.0186 1587.2699999999998 4.0363809630210846e-26 0.0 -1.0
36.00356666666667 -46.0477 1587.2699999999998 6.727301605035085e-27 6.727301605035141e-27 1.0
35.15476666666667 -36.993833333333335 1587.2699999999998 -2.4915931870500412e-28 -8.72057615467511e-28 1.0
36.003566666666664 -17.754166666666666 1587.2699999999998 -4.48486773669009e-27 -1.7939470946760435e-26 1.0
45.104733333333336 14.704733333333332 1709.71 0.0 0.0 1.0
45.4095 21.561899999999998 1709.71 0.0 0.0 1.0
45.5619 26.133333333333336 1709.71 0.0 0.0 1.0
34.8501 41.269866666666665 1583.07 0.0 0.0 1.0
35.555566666666664 52.839499999999994 1583.07 0.0 0.0 1.0
35.1323 62.85713333333334 1583.07 0.0 0.0 1.0
34.709 69.62963333333333 1583.07 0.0 0.0 1.0
35.41446666666667 72.59263333333334 1583.07 0.0 0.0 1.0
34.54706666666667 81.9701 1578.89 0.0 0.0 1.0
35.53213333333333 88.44326666666666 1578.89 0.0 0.0 1.0
34.82853333333333 89.2876 1578.89 0.0 0.0 1.0
35.53210000000001 97.87156666666668 1578.89 0.0 0.0 1.0
35.81356666666667 102.375 1578.89 0.0 0.0 1.0
45.10476666666667 118.17133333333334 1709.71 0.0 0.0 1.0
44.79999999999999 118.781 1709.71 0.0 0.0 1.0
44.64763333333334 119.39066666666668 1709.71 0.0 0.0 1.0
43.580966666666676 -124.57133333333333 1709.71 0.0 0.0 1.0
35.15476666666667 -92.73209999999999 1587.2699999999998 4.6130068148812975e-26 7.175788378704249e-26 1.0
35.57916666666667 -88.62956666666666 1587.2699999999998 4.983186374099968e-28 3.4882304618700425e-27 1.0
35.4377 -87.35636666666666 1587.2699999999998 -5.381841284028019e-26 2.152736513611172e-25 1.0
35.15476666666667 -85.5172 1587.2699999999998 0.0 1.0 0.0
35.8621 -83.8196 1587.2699999999998 5.97982364892029e-27 1.1959647297840383e-26 1.0
35.29623333333333 -69.67283333333334 1587.2699999999998 -1.7098028287495234e-10 -1.7098028287495312e-10 1.0
35.0133 -66.70203333333335 1587.2699999999998 -8.969735473380143e-27 -3.363650802517568e-26 1.0
36.2865 -61.46776666666667 1587.2699999999998 -2.5627815638228923e-27 -1.9220861728671717e-27 1.0
35.0133 -53.12113333333334 1587.2699999999998 -1.2613690509440859e-27 -6.306845254720406e-28 1.0
35.29623333333333 -46.61363333333333 1587.2699999999998 0.0 0.0 1.0
35.57916666666667 -46.1892 1587.2699999999998 9.417588287479221e-26 -2.6904451770042135e-26 1.0
35.579166666666666 -42.79396666666667 1587.2699999999998 1.233338627589788e-26 -7.848518539207713e-27 1.0
35.4377 -31.1936 1587.2699999999998 0.0 0.0 1.0
35.4377 -7.00265 1587.2699999999998 0.0 0.0 1.0
35.579166666666666 1.7683433333333334 1587.2699999999998 -5.720494562104637e-30 4.233165975957456e-28 1.0
34.5679 35.908300000000004 1583.07 0.0 0.0 1.0
35.13226666666667 38.5891 1583.07 0.0 0.0 1.0
35.41446666666666 51.0053 1583.07 0.0 0.0 1.0
34.9912 63.1393 1583.07 0.0 0.0 1.0
35.10993333333334 85.2067 1578.89 0.0 0.0 1.0
34.6878 90.55409999999999 1578.89 0.0 0.0 1.0
34.68776666666667 100.82666666666667 1578.89 0.0 0.0 1.0
34.68776666666667 100.82666666666667 1578.89 0.0 0.0 1.0
44.952400000000004 119.84766666666667 1709.71 0.0 0.0 1.0
44.49526666666666 124.72399999999999 1709.71 0.0 0.0 1.0
34.871833333333335 -101.786 1587.2699999999998 5.3076461751371424e-27 -1.028952756151535e-26 1.0
35.72063333333333 -98.39076666666666 1587.2699999999998 2.5627815638228672e-27 5.1255631276457474e-27 1.0
36.003566666666664 -79.85853333333334 1587.2699999999998 -6.782408675523585e-29 -6.951968892411841e-28 1.0
35.01330000000001 -69.10696666666666 1587.2699999999998 3.027285722265785e-26 1.6818254012587567e-26 1.0
34.85006666666667 -62.85716666666667 1583.07 0.0 0.0 1.0
36.2865 -55.52606666666667 1587.2699999999998 -4.664262446157685e-27 -4.7360203299447423e-26 1.0
35.29623333333333 -46.61363333333333 1587.2699999999998 0.0 0.0 1.0
34.588899999999995 -43.50130000000001 1587.2699999999998 1.1212169341725242e-27 -5.6060846708626226e-27 1.0
34.44743333333333 -35.8621 1587.2699999999998 3.363650802517515e-27 0.0 -1.0
34.5889 -32.60829999999999 1587.2699999999998 -3.5674975732541672e-28 2.792978035264263e-27 1.0
35.01330000000001 -30.910666666666668 1587.2699999999998 2.1863730216364134e-26 8.409127006293854e-27 1.0
35.013299999999994 -17.471233333333334 1587.2699999999998 -8.96973547338019e-27 -2.690920642014072e-26 1.0
33.72133333333334 0.35273366666666667 1583.07 0.0 0.0 1.0
34.73036666666666 9.832013333333334 1587.2699999999998 -9.530324127012464e-27 5.605846910817152e-27 1.0
34.73036666666667 9.832013333333334 1587.2699999999998 3.9242790830575906e-27 -1.1212169327719794e-27 1.0
34.00353333333334 32.09876666666667 1583.07 0.0 0.0 1.0
34.8501 41.269866666666665 1583.07 0.0 0.0 1.0
34.42679999999999 46.06700000000001 1583.07 0.0 0.0 1.0
34.709 52.839499999999994 1583.07 0.0 0.0 1.0
34.709 62.99823333333334 1583.07 0.0 0.0 1.0
34.42680000000001 70.3351 1583.07 0.0 0.0 1.0
34.42680000000001 70.3351 1583.07 0.0 0.0 1.0
34.00353333333334 74.14463333333333 1583.07 0.0 0.0 1.0
42.514266666666664 85.25713333333333 1709.71 0.0 0.0 1.0
34.54703333333333 84.36236666666666 1578.89 0.0 0.0 1.0
34.54703333333334 84.36236666666667 1578.89 0.0 0.0 1.0
34.406333333333336 97.59013333333333 1578.89 0.0 0.0 1.0
34.68776666666667 100.82666666666667 1578.89 0.0 0.0 1.0
43.580966666666676 -124.57133333333333 1709.71 0.0 0.0 1.0
34.871833333333335 -107.58633333333334 1587.2699999999998 -1.0914138962319852e-27 -1.8475090315976435e-26 1.0
34.871833333333335 -88.48810000000002 1587.2699999999998 -4.0363809630210914e-26 -2.69092064201406e-26 1.0
34.44743333333333 -87.78076666666668 1587.2699999999998 -9.866709020718041e-26 -3.587894189352067e-26 1.0
35.01330000000001 -69.10696666666666 1587.2699999999998 3.0272857222657844e-26 1.6818254012587564e-26 1.0
41.295233333333336 -69.10476666666666 1709.71 0.0 0.0 1.0
34.02303333333334 -50.43326666666667 1587.2699999999998 6.27881483136601e-26 4.4848677366900447e-26 1.0
34.871833333333335 -37.1353 1587.2699999999998 3.3221242494000516e-28 -1.2181122247800102e-27 1.0
35.01330000000001 -30.910666666666668 1587.2699999999998 2.1863730216364134e-26 8.409127006293854e-27 1.0
34.164500000000004 -25.959333333333333 1587.2699999999998 1.5697037078415178e-26 -6.727301605035126e-27 1.0
34.1645 -18.8859 1587.2699999999998 0.0 -1.0 0.0
34.305933333333336 -8.27586 1587.2699999999998 1.6816094882615445e-27 -1.6015691957295896e-27 1.0
34.447399999999995 -5.022106666666667 1587.2699999999998 -5.188887217576114e-28 2.9652409078814974e-28 1.0
42.819066666666664 4.342856666666666 1709.71 0.0 0.0 1.0
42.819066666666664 4.342856666666666 1709.71 0.0 0.0 1.0
43.73333333333333 15.619033333333332 1709.71 0.0 0.0 1.0
33.58026666666667 26.1728 1583.07 0.0 0.0 1.0
33.439166666666665 27.160466666666665 1583.07 0.0 0.0 1.0
33.862433333333335 31.3933 1583.07 0.0 0.0 1.0
34.5679 35.48500000000001 1583.07 0.0 0.0 1.0
34.2857 36.1905 1583.07 0.0 0.0 1.0
34.2857 36.1905 1583.07 0.0 0.0 1.0
34.2857 36.1905 1583.07 0.0 0.0 1.0
34.5679 38.87126666666666 1583.07 0.0 0.0 1.0
34.5679 38.87126666666666 1583.07 0.0 0.0 1.0
34.8501 41.269866666666665 1583.07 0.0 0.0 1.0
34.00353333333333 44.3739 1583.07 0.0 0.0 1.0
34.00353333333333 44.3739 1583.07 0.0 0.0 1.0
34.00353333333333 45.64373333333333 1583.07 0.0 0.0 1.0
34.42679999999999 46.06700000000001 1583.07 0.0 0.0 1.0
34.709 62.99823333333333 1583.07 0.0 0.0 1.0
42.97143333333333 69.86663333333333 1709.71 0.0 0.0 1.0
42.97143333333333 69.86663333333333 1709.71 0.0 0.0 1.0
33.98420000000001 81.40723333333334 1578.89 0.0 0.0 1.0
34.6878 90.5541 1578.89 0.0 0.0 1.0
44.49526666666667 124.72399999999999 1709.71 0.0 0.0 1.0
42.666666666666664 -124.87633333333333 1709.71 0.0 0.0 1.0
33.7401 -111.68866666666666 1587.2699999999998 0.0 0.0 1.0
33.88153333333333 -107.30333333333333 1587.2699999999998 7.178153167345346e-27 1.2552895424942189e-26 1.0
34.30596666666667 -87.07343333333334 1587.2699999999998 4.4848677366899626e-26 8.969735473380048e-27 1.0
34.1645 -86.36606666666667 1587.2699999999998 1.0 0.0 0.0
33.881566666666664 -85.80016666666667 1587.2699999999998 0.0 0.0 1.0
39.314299999999996 -79.9238 1709.71 0.0 0.0 1.0
34.42680000000001 -64.55026666666667 1583.07 0.0 0.0 1.0
42.05713333333333 -58.590466666666664 1709.71 0.0 0.0 1.0
33.88153333333333 -38.69143333333333 1587.2699999999998 -4.4842807151912076e-27 4.484632925324306e-27 1.0
33.881566666666664 -36.003566666666664 1587.2699999999998 0.0 0.0 1.0
34.44743333333333 -35.8621 1587.2699999999998 3.363650802517514e-27 0.0 -1.0
34.1645 -25.959333333333333 1587.2699999999998 -7.848518539207589e-27 3.363650802517563e-27 1.0
34.1645 -18.8859 1587.2699999999998 0.0 -1.0 0.0
34.30596666666666 -17.754166666666666 1587.2699999999998 -3.2034769547785965e-27 2.5627815638228862e-27 1.0
33.01586666666667 -1.9047600000000002 1583.07 0.0 0.0 1.0
33.72133333333334 0.35273366666666667 1583.07 0.0 0.0 1.0
33.88153333333333 1.7683433333333334 1587.2699999999998 -5.941863294230854e-28 -2.8476384646142346e-27 1.0
33.7401 6.295313333333333 1587.2699999999998 -8.07274924492375e-28 -5.3817905601521e-28 1.0
34.73036666666666 9.832013333333334 1587.2699999999998 -9.530324127012465e-27 5.6058469108171534e-27 1.0
43.42853333333334 19.1238 1709.71 0.0 0.0 1.0
34.00353333333334 32.09876666666667 1583.07 0.0 0.0 1.0
33.58023333333333 52.13406666666666 1583.07 0.0 0.0 1.0
34.144600000000004 52.41623333333333 1583.07 0.0 0.0 1.0
34.42680000000001 70.3351 1583.07 0.0 0.0 1.0
34.28573333333333 73.43916666666667 1583.07 0.0 0.0 1.0
33.4213 88.0211 1578.89 0.0 0.0 1.0
33.7027 96.88653333333333 1578.89 0.0 0.0 1.0
32.858399999999996 104.485 1578.89 0.0 0.0 1.0
32.858399999999996 105.89233333333334 1578.89 0.0 0.0 1.0
33.457166666666666 -112.11333333333333 1587.2699999999998 0.0 0.0 1.0
33.740066666666664 -102.35166666666665 1587.2699999999998 -3.9723527457235684e-25 4.76104335955444e-25 1.0
33.17419999999999 -95.98583333333333 1587.2699999999998 -6.409549583687333e-27 -8.199665989783864e-28 1.0
34.5889 -69.53136666666667 1587.2699999999998 1.1212169341725143e-27 -4.706527623347177e-42 1.0
33.315666666666665 -66.98496666666666 1587.2699999999998 -2.151958918870006e-27 4.305270181269104e-27 1.0
34.42680000000001 -64.55026666666667 1583.07 0.0 0.0 1.0
41.75236666666667 -60.26666666666667 1709.71 0.0 0.0 1.0
34.02303333333333 -50.43326666666667 1587.2699999999998 -3.139407415683005e-26 -2.2424338683450224e-26 1.0
33.59863333333333 -49.72593333333333 1587.2699999999998 8.969735473380235e-26 3.5878941893520716e-26 1.0
34.73036666666667 -46.8966 1587.2699999999998 0.0 1.0 0.0
34.1645 -25.959333333333333 1587.2699999999998 -7.848518539207575e-27 3.3636508025175556e-27 1.0
33.0327 -22.7056 1587.2699999999998 5.380826942743165e-28 -2.511475215482184e-27 1.0
33.881566666666664 -18.744433333333333 1587.2699999999998 0.0 0.0 1.0
33.881566666666664 -18.744433333333333 1587.2699999999998 0.0 0.0 1.0
33.315666666666665 -13.934566666666669 1587.2699999999998 -2.2422577563629162e-27 -3.363650802517555e-27 1.0
33.315666666666665 -13.934566666666669 1587.2699999999998 -2.242257756362917e-27 -3.363650802517556e-27 1.0
33.01586666666667 -1.9047600000000002 1583.07 0.0 0.0 1.0
33.740100000000005 6.295313333333333 1587.2699999999998 2.7178391055789136e-26 9.149120037893292e-27 1.0
43.276199999999996 13.180933333333334 1709.71 0.0 0.0 1.0
43.580966666666676 14.857133333333332 1709.71 0.0 0.0 1.0
33.58026666666667 26.1728 1583.07 0.0 0.0 1.0
33.862433333333335 31.3933 1583.07 0.0 0.0 1.0
33.58026666666667 45.220466666666674 1583.07 0.0 0.0 1.0
33.157000000000004 60.1764 1583.07 0.0 0.0 1.0
34.00353333333334 74.14463333333333 1583.07 0.0 0.0 1.0
32.9991 95.47933333333333 1578.89 0.0 0.0 1.0
33.42126666666667 100.40466666666667 1578.89 0.0 0.0 1.0
30.197233333333333 106.55266666666667 1543.5966666666666 0.9724094752589304 1.1792474758423236e-16 0.23328054446663848
28.033266666666666 105.78033333333333 1534.3633333333335 0.37784629062386427 -0.8625745528159297 0.3364480962885439
30.197233333333333 106.55266666666667 1543.5966666666666 0.9724094752589304 1.4568032319986127e-16 0.23328054446663848
42.389700000000005 120.22666666666665 1674.6466666666668 0.0397214466554936 -0.9908724242511868 0.1288178773857521
33.457166666666666 -112.11333333333333 1587.2699999999998 0.0 0.0 1.0
33.457166666666666 -112.11333333333333 1587.2699999999998 0.0 0.0 1.0
33.5986 -98.39076666666666 1587.2699999999998 -1.9221293037233434e-27 5.766463401284078e-27 1.0
34.73036666666667 -91.31743333333333 1587.2699999999998 4.961038879104065e-28 4.208024049240071e-28 1.0
33.881566666666664 -85.80016666666667 1587.2699999999998 0.0 0.0 1.0
32.89126666666667 -83.53666666666666 1587.2699999999998 3.1092640888232435e-27 1.4351576757408187e-27 1.0
32.89123333333333 -72.64363333333334 1587.2699999999998 -1.0767699033554442e-25 -5.384378118365541e-26 1.0
32.89123333333333 -67.55083333333333 1587.2699999999998 -2.1519589188699638e-27 4.305270181269162e-27 1.0
34.871833333333335 -57.931033333333325 1587.2699999999998 7.783752668718936e-28 5.6831896697723055e-28 1.0
30.899466666666665 -49.17106666666667 1583.07 0.0 0.0 1.0
33.59863333333333 -49.72593333333333 1587.2699999999998 8.969735473380235e-26 3.5878941893520716e-26 1.0
33.5986 -43.64276666666667 1587.2699999999998 -1.121216934172514e-27 -2.2425659627058015e-27 1.0
33.881566666666664 -36.003566666666664 1587.2699999999998 0.0 0.0 1.0
32.89126666666667 -32.60826666666667 1587.2699999999998 -8.969031025451684e-27 -5.381841284028114e-26 1.0
32.89126666666667 -32.60826666666667 1587.2699999999998 -8.969031025451684e-27 -5.381841284028114e-26 1.0
32.89123333333333 -11.246690000000001 1587.2699999999998 1.4944581826009898e-28 -5.97924138507417e-29 1.0
33.740100000000005 6.295313333333333 1587.2699999999998 2.7178391055789136e-26 9.149120037893292e-27 1.0
32.5926 10.6526 1583.07 0.0 0.0 1.0
41.59996666666667 19.580966666666665 1709.71 0.0 0.0 1.0
33.015899999999995 26.1728 1583.07 0.0 0.0 1.0
32.7337 33.7919 1583.07 0.0 0.0 1.0
33.298066666666664 36.3316 1583.07 0.0 0.0 1.0
32.7337 37.31923333333333 1583.07 0.0 0.0 1.0
33.58026666666667 45.220466666666674 1583.07 0.0 0.0 1.0
32.5926 50.440933333333334 1583.07 0.0 0.0 1.0
33.15696666666667 51.569700000000005 1583.07 0.0 0.0 1.0
32.7337 53.68606666666667 1583.07 0.0 0.0 1.0
33.157000000000004 60.1764 1583.07 0.0 0.0 1.0
33.157000000000004 60.1764 1583.07 0.0 0.0 1.0
42.514266666666664 70.3238 1709.71 0.0 0.0 1.0
42.514266666666664 70.3238 1709.71 0.0 0.0 1.0
41.295233333333336 85.86666666666666 1709.71 0.0 0.0 1.0
32.43626666666666 81.8294 1578.89 0.0 0.0 1.0
33.84343333333333 84.0809 1578.89 0.0 0.0 1.0
46.78093333333333 94.85713333333332 1709.71 0.0 0.0 1.0
32.29553333333334 99.4196 1578.89 0.0 0.0 1.0
32.858399999999996 99.84179999999999 1578.89 0.0 0.0 1.0
32.0141 102.65633333333334 1578.89 0.0 0.0 1.0
32.43623333333333 104.34433333333334 1578.89 0.0 0.0 1.0
41.90476666666667 -124.87633333333333 1709.71 0.0 0.0 1.0
32.749766666666666 -112.53766666666667 1587.2699999999998 -9.971857941082987e-28 -6.989473451729555e-27 1.0
32.32533333333333 -107.01999999999998 1587.2699999999998 3.9858447619833714e-27 2.116862383444808e-26 1.0
33.0327 -86.79050000000001 1587.2699999999998 5.379559470112978e-25 -1.3628927168853507e-24 1.0
32.32533333333333 -72.07776666666666 1587.2699999999998 2.018190481510558e-26 6.727301605035338e-26 1.0
33.315666666666665 -66.98496666666666 1587.2699999999998 -2.1519589188700065e-27 4.3052701812691045e-27 1.0
31.987066666666664 -56.84119999999999 1584.47 -0.14921762612002468 0.8954820535373936 0.4193399478317763
32.89123333333333 -39.2573 1587.2699999999998 0.0 1.0 0.0
33.0327 -22.7056 1587.2699999999998 5.380826942743165e-28 -2.511475215482184e-27 1.0
33.5986 -9.690543333333334 1587.2699999999998 -1.1744573862768751e-27 2.135052307170647e-28 1.0
32.733666666666664 -0.21163966666666667 1583.07 0.0 0.0 1.0
41.29526666666666 2.97143 1709.71 0.0 0.0 1.0
41.29526666666666 3.42857 1709.71 0.0 0.0 1.0
32.5926 10.6526 1583.07 0.0 0.0 1.0
32.310399999999994 25.467366666666667 1583.07 0.0 0.0 1.0
32.7337 26.3139 1583.07 0.0 0.0 1.0
32.310399999999994 26.596099999999996 1583.07 0.0 0.0 1.0
32.7337 33.791900000000005 1583.07 0.0 0.0 1.0
32.7337 33.7919 1583.07 0.0 0.0 1.0
32.8748 36.754866666666665 1583.07 0.0 0.0 1.0
32.7337 37.31923333333333 1583.07 0.0 0.0 1.0
32.5926 51.2875 1583.07 0.0 0.0 1.0
32.451499999999996 53.2628 1583.07 0.0 0.0 1.0
32.7337 53.68606666666667 1583.07 0.0 0.0 1.0
32.733666666666664 71.18163333333332 1583.07 0.0 0.0 1.0
40.53333333333333 81.44763333333333 1709.71 0.0 0.0 1.0
41.295233333333336 85.86666666666666 1709.71 0.0 0.0 1.0
32.014066666666665 94.07209999999999 1578.89 0.0 0.0 1.0
32.43623333333333 104.34433333333334 1578.89 0.0 0.0 1.0
32.43623333333333 104.34433333333334 1578.89 0.0 0.0 1.0
40.8381 -124.57133333333333 1709.71 0.0 0.0 1.0
32.32536666666667 -110.41566666666667 1587.2699999999998 3.928358353838931e-27 3.0874457934866717e-27 1.0
32.32533333333333 -107.01999999999998 1587.2699999999998 3.985844761983373e-27 2.116862383444808e-26 1.0
31.75946666666667 -103.342 1587.2699999999998 2.1527365136112308e-27 5.380573476893987e-28 1.0
32.466833333333334 -98.95666666666666 1587.2699999999998 -9.203761542389509e-26 7.407910825029379e-26 1.0
32.04243333333333 -94.8541 1587.2699999999998 -6.578980329790356e-26 -3.0503160123328047e-25 1.0
34.61033333333333 -74.21963333333333 1581.6766666666665 -0.7134445037539806 -1.1925371882463634e-16 0.7007117382085422
32.32533333333333 -72.07776666666666 1587.2699999999998 2.01819048151056e-26 6.727301605035344e-26 1.0
32.89123333333333 -67.55083333333333 1587.2699999999998 -2.1519589188699634e-27 4.305270181269162e-27 1.0
33.58023333333333 -62.716066666666656 1583.07 0.0 0.0 1.0
40.380966666666666 -56.60953333333333 1709.71 0.0 0.0 1.0
32.60829999999999 -43.0769 1587.2699999999998 -2.0172714258689075e-25 -1.5242845695295638e-25 1.0
32.32533333333333 -42.369566666666664 1587.2699999999998 9.966372748200262e-28 1.9932745496400194e-27 1.0
32.32536666666667 -34.871833333333335 1587.2699999999998 -2.243028355223714e-27 -2.2429953433068716e-27 1.0
32.32533333333333 -23.978799999999996 1587.2699999999998 -2.9899118244600545e-27 1.993274549640031e-27 1.0
32.60826666666667 -23.271466666666665 1587.2699999999998 1.1361664932948227e-25 -2.0929382771220367e-26 1.0
32.6083 -13.7931 1587.2699999999998 6.306102289590169e-28 -1.7518271631315358e-27 1.0
31.90093333333333 -6.295316666666667 1587.2699999999998 -6.727301605035123e-27 1.345460321007027e-26 1.0
41.29526666666666 2.9714300000000002 1709.71 0.0 0.0 1.0
41.29526666666666 3.42857 1709.71 0.0 0.0 1.0
32.5926 10.6526 1583.07 0.0 0.0 1.0
31.18166666666666 13.615499999999999 1583.07 0.0 0.0 1.0
32.7337 32.239866666666664 1583.07 0.0 0.0 1.0
32.5926 51.2875 1583.07 0.0 0.0 1.0
32.4515 59.753099999999996 1583.07 0.0 0.0 1.0
32.733700000000006 60.1764 1583.07 0.0 0.0 1.0
32.4515 60.740766666666666 1583.07 0.0 0.0 1.0
32.874766666666666 70.47616666666666 1583.07 0.0 0.0 1.0
32.014100000000006 102.65633333333334 1578.89 0.0 0.0 1.0
28.776466666666668 107.33233333333334 1544.9233333333334 -3.3507960810585404e-16 0.9994166871372655 0.03415092197252796
32.18386666666667 -112.82033333333334 1587.2699999999998 -9.985177225083344e-28 -1.3729866158501706e-26 1.0
31.90093333333333 -102.49333333333333 1587.2699999999998 -1.0751838541680436e-27 1.9748645277797183e-27 1.0
39.1619 -95.4667 1709.71 0.0 0.0 1.0
31.90093333333333 -87.07343333333334 1587.2699999999998 2.5912569145319993e-26 -1.4451240484889793e-25 1.0
31.05213333333333 -81.55613333333334 1587.2699999999998 -1.5780090184650241e-27 1.661062124700121e-28 1.0
31.476533333333332 -78.16093333333333 1587.2699999999998 -9.63690588049107e-28 3.70650226172762e-29 1.0
29.738199999999996 -75.60206666666666 1566.49 0.0 0.0 1.0
40.076166666666666 -68.0381 1709.71 0.0 0.0 1.0
40.380966666666666 -56.60953333333333 1709.71 0.0 0.0 1.0
39.3143 -53.5619 1709.71 0.0 0.0 1.0
31.90093333333333 -42.08663333333333 1587.2699999999998 -4.4848677366900536e-27 8.969735473380124e-27 1.0
32.32536666666667 -32.18386666666667 1587.2699999999998 -2.491788836294303e-28 -1.9933136840992604e-27 1.0
31.335066666666666 -29.0716 1587.2699999999998 -1.681825401258778e-27 -1.6818254012587853e-27 1.0
31.75946666666667 -28.647199999999998 1587.2699999999998 1.6818254012587692e-27 1.1212169341725179e-27 1.0
32.32533333333333 -23.978799999999996 1587.2699999999998 -2.9899118244600545e-27 1.993274549640031e-27 1.0
32.18386666666667 -21.007966666666665 1587.2699999999998 4.035371398151228e-26 2.0425116359798182e-26 1.0
31.90093333333333 -15.490700000000002 1587.2699999999998 -4.372746043272624e-25 -9.418222247048772e-26 1.0
31.90093333333333 -15.490700000000002 1587.2699999999998 -4.372746043272624e-25 -9.418222247048772e-26 1.0
31.90093333333333 -6.295316666666667 1587.2699999999998 -6.727301605035141e-27 1.345460321007032e-26 1.0
30.617266666666666 -1.3403866666666666 1583.07 0.0 0.0 1.0
32.466833333333334 2.3342133333333335 1587.2699999999998 4.260235138931304e-28 7.324802588609829e-28 1.0
31.181633333333334 8.67725 1583.07 0.0 0.0 1.0
31.8871 9.382726666666667 1583.07 0.0 0.0 1.0
31.746033333333333 25.60846666666667 1583.07 0.0 0.0 1.0
32.310399999999994 26.596099999999996 1583.07 0.0 0.0 1.0
31.887133333333335 45.361533333333334 1583.07 0.0 0.0 1.0
31.60493333333333 53.1217 1583.07 0.0 0.0 1.0
32.1693 56.649 1583.07 0.0 0.0 1.0
40.228566666666666 72.45716666666667 1709.71 0.0 0.0 1.0
32.1693 71.04053333333333 1583.07 0.0 0.0 1.0
31.02903333333333 88.58399999999999 1578.89 0.0 0.0 1.0
32.29553333333334 99.4196 1578.89 0.0 0.0 1.0
31.3105 102.79699999999998 1578.89 0.0 0.0 1.0
30.747599999999995 106.31466666666667 1578.89 0.0 0.0 1.0
27.900599999999997 108.10633333333334 1538.3 0.0 0.0 1.0
27.900599999999997 108.10633333333334 1538.3 0.0 0.0 1.0
39.9238 122.13366666666667 1709.71 0.0 0.0 1.0
32.18386666666667 -112.82033333333334 1587.2699999999998 -9.98517722508334e-28 -1.3729866158501706e-26 1.0
31.618 -107.16166666666668 1587.2699999999998 -6.713578773423332e-27 -2.4635099981221617e-26 1.0
31.75946666666667 -103.342 1587.2699999999998 2.1527365136112308e-27 5.380573476893987e-28 1.0
31.618 -99.2396 1587.2699999999998 4.482965846780999e-28 4.035620207057392e-27 1.0
38.5524 -101.25713333333334 1709.71 0.0 0.0 1.0
30.910666666666668 -78.58533333333332 1587.2699999999998 6.4069539095572705e-27 1.08918216462473e-26 1.0
31.75946666666667 -72.07776666666666 1587.2699999999998 -1.34546032100705e-26 5.381841284028298e-26 1.0
39.771433333333334 -66.05713333333334 1709.71 0.0 0.0 1.0
31.90093333333333 -39.96463333333333 1587.2699999999998 -1.9932745496400273e-27 1.5348214032228193e-27 1.0
31.335066666666666 -32.0424 1587.2699999999998 -2.7458373898102235e-28 -2.379725737835539e-27 1.0
31.1936 -20.583566666666666 1587.2699999999998 0.0 0.0 1.0
31.476533333333332 -13.7931 1587.2699999999998 2.1022817515734817e-28 -1.3314451093298683e-27 1.0
39.3143 25.21903333333334 1709.71 0.0 0.0 1.0
30.8995 38.73016666666667 1583.07 0.0 0.0 1.0
30.043966666666666 72.6825 1578.89 0.0 0.0 1.0
39.46666666666667 83.58096666666667 1709.71 0.0 0.0 1.0
41.29523333333333 85.86666666666666 1709.71 0.0 0.0 1.0
30.8883 87.73966666666666 1578.89 0.0 0.0 1.0
40.8381 -124.57133333333333 1709.71 0.0 0.0 1.0
31.335066666666666 -109.99133333333333 1587.2699999999998 -5.3004164741865025e-28 4.034019658447292e-27 1.0
31.90093333333333 -102.49333333333333 1587.2699999999998 -1.0751838541680436e-27 1.9748645277797187e-27 1.0
30.344799999999996 -83.53666666666666 1587.2699999999998 -2.3339617813387214e-27 2.6085455203197662e-27 1.0
29.738200000000003 -75.60206666666666 1566.49 0.0 0.0 1.0
31.05213333333333 -72.21923333333332 1587.2699999999998 -4.0363809630211196e-26 1.3454603210070687e-25 1.0
40.076166666666666 -68.0381 1709.71 0.0 0.0 1.0
40.076166666666666 -68.0381 1709.71 0.0 0.0 1.0
38.552366666666664 -61.9429 1709.71 0.0 0.0 1.0
39.9238 -57.52383333333333 1709.71 0.0 0.0 1.0
26.05343333333333 -48.40716666666666 1567.8966666666668 0.5303798536143977 0.8334488736840407 -0.1551134611656059
31.1936 -42.79396666666667 1587.2699999999998 1.0 0.0 0.0
31.1936 -42.79396666666667 1587.2699999999998 1.0 0.0 0.0
31.1936 -42.08663333333333 1587.2699999999998 1.0 0.0 0.0
31.476533333333332 -41.945166666666665 1587.2699999999998 -2.2424338683450282e-27 -1.1212169341725186e-27 1.0
31.90093333333333 -33.598600000000005 1587.2699999999998 -2.5475152135250345e-27 -1.7512838437121174e-27 1.0
31.335066666666666 -29.0716 1587.2699999999998 -1.681825401258778e-27 -1.6818254012587853e-27 1.0
31.193600000000004 -6.1538466666666665 1587.2699999999998 2.4293224376357532e-27 2.9899176950438612e-27 1.0
32.466833333333334 2.3342133333333335 1587.2699999999998 4.260235138931304e-28 7.324802588609829e-28 1.0
30.476199999999995 13.7566 1583.07 0.0 0.0 1.0
30.194 15.590833333333334 1583.07 0.0 0.0 1.0
39.7714 20.190466666666666 1709.71 0.0 0.0 1.0
31.746033333333333 25.1852 1583.07 0.0 0.0 1.0
31.040566666666667 34.0741 1583.07 0.0 0.0 1.0
30.758400000000005 38.448 1583.07 0.0 0.0 1.0
30.758399999999998 42.821866666666665 1583.07 0.0 0.0 1.0
30.758399999999998 42.821866666666665 1583.07 0.0 0.0 1.0
30.758366666666664 46.067 1583.07 0.0 0.0 1.0
39.771433333333334 80.99046666666668 1709.71 0.0 0.0 1.0
29.903266666666667 82.81439999999999 1578.89 0.0 0.0 1.0
30.606866666666665 89.28763333333332 1578.89 0.0 0.0 1.0
30.18473333333333 91.5391 1578.89 0.0 0.0 1.0
30.325433333333333 92.10199999999999 1578.89 0.0 0.0 1.0
30.888299999999997 95.62003333333332 1578.89 0.0 0.0 1.0
30.888333333333332 100.8268 1578.89 0.0 0.0 1.0
31.3105 102.79699999999998 1578.89 0.0 0.0 1.0
30.747599999999995 106.31466666666667 1578.89 0.0 0.0 1.0
39.619033333333334 122.743 1709.71 0.0 0.0 1.0
39.31426666666667 123.19999999999999 1709.71 0.0 0.0 1.0
31.052133333333334 -111.54733333333333 1587.2699999999998 6.1731695685355774e-27 7.293064484694783e-27 1.0
30.627733333333335 -106.87866666666666 1587.2699999999998 1.4341446232638172e-27 2.754934109080516e-26 1.0
30.7692 -99.52256666666666 1587.2699999999998 5.606084670862563e-28 2.989442210949219e-27 1.0
38.24763333333334 -98.51426666666667 1709.71 0.0 0.0 1.0
30.910666666666668 -87.78076666666668 1587.2699999999998 1.046469138561021e-26 -1.4202081166185327e-26 1.0
30.910666666666668 -79.43413333333334 1587.2699999999998 9.63690588049107e-28 3.706502261727621e-29 1.0
31.052133333333334 -78.01946666666667 1587.2699999999998 2.4397680487594467e-26 -3.731409956926198e-26 1.0
30.06186666666667 -74.0584 1587.2699999999998 0.0 1.0 0.0
30.769199999999998 -70.38016666666668 1587.2699999999998 -7.310334410803845e-25 -4.170926995121212e-25 1.0
38.857166666666664 -65.4476 1709.71 0.0 0.0 1.0
39.9238 -57.52383333333333 1709.71 0.0 0.0 1.0
38.85716666666667 -54.93333333333334 1709.71 0.0 0.0 1.0
29.9118 -48.1834 1583.07 0.0 0.0 1.0
29.213066666666666 -46.7551 1587.2699999999998 -8.969735473380087e-27 4.932192353819485e-26 1.0
31.335066666666666 -29.0716 1587.2699999999998 -1.681825401258778e-27 -1.6818254012587853e-27 1.0
30.627733333333335 -10.539356666666668 1587.2699999999998 6.478154028880935e-27 -4.983303783009984e-28 1.0
30.627733333333335 -10.539356666666666 1587.2699999999998 7.225543925823637e-27 9.965550860932015e-28 1.0
30.7692 -5.870909999999999 1587.2699999999998 4.765191784299736e-27 2.5227281948402645e-27 1.0
30.627733333333335 -4.1733 1587.2699999999998 8.689432891006695e-27 9.810598638867332e-28 1.0
30.476200000000002 13.7566 1583.07 0.0 0.0 1.0
39.00953333333334 24.45713333333333 1709.71 0.0 0.0 1.0
39.00953333333334 24.45713333333333 1709.71 0.0 0.0 1.0
29.770733333333336 29.2769 1583.07 0.0 0.0 1.0
30.476200000000002 38.58906666666666 1583.07 0.0 0.0 1.0
30.758399999999998 42.821866666666665 1583.07 0.0 0.0 1.0
29.629633333333334 47.90123333333333 1583.07 0.0 0.0 1.0
31.60493333333333 53.1217 1583.07 0.0 0.0 1.0
38.09523333333334 68.34286666666667 1709.71 0.0 0.0 1.0
30.3254 71.83816666666667 1578.89 0.0 0.0 1.0
39.46666666666667 83.58096666666667 1709.71 0.0 0.0 1.0
29.762533333333334 83.37726666666667 1578.89 0.0 0.0 1.0
30.8883 87.73966666666666 1578.89 0.0 0.0 1.0
30.325433333333333 104.34466666666667 1578.89 0.0 0.0 1.0
30.325433333333336 105.611 1578.89 0.0 0.0 1.0
39.9238 122.13366666666667 1709.71 0.0 0.0 1.0
30.203333333333333 -110.83999999999999 1587.2699999999998 2.438821196381476e-26 2.009220746037183e-26 1.0
30.344799999999996 -83.53666666666666 1587.2699999999998 -2.333961781338721e-27 2.6085455203197655e-27 1.0
30.910666666666668 -78.58533333333334 1587.2699999999998 -1.281390781911456e-27 -4.484867736690059e-27 1.0
29.738200000000003 -75.60206666666666 1566.49 0.0 0.0 1.0
30.06186666666667 -74.0584 1587.2699999999998 0.0 1.0 0.0
31.05213333333333 -72.21923333333332 1587.2699999999998 -4.0363809630211196e-26 1.3454603210070687e-25 1.0
38.552366666666664 -61.9429 1709.71 0.0 0.0 1.0
30.052899999999998 -56.08466666666667 1583.07 0.0 0.0 1.0
29.9118 -48.1834 1583.07 0.0 0.0 1.0
30.910666666666668 -42.369566666666664 1587.2699999999998 6.727301605035031e-27 2.0181904815104777e-26 1.0
37.6381 -43.35236666666666 1709.71 0.0 0.0 1.0
30.486266666666666 -32.18386666666667 1587.2699999999998 6.1666931379489584e-27 -1.065156087463911e-26 1.0
30.7692 -21.149466666666665 1587.2699999999998 -1.793947094676011e-28 6.996393669236432e-27 1.0
31.476533333333332 -13.7931 1587.2699999999998 2.102281751573481e-28 -1.3314451093298679e-27 1.0
30.627733333333335 -10.539356666666666 1587.2699999999998 7.225543925823639e-27 9.965550860932015e-28 1.0
30.7692 -5.870909999999999 1587.2699999999998 4.7651917842997364e-27 2.5227281948402645e-27 1.0
30.627733333333335 -4.1733 1587.2699999999998 8.689432891006697e-27 9.810598638867332e-28 1.0
29.9118 -1.6225733333333334 1583.07 0.0 0.0 1.0
29.7707 -1.1992933333333333 1583.07 0.0 0.0 1.0
28.924166666666668 4.30335 1583.07 0.0 0.0 1.0
29.6296 7.971783333333334 1583.07 0.0 0.0 1.0
30.476200000000002 13.7566 1583.07 0.0 0.0 1.0
29.770733333333336 29.2769 1583.07 0.0 0.0 1.0
30.476199999999995 38.58906666666667 1583.07 0.0 0.0 1.0
38.247600000000006 59.047599999999996 1709.71 0.0 0.0 1.0
38.55236666666667 66.81906666666667 1709.71 0.0 0.0 1.0
29.762533333333334 71.9789 1578.89 0.0 0.0 1.0
38.55236666666667 83.58096666666667 1709.71 0.0 0.0 1.0
29.903266666666667 82.81439999999999 1578.89 0.0 0.0 1.0
29.762533333333334 89.56906666666667 1578.89 0.0 0.0 1.0
29.762533333333334 92.52416666666666 1578.89 0.0 0.0 1.0
29.354533333333332 -106.02999999999999 1587.2699999999998 3.853325659310978e-27 9.621612290520057e-27 1.0
30.769199999999998 -99.52256666666666 1587.2699999999998 -1.1212169341725222e-27 2.9894422109492212e-27 1.0
30.627733333333335 -95.41996666666667 1587.2699999999998 4.062261499996838e-28 -2.2932121370949807e-28 1.0
37.94286666666667 -97.90476666666666 1709.71 0.0 0.0 1.0
30.910666666666668 -87.78076666666668 1587.2699999999998 1.0464691385610192e-26 -1.4202081166185304e-26 1.0
37.6381 -94.24763333333333 1709.71 0.0 0.0 1.0
29.354533333333332 -69.53136666666667 1587.2699999999998 -8.745492086545776e-28 -4.8436571556253676e-27 1.0
37.7905 -71.54286666666667 1709.71 0.0 0.0 1.0
30.7692 -21.149466666666665 1587.2699999999998 -1.793947094676011e-28 6.996393669236432e-27 1.0
28.505733333333335 -17.329766666666668 1587.2699999999998 1.7939470946760234e-28 -4.484867736690074e-28 1.0
29.6296 -1.9047600000000002 1583.07 0.0 0.0 1.0
29.6296 7.971783333333334 1583.07 0.0 0.0 1.0
39.3143 25.21903333333334 1709.71 0.0 0.0 1.0
28.783066666666667 28.007066666666663 1583.07 0.0 0.0 1.0
29.34743333333333 33.7919 1583.07 0.0 0.0 1.0
29.34743333333333 47.33686666666666 1583.07 0.0 0.0 1.0
38.247600000000006 59.047599999999996 1709.71 0.0 0.0 1.0
30.335066666666666 61.30513333333334 1583.07 0.0 0.0 1.0
29.206333333333333 69.34746666666666 1583.07 0.0 0.0 1.0
29.206333333333333 69.34746666666666 1583.07 0.0 0.0 1.0
28.9182 72.82323333333333 1578.89 0.0 0.0 1.0
29.199633333333335 82.81439999999999 1578.89 0.0 0.0 1.0
29.340366666666668 90.83553333333334 1578.89 0.0 0.0 1.0
30.466166666666666 99.41953333333333 1578.89 0.0 0.0 1.0
27.078 107.558 1538.3 0.0 0.0 1.0
38.09526666666667 123.04766666666667 1709.71 0.0 0.0 1.0
38.09523333333333 125.181 1709.71 0.0 0.0 1.0
38.09523333333333 125.181 1709.71 0.0 0.0 1.0
29.496 -110.557 1587.2699999999998 2.2452545398774623e-27 -1.1234040190145527e-26 1.0
30.061866666666663 -106.596 1587.2699999999998 -6.4145537316314594e-27 -7.057622483955554e-27 1.0
28.788666666666668 -104.757 1587.2699999999998 1.1220864772196911e-26 -8.979195246447342e-27 1.0
29.213066666666666 -97.68343333333333 1587.2699999999998 1.0512733447061938e-27 3.323380251006665e-27 1.0
37.94286666666667 -97.90476666666666 1709.71 0.0 0.0 1.0
29.9204 -84.24399999999999 1587.2699999999998 -8.670744290933995e-26 2.436778136934866e-25 1.0
37.485733333333336 -81.29523333333333 1709.71 0.0 0.0 1.0
37.485733333333336 -73.37143333333333 1709.71 0.0 0.0 1.0
37.7905 -54.17143333333333 1709.71 0.0 0.0 1.0
29.206333333333333 -48.465599999999995 1583.07 0.0 0.0 1.0
29.354533333333336 -42.79396666666667 1587.2699999999998 1.379959303596951e-27 -2.4149287812946567e-27 1.0
28.364266666666666 -36.2865 1587.2699999999998 -4.204563503146971e-28 1.3314451093298641e-27 1.0
30.344800000000003 -32.89123333333333 1587.2699999999998 2.242521931252072e-27 1.1212609604389537e-27 1.0
29.065233333333328 -2.0458533333333335 1583.07 0.0 0.0 1.0
29.4885 -1.3403866666666666 1583.07 0.0 0.0 1.0
29.065233333333328 7.689596666666667 1583.07 0.0 0.0 1.0
28.500866666666667 16.4374 1583.07 0.0 0.0 1.0
28.783033333333332 57.77779999999999 1583.07 0.0 0.0 1.0
28.783033333333332 57.77779999999999 1583.07 0.0 0.0 1.0
28.924133333333334 59.32983333333333 1583.07 0.0 0.0 1.0
38.704766666666664 72.30476666666667 1709.71 0.0 0.0 1.0
37.485733333333336 81.44760000000001 1709.71 0.0 0.0 1.0
38.5524 86.01906666666666 1709.71 0.0 0.0 1.0
29.058899999999998 89.1469 1578.89 0.0 0.0 1.0
29.058933333333332 91.82056666666666 1578.89 0.0 0.0 1.0
29.199633333333335 92.38346666666666 1578.89 0.0 0.0 1.0
28.777466666666665 93.9314 1578.89 0.0 0.0 1.0
26.1647 106.64566666666667 1536.9866666666667 2.880485874964215e-15 -0.8212831482488735 0.5705208062835384
27.078 107.558 1538.3 0.0 0.0 1.0
38.09526666666667 123.04766666666666 1709.71 0.0 0.0 1.0
38.09526666666667 123.04766666666666 1709.71 0.0 0.0 1.0
37.94283333333333 -124.57099999999998 1709.71 0.0 0.0 1.0
37.94286666666667 -97.90476666666666 1709.71 0.0 0.0 1.0
37.6381 -94.24763333333333 1709.71 0.0 0.0 1.0
29.9204 -84.24399999999999 1587.2699999999998 -8.670744290933972e-26 2.43677813693486e-25 1.0
36.26666666666667 -90.89526666666666 1709.71 0.0 0.0 1.0
36.57143333333334 -82.51426666666667 1709.71 0.0 0.0 1.0
29.354533333333332 -73.63396666666667 1587.2699999999998 2.3252260679398355e-27 4.926978422434455e-27 1.0
37.02856666666666 -73.6762 1709.71 0.0 0.0 1.0
29.354533333333332 -29.354533333333332 1587.2699999999998 -2.2424338683450243e-27 1.1212169341725168e-26 1.0
28.788666666666668 -9.4076 1587.2699999999998 0.0 0.0 1.0
29.34743333333334 -0.63492 1583.07 0.0 0.0 1.0
27.513233333333332 3.1746000000000003 1583.07 0.0 0.0 1.0
29.34743333333334 8.536156666666665 1583.07 0.0 0.0 1.0
37.02856666666666 21.2571 1709.71 0.0 0.0 1.0
28.783066666666667 29.2769 1583.07 0.0 0.0 1.0
29.77073333333333 38.87123333333333 1583.07 0.0 0.0 1.0
28.783066666666667 47.76016666666666 1583.07 0.0 0.0 1.0
38.2476 59.04760000000001 1709.71 0.0 0.0 1.0
37.180933333333336 66.20953333333334 1709.71 0.0 0.0 1.0
37.79046666666667 69.40953333333333 1709.71 0.0 0.0 1.0
37.485733333333336 81.44760000000001 1709.71 0.0 0.0 1.0
37.63806666666667 83.4286 1709.71 0.0 0.0 1.0
38.5524 86.01906666666666 1709.71 0.0 0.0 1.0
28.636766666666663 82.81439999999999 1578.89 0.0 0.0 1.0
28.9182 85.06596666666667 1578.89 0.0 0.0 1.0
28.3553 88.72473333333333 1578.89 0.0 0.0 1.0
28.777466666666665 93.9314 1578.89 0.0 0.0 1.0
28.776466666666668 107.33233333333334 1544.9233333333334 -3.3507960810585404e-16 0.9994166871372655 0.03415092197252796
37.485733333333336 123.80933333333333 1709.71 0.0 0.0 1.0
35.80953333333333 -126.70466666666668 1709.71 0.0 0.0 1.0
28.222800000000003 -112.25466666666667 1587.2699999999998 1.4949559890455816e-27 -1.9560315973922669e-31 1.0
28.505733333333335 -110.69833333333332 1587.2699999999998 -4.989767941009242e-27 1.548033233540297e-26 1.0
28.36426666666667 -108.85933333333332 1587.2699999999998 1.6185321265549336e-25 9.887028233695011e-26 1.0
28.930133333333334 -105.46433333333334 1587.2699999999998 -1.0814149512665255e-25 -2.342054001620312e-25 1.0
37.6381 -94.24763333333334 1709.71 0.0 0.0 1.0
37.485733333333336 -81.29523333333333 1709.71 0.0 0.0 1.0
29.354533333333336 -73.06806666666667 1587.2699999999998 1.3799342939135103e-27 -6.899046232014328e-28 1.0
37.02856666666666 -73.6762 1709.71 0.0 0.0 1.0
36.8762 -70.62856666666667 1709.71 0.0 0.0 1.0
37.0286 -68.34286666666667 1709.71 0.0 0.0 1.0
36.8762 -65.60000000000001 1709.71 0.0 0.0 1.0
36.8762 -65.60000000000001 1709.71 0.0 0.0 1.0
37.180933333333336 -61.18096666666667 1709.71 0.0 0.0 1.0
28.783066666666667 -47.76013333333333 1583.07 0.0 0.0 1.0
28.36426666666667 -46.47216666666666 1587.2699999999998 2.690850197221168e-26 8.968561430382375e-27 1.0
36.419066666666666 -44.419033333333324 1709.71 0.0 0.0 1.0
36.419066666666666 -44.419033333333324 1709.71 0.0 0.0 1.0
29.496 -23.837333333333333 1587.2699999999998 -4.905324087004762e-28 -1.15625496336541e-27 1.0
28.788666666666668 -9.4076 1587.2699999999998 0.0 0.0 1.0
28.788666666666668 -9.4076 1587.2699999999998 0.0 0.0 1.0
28.6472 -7.144116666666666 1587.2699999999998 1.0 0.0 0.0
29.213066666666666 -6.1538433333333336 1587.2699999999998 -5.606084670862594e-28 3.7373604265032207e-28 1.0
28.924133333333334 -1.6225733333333334 1583.07 0.0 0.0 1.0
28.500866666666667 7.40741 1583.07 0.0 0.0 1.0
28.500866666666667 16.4374 1583.07 0.0 0.0 1.0
36.8762 19.580966666666665 1709.71 0.0 0.0 1.0
37.0286 20.342866666666666 1709.71 0.0 0.0 1.0
37.02856666666666 21.2571 1709.71 0.0 0.0 1.0
28.641966666666665 44.65606666666667 1583.07 0.0 0.0 1.0
28.35976666666667 59.753099999999996 1583.07 0.0 0.0 1.0
28.641966666666665 68.5009 1583.07 0.0 0.0 1.0
37.485733333333336 81.44760000000001 1709.71 0.0 0.0 1.0
28.636766666666663 82.81439999999999 1578.89 0.0 0.0 1.0
28.9182 86.05103333333334 1578.89 0.0 0.0 1.0
27.933166666666665 103.219 1578.89 0.0 0.0 1.0
27.933166666666665 103.21900000000001 1578.89 0.0 0.0 1.0
37.485733333333336 123.80933333333333 1709.71 0.0 0.0 1.0
36.5714 -125.18066666666668 1709.71 0.0 0.0 1.0
28.364266666666666 -108.85933333333332 1587.2699999999998 8.093504838476306e-26 5.840486865882268e-26 1.0
28.364266666666666 -108.85933333333332 1587.2699999999998 8.093504838476306e-26 5.840486865882268e-26 1.0
28.081333333333333 -104.757 1587.2699999999998 -3.3977863506207065e-25 -2.5044395708780525e-25 1.0
26.243366666666663 -99.11816666666668 1583.07 0.0 0.0 1.0
27.7984 -80.28293333333333 1587.2699999999998 2.5115259325464217e-27 -5.381841284027938e-28 1.0
27.7984 -78.58533333333332 1587.2699999999998 1.8305582598735102e-28 1.3729186949051209e-27 1.0
37.02856666666667 -73.6762 1709.71 0.0 0.0 1.0
36.7238 -65.14286666666666 1709.71 0.0 0.0 1.0
36.7238 -65.14286666666666 1709.71 0.0 0.0 1.0
35.961866666666666 -59.199999999999996 1709.71 0.0 0.0 1.0
28.500866666666667 -48.18343333333333 1583.07 0.0 0.0 1.0
28.36426666666667 -46.47216666666666 1587.2699999999998 2.690850197221168e-26 8.968561430382375e-27 1.0
27.93986666666667 -46.04773333333333 1587.2699999999998 8.969735473380114e-27 2.9896770084838813e-27 1.0
28.505733333333335 -42.79396666666667 1587.2699999999998 -4.484867736689618e-26 -6.278814831365466e-26 1.0
28.222800000000003 -36.14503333333334 1587.2699999999998 1.5547541487192356e-27 -4.8436571556252765e-27 1.0
28.222799999999996 -29.9204 1587.2699999999998 -4.484867736690061e-27 3.737389780575047e-27 1.0
27.654299999999996 5.432100000000001 1583.07 0.0 0.0 1.0
28.500866666666667 7.40741 1583.07 0.0 0.0 1.0
28.500866666666667 16.4374 1583.07 0.0 0.0 1.0
36.8762 19.580966666666665 1709.71 0.0 0.0 1.0
37.02856666666667 21.2571 1709.71 0.0 0.0 1.0
37.02856666666667 26.133333333333336 1709.71 0.0 0.0 1.0
28.0776 28.571433333333335 1583.07 0.0 0.0 1.0
27.231033333333333 35.908300000000004 1583.07 0.0 0.0 1.0
27.089933333333335 41.552 1583.07 0.0 0.0 1.0
27.3721 46.631400000000006 1583.07 0.0 0.0 1.0
27.3721 57.2134 1583.07 0.0 0.0 1.0
37.79046666666667 69.40953333333333 1709.71 0.0 0.0 1.0
27.9365 67.51323333333333 1583.07 0.0 0.0 1.0
27.088833333333337 73.24536666666667 1578.89 0.0 0.0 1.0
37.02856666666666 82.81906666666667 1709.71 0.0 0.0 1.0
28.3553 88.72473333333333 1578.89 0.0 0.0 1.0
27.792433333333335 102.65633333333334 1578.89 0.0 0.0 1.0
27.933166666666665 103.219 1578.89 0.0 0.0 1.0
36.57143333333334 121.52366666666667 1709.71 0.0 0.0 1.0
35.8095 -100.49520000000001 1709.71 0.0 0.0 1.0
27.798399999999997 -79.5756 1587.2699999999998 2.471158135898106e-26 1.4598224547835485e-26 1.0
27.60826666666667 -58.253233333333334 1584.47 -0.42416091577662424 0.8483218315532473 0.3169188975710969
27.5132 -57.072300000000006 1583.07 0.0 0.0 1.0
35.9619 -54.93336666666667 1709.71 0.0 0.0 1.0
35.9619 -54.933366666666664 1709.71 0.0 0.0 1.0
27.51546666666667 -42.79396666666667 1587.2699999999998 5.730664330215011e-27 -8.471416835970005e-27 1.0
27.091066666666666 -21.856800000000003 1587.2699999999998 -2.3919294595680557e-26 -2.14277014086305e-26 1.0
27.232533333333333 -17.754166666666666 1587.2699999999998 -9.810648174009513e-28 5.606084670862591e-28 1.0
27.232533333333333 -16.905366666666666 1587.2699999999998 -2.80304233543128e-28 2.803042335431303e-28 1.0
37.02856666666667 26.133333333333336 1709.71 0.0 0.0 1.0
28.0776 28.571433333333335 1583.07 0.0 0.0 1.0
28.218666666666667 34.35626666666667 1583.07 0.0 0.0 1.0
27.231033333333333 35.908300000000004 1583.07 0.0 0.0 1.0
27.654299999999996 59.4709 1583.07 0.0 0.0 1.0
27.089933333333335 66.66666666666667 1583.07 0.0 0.0 1.0
27.088833333333337 73.24536666666667 1578.89 0.0 0.0 1.0
27.370266666666666 81.97013333333332 1578.89 0.0 0.0 1.0
26.948133333333335 89.56903333333332 1578.89 0.0 0.0 1.0
26.244533333333333 105.61133333333333 1578.89 0.0 0.0 1.0
35.809533333333334 -126.70466666666668 1709.71 0.0 0.0 1.0
27.7984 -112.25466666666667 1587.2699999999998 2.987565568938381e-27 1.4932353657836176e-27 1.0
27.7984 -111.40566666666666 1587.2699999999998 9.966372748200097e-28 -4.980057214681469e-28 1.0
27.374 -104.757 1587.2699999999998 -4.5939731304289185e-29 -2.060617089300688e-27 1.0
28.081333333333333 -97.68343333333333 1587.2699999999998 -1.4750231667336043e-27 3.488230461870039e-27 1.0
35.657133333333334 -105.219 1709.71 0.0 0.0 1.0
28.081333333333333 -97.68343333333333 1587.2699999999998 -1.4750231667336043e-27 3.488230461870039e-27 1.0
35.8095 -100.49520000000001 1709.71 0.0 0.0 1.0
35.19996666666666 -99.58096666666667 1709.71 0.0 0.0 1.0
27.7984 -80.28293333333333 1587.2699999999998 2.5115259325464217e-27 -5.381841284027938e-28 1.0
27.798399999999997 -78.58533333333332 1587.2699999999998 -1.0251126255291536e-26 3.8441723457343304e-27 1.0
28.364266666666666 -73.77543333333334 1587.2699999999998 6.898420994461004e-28 -2.4145661479105968e-27 1.0
27.232533333333333 -69.8143 1587.2699999999998 -5.979823648920089e-27 -3.986549099280038e-27 1.0
27.232533333333333 -69.8143 1587.2699999999998 -5.979823648920089e-27 -3.986549099280038e-27 1.0
35.961866666666666 -59.20000000000001 1709.71 0.0 0.0 1.0
35.35236666666666 -58.89523333333333 1709.71 0.0 0.0 1.0
35.9619 -54.933366666666664 1709.71 0.0 0.0 1.0
27.374 -45.90623333333334 1587.2699999999998 1.7939470946760257e-26 -3.700015882769314e-26 1.0
27.51546666666667 -36.42796666666667 1587.2699999999998 1.0464691385610228e-26 -7.474779561150153e-27 1.0
