ply
format ascii 1.0
comment VCGLIB generated
element vertex 527
property float x
property float y
property float z
property float nx
property float ny
property float nz
element face 0
property list uchar int vertex_indices
end_header
-75.02753333333334 -174.48066666666668 1640.9533333333331 -0.8727201789317018 0.4363600894658509 0.21897342671377423
-74.95703333333334 -151.595 1714.61 0.0 0.0 1.0
-74.361 -122.82033333333334 1709.72 -0.9824511125350718 -0.17081634770494497 0.07491052553108252
-74.13473333333333 -104.92833333333334 1775.74 -0.35030347987723054 0.9334377950029241 0.07733921932617314
-74.0875 -101.17783333333334 1793.4133333333332 0.8863761891515666 0.33239251651894297 0.3222614874094488
-73.29033333333332 -98.92483333333332 1930.32 0.0 0.0 1.0
-77.0892 -63.84973333333334 1632.0033333333333 -0.9247429232719369 0.13208448792654612 0.35693726886899163
-76.62446666666666 35.1361 1454.8166666666666 -0.990298518765945 0.06543774270886682 0.12258362679878423
-78.49563333333333 128.931 1411.3266666666666 0.18089681856390985 -0.9483335500999163 0.2606526784599486
-74.3241 139.40066666666667 1384.1233333333337 -0.8532673336408572 0.10666561605824393 0.5104481400615909
-74.65726666666667 150.461 1427.0266666666666 -0.594407922615091 0.7432239991152473 0.3070786685387814
-76.55503333333333 170.84533333333331 1431.58 0.0 0.0 1.0
-75.66186666666667 172.88699999999997 1431.58 0.0 0.0 1.0
-71.61129999999999 190.12833333333333 1408.0466666666669 0.6201346835318379 0.7808749267188162 0.07528162526640063
-76.66663333333334 -242.72733333333335 1700.0 0.0 0.0 1.0
-76.65716666666667 -196.16333333333333 1704.84 0.0 0.0 1.0
-75.02753333333334 -174.48066666666668 1640.9533333333336 -0.8727201789317018 0.4363600894658513 0.21897342671377418
-74.22856666666667 -168.65466666666669 1703.2366666666667 -0.8616385449560627 0.43081927247802376 0.2682792804290055
-74.95703333333334 -151.595 1714.61 0.0 0.0 1.0
-74.7495 -97.60236666666667 1591.4966666666667 0.8937943121108072 0.32137888542153914 0.3128055940094073
-81.7642 -51.56336666666667 1666.8799999999999 -0.6435402130160048 -0.7605380045245996 0.08624348036260468
-76.48713333333332 26.537666666666667 1459.5166666666667 -0.9937825461883598 -6.804640614861052e-05 0.11133843119546372
-78.21156666666667 50.391933333333334 1431.5833333333333 -0.8470713274633993 0.14347996668298624 0.5117457037924634
-73.50789999999999 74.44313333333334 1518.8066666666666 0.773919366133211 -0.6332152876747407 -0.009338853193213797
-76.17093333333334 74.5299 1534.36 0.0 0.0 1.0
-72.25866666666667 97.67653333333334 1447.7433333333336 -0.8104909323496295 0.5835340575335455 0.05091612983588657
-75.66183333333333 133.84366666666668 1431.58 0.0 0.0 1.0
-76.81783333333333 162.29133333333334 1428.16 0.0 0.0 1.0
-77.19296666666666 174.29033333333334 1431.58 0.0 0.0 1.0
-72.5797 353.3913333333333 2601.74 0.0 0.0 1.0
-72.52413333333334 189.915 1353.88 0.8832671208151891 0.3915783842839795 0.25788672367610266
-68.28993333333334 -281.2066666666667 1934.4866666666667 3.768830003614202e-16 -0.9998000599800071 0.019996001199601324
-74.24673333333332 -130.65233333333333 1654.58 -0.9381542225111081 0.3393435715220086 0.06864834485452286
-80.2595 -85.91203333333333 1531.7766666666666 0.6178196201800812 0.6178196201798185 0.48641323362076083
-74.13473333333333 -104.92833333333334 1775.74 -0.35030347987722804 0.9334377950029249 0.07733921932617287
-74.0875 -101.17783333333334 1793.4133333333332 0.8863761891515666 0.3323925165189431 0.3222614874094488
-74.32370000000002 -53.2337 1766.93 0.5464899680511293 0.8197253032549123 0.1714617800651733
-78.44046666666667 -31.575133333333337 1588.676666666667 -0.3268468859593479 0.9151712806861738 0.23586572482220788
-74.8219 0.3973490000000002 1530.4399999999998 -0.0019306990564612336 0.49114375869959204 0.8710763919953234
-76.48713333333333 26.537666666666667 1459.5166666666667 -0.9937825461883599 -6.804640614872136e-05 0.11133843119546372
-75.11973333333333 37.19383333333334 1479.97 0.8556809778808709 0.23336307539860712 0.4619001397849329
-77.4515 61.65603333333333 1429.3 -0.8876717971089628 0.2958905990363213 0.3528279099210714
-76.0779 94.59403333333334 1416.9233333333334 -0.901598301015727 0.42267951075477345 0.09199203657741058
-75.11366666666667 119.99866666666667 1443.0900000000001 0.07057150755192285 0.7773680685115497 0.6250748342242483
-75.50386666666667 121.604 1440.7733333333335 0.07926600213828613 0.8731407492681912 0.48098038720138575
-78.61373333333334 128.75366666666665 1408.0033333333333 -0.1741252131745912 -0.9259594171506318 0.33508143476916985
-76.86746666666666 163.634 1405.7933333333333 -0.993354938221933 1.2526105930743209e-16 0.11509112350698358
-72.5797 353.3913333333333 2601.74 0.0 0.0 1.0
-78.48483333333333 -237.42433333333335 1700.0 0.0 0.0 1.0
-79.42266666666667 -187.36566666666667 1607.1633333333332 -0.3171720732987361 0.15864135735982393 0.9350052383031946
-76.65716666666667 -196.16333333333333 1704.84 0.0 0.0 1.0
-69.53993333333334 -92.77256666666666 1629.043333333333 0.42326184249104776 -0.8464266065778745 0.3231275481418249
-73.29033333333334 -98.92483333333332 1930.32 0.0 0.0 1.0
-78.44046666666667 -31.575133333333337 1588.676666666667 -0.3268468859593479 0.9151712806861738 0.23586572482220788
-78.59426666666667 -30.622533333333333 1583.0933333333335 -0.3328350791832073 0.9319382217129805 0.14391650695995925
-76.19600000000001 -18.88533333333333 1523.9466666666667 -0.9156383476938533 0.2817441680857418 0.28675187877700653
-76.61103333333334 -15.844033333333334 1518.8066666666666 -0.9441036851706976 -0.3146537677227856 0.09829159732634052
-76.48713333333333 26.537666666666667 1459.5166666666667 -0.9937825461883597 -6.804640614835206e-05 0.11133843119546381
-77.4515 61.65603333333333 1429.3 -0.8876717971089626 0.29589059903632137 0.35282790992107144
-76.81783333333333 162.29133333333334 1428.16 0.0 0.0 1.0
-76.86746666666666 163.634 1405.7933333333333 -0.993354938221933 -4.3539470874535115e-16 0.11509112350698379
-76.86746666666666 163.634 1405.7933333333333 -0.9933549382219329 -1.0795016411596729e-15 0.115091123506984
-76.9855 369.15933333333334 2601.74 0.0 0.0 1.0
-75.13043333333333 374.26099999999997 2601.74 0.0 0.0 1.0
-75.13043333333333 374.26099999999997 2601.74 0.0 0.0 1.0
-81.02003333333333 -220.32799999999997 1634.97 0.0 0.0 1.0
-77.113 -197.07500000000002 1704.84 0.0 0.0 1.0
-75.58093333333333 -172.343 1709.71 0.0 0.0 1.0
-76.45526666666667 -11.448089999999999 1530.4399999999998 0.8793622937018551 0.36580670682058714 -0.30480716799394575
-76.8603 -5.325287666666666 1531.74 0.994765643219647 -0.07958959839847153 0.06408440447232201
-79.60066666666667 -2.541373333333333 1498.506666666667 0.9016678926194645 -0.42936566315212593 -0.0513822802638116
-77.8455 148.71666666666667 1422.51 0.5978883305143373 -0.797329784990168 0.08243032331800365
-76.81783333333333 162.29133333333334 1428.16 0.0 0.0 1.0
-79.42266666666667 -187.36566666666667 1607.1633333333332 -0.317172073298735 0.15864135735982482 0.9350052383031948
-75.58093333333333 -172.343 1709.71 0.0 0.0 1.0
-76.51226666666668 -74.25976666666666 1630.5199999999998 -1.0833192720502996e-27 -3.358828923291192e-28 1.0
-72.59433333333334 -53.5677 1932.4033333333334 -0.5726089295920451 0.5726089295920449 0.5867180136171931
-78.99193333333334 45.70683333333333 1416.9033333333334 0.8377650055200763 -0.520032531219429 -0.1664811160446139
-77.53846666666668 76.58120000000001 1534.36 0.0 0.0 1.0
-78.8738 78.00153333333334 1402.5266666666666 -0.8637417421382515 0.5038429315263874 0.009617860410410333
-76.2317 95.26293333333335 1410.2333333333333 0.8669995981177997 -0.490816526933199 -0.0860861995490932
-76.53566666666667 122.661 1439.6166666666668 -0.264177151655129 0.7927719283153918 0.5492932752350773
-80.38276666666667 129.50566666666666 1431.58 0.0 0.0 1.0
-77.83276666666667 169.29999999999998 1429.3 0.1629830688121189 -0.9775570870741442 0.1334865565954035
-75.66789999999999 -282.66900000000004 1949.3533333333332 3.606027689858068e-15 0.9931498972194037 0.11684725779019409
-80.14816666666665 -229.45600000000002 1654.5666666666666 0.788915828416191 -0.5916719973334784 0.16593993867001192
-74.35880000000002 -203.73833333333334 1663.7733333333333 -0.8922218959933857 0.2972072489120102 0.34001167554088824
-78.62023333333333 -135.04133333333334 1717.8966666666665 -0.8727624934497094 -2.020559500353527e-18 0.488145091163935
-78.62023333333333 -135.04133333333334 1717.8966666666665 -0.8727624934497095 8.825067263562332e-16 0.4881450911639347
-75.60090000000001 -124.66300000000001 1701.6133333333335 -0.9075650511942877 0.35293210460645064 0.22751836714597604
-91.37186666666666 -140.5823333333333 2049.5066666666667 0.7584804139549349 -0.31137439403467126 0.5724975531705719
-78.6921 -67.36680000000001 1629.0433333333333 -0.9332144294008737 0.1332945048089142 0.3336815903608534
-79.59293333333333 -21.348433333333332 1507.3100000000002 -0.10909691064693083 -0.4444018291965481 0.8891596472479268
-77.572 -17.112033333333333 1512.3966666666665 -0.9866598975656585 -0.0722617343069646 0.14587833386310103
-76.87006666666666 24.3967 1464.2866666666666 0.9763063114839609 -0.21357715919520512 0.034796310532717346
-77.14699999999999 27.585266666666666 1453.6266666666668 -0.9937744394875639 0.00016669244228493697 0.11141066212354934
-77.96793333333333 61.587700000000005 1424.7766666666666 -0.9486220310298792 0.31620734367662734 0.011364772312633551
-76.52173333333333 373.33366666666666 2601.74 0.0 0.0 1.0
-78.48140000000001 -246.35 1696.8 -0.8295050300797229 0.4147981423792489 0.37398383140339453
-77.113 -197.07500000000002 1704.84 0.0 0.0 1.0
-79.70123333333333 -190.65933333333336 1669.9566666666667 -0.7769364422531286 0.6214448670317353 0.10087636957662434
-78.86523333333334 -84.47359999999999 1592.9099999999999 0.9633455395435322 0.2335394529404061 0.13200263392022327
-78.6921 -67.36680000000001 1629.0433333333333 -0.9332144294008735 0.133294504808914 0.33368159036085354
-79.332 -16.245433333333335 1493.5199999999998 -0.9711204971436008 -0.09711204971435806 0.21793170909218718
-73.4609 12.808633333333333 1437.3233333333335 0.17536953758601842 0.983523446006637 0.0438993899968506
-74.77663333333334 36.28863333333334 1542.2699999999998 4.00506415794931e-27 9.973342037590453e-27 1.0
-79.36453333333333 51.05336666666667 1411.3400000000001 -0.9507495221140182 -0.3024735766298381 0.0677132309133144
-76.07643333333334 80.76370000000001 1418.0266666666666 -0.923654656247843 0.3079388955703864 0.22811337660595402
-80.0 129.72266666666667 1421.38 0.0 0.0 1.0
-76.72093333333333 158.359 1413.5466666666669 0.16702910799868476 0.5847343823560809 0.7938431703880915
-80.2589 191.48166666666668 1453.6066666666668 -0.2833170343760214 0.9444306463513188 0.16667996959684936
-76.31123333333333 -119.42366666666665 1724.5 0.0 0.0 1.0
-79.332 -16.245433333333335 1493.5199999999998 -0.9711204971436005 -0.0971120497143579 0.2179317090921875
-78.759 2.7684079999999995 1551.6033333333332 0.679198241539315 0.6792021740987654 0.2781621027196426
-77.4515 61.65603333333333 1429.3 -0.8876717971089626 0.2958905990363211 0.3528279099210715
-77.83550000000001 113.045 1522.6666666666667 0.6859269787261184 -0.6861791577624282 0.24220310342376697
-73.84586666666667 109.63833333333332 1471.4833333333336 0.37307943303290847 0.7459506532924323 0.5516968003355077
-75.2703 150.41533333333334 1397.0433333333333 0.3410329178394481 -0.29558619121030016 0.8923706362917261
-78.2137 173.65233333333333 1431.58 0.0 0.0 1.0
-80.45196666666668 -242.93566666666666 1685.6433333333334 0.8372029823157026 -0.502691166793155 -0.2153897797710697
-79.5407 -159.69333333333336 1716.253333333333 -0.9776787088810803 0.1833014307790396 0.10268849826042391
-77.55406666666667 -156.33133333333333 1716.2533333333333 -0.4640551475397332 0.7736221177803307 0.43146452800079915
-80.0 -139.25133333333335 1639.45 0.0 0.0 1.0
-77.30130000000001 -5.2538833333333335 1513.6633333333332 0.4987141046123538 -0.27429284987677993 0.8222211833607623
-73.70923333333333 59.701933333333336 1502.32 -0.5065327409699071 0.8442033124332692 0.17534351884859944
-79.45300000000002 77.94869999999999 1534.36 0.0 0.0 1.0
-80.0 129.72266666666667 1421.38 0.0 0.0 1.0
-78.3768 372.1743333333334 2601.74 0.0 0.0 1.0
-78.8406 379.13033333333334 2601.74 0.0 0.0 1.0
-76.78093333333334 -176.96466666666666 1640.9533333333336 -0.7474969476050921 0.6115771376382432 0.2592715141300399
-78.6338 -171.59233333333336 1690.4333333333334 -0.5543107656501893 0.8316461486718187 -0.033230384945588214
-80.0 -149.97299999999998 1679.33 -0.6835862145406492 0.6834341375184995 0.2561789744774742
-79.6117 13.906166666666666 1431.63 -0.9937813628693941 0.00039611987113499883 0.11134830893416203
-78.8468 44.598099999999995 1429.3233333333335 -0.9295601075878485 0.3598498787916054 0.08016277886235196
-77.83550000000001 113.045 1522.6666666666667 0.6859269787261184 -0.6861791577624282 0.24220310342376697
-81.5493 113.86066666666666 1450.0833333333333 -0.3262873999672249 0.8970798419098909 0.2979669274626857
-81.27956666666667 123.35566666666666 1432.7266666666667 0.6026101139834643 -0.6024217001906633 0.523401514770665
-78.8544 165.60066666666668 1428.16 0.0 0.0 1.0
-80.51036666666666 174.035 1431.58 0.0 0.0 1.0
-80.51653333333333 189.57233333333332 1448.91 0.0 0.0 1.0
-80.29796666666667 -191.58266666666668 1671.51 0.0 0.0 1.0
-80.0 -149.97299999999998 1679.33 -0.6835862145406489 0.6834341375184997 0.25617897447747423
-78.6921 -67.3668 1629.043333333333 -0.9332144294008735 0.133294504808914 0.33368159036085354
-80.47756666666668 -48.65776666666667 1766.93 0.5539478978512558 0.8309120662779643 -0.052219388926513365
-72.08600000000001 -43.87093333333333 1930.32 0.0 0.0 1.0
-78.6244 15.169000000000002 1547.5866666666668 0.17131357025272 0.416039631375632 0.8930636515792671
-80.97413333333333 84.38636666666667 1368.3 -0.9592873501446354 0.07830960893155975 0.27135840691135726
-79.10896666666666 167.76466666666667 1428.16 0.0 0.0 1.0
-80.2589 191.48166666666668 1453.6066666666668 -0.2833170343760215 0.944430646351319 0.16667996959684936
-77.36246666666666 191.06433333333334 1340.71 -0.6624191027108324 0.34243896578578714 0.6662855897251089
-80.92753333333333 368.23199999999997 2601.74 0.0 0.0 1.0
-79.53623333333333 370.31899999999996 2601.74 0.0 0.0 1.0
-65.58186666666667 -254.514 1741.2233333333334 0.17458267258051718 0.1746389895716831 0.969031533932733
-80.8951 -242.39233333333334 1680.9066666666668 -0.927083157761961 0.2778205541080239 0.2516596080208769
-81.66666666666667 -227.27266666666665 1700.0 0.0 0.0 1.0
-79.99996666666667 -201.17766666666668 1704.84 0.0 0.0 1.0
-77.48853333333334 -165.43499999999997 1648.493333333333 -0.3821025089333025 -0.5859299185438301 0.7146214404998608
-81.68013333333333 -163.36100000000002 1716.2533333333333 0.5069026966179763 -0.69709833890777 0.5070538058761137
-80.0 -149.97299999999998 1679.33 -0.6835862145406492 0.6834341375184995 0.2561789744774742
-79.84366666666666 -136.46366666666665 1714.62 -0.2400177583755799 0.9595154925477724 -0.14738214011598263
-77.9761 -71.25439999999999 1621.6899999999998 -0.5355690834528511 -0.8302503393761519 0.15443487564425828
-81.58413333333333 -12.409236666666667 1481.1899999999998 5.182239880772056e-25 1.3153822111959961e-25 1.0
-79.60066666666667 -2.541373333333333 1498.506666666667 0.9016678926194642 -0.42936566315212615 -0.05138228026381167
-79.04276666666668 76.71793333333333 1534.36 0.0 0.0 1.0
-78.8738 78.00153333333334 1402.5266666666666 -0.8637417421382515 0.5038429315263876 0.009617860410410373
-81.5493 113.86066666666666 1450.0833333333333 -0.32628739996722494 0.897079841909891 0.29796692746268566
-80.381 146.159 1424.76 0.0 0.0 1.0
-80.381 146.159 1424.76 0.0 0.0 1.0
-80.381 146.159 1424.76 0.0 0.0 1.0
-84.1632 194.73633333333336 1334.72 0.04978095431826358 -0.9960234694675784 0.07388575543993985
-80.14816666666667 -229.45600000000002 1654.5666666666666 0.7889158284161911 -0.5916719973334784 0.16593993867001186
-81.66666666666667 -227.27266666666665 1700.0 0.0 0.0 1.0
-82.61663333333333 -207.56566666666666 1632.01 -0.7809230643299471 0.5857481263189694 0.2169292513962603
-81.191 -192.447 1669.9566666666667 0.7557828986414947 -0.6479243673264148 -0.09479569792836154
-82.09106666666666 -175.1353333333333 1682.4966666666667 -0.7957748706870743 0.604763618237756 0.031675246470193555
-87.43373333333334 -115.415 1634.9799999999998 0.056547847636531735 0.8463559326924411 0.5296073792197233
-76.31123333333333 -119.42366666666665 1724.5 0.0 0.0 1.0
-81.37140000000001 -81.22706666666666 1568.006666666667 -0.9820605342183042 -0.1252187996395001 0.1409870892943806
-81.42526666666667 -59.61496666666667 1600.006666666667 -0.9491005580907533 -0.27124846335582536 -0.16010122347728684
-81.71746666666667 -10.978103333333335 1483.6466666666668 -0.974303392375314 -0.19484198151723994 0.11300222052858248
-80.37913333333333 18.40263333333333 1424.78 -0.9937810072267264 1.2564294016037884e-16 0.11135218756465134
-80.7601 27.490133333333333 1421.38 0.0 0.0 1.0
-79.36746666666666 43.6413 1423.6566666666668 0.8739280320662388 -0.48157914464447615 -0.0658127815270397
-81.73413333333333 50.9038 1389.4833333333336 -0.9771760521538422 -0.18321538056886233 0.10751319649251655
-82.33073333333333 59.50300000000001 1538.3 0.0 0.0 1.0
-82.10823333333333 60.620533333333334 1388.4333333333334 0.785362294872261 -0.60463728419233 -0.13273967137785012
-81.6368 97.1185 1530.43 0.0 0.0 1.0
-80.97413333333333 84.38636666666666 1368.3 -0.9592873501446355 0.07830960893155947 0.27135840691135693
-79.87089999999999 159.6196666666667 1425.8933333333334 -0.44669307780508805 0.8932689133325319 0.05035814447271745
-80.51653333333333 189.57233333333332 1448.91 0.0 0.0 1.0
-82.6716 -240.59433333333334 1665.3066666666666 -0.8743184654566811 0.4768539686880912 0.090429605262276
-84.37636666666667 -204.37566666666666 1693.5866666666668 -0.8532919611820616 0.5214294717565279 -0.0020334615264682937
-78.47486666666667 -175.5246666666667 1708.0866666666668 -0.8341048192814241 0.20845779819220428 0.5107000066813793
-79.84366666666666 -136.46366666666665 1714.62 -0.24001775837558081 0.9595154925477721 -0.14738214011598222
-79.1169 -128.24066666666667 1665.3166666666666 0.23220572301070444 0.8824653498612034 0.409066508645501
-81.42526666666667 -59.61496666666667 1600.006666666667 -0.9491005580907526 -0.27124846335582675 -0.16010122347728822
-81.7642 -51.56336666666667 1666.8799999999999 -0.643540213016004 -0.7605380045246006 0.08624348036260339
-79.60066666666667 -2.541373333333333 1498.506666666667 0.9016678926194645 -0.42936566315212593 -0.05138228026381153
-82.33073333333333 59.50300000000001 1538.3 0.0 0.0 1.0
-81.91723333333333 125.87633333333333 1433.8666666666668 -0.5721906760169486 0.5720117732521726 0.5877077177816985
-78.74363333333334 161.37833333333333 1411.3266666666666 0.323655095818831 0.615534142250686 0.718585484597494
-80.51653333333333 189.57233333333332 1448.91 0.0 0.0 1.0
-79.6961 -245.51466666666667 1692.0100000000002 -0.7385472014417884 0.5686889169874708 0.3621338798540119
-80.14816666666667 -229.45600000000002 1654.5666666666666 0.788915828416191 -0.5916719973334784 0.16593993867001192
-82.04326666666667 -208.322 1637.966666666667 -0.7970978838169348 0.5978803972696035 0.08469943432694992
-82.42053333333332 -28.90523333333333 1508.5866666666668 0.948349085355342 0.31616482983746436 -0.025957902063409987
-81.73413333333333 50.9038 1389.4833333333336 -0.977176052153842 -0.183215380568862 0.10751319649251657
-81.77776666666666 79.04273333333333 1534.36 0.0 0.0 1.0
-81.6368 97.1185 1530.43 0.0 0.0 1.0
-80.38276666666667 129.50566666666666 1431.58 0.0 0.0 1.0
-82.41269999999999 160.508 1424.76 0.0 0.0 1.0
-82.31883333333333 366.6086666666667 2601.74 0.0 0.0 1.0
-82.19623333333332 -230.77066666666667 1643.99 -0.9988829040213947 -8.37077008183603e-05 0.04725396329205015
-86.69376666666666 -216.39066666666668 1665.36 -0.18745162877092736 -0.9732175099703707 0.13307729016702285
-83.3965 -78.03186666666666 1525.2366666666667 0.6705173232657351 0.6705173232657257 0.31751069021549533
-81.42526666666667 -59.61496666666667 1600.006666666667 -0.9491005580907526 -0.27124846335582675 -0.16010122347728822
-82.61250000000001 -14.247266666666667 1466.6900000000003 -0.9379710139697172 -0.3348075662020556 0.09007924603634897
-81.58413333333334 -12.409236666666667 1481.1899999999998 -1.0873958941482375e-24 -2.7604512283043137e-25 1.0
-83.77239999999999 9.696272333333333 1412.4633333333334 -0.8783021032813236 0.4736946622397502 0.06479801183039727
-82.24560000000001 57.658366666666666 1400.3233333333335 -0.9858728187043424 0.14170615791658528 0.08929809711564199
-80.38276666666667 129.50566666666666 1431.58 0.0 0.0 1.0
-84.82690000000001 136.616 1425.8933333333334 -0.6295731038599685 -0.209857701286656 0.7480624653775952
-82.55073333333333 379.826 2601.74 0.0 0.0 1.0
-82.6716 -240.59433333333334 1665.3066666666666 -0.8743184654566811 0.4768539686880912 0.0904296052622761
-82.9148 -230.58899999999997 1636.4833333333333 -0.6083992028216795 -0.7627241122353572 0.21932245352615262
-82.58306666666667 -204.67233333333334 1704.84 0.0 0.0 1.0
-81.191 -192.447 1669.9566666666667 0.7557828986414945 -0.6479243673264149 -0.09479569792836157
-89.35966666666666 -108.33066666666667 1695.1933333333334 -0.5130246687579076 0.6454531708570506 0.5658585454655768
-86.95073333333333 -101.1578 1732.82 -0.32956448686964346 -0.9415519132355976 0.06976563392340501
-83.3965 -78.03186666666666 1525.2366666666667 0.6705173232657351 0.6705173232657257 0.31751069021549533
-81.5675 -65.01943333333334 1600.006666666667 -0.9777652955732552 0.20372254150949523 -0.049720748721804695
-78.44046666666667 -31.575133333333337 1588.6766666666665 -0.32684688595934785 0.9151712806861738 0.23586572482220777
-82.10183333333333 -13.390799999999999 1473.9166666666667 0.8181960124404303 0.544069994720896 -0.1858578114338591
-81.58413333333334 -12.409236666666667 1481.1899999999998 -1.0873958941481629e-24 -2.7604512283041236e-25 1.0
-82.1008 32.45056666666667 1388.4166666666667 -0.9956917432138078 0.09262422441246454 0.00432499107951018
-82.24560000000001 57.658366666666666 1400.3233333333335 -0.9858728187043424 0.14170615791658528 0.08929809711564199
-80.97636666666666 74.35443333333333 1372.4966666666667 -0.9640466214455575 0.12635029891096392 0.2337727820866146
-83.45303333333334 79.8852 1337.7466666666667 -0.8788057689530425 0.47508752706329715 0.044634763175497236
-81.6368 97.1185 1530.43 0.0 0.0 1.0
-80.0 129.72266666666667 1421.38 0.0 0.0 1.0
-86.029 268.05766666666665 2601.74 0.0 0.0 1.0
-83.49513333333333 191.32666666666668 1452.43 0.0 0.0 1.0
-84.63766666666668 366.6086666666667 2601.74 0.0 0.0 1.0
-82.54010000000001 -244.48266666666666 1677.7600000000002 -0.829581703725269 0.552828313047562 -0.07858150633111123
-80.01236666666667 -166.563 1636.4833333333336 0.3921517023079723 0.8881430083328512 0.23962270160907695
-77.06070000000001 -144.246 1651.5199999999998 0.36751618661500135 -0.19601787227573475 0.9091253193726712
-85.37149999999998 -127.40533333333333 1669.9733333333334 0.5684156739934686 0.7159722698499524 0.40532373525918464
-80.80369999999999 -27.11323333333333 1506.04 -0.8015415029700355 0.3005759919331838 0.5168996924838701
-80.81079999999999 -26.7794 1509.8466666666666 0.8844809660987659 -0.3316780762394232 0.3281509932197515
-81.8052 4.433636666666667 1554.2933333333333 0.721023216689837 0.5758016885415805 0.38545808652420943
-83.74246666666666 9.419960000000001 1554.2933333333333 0.9327089059255522 0.21553918913305928 0.28913137974806963
-82.61186666666667 58.10033333333333 1395.97 -0.9402596991013021 0.31501105253075573 0.1291500485071309
-82.1212 -234.24233333333333 1700.0 0.0 0.0 1.0
-82.04326666666667 -208.322 1637.9666666666665 -0.7970978838169351 0.5978803972696034 0.08469943432694978
-83.47986666666667 -208.19999999999996 1629.05 -0.8670798258571826 0.43357315348162256 0.24533017786542147
-87.62906666666667 -189.283 1711.3433333333332 0.5360096865605107 -0.3930268751586733 0.7471435546910056
-82.33913333333332 -165.12266666666665 1642.47 -0.8093686273503597 0.5783769625428136 0.10199271670439575
-84.44443333333334 -146.35999999999999 1719.54 0.0 0.0 1.0
-90.3048 -115.22733333333333 1674.6299999999999 0.3470287612879817 0.14138102579536835 0.9271366913157835
-82.61186666666667 58.10033333333333 1395.97 -0.940259699101305 0.31501105253074757 0.1291500485071295
-83.45303333333334 79.8852 1337.7466666666667 -0.8788057689530425 0.4750875270632974 0.044634763175497014
-83.83693333333333 123.54933333333334 1435.01 0.0 0.0 1.0
-83.0326 127.64633333333335 1418.0166666666667 -0.9706779977863195 0.2239777821381764 0.08728217299085617
-86.029 272.232 2601.74 0.0 0.0 1.0
-83.44500000000001 175.311 1431.58 0.0 0.0 1.0
-85.33333333333333 377.2753333333333 2601.74 0.0 0.0 1.0
-85.10146666666667 383.5363333333333 2601.74 0.0 0.0 1.0
-82.54010000000001 -244.48266666666666 1677.7600000000002 -0.829581703725269 0.552828313047562 -0.07858150633111123
-82.6716 -240.59433333333334 1665.3066666666666 -0.8743184654566812 0.4768539686880913 0.09042960526227616
-87.54453333333333 -230.62866666666665 1630.5266666666666 -0.23180611028024845 -0.9653002599644323 0.12025529239638781
-84.44443333333334 -146.35999999999999 1719.54 0.0 0.0 1.0
-85.14476666666665 -58.6941 1561.073333333333 -0.9516576448940937 0.2945009293359472 -0.08727502239982766
-83.31783333333333 -46.54483333333334 1770.4233333333334 0.5539837671655754 0.8308916165196948 -0.05216423405290226
-83.38913333333333 -11.477093333333334 1463.0866666666668 -0.9712929006762504 -0.18677098258741473 0.14733194208740766
-84.02526666666667 7.078283333333334 1556.9833333333333 0.9333235938521862 0.219610046951567 0.2840396036414111
-83.20139999999999 26.998900000000003 1383.0833333333333 -0.9936386212437129 3.822889306539313e-05 0.11261566903164459
-81.00603333333333 128.60333333333332 1409.1166666666668 -0.037749495092894735 -0.9977953549122951 0.05458392928031716
-86.029 272.232 2601.74 0.0 0.0 1.0
-86.029 272.232 2601.74 0.0 0.0 1.0
-83.57256666666667 175.18333333333337 1431.58 0.0 0.0 1.0
-83.60803333333332 188.62300000000002 1446.5766666666668 -0.48508487571760983 0.8488357789643296 0.21016775133224058
-85.10146666666667 383.5363333333333 2601.74 0.0 0.0 1.0
-85.01423333333334 -208.62300000000002 1704.84 0.0 0.0 1.0
-79.42266666666667 -187.36566666666667 1607.1633333333332 -0.317172073298735 0.15864135735982482 0.9350052383031948
-81.7192 -164.90366666666668 1617.3066666666666 -0.335070470159448 0.6558649255142637 0.6764384521205871
-86.8666 -63.044466666666665 1540.9733333333334 -0.896150867712121 0.43334387484077547 0.09553380782107737
-83.66016666666667 -6.553353333333333 1467.88 -0.9775791482270392 -0.00017075745460456399 0.21056823073196088
-83.0326 127.64633333333335 1418.0166666666667 -0.9706779977863192 0.22397778213817632 0.08728217299085618
-82.79333333333334 164.3216666666667 1425.8933333333334 -0.5145482168008031 0.7727689316447296 0.3715754443875122
-83.70016666666668 175.43866666666668 1431.58 0.0 0.0 1.0
-83.49513333333334 191.32666666666668 1452.43 0.0 0.0 1.0
-86.02896666666668 367.07233333333335 2601.74 0.0 0.0 1.0
-86.02896666666668 367.07233333333335 2601.74 0.0 0.0 1.0
-87.88403333333333 375.4203333333333 2601.74 0.0 0.0 1.0
-85.8109 -179.21966666666665 1671.5166666666664 0.7052209779643811 -0.705201151488787 -0.07317587155511435
-89.1848 -137.25633333333334 1688.8266666666668 -0.3833949615021276 -0.7658691760889208 0.5161905739275562
-86.8707 -52.151833333333336 1569.2733333333333 0.6689607126074867 0.7432929093674077 -0.0026862374836206537
-80.60156666666667 -37.35033333333333 1656.0933333333332 0.2986303594352231 -0.09188905527707865 0.9499348977397742
-83.79356666666666 27.273799999999998 1373.5733333333335 -0.9974112089415558 -0.07125888363663464 -0.009646335086678405
-84.24876666666667 30.345000000000002 1362.0666666666666 -0.9845479922246011 0.044756646524888706 0.16929882928819476
-83.9658 79.58973333333334 1534.36 0.0 0.0 1.0
-86.72466666666666 271.07233333333335 2601.74 0.0 0.0 1.0
-89.04346666666667 283.59433333333334 2601.74 0.0 0.0 1.0
-83.82776666666666 175.311 1431.58 0.0 0.0 1.0
-83.49513333333334 191.32666666666668 1452.43 0.0 0.0 1.0
-88.54683333333332 -216.37033333333332 1651.54 0.5113770457926547 0.8590176360793643 0.0241291927133494
-84.37636666666667 -204.37566666666666 1693.5866666666668 -0.8532919611820616 0.5214294717565278 -0.002033461526468065
-86.87676666666668 -172.37833333333333 1714.61 0.0 0.0 1.0
-83.82043333333333 -167.9466666666667 1714.61 0.0 0.0 1.0
-85.51723333333332 -148.65900000000002 1719.54 0.0 0.0 1.0
-86.50003333333332 -68.7279 1551.6033333333332 0.9355530628242069 0.3508218188902325 -0.04079850525195906
-83.31783333333333 -46.54483333333334 1770.4233333333334 0.5539837671655754 0.8308916165196948 -0.05216423405290226
-84.04273333333333 -6.77122 1463.0866666666668 -0.8761048736199017 -0.273628214740565 0.39694817107192587
-84.43943333333333 11.925000000000002 1555.64 0.9373908686940733 -0.18749617193146703 0.2935022057839022
-84.24876666666667 30.345 1362.0666666666666 -0.9845479922246012 0.0447566465248886 0.1692988292881944
-84.3631 37.807300000000005 1360.0066666666667 -0.9935420119630815 -0.00011960977313178334 0.11346477937163411
-85.48413333333333 63.89033333333333 1538.3 0.0 0.0 1.0
-83.00083333333333 96.9821 1530.43 0.0 0.0 1.0
-85.26563333333333 88.8498 1312.3166666666666 0.9825104440630632 -0.1578889939487962 -0.09871318502023652
-83.8741 113.25233333333334 1448.91 0.0 0.0 1.0
-89.04346666666667 283.59433333333334 2601.74 0.0 0.0 1.0
-86.41763333333334 -180.44833333333335 1674.63 -0.8869526189819189 0.4434268419717729 0.12918083255675034
-86.95073333333333 -101.1578 1732.82 -0.32956448686964346 -0.9415519132355976 0.06976563392340501
-84.44193333333332 10.133826666666666 1556.9833333333333 0.7389320209305669 -0.14780059190792033 0.6573693432729705
-85.18403333333333 43.6573 1353.88 -0.9894223046215316 0.009254198880373042 0.14476830772133648
-85.48413333333333 63.89033333333333 1538.3 0.0 0.0 1.0
-83.42856666666667 162.15866666666668 1424.76 0.0 0.0 1.0
-86.54416666666667 194.49833333333333 1334.72 0.7194118948967966 7.226421046935103e-16 0.6945837066048992
-82.1212 -234.24233333333333 1700.0 0.0 0.0 1.0
-84.4053 -214.9053333333333 1646.9866666666667 0.887925217275344 -0.44397270902690306 -0.12032058080746712
-85.9346 -210.82066666666665 1624.62 -0.8792257230617955 0.43964656771157745 0.18350210736090258
-84.37636666666667 -204.37566666666666 1693.5866666666668 -0.8532919611820616 0.5214294717565279 -0.0020334615264682937
-86.2863 -181.5566666666667 1679.3366666666668 0.8869548008255368 -0.443427932771896 -0.12916210640189718
-85.8867 -173.689 1650.0133333333333 -0.5042802900542007 0.6723737200722756 0.5418625006577042
-82.10243333333334 -161.6723333333333 1685.6433333333334 -0.015577215169793945 0.4084594361684624 0.9126435445301171
-86.59453333333333 -102.16766666666666 1721.2099999999998 -0.9887061167962672 -0.12890096424348405 0.07645100409246562
-86.28609999999999 -75.45226666666666 1501.0166666666667 -0.4430871076833647 -0.8964785103064912 0.0003091333769037382
-83.3965 -78.03186666666666 1525.2366666666667 0.6705173232657052 0.6705173232657359 0.3175106902155359
-86.11953333333334 -18.23346666666667 1430.4399999999998 -0.8603496744497213 0.3128767180898736 0.4023761883506139
-85.75836666666667 64.98716666666667 1538.3 0.0 0.0 1.0
-85.47006666666665 80.95726666666667 1534.36 0.0 0.0 1.0
-90.43476666666668 351.9996666666666 2601.74 0.0 0.0 1.0
-93.04013333333334 -225.74633333333335 1607.1733333333334 0.31574406110129366 0.9471309832842937 0.05699638920308277
-86.41763333333334 -180.44833333333335 1674.63 -0.8869526189819189 0.44342684197177323 0.1291808325567502
-86.41763333333334 -180.44833333333335 1674.6299999999999 -0.8869526189819191 0.44342684197177296 0.12918083255675025
-87.20306666666666 -152.03066666666666 1719.54 0.0 0.0 1.0
-77.28103333333334 -104.91133333333333 1938.7333333333333 0.27217942143547946 0.8162219809245191 0.5096077318906196
-86.05973333333334 -9.28129 1446.5766666666668 -0.6221993515958123 -0.6221993515958113 0.4751167580158614
-86.07406666666667 -6.333636666666666 1450.0833333333333 -0.9944235723057836 7.197994643481458e-17 0.10545974986981585
-83.1597 2.3300623333333337 1535.6766666666665 0.6313734171010383 0.2104526889318327 0.7463760941372115
-87.33806666666668 27.122933333333332 1552.95 0.9461818174920924 0.10512990399551525 0.30608441896518407
-85.75836666666667 64.98716666666667 1538.3 0.0 0.0 1.0
-85.47006666666668 80.95726666666667 1534.36 0.0 0.0 1.0
-84.61126666666667 78.76673333333333 1328.82 -0.8916644681225515 0.445960921834954 0.07780316499889633
-93.2174 163.01433333333333 2601.74 0.0 0.0 1.0
-85.26563333333333 88.8498 1312.3166666666666 0.9825104440630632 -0.15788899394879552 -0.09871318502023568
-90.43476666666668 351.99966666666666 2601.74 0.0 0.0 1.0
-90.26503333333334 -212.51733333333334 1601.4766666666667 -0.8583530013865905 0.49579079621235966 0.13199095196924007
-89.61923333333334 -100.86586666666666 1714.62 -0.15118374790204903 0.7564997448691791 0.6362795064931421
-87.33866666666667 -74.32950000000001 1497.25 -0.8125448451171091 -0.58038917508365 0.05403036293912222
-86.11953333333334 -18.23346666666667 1430.4399999999998 -0.8603496744497212 0.3128767180898733 0.4023761883506139
-86.05973333333334 -9.28129 1446.5766666666668 -0.6221993515958129 -0.622199351595811 0.4751167580158611
-86.07406666666667 -6.333636666666667 1450.0833333333333 -0.9944235723057835 1.5849687361429096e-17 0.10545974986981574
-86.07406666666667 -6.333636666666667 1450.0833333333333 -0.9944235723057835 1.2687198982394475e-16 0.10545974986981585
-89.64116666666666 50.39523333333333 1544.9233333333334 0.5572598042570555 0.3715065361713713 0.7425930272641522
-86.53863333333334 63.47763333333333 1310.4066666666668 -0.9893882981877856 0.09895507473740292 -0.10638932555850072
-87.23809999999999 135.873 1424.76 0.0 0.0 1.0
-89.04346666666667 283.5943333333333 2601.74 0.0 0.0 1.0
-93.68113333333334 299.3623333333333 2601.74 0.0 0.0 1.0
-88.85606666666666 186.32633333333334 1440.7766666666666 -0.32705222477228035 -0.8584988038627591 0.39498942522264263
-83.60803333333332 188.62300000000002 1446.5766666666668 -0.48508487571760983 0.8488357789643298 0.2101677513322405
-90.89853333333333 350.3766666666667 2601.74 0.0 0.0 1.0
-90.43476666666668 351.99966666666666 2601.74 0.0 0.0 1.0
-90.89853333333333 374.029 2601.74 0.0 0.0 1.0
-88.20513333333334 -216.0683333333333 1704.84 0.0 0.0 1.0
-88.20513333333334 -216.0683333333333 1704.84 0.0 0.0 1.0
-84.82193333333333 -176.51133333333334 1639.45 0.0 0.0 1.0
-84.82193333333333 -176.51133333333334 1639.45 0.0 0.0 1.0
-90.64073333333333 -141.19166666666666 1634.9799999999998 -0.5513733988429554 -0.6121991883755828 0.5667446769054337
-90.17306666666667 -123.62566666666667 1679.3366666666668 -0.9330308320122745 0.15551670468869452 0.32445033684256175
-87.461 -74.60316666666667 1494.756666666667 0.8043009125393963 0.5745006518138559 -0.15181911326887945
-87.33866666666665 -74.32950000000001 1497.25 -0.8125448451171091 -0.5803891750836501 0.05403036293912217
-86.50003333333335 -68.72789999999999 1551.6033333333335 0.9355530628242069 0.3508218188902325 -0.04079850525195906
-86.3121 -5.669533333333334 1445.4166666666667 -0.9985858662393033 -0.029372128357142466 0.04431191513432827
-83.1597 2.3300623333333337 1535.6766666666665 0.6313734171010381 0.21045268893183128 0.7463760941372121
-87.59930000000001 31.364433333333334 1550.26 0.0 0.0 1.0
-86.41309999999999 43.01636666666667 1332.8300000000002 -0.998486843901118 -0.05056745483126537 0.021609143163767528
-86.85176666666666 111.274 1450.0833333333333 -0.47996733413807413 0.8001245464361959 0.35976668599338396
-85.23126666666667 126.82599999999998 1431.58 0.0 0.0 1.0
-87.23809999999999 135.873 1424.76 0.0 0.0 1.0
-87.19856666666665 -176.45866666666666 1648.51 -0.5960448467220764 0.7947264622961066 0.11463154374940361
-89.12553333333335 -127.15166666666666 1706.4733333333334 -0.945833688792918 0.3152491614943238 0.0775667410782969
-91.13853333333333 -97.17336666666665 1736.17 -0.5487345101625036 -0.36580985996960835 0.7517137644780311
-86.50003333333335 -68.72789999999999 1551.6033333333335 0.9355530628242069 0.35082181889023245 -0.04079850525195886
-83.9341 -45.526900000000005 1632.0199999999998 0.4436708931658542 -0.8783052408573306 0.1781461266487687
-86.11953333333334 -18.23346666666667 1430.4399999999998 -0.8603496744497213 0.3128767180898736 0.4023761883506139
-85.75330000000001 44.2785 1345.7833333333335 -0.9867070542411825 -0.11867677536181617 0.11101807105336078
-84.61126666666667 78.76673333333333 1328.82 -0.8916644681225512 0.4459609218349544 0.07780316499889614
-92.52173333333333 165.33333333333334 2601.74 0.0 0.0 1.0
-95.07243333333334 253.21733333333336 2601.74 0.0 0.0 1.0
-87.60096666666668 150.24566666666666 1421.38 0.0 0.0 1.0
-87.79403333333335 -213.139 1620.2366666666667 -0.8454324830934963 0.5199134765428369 0.1222043102329288
-87.62906666666667 -189.28300000000002 1711.3433333333332 0.5360096865605107 -0.39302687515867324 0.7471435546910056
-81.7192 -164.90366666666668 1617.3066666666666 -0.33507047015944785 0.6558649255142638 0.6764384521205871
-84.87906666666667 -44.61143333333334 1662.25 -0.8265257723918243 0.2543233465307355 0.5021700737613756
-90.4166 -44.272533333333335 1695.2166666666665 -0.5544743061883296 -0.8317563039474516 0.027197327454090675
-86.81206666666667 41.586000000000006 1319.1566666666668 -0.9268773071379991 0.3526747600836877 0.12852614952812125
-87.03436666666666 121.503 1435.01 0.0 0.0 1.0
-88.20513333333334 -216.0683333333333 1704.84 0.0 0.0 1.0
-80.87573333333334 -190.87966666666668 1611.5 0.5691298717859012 -0.2846642027310532 0.7713996893468764
-89.25886666666668 -193.54899999999998 1703.2366666666667 -0.9239832320728756 0.36971529765732847 0.09780381140996279
-87.20306666666666 -152.0306666666667 1719.54 0.0 0.0 1.0
-90.15466666666667 -127.23466666666667 1701.63 -0.8304434070461472 0.5535906210980422 0.062459362195518765
-94.84053333333333 188.058 2601.74 0.0 0.0 1.0
-87.15096666666666 124.49899999999998 1432.7233333333334 -0.7978515112160113 0.3990300044988451 0.4518938166870382
-90.20286666666668 259.01433333333335 2601.74 0.0 0.0 1.0
-87.60096666666668 150.24566666666666 1421.38 0.0 0.0 1.0
-93.68113333333334 299.3623333333333 2601.74 0.0 0.0 1.0
-91.82606666666668 351.9996666666666 2601.74 0.0 0.0 1.0
-91.084 -217.59966666666665 1615.8533333333332 -0.8538769279317509 0.5060122780665973 0.12184320412599253
-88.72113333333333 -174.99066666666667 1716.253333333333 0.642711796946574 -0.6427273740623487 0.41692093818447584
-88.53813333333333 -141.84633333333335 1682.4966666666667 -0.38301041318252016 -0.7661117009809599 0.5161161545755135
-89.86843333333333 -73.15776666666666 1476.3166666666666 -0.8317485193185862 -0.554493164720382 0.027050524758578724
-90.4166 -44.272533333333335 1695.2166666666665 -0.5544743061883298 -0.8317563039474515 0.02719732745409067
-87.50970000000001 -8.404633333333333 1428.1666666666667 0.97631223950115 0.19886429289379956 0.0852490704471233
-89.30553333333334 27.083366666666667 1558.33 0.0 0.0 1.0
-96.2319 111.53633333333335 2601.74 0.0 0.0 1.0
-93.2174 163.01433333333333 2601.74 0.0 0.0 1.0
-93.2174 163.01433333333333 2601.74 0.0 0.0 1.0
-84.914 124.95066666666666 1414.6633333333332 -0.846861067737617 0.3968059741564659 0.3540781704991728
-93.21736666666668 296.34799999999996 2601.74 0.0 0.0 1.0
-89.64293333333335 168.2506666666667 1423.6333333333332 -0.4972054223656435 -0.39781655164125423 0.7710569104874577
-89.79233333333333 174.75566666666668 1427.0266666666666 -0.5322410819626051 -0.39917210048861534 0.7465795770464004
-94.3768 375.884 2601.74 0.0 0.0 1.0
-86.54416666666667 194.49833333333333 1334.72 0.7194118948967966 6.475622524535052e-16 0.6945837066048991
-86.54416666666667 194.49833333333333 1334.72 0.7194118948967966 6.475622524535052e-16 0.6945837066048991
-89.25886666666668 -193.54899999999998 1703.2366666666667 -0.9239832320728756 0.3697152976573284 0.09780381140996279
-91.38486666666667 -136.49433333333334 1637.9566666666667 -0.8476324316836598 0.4238484452118567 0.3191735519267496
-90.98540000000001 -131.02566666666667 1711.3433333333332 0.853775256051099 -0.28456581401557535 0.4359932449574573
-87.43373333333334 -115.415 1634.9799999999998 0.05654784763653172 0.8463559326924411 0.5296073792197233
-87.33866666666665 -74.32950000000001 1497.25 -0.8125448451171091 -0.58038917508365 0.05403036293912222
-86.27946666666666 -65.77199999999999 1531.7699999999998 0.5980582148657347 -0.5595678026348122 0.5737684601701794
-88.63033333333333 -47.5268 1641.0533333333333 0.5620773437629121 0.8263713050778002 -0.03434422473200138
-95.19940000000001 -42.965666666666664 1565.1266666666668 -0.24479819737723202 0.48959639475446526 0.8368806443001819
-84.68613333333333 -18.2375 1461.8966666666668 -0.8649952861310038 0.3877578253792764 0.3184760961646539
-88.86693333333334 -4.813343333333333 1421.3833333333334 -0.9858028502420004 -0.035119735534444856 0.16419301029806005
-86.65143333333333 52.02633333333333 1309.4366666666667 -0.9936932094131555 0.07686448639032803 0.08164347063993627
-90.56830000000001 72.4515 1539.6233333333332 0.682093288777913 0.08527979911965783 0.7262754995635206
-97.8551 135.18833333333333 2601.74 0.0 0.0 1.0
-94.84053333333333 188.058 2601.74 0.0 0.0 1.0
-94.84053333333333 188.058 2601.74 0.0 0.0 1.0
-88.16393333333333 109.859 1453.6166666666668 0.726703623384542 -0.6841553918952931 -0.06191319326586178
-87.60096666666668 150.24566666666666 1421.38 0.0 0.0 1.0
-88.4877 155.81933333333333 1421.38 0.0 0.0 1.0
-88.4877 155.81933333333333 1421.38 0.0 0.0 1.0
-95.07243333333334 301.21733333333333 2601.74 0.0 0.0 1.0
-94.42113333333334 -249.10533333333333 1703.2266666666667 0.5661329380627196 -0.6415814531923707 0.5175584366620244
-87.43756666666667 -233.0086666666667 1668.403333333333 -0.6476106121320164 -0.7555780058823728 0.0985006196976056
-88.55426666666666 -186.106 1712.9766666666667 0.5678097631011731 0.18924928091147372 0.8011097194526352
-88.78430000000002 -68.45179999999999 1517.5133333333333 0.6540039066448045 0.654829417439885 0.3787840072504049
-89.20986666666666 -9.08583 1415.7866666666669 -0.9728316596952041 -0.2047463647544668 0.10806242646963639
-88.86693333333335 -4.813343333333333 1421.3833333333334 -0.9858028502420003 -0.035119735534444856 0.16419301029806013
-89.55973333333333 -2.6415076666666666 1411.32 0.0 0.0 1.0
-89.30553333333334 27.083366666666667 1558.33 0.0 0.0 1.0
-89.30553333333334 27.083366666666667 1558.33 0.0 0.0 1.0
-89.25733333333334 37.582033333333335 1550.26 0.0 0.0 1.0
-97.39133333333332 100.40570000000001 2601.74 0.0 0.0 1.0
-96.92756666666666 107.59400000000001 2601.74 0.0 0.0 1.0
-90.70573333333334 73.41369999999999 1539.6233333333332 0.6777341552932503 0.08473479151729045 0.7304083993598826
-96.46376666666667 143.07233333333332 2601.74 0.0 0.0 1.0
-96.92753333333333 144.69533333333334 2601.74 0.0 0.0 1.0
-90.2613 144.16466666666668 1421.38 0.0 0.0 1.0
-88.4877 155.81933333333333 1421.38 0.0 0.0 1.0
-95.07243333333334 301.21733333333333 2601.74 0.0 0.0 1.0
-85.70303333333334 192.00066666666666 1453.6066666666668 -4.503865237203031e-15 -0.9074923157937016 0.4200686810217879
-83.45496666666666 -239.54833333333332 1684.0533333333333 -0.29169431723569494 -0.9479094613596918 0.12799249336262064
-87.43756666666667 -233.0086666666667 1668.403333333333 -0.6476106121320161 -0.7555780058823727 0.09850061969760562
-92.43576666666668 -214.0856666666667 1680.9066666666668 0.8642292062832224 -0.5003032431559045 -0.05295794458582527
-91.02526666666665 -173.47033333333334 1717.8966666666665 0.9599152027770292 0.19199696043943712 0.20420570672621371
-90.88123333333333 -162.452 1719.54 0.0 0.0 1.0
-89.35966666666667 -108.33066666666666 1695.1933333333334 -0.5130246687579076 0.6454531708570506 0.5658585454655768
-91.36173333333333 -52.7365 1517.5133333333333 -0.7647202511453888 -0.5435873063090881 0.3459996790573119
-84.62046666666666 -6.3366299999999995 1481.1899999999998 9.025719457416982e-27 5.7720364345129956e-27 1.0
-90.10706666666665 102.11923333333334 1531.74 0.5876747523212341 0.3525991069820782 0.7282254151288714
-88.16393333333333 109.859 1453.6166666666668 0.7267036233845421 -0.6841553918952928 -0.06191319326586163
-91.03163333333333 129.31933333333333 1422.506666666667 0.3020906489496566 -0.7553458686829191 0.5815443736129011
-87.23809999999999 135.87300000000002 1424.76 0.0 0.0 1.0
-99.71 382.6086666666667 2601.74 0.0 0.0 1.0
-88.9969 -208.7253333333333 1651.54 0.7200782393086889 0.09897175229768532 0.6867983121129696
-90.5444 -182.76999999999998 1714.61 0.0 0.0 1.0
-86.8809 -145.34333333333333 1677.7600000000002 -0.29245603510821105 -0.8123013498686061 0.5046146891742501
-91.38486666666667 -136.49433333333334 1637.9566666666667 -0.8476324316836595 0.4238484452118573 0.3191735519267491
-90.17306666666666 -123.62566666666667 1679.3366666666668 -0.9330308320122747 0.15551670468869486 0.3244503368425616
-89.86843333333333 -73.15776666666666 1476.3166666666666 -0.8317485193185861 -0.554493164720382 0.027050524758578727
-91.28173333333335 -61.25516666666667 1507.323333333333 -0.9461724959879824 0.31539083199599677 0.07270647102386511
-89.94593333333334 -18.403766666666666 1394.8766666666668 -0.7400411490591446 0.5293696376782095 0.41485766764477466
-89.34370000000001 -4.553383333333333 1416.9033333333334 -0.9906608801735023 -0.13509543666590434 0.018445690171714428
-99.9421 18.55073333333333 2601.74 0.0 0.0 1.0
-97.87696666666666 42.20806666666667 1909.8033333333333 0.5988916529160854 -0.7985515872485748 -0.060366800231758055
-91.31060000000001 49.3782 1547.5866666666668 0.7826735162669615 0.5217823441779759 0.3393602101579483
-97.85506666666667 144.46366666666665 2601.74 0.0 0.0 1.0
-97.3913 145.1593333333333 2601.74 0.0 0.0 1.0
-89.99136666666668 92.5739 1534.3633333333335 0.5588227189607757 0.10972260403281074 0.821996422703618
-89.49276666666667 159.239 1420.256666666667 -0.9118275625733161 -0.3908517995661993 0.12571939749883013
-94.1449 350.145 2601.74 0.0 0.0 1.0
-98.78263333333332 358.493 2601.74 0.0 0.0 1.0
-96.2319 379.13033333333334 2601.74 0.0 0.0 1.0
-129.49763333333334 -187.24733333333333 1323.9499999999998 -0.15618139533549621 -0.9347034394722775 0.3192755111024835
-94.26576666666666 -140.83133333333333 1721.2033333333331 -0.8849392926560371 0.3792544745083148 0.27027484507229843
-88.66189999999999 -126.41433333333335 1674.63 0.4517034580456896 -0.07528950907254581 0.8889856443234508
-93.4104 -118.53566666666666 1729.4800000000002 2.181890364433618e-26 -2.265507748691587e-26 1.0
-92.52173333333333 -99.09183333333333 1734.49 0.0 0.0 1.0
-81.20433333333332 -92.90316666666666 1930.32 0.0 0.0 1.0
-90.3984 -7.64464 1405.8066666666666 -0.9874948829186156 -0.1457507852523449 0.06008797556812039
-89.55973333333333 -2.6415076666666666 1411.32 0.0 0.0 1.0
-105.00956666666667 11.424719999999999 1744.6366666666665 -0.382166792380057 -0.23181065784954039 0.8945458969272073
-97.85523333333333 115.94200000000001 2601.74 0.0 0.0 1.0
-98.31886666666666 147.24633333333335 2601.74 0.0 0.0 1.0
-89.99950000000001 161.64600000000002 1420.256666666667 -0.956518781843337 -0.07969242207859609 0.28057251797741223
-92.9524 -209.0666666666667 1709.71 0.0 0.0 1.0
-87.7559 -176.58133333333333 1706.4833333333333 0.39863789955571155 0.9072048336504649 0.13441434015402748
-91.49426666666666 -168.8886666666667 1719.54 0.0 0.0 1.0
-93.44266666666665 -113.42933333333333 1637.9766666666667 0.7791560639434254 0.4289783200272372 0.45704860678794107
-93.1401 -99.8648 1734.49 0.0 0.0 1.0
-89.94593333333334 -18.403766666666666 1394.8766666666668 -0.7400411490591446 0.5293696376782095 0.4148576676447746
-89.5666 -6.927746666666667 1412.4333333333334 -0.8675404288738996 0.06674122500479171 0.4928683527618204
-83.06666666666666 0.0 1496.0 0.0 0.0 1.0
