ply
format ascii 1.0
comment VCGLIB generated
element vertex 520
property float x
property float y
property float z
property float nx
property float ny
property float nz
element face 0
property list uchar int vertex_indices
end_header
-17.34613333333333 -125.75166666666667 1985.8466666666666 0.5734551632089776 0.8192040487916256 0.007341813970156886
-27.747600000000002 -92.98513333333334 1734.5 -0.9435961755335593 0.3145479181528866 0.10337245621598168
-27.59153333333333 -90.71293333333334 1729.4800000000002 -1.7119674005548257e-25 5.790501992861326e-26 1.0
-28.959533333333336 -85.96956666666665 1714.62 0.7383425298050738 -0.4927935052342595 -0.4604398656502011
-28.646033333333335 -79.7688 1709.72 -0.9845120440478077 0.10931621966767113 0.1370620269891599
-29.17226666666667 -61.878233333333334 1687.22 -0.9767689165293906 1.9047484556080242e-14 0.214295318898945
-29.17226666666667 -61.878233333333334 1687.22 -0.9767689165293899 1.2180572178062137e-14 0.21429531889894815
-7.794861666666666 -77.02563333333333 2301.54 0.0 0.0 1.0
-42.9862 -36.456700000000005 1243.2733333333333 -0.9937528389703303 -0.11040963615729946 -0.016279044260067686
-25.1031 -59.83033333333333 1877.8266666666666 -0.950830416846289 0.190158500536019 0.24446116884651736
-7.3846099999999995 -53.64103333333333 2301.54 0.0 0.0 1.0
-10.461516666666666 -38.871766666666666 2301.54 0.0 0.0 1.0
-10.461516666666666 -33.948699999999995 2301.54 0.0 0.0 1.0
-26.350133333333332 -16.5381 1775.67 0.0 0.0 1.0
-28.1585 -4.244506666666667 1731.1499999999999 0.8890167474375068 -0.44447953637859366 -0.10994164141173512
-27.34823333333333 16.265366666666665 1763.46 0.8896405148342421 -0.44484381906008014 -0.10321691241994897
-27.437366666666666 37.53373333333334 1729.4800000000002 1.470124675766097e-27 -8.400225962318483e-28 1.0
-29.53346666666667 39.80876666666666 1721.1933333333334 0.6141866625121689 -0.36850131088913585 0.6978406175231933
-27.917900000000003 50.283500000000004 1754.84 0.0 0.0 1.0
-30.860766666666667 66.50779999999999 1701.6133333333335 -0.0399362709388841 -0.47928797241636795 0.8767486149179268
-27.986866666666668 72.6221 1706.4633333333331 0.48381559769547966 -0.8708765668240929 -0.08658217358813992
-27.233333333333334 74.66329999999999 1736.17 -0.9272807262769057 -0.20607719439719563 0.3125422285464078
-28.3721 98.2172 1739.53 0.0 0.0 1.0
-27.28503333333333 106.435 1734.49 0.0 0.0 1.0
-28.918566666666667 114.71466666666667 1646.9733333333334 0.9159730499773573 -0.30529664360860587 0.26036000291230915
-39.84506666666667 -101.08556666666668 1408.0033333333333 -0.2028546019332277 0.8767089931292227 0.43615519238094175
-29.5797 -118.88633333333333 1848.8166666666668 0.5407031654571433 0.8411803340919254 -0.007465413693949838
-40.3631 -82.57726666666666 1343.7533333333333 0.9960189592244296 -0.0005738430444655778 0.08913979789995262
-21.128200000000003 -151.89766666666665 2301.54 0.0 0.0 1.0
-29.353066666666667 -82.5082 1706.4633333333334 -0.9876083911520679 0.08229317648436266 0.13363195287856064
-30.339266666666663 -77.0566 1693.5866666666668 -0.9810594418890677 0.15093094107096322 0.12141755436403795
-7.794861666666666 -77.02563333333333 2301.54 0.0 0.0 1.0
-11.487166666666667 -42.76919999999999 2301.54 0.0 0.0 1.0
-26.350133333333332 -16.5381 1775.67 0.0 0.0 1.0
-29.629633333333334 -13.801166666666667 1749.71 0.0 0.0 1.0
-27.90216666666667 -4.715446666666667 1734.5 -0.8609655253457104 0.4919349450737795 0.12937686803073767
-30.348966666666666 -0.07995833333333331 1724.506666666667 -0.6900655586700305 0.4052743463524041 0.5996350797994144
-31.24536666666667 11.95789 1731.1499999999999 0.7525344607050896 0.6020301723600273 0.2669298728495104
-34.01286666666667 27.695166666666665 1648.4800000000002 1.2877713553317618e-28 1.6652146032693898e-28 1.0
-28.075333333333333 29.238566666666667 1749.72 0.8875486692990368 -0.0001094065147657195 0.4607139542663361
-28.2353 33.01963333333333 1760.0 0.0 0.0 1.0
-27.437366666666666 37.53373333333334 1729.4800000000002 1.470124675766097e-27 -8.400225962318483e-28 1.0
-29.309299999999997 49.52726666666666 1744.6166666666668 -0.5529595222371897 -0.7728963166555413 0.31123471925142965
-29.723033333333333 81.681 1714.61 0.0 0.0 1.0
-25.7627 79.92466666666667 1690.4000000000003 -8.576205185924969e-29 -1.202071066262189e-28 1.0
-29.1473 100.38776666666666 1739.53 0.0 0.0 1.0
-40.373133333333335 -99.50263333333332 1389.4866666666667 0.4451612610334917 0.8895438896081794 -0.1026796968042989
-28.648233333333334 -121.67099999999999 1766.993333333333 -0.9198407442115115 -0.38327333365294747 0.08363346817493969
-26.3492 -121.34933333333333 1780.95 0.0 0.0 1.0
-25.868266666666667 -122.395 1791.62 0.0 0.0 1.0
-15.052640000000002 -127.17833333333333 1964.1200000000001 -0.5037477288170502 -0.8634819033897702 0.025243379925111265
-28.271266666666666 -102.7566 1742.9166666666667 -0.964358737900581 0.24106384513202006 0.10908917088769172
-28.8369 -102.87333333333333 1739.5433333333333 -0.9995704198821868 -0.00014788675931558457 0.02930791405158738
-28.626899999999996 -99.11433333333332 1736.17 0.9793490394437989 -0.150662835310022 -0.13481902312675734
-29.674733333333336 -91.24286666666667 1716.253333333333 -0.977782496772007 0.1955582055726585 0.07548759659376014
-29.353066666666667 -82.5082 1706.4633333333331 -0.9876083911520678 0.08229317648436259 0.13363195287856067
-30.572733333333332 -71.28636666666667 1685.63 0.0 0.0 1.0
-30.572733333333332 -71.28636666666667 1685.63 0.0 0.0 1.0
-30.5618 -68.2397 1680.9000000000003 1.0 0.0 0.0
-30.5618 -68.2397 1680.9000000000003 1.0 0.0 0.0
-30.5618 -68.2397 1680.9000000000003 1.0 0.0 0.0
-33.91706666666666 -46.72409999999999 1595.7566666666664 -0.9917632362185738 1.7817173777759362e-15 0.12808467232757312
-33.37436666666667 -38.472433333333335 1590.0833333333333 -0.9916556173432405 1.3250240642448147e-14 0.12891523025459892
-33.37436666666667 -38.472433333333335 1590.0833333333333 -0.9916556173432401 1.1494952995649673e-14 0.1289152302546018
-11.487166666666667 -42.76919999999999 2301.54 0.0 0.0 1.0
-11.282033333333333 -38.871766666666666 2301.54 0.0 0.0 1.0
-26.19156666666667 -10.809199999999999 1770.4233333333334 -0.7601304653473584 -0.6430618375530317 0.09312974140265952
-28.239899999999995 13.766 1765.1899999999998 2.1338478814278355e-25 -8.76650695338689e-26 1.0
-28.750200000000003 16.796166666666668 1753.1299999999999 0.8300393555315708 -0.5533595703543811 -0.06948276164596154
-29.055833333333336 17.2145 1748.01 0.7049448229241132 -0.7049448229241131 -0.07813829576450751
-28.948999999999998 17.509766666666668 1746.3100000000002 -0.7049448229241134 0.7049448229241129 0.07813829576450758
-28.2353 33.01963333333333 1760.0 0.0 0.0 1.0
-27.910566666666664 61.9631 1744.61 0.0 0.0 1.0
-29.963966666666664 60.92453333333333 1732.82 0.5717016745277242 -0.8167141621356658 -0.07832734330509075
-26.97673333333334 71.08526666666667 1739.53 0.0 0.0 1.0
-28.81843333333333 77.23343333333334 1724.5 0.0 0.0 1.0
-28.81843333333333 77.23343333333334 1724.5 0.0 0.0 1.0
-29.050933333333333 81.44069999999999 1706.4633333333334 -0.8349680779482549 0.4870507199351548 0.25614430506658564
-29.1473 100.38776666666666 1739.53 0.0 0.0 1.0
-27.65873333333333 112.512 1673.0766666666666 0.7574419006913778 -0.6378790517519437 0.139255457390631
-37.9692 102.56133333333332 1446.5900000000001 -0.9672141298840775 0.25232290075779173 0.028809385723419508
-14.648633333333335 -154.15633333333332 2082.64 -0.28730385264449826 -0.9572415963158059 0.03383818166504405
-30.792533333333335 -80.98479999999999 1693.5866666666668 0.9941670032134591 -0.07648217208164208 -0.07604240313959351
-30.7342 -77.06763333333333 1690.4033333333334 -0.9982919430747638 -0.058056723172022165 -0.006527885303854124
-30.722966666666668 -72.63846666666667 1685.63 0.0 0.0 1.0
-30.722966666666668 -72.63846666666667 1685.63 0.0 0.0 1.0
-31.297866666666664 -67.89916666666666 1676.1899999999998 2.4161362286920807e-26 -4.02749110737954e-27 1.0
-31.297866666666664 -67.89916666666666 1676.1899999999998 2.416136228691927e-26 -4.027491107379209e-27 1.0
-25.1031 -59.83033333333333 1877.8266666666666 -0.9508304168462888 0.1901585005360195 0.24446116884651722
-34.40716666666666 -44.9557 1588.6766666666665 0.9483265477501768 -0.31610057349936604 0.027517017745457985
-43.69166666666666 -29.127799999999997 1238.1200000000001 -0.9954049853805981 -0.09571496766316435 -0.002749553543876249
-27.6699 -23.071466666666666 1779.1899999999998 -0.4202437393866407 -0.8405316081169129 0.3419090745545219
-29.629633333333334 -13.801166666666667 1749.71 0.0 0.0 1.0
-28.087566666666664 12.407556666666665 1708.0866666666668 0.797834734298687 -0.5983764143195321 0.07352144947322038
-28.705866666666665 14.666633333333332 1760.0 0.0 0.0 1.0
-31.8924 16.829966666666667 1724.5 0.0 0.0 1.0
-28.2353 33.01963333333333 1760.0 0.0 0.0 1.0
-27.9179 42.150533333333335 1754.84 0.0 0.0 1.0
-29.620966666666664 62.429566666666666 1744.61 0.0 0.0 1.0
-30.488166666666668 70.37113333333333 1714.62 0.00019122503801301155 0.9895736118185898 0.14402788002777825
-29.057166666666664 71.4575 1711.3433333333332 0.4912972694709003 -0.859756787874267 -0.1394462574419271
-29.923000000000002 78.70389999999999 1712.9766666666667 -0.8938330065100276 0.4469408729863658 -0.036144329118547314
-29.723033333333333 81.681 1714.61 0.0 0.0 1.0
-30.048033333333333 86.60903333333333 1724.5 0.0 0.0 1.0
-35.85706666666667 96.50293333333333 1523.9433333333334 -0.9911283431007344 -4.196161675585057e-16 0.13290826724622004
-29.83086666666667 114.597 1640.9633333333334 -0.6058924038818154 -0.4846863574819817 0.6308514324222174
-32.06166666666667 122.62066666666665 1729.4800000000002 8.948493063875684e-29 6.231406404255586e-28 1.0
-16.079833333333337 -153.54966666666667 2097.2033333333334 3.507051505372946e-16 -0.9741243384574017 0.22601277226061683
-38.1857 -100.5939 1404.7 0.7067633702002633 0.7068304879442204 0.029600673230537965
-30.8971 -84.0793 1695.18 0.0 0.0 1.0
-30.8971 -84.0793 1695.18 0.0 0.0 1.0
-31.297866666666664 -67.89916666666666 1676.1899999999998 2.4161362286920887e-26 -4.027491107379556e-27 1.0
-33.5268 -51.2911 1604.36 -0.9623129179682247 0.22916674984903895 0.14641191438919368
-33.7391 -39.25560000000001 1587.2766666666666 -0.9916626512873761 3.4697251239092285e-05 0.12886110676923757
-43.69166666666666 -29.127799999999997 1238.1200000000001 -0.9954049853805977 -0.09571496766316603 -0.0027495535438779267
-30.464866666666666 -22.7102 1775.67 0.0 0.0 1.0
-31.225066666666667 -3.1149099999999996 1704.84 0.0 0.0 1.0
-26.351066666666668 -0.23668633333333333 1770.41 0.0 0.0 1.0
-30.921166666666668 0.68376 1704.84 0.0 0.0 1.0
-28.078433333333333 6.196076666666667 1760.0 0.0 0.0 1.0
-27.4556 3.8658796666666664 1770.41 0.0 0.0 1.0
-29.218033333333334 16.328333333333333 1753.1299999999999 -0.8233767884305135 0.5489178589536765 0.14401336186467215
-29.416833333333333 17.041933333333333 1746.3100000000002 0.7049448229241135 -0.7049448229241126 -0.07813829576450729
-35.992866666666664 27.0303 1634.9800000000002 0.6134075445152225 0.78595873241262 0.07746002372936059
-29.655833333333334 27.610633333333336 1765.1899999999998 -6.215774025246948e-27 3.626045867223594e-27 1.0
-32.34196666666667 28.5489 1736.17 0.1412332570723348 -0.9885718968512919 -0.05271405744750459
-35.1111 29.85183333333333 1662.22 0.0 0.0 1.0
-31.606133333333332 36.673766666666666 1696.7866666666669 -0.923315348336364 0.3693179911163179 0.10532325936993432
-29.785600000000002 52.94350000000001 1749.71 0.0 0.0 1.0
-29.7856 54.19106666666667 1749.71 0.0 0.0 1.0
-29.785600000000002 54.191066666666664 1749.71 0.0 0.0 1.0
-30.23183333333333 55.581266666666664 1739.5433333333333 -0.7054355915282572 0.7060135802147031 0.062493605733666045
-31.203766666666667 62.63743333333334 1716.253333333333 -0.8136924414728884 -0.5812125089082341 -0.009830065029588787
-31.203766666666667 62.63743333333334 1716.2533333333333 -0.8136924414728883 -0.5812125089082342 -0.00983006502958886
-29.209566666666664 76.18916666666667 1711.3433333333332 -0.7143129891116102 -0.6349525955275456 0.2942654499245018
-36.60416666666667 85.34916666666668 1540.96 0.8183110479931515 -0.5691590739435434 -0.0801559559863047
-36.177033333333334 88.53160000000001 1531.74 -0.9472033670495551 0.2029686071305196 0.2482126627903626
-36.14033333333334 91.61376666666666 1533.05 0.9780508010625538 0.15443237577746785 0.13988306492432703
-36.14033333333333 94.48556666666667 1533.05 0.41178717959673405 -0.6177058630684474 0.6699781977427561
-35.85706666666667 96.50293333333333 1523.9433333333334 -0.9911283431007344 -4.196161675585057e-16 0.13290826724622004
-35.85706666666667 96.50293333333333 1523.9433333333334 -0.9911283431007343 -3.3176715302921275e-16 0.13290826724622012
-38.1521 101.89753333333333 1453.6066666666666 0.777980370306921 -0.5835353666028618 0.23287983884563596
-39.5437 101.26029999999999 1440.7833333333335 -0.44785213502953897 -0.6233384939603918 0.640997337823391
-41.1458 -82.7068 1349.8 0.7045196412622502 0.7045196412622505 0.08546432092645588
-31.2975 -97.17736666666667 1712.9766666666667 -0.9641353631008619 0.19281024799120405 0.18239300942727962
-32.0448 -72.53033333333333 1676.1899999999998 -4.2785107825716383e-26 6.2733234840941464e-27 1.0
-26.38716666666667 -61.54363333333333 1873.9066666666665 -0.9579275588143611 0.1915778723302198 0.2137117472142909
-34.64983333333333 -46.2705 1590.0833333333333 -0.9917574557188656 -5.688174589351278e-17 0.1281294229521146
-34.225433333333335 -44.99726666666666 1590.0833333333333 0.9854439322336394 -2.851601334064979e-16 0.17000075418627594
-31.1786 -6.312956666666666 1706.4633333333334 -0.9823783176701144 0.16373301211128938 0.09013513031332537
-30.921166666666668 0.68376 1704.84 0.0 0.0 1.0
-29.389766666666663 12.181400000000002 1763.46 -0.9066093645814455 0.3399725089546238 0.2499563025977264
-29.268333333333334 16.4676 1751.42 -0.699979947423973 0.699979947423973 0.14161972464548875
-32.36193333333333 24.766833333333334 1639.4833333333336 -0.5135613944679936 0.8559183486015016 0.06048532581848375
-29.655833333333334 27.610633333333336 1765.1899999999998 -6.215774025246948e-27 3.626045867223594e-27 1.0
-31.606133333333332 36.673766666666666 1696.7866666666669 -0.9233153483363641 0.3693179911163177 0.10532325936993447
-32.0916 43.98886666666667 1722.8466666666666 -0.6887755610007056 0.43048472562544055 0.5833276331285467
-30.847066666666667 47.52236666666666 1739.5433333333333 -0.6934448665204569 0.6945865141128414 0.1915301321176312
-31.020433333333333 56.05443333333333 1744.61 0.0 0.0 1.0
-27.915533333333332 75.0591 1679.33 0.7310548006468428 -0.6823113075753541 0.0031871626904894025
-30.6977 76.97673333333333 1739.53 0.0 0.0 1.0
-29.1473 100.38776666666666 1739.53 0.0 0.0 1.0
-36.23973333333334 97.74266666666666 1520.08 -0.996702285193503 4.963468067724054e-15 0.08114526905525002
-39.1378 96.57746666666667 1483.7099999999998 -0.9431954666941758 0.3144564231648479 0.10723557962694166
-27.989833333333333 -119.95733333333334 1852.6433333333334 0.5546304965428077 0.8319726622942563 0.014370160043863605
-31.204666666666668 -99.35226666666667 1716.253333333333 0.972333099939266 -0.19444965230440642 -0.12945144063004063
-31.449866666666665 -98.24403333333333 1712.9766666666667 -0.9698890886262315 0.19396089269098082 0.1472899449056045
-31.496166666666667 -96.93046666666667 1711.3433333333332 -0.9762306855388208 0.13944845198743597 0.16591497174972422
-31.864566666666672 -90.90306666666667 1698.3933333333334 0.9515225191848254 -0.2718678490762852 -0.1438498109932639
-33.213699999999996 -87.7962 1682.4766666666667 -0.9565421363107889 0.21257280188132327 0.19959946232972695
-32.5368 -75.14743333333332 1674.63 -0.9700272772664639 0.2425203467790642 0.015197458905135849
-27.389766666666663 -71.23276666666668 1873.9066666666665 -0.6794281205197841 0.6794281205197743 0.2770466713279929
-34.40716666666666 -45.66493333333333 1588.6766666666665 -0.9405383880792316 0.3135045882405637 0.13077619699867102
-35.6878 -41.0178 1573.36 -0.9804273633318074 -0.19611341568450463 -0.017369899792380114
-14.407336666666668 -42.42333333333333 1932.4333333333332 0.6949089030135709 0.7094842902884015 -0.11719069223465987
-30.599833333333336 -21.632266666666666 1765.1899999999998 -2.8535244324911553e-27 -1.0728123339889864e-28 1.0
-30.28516666666667 -19.4297 1765.1899999999998 -1.649780521797669e-27 -1.4504079989177781e-28 1.0
-31.1786 -6.312956666666666 1706.4633333333334 -0.9823783176701144 0.16373301211128946 0.09013513031332547
-32.764266666666664 -0.674367 1682.4766666666667 -0.9422534399707201 0.31405862291626035 0.11629976885311044
-29.6383 50.752700000000004 1754.84 0.0 0.0 1.0
-29.7856 54.19106666666667 1749.71 0.0 0.0 1.0
-32.0773 56.038666666666664 1734.49 0.0 0.0 1.0
-31.603133333333336 62.52053333333333 1712.9766666666665 -0.7893508730364945 -0.5638255659546182 0.2429525270757194
-29.0134 69.89429999999999 1717.8966666666665 -1.4261172817917596e-16 0.9895804601804677 0.14398094606236336
-30.6977 76.97673333333333 1739.53 0.0 0.0 1.0
-29.612400000000004 83.95346666666667 1739.53 0.0 0.0 1.0
-37.8242 96.60230000000001 1502.2633333333333 -0.8296091378362255 0.5531415487015846 0.07604673246528923
-14.974350000000001 169.94866666666667 2301.54 0.0 0.0 1.0
-40.373133333333335 -99.50263333333332 1389.4866666666667 0.4451612610334911 0.8895438896081798 -0.10267969680429906
-40.899766666666665 -98.618 1392.7133333333331 -0.9996058926806692 -2.6571945255933532e-15 0.028072394234943697
-40.899766666666665 -98.618 1392.7133333333331 -0.9996058926806692 -2.684950101208982e-15 0.028072394234943808
-27.2217 -120.08733333333333 1885.72 -0.4841779635085399 -0.8717506210994436 -0.07498369333033161
-27.235699999999998 -120.46966666666667 1915.9066666666668 -0.5998813595110357 -0.8000888379486287 -0.00045376337941889017
-41.1458 -82.7068 1349.8 0.7045196412622502 0.7045196412622505 0.08546432092645588
-32.04516666666667 -97.50603333333333 1708.0866666666668 -0.9834277275431894 0.14047650445624757 0.11461350878056359
-33.370599999999996 -78.43576666666667 1671.51 0.0 0.0 1.0
-29.00733333333333 -81.3375 1875.86 0.0 0.0 1.0
-27.55643333333333 -72.23276666666668 1873.9066666666665 -0.707043932467476 0.7070439324674693 -0.013332483709495998
-27.165300000000002 -62.41916666666666 1870.01 -0.6891361362301754 0.6905524251639652 0.21961041378293442
-27.7752 -64.28116666666666 1866.1133333333335 -0.9969942403025869 0.06230667068335315 0.04604740591851103
-28.7011 -59.79616666666667 1850.7233333333334 -0.9552674913438902 0.26052909137202346 0.13995932455688087
-35.6878 -41.0178 1573.36 -0.9804273633318067 -0.19611341568450524 -0.017369899792380388
-36.044933333333326 -40.524366666666666 1570.61 -0.9842607487580592 0.16427881269265487 0.06514023452917876
-36.083600000000004 -37.132933333333334 1569.2300000000002 -0.9916556173432375 -1.7361263281621676e-18 0.1289152302546228
-14.769233333333332 -42.15383333333333 2301.54 0.0 0.0 1.0
-30.365966666666665 -30.523300000000003 1779.1899999999998 -0.9790580986412849 9.282051231043192e-16 0.20358103910952047
-30.999 -29.732 1779.1899999999998 -0.8696687157099295 4.5834382820857584e-17 0.49363582215580926
-33.25843333333333 -1.4232196666666665 1680.9000000000003 -6.034273008075462e-25 2.381798424788019e-25 1.0
-31.638433333333335 10.621463333333333 1690.4000000000003 1.482390265135425e-26 -1.25178028646416e-26 1.0
-29.59753333333333 12.167266666666668 1761.7300000000002 -0.8028951835213947 0.5352539769584987 0.2624166618724061
-31.875533333333333 13.69443333333333 1736.17 -0.9304777065729625 0.31018152828903933 0.19493244234604906
-29.655833333333334 27.61063333333333 1765.1899999999998 3.1080751446987767e-27 -2.5901671494743264e-27 1.0
-30.738366666666668 29.9545 1754.8500000000001 0.8875498213073545 6.129267906216136e-05 0.4607117438708182
-34.01286666666667 27.695166666666665 1648.4800000000002 1.2877713553317618e-28 1.6652146032693895e-28 1.0
-31.606133333333332 36.673766666666666 1696.7866666666669 -0.923315348336364 0.3693179911163179 0.10532325936993432
-31.020433333333333 56.05443333333333 1744.61 0.0 0.0 1.0
-31.551866666666665 55.00523333333333 1731.1499999999999 -0.7057205883361087 0.7057205883361061 0.0625851611572331
-29.620966666666664 62.429566666666666 1744.61 0.0 0.0 1.0
-31.00776666666667 77.5969 1739.53 0.0 0.0 1.0
-31.00776666666667 77.5969 1739.53 0.0 0.0 1.0
-31.1628 78.99226666666667 1739.53 0.0 0.0 1.0
-37.89406666666667 82.48563333333334 1548.9233333333334 -0.9026811676835865 0.41030062286696867 0.1296923605474671
-36.758833333333335 86.54873333333335 1530.4399999999998 -0.8297652736216553 0.5524867931532486 0.07904387441680187
-30.2222 105.198 1734.49 0.0 0.0 1.0
-30.2222 105.198 1734.49 0.0 0.0 1.0
-36.14033333333333 94.48556666666667 1533.05 0.41178717959673405 -0.6177058630684474 0.6699781977427561
-37.8242 96.60230000000001 1502.2633333333333 -0.8296091378362255 0.5531415487015846 0.07604673246528923
-32.2158 117.22533333333332 1729.4800000000002 7.201022793705276e-27 1.864145812357954e-27 1.0
-42.48636666666666 97.2924 1431.5833333333333 -0.8209871746505154 0.556226013455335 -0.12881258096533116
-34.22306666666666 -117.24399999999999 1741.2366666666667 0.6548063331401891 0.7482999643839836 0.10618770824548722
-32.59146666666667 -98.68913333333334 1704.8500000000001 -0.08241789928668922 -0.9955428788231486 0.045843934186398747
-32.575766666666674 -95.07573333333335 1700.0 0.0 0.0 1.0
-33.213699999999996 -87.7962 1682.4766666666667 -0.9565421363107889 0.21257280188132394 0.19959946232972625
-33.38913333333333 -82.99416666666667 1676.2 -0.9996125652689204 3.8595466103440064e-05 0.027833754092434267
-33.370599999999996 -78.43576666666667 1671.51 0.0 0.0 1.0
-33.370599999999996 -78.43576666666667 1671.51 0.0 0.0 1.0
-33.98863333333333 -76.66089999999998 1665.3066666666666 -0.9816895092367743 0.1636210367102326 0.0975390373149638
-28.833333333333332 -72.58333333333333 1870.0 0.0 0.0 1.0
-28.440299999999997 -70.76870000000001 1866.1133333333335 -0.9672381753468167 0.24181560802589175 0.07730151270724951
-28.42386666666667 -57.59073333333333 1848.8166666666668 -0.9935192294000974 1.4692911306895457e-15 0.11366415799290588
-28.42386666666667 -57.59073333333333 1848.8166666666668 -0.9935192294000974 1.5803134331520614e-15 0.11366415799290588
-35.75096666666667 -43.339166666666664 1576.1233333333332 0.9236099342708416 0.1847483105270023 0.3358760948231207
-36.2617 -39.336533333333335 1567.86 -0.9916556173432376 6.479182667998425e-17 0.12891523025462276
-36.61696666666666 -38.15346666666667 1565.1266666666668 -0.9916618153929113 4.277994087023224e-17 0.12886754398076858
-31.432266666666667 -24.2811 1763.46 -0.8625496307218626 0.43129765951662746 0.26455710808265537
-30.464866666666666 -22.7102 1775.67 0.0 0.0 1.0
-30.28516666666667 -19.4297 1765.1899999999998 -1.649780521797669e-27 -1.4504079989177781e-28 1.0
-31.718666666666667 -17.735000000000003 1753.1299999999999 -0.8889655579469072 0.44453014499849264 0.11015074657832702
-33.258433333333336 -1.4232196666666665 1680.9000000000003 3.0733110070859863e-25 -1.2133697703002357e-25 1.0
-34.651599999999995 5.800376666666668 1690.4000000000003 -2.7170480871756746e-28 3.769710191255564e-29 1.0
-32.2779 13.822133333333333 1732.82 -0.9473558717247232 0.31580798771359725 0.05274625299467495
-36.03773333333333 29.830133333333333 1677.7600000000002 0.42091630120603457 0.7716616240807799 0.4768310028721328
-31.515133333333335 49.34506666666667 1754.84 0.0 0.0 1.0
-32.9502 50.8046 1719.54 0.0 0.0 1.0
-32.0773 56.038666666666664 1734.49 0.0 0.0 1.0
-29.392066666666665 62.872299999999996 1731.1499999999999 0.18245889722881378 0.9123536748001789 0.36649627951816194
-36.531200000000005 74.68650000000001 1588.6833333333334 0.8560943359420332 -0.48919265760464026 -0.16671242219366514
-38.22866666666667 85.3759 1526.5366666666669 -0.6242455097118426 0.7802578449533428 0.03892607086988461
-26.566266666666667 97.63666666666666 1712.9766666666665 -4.129638767128022e-17 -0.710361119995967 0.7038373954245933
-31.505366666666664 104.017 1732.82 -0.9928298760504405 1.0853082390687375e-16 0.11953592439792883
-37.8242 96.60230000000001 1502.2633333333333 -0.8296091378362255 0.5531415487015846 0.07604673246528923
-32.29273333333333 -118.26133333333333 1737.8633333333335 -0.8308288183457307 -0.5539854270421747 -0.05313775711427832
-33.64326666666667 -117.14533333333333 1751.43 -0.4052330460232332 -0.8780817089974835 0.2544772892318511
-27.235699999999998 -120.46966666666667 1915.9066666666668 -0.5998813595110356 -0.8000888379486287 -0.0004537633794188587
-26.6104 -120.59933333333333 1926.1966666666667 0.9984707171818152 2.6824859530513048e-15 0.05528315231995376
-27.294166666666666 -120.08666666666666 1926.1966666666667 -0.9939544745284368 -3.617764687894206e-15 0.1097929987061978
-32.8339 -97.44193333333334 1701.6133333333335 -0.9871491452437738 0.10967251375328115 0.11622609333330577
-33.903 -79.47983333333333 1668.4033333333334 -0.9924706358043974 1.0956033158200165e-16 0.12248280314401395
-33.946133333333336 -78.06873333333334 1666.8499999999997 2.2122581474634083e-26 -2.6027596978181355e-27 1.0
-34.179300000000005 -77.0329 1663.7633333333333 -0.9848555237206919 0.1407117354935059 0.10129069498847111
-29.833333333333332 -73.75 1870.0 0.0 0.0 1.0
-36.61696666666666 -38.15346666666667 1565.1266666666668 -0.9916618153929113 4.277994087023224e-17 0.1288675439807687
-16.41026666666667 -43.79486666666667 2301.54 0.0 0.0 1.0
-33.31353333333333 -31.889233333333333 1775.67 0.0 0.0 1.0
-32.124766666666666 -18.0117 1749.71 0.0 0.0 1.0
-32.124766666666666 -18.0117 1749.71 0.0 0.0 1.0
-29.582533333333334 -10.377006666666666 1751.42 0.5631136213997494 -0.37538233286897316 0.7362004846262376
-33.258433333333336 -1.4232196666666665 1680.9000000000003 3.0733110070859863e-25 -1.2133697703002357e-25 1.0
-32.994366666666664 7.457626666666667 1690.4000000000003 -4.1970157612246345e-27 1.6145582666715805e-28 1.0
-32.56936666666667 15.014899999999999 1727.82 -0.9928579583022933 2.1756914667401962e-17 0.11930245025062017
-32.56936666666667 15.475999999999999 1727.82 -0.9928579583022933 -5.59754302239693e-17 0.11930245025062002
-32.860099999999996 15.737966666666665 1722.8466666666666 0.9978654251062505 -5.991192653919321e-17 0.06530385423175082
-34.47946666666667 19.3027 1685.6433333333334 0.7950491867154762 -0.5966633921963992 -0.1090393833243107
-31.98436666666667 47.62463333333333 1754.84 0.0 0.0 1.0
-34.023 48.812266666666666 1719.54 0.0 0.0 1.0
-31.861033333333335 54.69606666666667 1731.1499999999999 -0.7057205883361091 0.705720588336106 0.06258516115723163
-30.242966666666664 58.07583333333333 1744.61 0.0 0.0 1.0
-31.0984 65.63516666666668 1714.61 0.0 0.0 1.0
-31.31783333333333 72.3256 1739.53 0.0 0.0 1.0
-35.482699999999994 70.45986666666666 1621.6899999999998 -0.9432709207662275 0.3148701676691301 0.10534110094757546
-35.4827 70.45986666666666 1621.6899999999998 -0.9432709207662276 0.3148701676691296 0.10534110094757547
-36.51696666666666 77.6059 1578.8999999999999 -0.9996212082576007 -7.481339293567291e-05 0.027521526203519008
-36.51696666666666 77.6059 1578.8999999999999 -0.9996212082576008 -7.481339293564622e-05 0.027521526203519015
-36.948366666666665 78.03583333333334 1573.3733333333332 -0.9781424867121299 0.1774876667155555 0.10833006901354195
-31.802399999999995 90.9393 1727.83 0.8773603875997326 0.47856021141803473 -0.03491238058873457
-39.362233333333336 87.37593333333332 1504.78 -0.9006353662456132 0.24016146544442107 0.3621855982548427
-32.9865 119.22933333333333 1729.4800000000002 1.2072565461250182e-27 2.1137601771330073e-27 1.0
-34.007466666666666 -89.96256666666666 1680.9000000000003 2.0746603557261548e-24 -4.468505787054331e-25 1.0
-33.77413333333333 -82.982 1673.07 -0.9853047293310465 0.13136612525188252 0.10916744704434264
-34.32786666666667 -78.66706666666666 1663.7633333333333 -0.9780746929491559 0.13974292083697043 0.15440793725831065
-29.833333333333332 -77.08333333333333 1870.0 0.0 0.0 1.0
-29.65733333333333 -73.0218 1864.17 0.0 0.0 1.0
-28.7011 -59.79616666666667 1850.7233333333334 -0.9552674913438902 0.26052909137202346 0.13995932455688087
-29.933400000000002 -57.17733333333334 1835.6266666666668 -0.31695137969814163 0.9481257158126348 0.02448366643750751
-36.566399999999994 -44.761799999999994 1571.9799999999998 -0.9173129470534113 -9.340008678145705e-15 0.398166996583325
-36.566399999999994 -44.761799999999994 1571.9799999999998 -0.9173129470534113 -9.340008678145705e-15 0.398166996583325
-17.2308 -46.461533333333335 2301.54 0.0 0.0 1.0
-32.03053333333333 -18.514733333333336 1753.1299999999999 -0.8922244854655252 0.44615978240057264 0.06983492037693034
-35.43176666666667 -0.9656466666666667 1666.8499999999997 -1.4455978104509908e-27 -2.859235721633908e-28 1.0
-32.2779 13.822133333333333 1732.82 -0.9473558717247232 0.31580798771359725 0.05274625299467492
-32.76883333333333 14.845433333333332 1726.1599999999999 -0.9928579583022934 9.865228654664695e-17 0.11930245025062007
-32.76883333333333 15.616166666666667 1726.1599999999999 -0.9928579583022934 1.895688757116933e-16 0.11930245025062018
-32.814600000000006 40.96059999999999 1724.5 0.0 0.0 1.0
-32.408566666666665 66.855 1695.1933333333334 0.831805543637829 -0.5545172604539791 0.024701122079562324
-35.890899999999995 70.70303333333334 1617.3066666666666 -0.2549841654285264 0.9668925100329283 -0.010097000690369782
-36.51836666666667 73.24916666666667 1594.3266666666666 -0.8649003319481967 0.4942246130892785 0.08768949545214569
-37.769933333333334 79.23246666666667 1563.7633333333333 -0.41828682483773494 0.8364735331544428 0.354045421520021
-38.8949 92.45326666666666 1502.2633333333333 -0.9789516319302826 0.1506050615319152 0.13773822193568577
-40.09856666666667 97.7452 1453.6066666666666 -0.6995718571553227 0.5247239335474841 0.48504021507366585
-32.9865 119.22933333333333 1729.4800000000002 1.2072565461250177e-27 2.113760177133007e-27 1.0
-15.892256666666668 -135.84766666666667 2014.8100000000002 -1.2706011418397082e-29 1.981955692981243e-29 1.0
-39.84506666666667 -101.08556666666665 1408.0033333333333 -0.20285460193322707 0.8767089931292226 0.43615519238094225
-32.29273333333333 -118.26133333333333 1737.8633333333335 -0.8308288183457307 -0.5539854270421749 -0.05313775711427843
-27.235699999999998 -120.46966666666667 1915.9066666666668 -0.5998813595110356 -0.8000888379486287 -0.0004537633794188587
-34.7981 -92.12266666666666 1679.33 -0.9605560180975949 0.19209410579078795 0.20107707630888835
-35.381766666666664 -80.73623333333335 1657.6266666666668 -0.6742109915447132 -0.6704515722582709 0.30973251062280654
-38.614900000000006 -40.89503333333334 1552.9466666666667 -0.915858736856696 -1.0592340033647049e-15 0.40150065270589186
-37.67443333333333 -37.53443333333333 1556.993333333333 -0.9916493635518843 4.1342754732364496e-16 0.12896332721802192
-18.051299999999998 -49.94873333333334 2301.54 0.0 0.0 1.0
-32.720866666666666 -23.2513 1756.5600000000002 0.9881080472549252 -0.08234087483740532 0.1298555631502541
-30.464866666666666 -22.7102 1775.67 0.0 0.0 1.0
-32.124766666666666 -18.0117 1749.71 0.0 0.0 1.0
-33.547866666666664 -12.069216666666668 1703.2266666666667 -0.9016549008945864 0.3506444883109431 0.2531143664629302
-34.8629 22.865633333333335 1682.4766666666667 -0.950158345129612 -0.21115151891543998 0.22937775663795285
-34.28546666666667 23.677233333333334 1676.2 -0.9862979769674743 0.15573448492968667 0.054434096240799465
-32.34196666666667 28.5489 1736.17 0.14123325707233508 -0.9885718968512917 -0.052714057447504264
-31.485133333333334 50.422266666666665 1706.4633333333334 -0.4731134365140479 -0.6881667141062489 0.550082039141505
-33.110533333333336 55.494466666666675 1708.0866666666668 0.916322809268444 -0.32725610080388806 0.23077251504679253
-32.7754 68.61596666666667 1660.6966666666667 -0.7810215107633945 -4.955912429941781e-14 0.6245041230647439
-32.7754 68.61596666666667 1660.6966666666667 -0.7810215107634595 6.84746449753624e-14 0.6245041230646627
-31.938 74.80619999999999 1739.53 0.0 0.0 1.0
-36.258633333333336 70.4319 1614.3933333333334 -0.9921343850420373 -1.7252756378646564e-15 0.12517732229624726
-36.258633333333336 70.4319 1614.3933333333334 -0.9921343850420373 -1.7252756378646564e-15 0.12517732229624726
-33.35276666666667 83.4208 1744.61 0.0 0.0 1.0
-37.769933333333334 79.23246666666667 1563.7633333333335 -0.4182868248377349 0.8364735331544427 0.3540454215200211
-34.9291 93.94 1737.8500000000001 0.5095786825902511 -0.8153127451195691 0.27494489246970344
-39.36456666666667 90.8268 1499.756666666667 -5.501880780599551e-05 0.9989387094285799 0.04605922033744823
-38.997800000000005 92.88973333333333 1498.5 -0.9655387614839324 0.25747700306238197 0.03795382676474897
-41.8673 97.29723333333334 1470.2699999999998 -1.3080190978018683e-27 1.1970187209638515e-27 1.0
-37.79063333333334 120.91000000000001 1709.72 0.2687942378843724 0.8781227606062977 0.3957904432718587
-41.19433333333333 -99.34166666666665 1382.0233333333333 -0.5547399371952448 -0.8317830442504396 0.020014229390290475
-36.5177 -115.52166666666666 1717.8966666666665 0.5124087969287733 0.832699124318455 0.2098794730060213
-30.010466666666662 -84.5141 1875.86 0.0 0.0 1.0
-29.00733333333333 -81.33749999999999 1875.86 0.0 0.0 1.0
-29.833333333333332 -73.75 1870.0 0.0 0.0 1.0
-31.280366666666666 -59.0593 1828.1200000000001 -0.9592724546101898 0.26161976034823314 0.10654322513174923
-35.43176666666667 -0.9656466666666667 1666.8499999999997 -1.4411302546359385e-27 -2.8294510879441423e-28 1.0
-36.94493333333333 10.205736666666667 1671.5166666666664 -0.7712006275039605 -0.6170597362682441 0.1564828233834719
-32.015766666666664 24.936066666666665 1765.1899999999998 8.703197070455215e-28 -8.159207636440253e-28 1.0
-32.015766666666664 24.936066666666665 1765.1899999999998 8.703197070455211e-28 -8.15920763644025e-28 1.0
-34.06333333333333 27.546733333333332 1741.2233333333334 -0.8901163501780658 0.4450581750890319 0.09806173531046454
-31.98436666666667 47.62463333333333 1754.84 0.0 0.0 1.0
-32.9502 50.8046 1719.54 0.0 0.0 1.0
-32.0773 56.038666666666664 1734.49 0.0 0.0 1.0
-32.51156666666666 63.89316666666667 1696.8 0.08287734245295432 0.9946375184684015 0.06186722042370828
-36.51836666666667 73.24916666666667 1594.3266666666666 -0.864900331948197 0.4942246130892782 0.0876894954521455
-34.13023333333334 85.75316666666667 1744.61 0.0 0.0 1.0
-37.769933333333334 79.23246666666667 1563.7633333333333 -0.41828682483773494 0.8364735331544428 0.354045421520021
-37.8225 81.9344 1551.6033333333335 0.906853214246956 -0.412196966077466 -0.087811781478893
-38.549033333333334 80.75850000000001 1550.2666666666667 -0.9996440872012866 -8.224613075956561e-05 0.026677559091502538
-39.207566666666665 80.41343333333334 1546.25 0.0 0.0 1.0
-40.4433 80.682 1530.43 0.0 0.0 1.0
-40.47123333333334 83.30716666666667 1513.6633333333332 -0.6737028631873636 0.673619710525907 -0.3039094235527114
-35.32366666666667 112.77266666666667 1734.49 0.0 0.0 1.0
-34.6799 119.04433333333334 1717.8966666666665 0.987471860427307 3.731607542783869e-15 0.15779519911655543
-32.9865 119.22933333333333 1729.4800000000002 1.2072565461250179e-27 2.1137601771330073e-27 1.0
-44.079033333333335 98.149 1409.1166666666668 -0.7614760183242374 0.6425455225957504 0.08537871461447634
-35.779666666666664 -95.23810000000002 1676.1899999999998 4.424915822953869e-26 -5.362459995851458e-27 1.0
-35.779666666666664 -95.23809999999999 1676.1899999999998 1.2071705880997729e-26 -4.487289053670543e-31 1.0
-36.09433333333333 -82.4277 1653.0466666666664 -0.9120198126594828 -0.305107900089289 0.274096754120997
-31.013566666666662 -89.52979999999998 1875.86 0.0 0.0 1.0
-31.0 -82.25 1870.0 0.0 0.0 1.0
-30.0 -79.75 1870.0 0.0 0.0 1.0
-38.856233333333336 -44.121766666666666 1554.2933333333333 -0.9759726611179267 0.16719728429152844 0.13972269993072184
-18.051299999999998 -49.94873333333334 2301.54 0.0 0.0 1.0
-33.17456666666667 -40.238099999999996 1780.95 0.0 0.0 1.0
-33.31353333333333 -31.889233333333333 1775.67 0.0 0.0 1.0
-32.3121 -25.019266666666667 1760.0100000000002 -0.7040206324139797 0.7040488812467813 0.0931134896273128
-35.06733333333333 -15.8679 1703.2266666666667 0.880510988445399 -0.3773539680651477 -0.2868874030214541
-35.370900000000006 -11.157266666666667 1775.67 0.0 0.0 1.0
-37.370466666666665 -10.73565 1684.0533333333333 -0.6367624136371601 0.10612510671212659 0.7637218671115276
-36.4306 -8.69807 1668.403333333333 -0.706355947940772 0.70638764583828 -0.04558254727136146
-33.012033333333335 -0.9992616666666668 1722.8466666666666 -0.6646293854257264 0.5538638270851677 0.5015003899053248
-36.174533333333336 4.531106666666666 1666.8499999999997 -2.5336231109986824e-26 -3.750329774967314e-28 1.0
-36.255833333333335 7.3409699999999996 1663.7633333333333 0.9954919040216057 -0.08294925921602665 0.04599227568788879
-36.26786666666666 15.004 1691.9933333333336 0.913410962172065 -0.4059579326689807 -0.029640699840415938
-31.7024 27.496866666666666 1748.01 -0.4631048093461932 0.7939020397183119 0.3940221908617963
-34.06333333333333 27.546733333333332 1741.2233333333334 -0.8901163501780658 0.4450581750890317 0.09806173531046458
-36.078466666666664 32.2353 1760.0 0.0 0.0 1.0
-33.11136666666667 43.8726 1736.17 -0.8126516183853091 0.09560182849689522 0.5748544489901667
-34.2857 82.02136666666667 1744.61 0.0 0.0 1.0
-40.64463333333333 69.27903333333333 1522.6500000000003 -1.9669337681867303e-26 5.3721521894570585e-27 1.0
-34.9291 93.94 1737.8500000000001 0.5095786825902511 -0.8153127451195691 0.27494489246970344
-34.6821 124.93266666666666 1729.4800000000002 -3.778024234484758e-27 2.260943234179252e-26 1.0
-30.294366666666665 -118.476 1852.6433333333334 -0.581243615710156 -0.8136129612530831 0.01377709973737002
-35.779666666666664 -95.23810000000002 1676.1899999999998 4.424915822953888e-26 -5.3624599958514765e-27 1.0
-36.49903333333333 -96.0149 1671.51 0.0 0.0 1.0
-37.05806666666667 -84.62993333333334 1650.0 -0.9149576046896076 0.3921204513778015 -0.09536316496386288
-31.013566666666662 -89.52979999999998 1875.86 0.0 0.0 1.0
-29.833333333333332 -73.75 1870.0 0.0 0.0 1.0
-33.65076666666667 -41.34923333333333 1780.95 0.0 0.0 1.0
-33.65076666666667 -41.34923333333333 1780.95 0.0 0.0 1.0
-35.48506666666666 -31.673033333333336 1746.3099999999997 -0.9153511069393389 0.1926957119854921 0.3535543997849999
-36.80883333333333 -8.683586666666667 1665.3066666666666 -0.6897186738502571 0.6897496251459826 0.2203034397217149
-37.4211 -4.349916666666666 1653.0466666666664 -0.9513007215836795 0.25022064954533335 0.1800460042752467
-35.5803 1.4113266666666666 1666.8499999999997 -2.2289211995912925e-27 -6.451923550626862e-28 1.0
-36.21496666666666 3.190136666666666 1665.3066666666666 -0.9713121647860583 0.1942702787391644 0.13715588699442974
-36.066833333333335 7.19633 1665.3066666666666 0.9903310419611365 0.09903688168543014 0.09713971069647748
-34.19606666666667 22.352933333333336 1760.0 0.0 0.0 1.0
-35.19656666666667 35.0425 1698.3933333333334 0.710527357203081 0.32297731549023206 0.6251691997729323
-34.9664 40.6532 1724.5 0.0 0.0 1.0
-33.684200000000004 52.6316 1749.71 0.0 0.0 1.0
-35.68513333333333 66.00580000000001 1744.61 0.0 0.0 1.0
-40.64463333333333 69.27903333333333 1522.6500000000003 -1.9669337681867e-26 5.372152189456979e-27 1.0
-39.207566666666665 80.41343333333333 1546.25 0.0 0.0 1.0
-39.207566666666665 80.41343333333333 1546.25 0.0 0.0 1.0
-39.31886666666667 84.68006666666666 1521.3733333333337 -0.5999393236304017 0.7999302254327564 0.013580957293051497
-40.47123333333334 83.30716666666667 1513.6633333333332 -0.6737028631873625 0.6736197105259077 -0.3039094235527127
-40.434266666666666 84.15983333333332 1504.78 -0.8818362425016497 0.39194075939495976 0.262197029989803
-34.57363333333333 103.95333333333333 1739.53 0.0 0.0 1.0
-34.88373333333333 104.26366666666667 1739.53 0.0 0.0 1.0
-40.09856666666667 97.7452 1453.6066666666668 -0.6995718571553233 0.5247239335474841 0.48504021507366524
-34.6799 119.04433333333334 1717.8966666666665 0.9874718604273071 4.025210606334619e-15 0.15779519911655523
-34.6799 119.04433333333334 1717.8966666666665 0.9874718604273071 3.970394906553827e-15 0.15779519911655523
-36.95093333333333 117.03033333333333 1688.8100000000002 -0.9653609563574057 0.24132244113661644 0.09920535945491668
-34.6821 124.93266666666666 1729.4800000000002 -3.778024234484758e-27 2.2609432341792518e-26 1.0
-36.5177 -115.52166666666666 1717.8966666666665 0.5124087969287733 0.832699124318455 0.20987947300602136
-34.8614 -115.916 1815.1666666666667 -0.44716721015037936 -0.8944266577616005 -0.006514602961016077
-33.3657 -116.41733333333333 1848.8166666666668 -0.5546831639193989 -0.832006025556318 0.009620868066078939
-36.49903333333334 -96.0149 1671.51 0.0 0.0 1.0
-36.49903333333334 -96.0149 1671.51 0.0 0.0 1.0
-37.93163333333334 -92.17476666666668 1656.1000000000001 -0.9857936796308766 -2.5974702070161604e-15 0.16796077280072466
-31.84953333333333 -93.7095 1875.86 0.0 0.0 1.0
-31.036033333333336 -76.09733333333332 1862.2433333333336 -0.8478302044131988 0.529896535533185 -0.019839508930450396
-33.02869999999999 -67.44976666666666 1829.9800000000002 0.8815330656303415 0.33092690650903317 0.3367296196486639
-32.14686666666667 -62.9154 1826.25 -0.921259912850543 0.2512527035046936 0.29690444920241915
-39.6176 -46.53473333333333 1551.6133333333335 -0.9917671118859803 -0.0011502212232820735 0.12804949344874056
-16.8205 -57.74363333333334 2301.54 0.0 0.0 1.0
-9.757833 -48.74153333333333 2021.6333333333332 0.06681739574433292 0.9529231958933148 0.2957580402193935
-34.6009 -37.5966 1768.67 -0.8271786064823632 0.5514912362632919 0.10785624368891095
-36.69816666666667 -24.490833333333338 1722.8466666666666 -0.7681167565307573 0.6400972971089649 0.016495410587996966
-37.52323333333334 -17.3367 1684.0533333333333 -0.8775069643342126 0.4387534821671069 0.19358953853757874
-36.88783333333333 -8.07494 1662.2300000000002 -0.9926032675771064 0.0005224276778641473 0.12140214275115827
-34.66663333333333 21.568633333333334 1760.0 0.0 0.0 1.0
-34.19606666666667 22.352933333333336 1760.0 0.0 0.0 1.0
-34.06333333333333 27.546733333333332 1741.2233333333334 -0.8901163501780659 0.44505817508903195 0.09806173531046447
-37.7144 29.314333333333334 1682.4766666666667 0.8338476490035107 0.27794921633450387 0.47690914374789795
-34.01286666666667 27.695166666666665 1648.4800000000002 1.2877713553317618e-28 1.6652146032693898e-28 1.0
-36.755633333333336 36.2166 1732.82 -0.7540125919816808 0.6283347941806666 0.19146905116756216
-41.2447 71.79126666666667 1509.84 -0.7058630457362441 0.7058630457362441 0.05928508520619344
-41.4569 85.6597 1491.0433333333333 -0.9665507831427439 0.13195872229075797 0.21992380320815427
-35.03876666666667 103.79833333333333 1739.53 0.0 0.0 1.0
-42.48636666666666 97.2924 1431.5833333333333 -0.8209871746505154 0.556226013455335 -0.12881258096533116
-44.69676666666667 97.9627 1404.7 0.7722870115649058 -0.6320938010793324 -0.06348384365512606
-43.778166666666664 99.35966666666667 1401.4099999999999 -0.7057437717254035 0.7067806598633894 0.048855168752887326
-34.6821 124.93266666666666 1729.4800000000002 -3.778024234484758e-27 2.2609432341792527e-26 1.0
-19.487166666666667 170.154 2301.54 0.0 0.0 1.0
-38.051566666666666 -102.30933333333333 1430.4399999999998 -0.35935334302586713 -0.11972189704987188 0.9254900551723467
-27.897433333333336 -159.28233333333333 2301.54 0.0 0.0 1.0
-38.123333333333335 -113.69533333333334 1684.0533333333333 -0.35925572977480486 -0.8975418925138829 0.2556440333873835
-35.27866666666666 -115.68066666666668 1811.5033333333333 0.4471671538140036 0.8944265450772282 0.006533912388182131
-38.0496 -89.42220000000002 1651.5199999999998 -0.9698334172468217 0.1939491295062035 0.14767152046057624
-37.6163 -85.282 1645.47 -0.9110630432346979 0.3904513716436254 0.13233237560605682
-31.84953333333333 -93.7095 1875.86 0.0 0.0 1.0
-31.0 -82.25 1870.0 0.0 0.0 1.0
-32.4137 -79.9969 1860.3166666666668 -0.9854005506706215 0.1516024316144136 0.07747552817911588
-40.20563333333333 -45.511266666666664 1544.9366666666667 -0.9646420724248912 0.24095559591195406 0.10679921772431873
-40.20563333333333 -45.51126666666667 1544.9366666666667 -0.9646420724248912 0.2409555959119541 0.10679921772431873
-34.60316666666667 -42.3016 1780.95 0.0 0.0 1.0
-34.60316666666667 -42.3016 1780.95 0.0 0.0 1.0
-34.6009 -37.5966 1768.67 -0.8271786064823626 0.5514912362632924 0.10785624368891124
-36.58913333333333 -34.18606666666667 1739.53 0.0 0.0 1.0
-34.9065 -30.242666666666665 1744.6166666666666 -0.9874275071494177 -0.10408761955151045 0.11896506033616079
-36.5825 -19.9588 1703.2266666666667 -0.9070514265678432 0.38872820390219875 0.16170371997023156
-36.80883333333333 -8.683586666666667 1665.3066666666666 -0.6897186738502566 0.689749625145983 0.220303439721715
-37.0085 -5.693656666666667 1657.6266666666668 0.9707527649250716 -0.20811161134569278 -0.11970224147202956
-32.808600000000006 -3.1548149999999997 1724.506666666667 -0.5375326068120315 0.6014244812211056 0.5910560802510925
-32.78596666666667 3.2623233333333332 1703.2266666666667 -0.5722871747107258 0.2861812510427141 0.7684970274589501
-36.26786666666666 15.004 1691.993333333333 0.913410962172065 -0.4059579326689807 -0.029640699840415938
-35.137233333333334 17.333366666666667 1760.0 0.0 0.0 1.0
-34.464866666666666 23.615566666666666 1726.1599999999999 0.6054506832318326 0.5247239254675884 0.5984097861967096
-39.23656666666667 28.972566666666665 1706.4633333333334 -0.7207807323644083 4.247413067719249e-18 0.6931631379785189
-35.0 38.10606666666666 1700.0 0.0 0.0 1.0
-36.223000000000006 43.544666666666664 1748.01 0.8924372667541561 -0.33466099443969843 0.3025851015978862
-40.31980000000001 61.71796666666666 1590.0833333333333 0.909669811866543 -0.29109382674362216 0.2962519492095243
-41.2447 71.79126666666667 1509.84 -0.7058630457362443 0.7058630457362441 0.059285085206193376
-39.75883333333333 79.03533333333333 1546.25 0.0 0.0 1.0
-40.4433 80.682 1530.43 0.0 0.0 1.0
-43.77816666666667 99.35966666666667 1401.41 -0.7057437717254035 0.7067806598633894 0.048855168752887326
-33.91663333333333 -116.41533333333332 1807.8633333333335 -0.7069533328437277 -0.706387392884172 0.03512600682468365
-33.91663333333333 -116.41533333333332 1807.8633333333335 -0.7069533328437287 -0.706387392884171 0.035126006824683725
-32.19043333333334 -116.15233333333333 1881.7733333333333 -0.7527432758088395 -0.0007212874647531386 0.6583137857199791
-45.273599999999995 -84.16063333333334 1391.6666666666667 0.9938083553618661 -0.09965931143099244 0.049122036379238766
-42.06466666666667 -81.13866666666667 1333.7666666666667 -0.21955215767681643 -0.9659635016174178 -0.13678948644713682
-37.83286666666667 -87.49309999999998 1648.4800000000002 2.8514283590750106e-26 -8.825844184034476e-27 1.0
-32.183933333333336 -95.3814 1875.86 0.0 0.0 1.0
-33.41559999999999 -73.16873333333334 1846.91 0.0 0.0 1.0
-41.732033333333334 -49.34283333333334 1527.8666666666668 -0.9913262169421576 0.12089213743072838 0.051550196028528915
-36.291900000000005 -37.63316666666666 1770.41 0.0 0.0 1.0
-37.79266666666667 -16.24063333333333 1679.33 0.8923017341484581 -0.446101234093128 -0.06921924715166257
-32.01573333333334 -16.4405 1765.1899999999998 -2.354068180745266e-27 -2.4186885554283015e-27 1.0
-36.00393333333333 -6.884266666666666 1775.67 0.0 0.0 1.0
-37.97756666666667 -4.32861 1648.493333333333 -0.8944971024112098 -0.22027681206368682 0.3890412058445849
-36.26786666666666 15.004 1691.9933333333336 0.9134109621720651 -0.4059579326689806 -0.02964069984041602
-35.137233333333334 17.333366666666667 1760.0 0.0 0.0 1.0
-35.137233333333334 17.333366666666667 1760.0 0.0 0.0 1.0
-34.66663333333333 21.568633333333334 1760.0 0.0 0.0 1.0
-35.44403333333333 46.62383333333333 1717.8966666666665 5.283226963405602e-17 -0.8629193445586981 0.505341671333749
-40.68963333333334 69.58463333333333 1547.5866666666668 -0.9961625633393534 0.05859946528931099 0.06500961520402744
-41.2447 71.79126666666667 1509.84 -0.7058630457362443 0.7058630457362441 0.059285085206193376
