ply
format ascii 1.0
comment VCGLIB generated
element vertex 586
property float x
property float y
property float z
property float nx
property float ny
property float nz
element face 0
property list uchar int vertex_indices
end_header
79.7681 -354.5506666666667 2601.74 0.0 0.0 1.0
78.84056666666667 -305.62333333333333 2601.74 0.0 0.0 1.0
16.2438 -156.704 1538.323333333333 0.9530081807577486 -0.22871453034544922 0.1986581763171782
13.425533333333334 -145.393 1491.04 -0.8404727792673742 0.1200567666750705 0.5283861089072113
8.317866666666665 -25.74266666666667 1481.1933333333334 -0.7731105618825376 0.6185347745305864 0.14040937220165978
18.064533333333333 -20.3584 1608.5999999999997 -1.0617311400805141e-28 1.108753446972621e-28 1.0
-0.22878133333333336 -13.570633333333333 1312.3100000000002 -0.9707244571440138 0.15157178785650105 0.18633309268201248
80.0 -2.3188400000000002 2601.74 0.0 0.0 1.0
0.9549266666666666 63.597699999999996 1353.8666666666666 0.3972152921732805 0.9025185329683821 -0.1663740043164643
10.294823333333333 111.12766666666666 1443.0933333333335 -0.058408063374911494 -0.9356805304811932 0.34798052102269345
7.172796666666667 141.66899999999998 1448.9266666666665 -0.8182062572936716 0.5727062747688773 0.05045833296728538
82.08696666666667 382.84066666666666 2601.74 0.0 0.0 1.0
79.07243333333334 -340.8696666666667 2601.74 0.0 0.0 1.0
78.84056666666667 -305.62333333333333 2601.74 0.0 0.0 1.0
10.981326666666666 -132.47466666666665 1521.36 0.5787133698651215 -0.6943196084660753 0.427797986015445
16.112233333333332 -132.57766666666666 1538.3100000000002 0.4310794229988181 -0.9013331605180414 0.04206025222896937
6.5148866666666665 -107.77066666666667 1419.1433333333334 -0.9601159293278319 0.19210399407801743 0.20315870079872717
5.761279999999999 -95.43509999999999 1390.5633333333335 -0.6259998843246176 0.7397855845601401 0.24666056373603212
79.07243333333334 -153.507 2601.74 0.0 0.0 1.0
19.417733333333334 -20.476533333333332 1584.47 -0.2625372954857654 -0.9626712092544272 0.06586585877098268
11.882763333333335 66.825 1615.8466666666666 0.026105977647238206 -0.757128292657209 0.6527443805878848
21.020666666666667 81.75093333333334 1576.1499999999999 -0.30767799211877495 -0.9505277552707012 0.042792985707949996
16.697133333333333 102.95833333333333 1561.0433333333333 -0.8604743005243292 0.4840232308664531 0.1590769943101978
6.857143333333333 179.17466666666667 1424.76 0.0 0.0 1.0
79.30433333333333 368.69533333333334 2601.74 0.0 0.0 1.0
12.479833333333334 -134.08466666666666 1530.4399999999998 0.3124538531543856 -0.9404015732184645 -0.1342291724522474
9.618593333333333 -123.36633333333333 1467.8700000000001 0.2903885882663443 -0.7746806993405337 0.5617332835732107
6.931443333333334 -111.69533333333334 1425.9066666666668 -0.8928670729535968 0.44621062001836104 -0.06069985682113529
80.46376666666667 -157.681 2601.74 0.0 0.0 1.0
77.21736666666668 -150.26066666666668 2601.74 0.0 0.0 1.0
81.15943333333333 -137.50733333333332 2601.74 0.0 0.0 1.0
15.424733333333334 -42.41036666666667 1525.243333333333 0.3869673744061541 0.9190504844892107 -0.07484956984081084
75.82606666666668 6.260870000000001 2601.74 0.0 0.0 1.0
78.6087 43.130433333333336 2601.74 0.0 0.0 1.0
78.6087 43.130433333333336 2601.74 0.0 0.0 1.0
78.6087 44.9855 2601.74 0.0 0.0 1.0
78.6087 44.9855 2601.74 0.0 0.0 1.0
16.697133333333333 102.95833333333333 1561.0433333333333 -0.860474300524329 0.4840232308664531 0.15907699431019776
8.278476666666666 122.05533333333334 1463.0866666666668 0.8424487833045129 -0.39296119202442253 0.3685940165975173
8.278476666666666 122.05533333333334 1463.0866666666668 0.8424487833045129 -0.3929611920244226 0.3685940165975173
4.909903333333333 150.92266666666666 1376.7 -0.9281731858881869 -0.30004108519065087 0.2201587704266855
77.91303333333333 366.3766666666667 2601.74 0.0 0.0 1.0
77.44926666666667 -370.5506666666667 2601.74 0.0 0.0 1.0
76.28983333333333 -362.89866666666666 2601.74 0.0 0.0 1.0
19.66636666666667 -172.0653333333333 1592.9033333333334 -0.6432881268622874 0.22976735731490536 0.7303337232735007
7.847326666666667 -143.13366666666667 1455.966666666667 0.7704244498424061 -0.6160437733239403 0.16412262620926918
12.382733333333334 -132.927 1526.5366666666669 -0.889051226055844 -0.44481859110767896 0.10827898435790771
4.247003333333333 -106.46266666666668 1400.3233333333335 -0.8301601484721107 -0.5529507028107745 0.07127165039364299
4.440486666666667 -105.20533333333333 1403.596666666667 0.9463989524837546 0.31544718701238156 -0.06944130574541241
5.981913333333334 -106.24333333333334 1412.4533333333336 -0.758706095566028 0.6508416570298444 -0.02775244179526376
79.53623333333333 -134.029 2601.74 0.0 0.0 1.0
15.424733333333334 -42.41036666666667 1525.243333333333 0.3869673744061542 0.9190504844892109 -0.0748495698408111
-2.038228 -11.886386666666667 1307.5033333333333 -0.6959532597931929 -0.4639688398621286 0.5480711412036023
77.2174 71.88406666666667 2601.74 0.0 0.0 1.0
-2.0148596666666667 62.052033333333334 1325.8766666666668 0.666883172741737 0.715333857955408 -0.20872064003482452
1.0948833333333334 64.58623333333333 1362.11 -0.4452331178906644 -0.8903739646758183 0.09487715088904372
17.282533333333333 102.01036666666666 1520.08 -0.6554442731741457 0.1170380759895517 0.7461198921968774
2.865686666666667 120.425 1404.7133333333334 0.7883255607074823 -0.11261589784170739 0.604864009417439
7.45027 128.18066666666667 1428.1666666666667 -0.14166243048939753 -0.8472356398704488 0.5119800057825967
8.438313333333333 135.67066666666668 1467.8733333333332 0.9776207768735675 -0.1862252112923256 0.09786617037695344
77.91303333333333 366.3766666666667 2601.74 0.0 0.0 1.0
78.84056666666667 -305.62333333333333 2601.74 0.0 0.0 1.0
74.66666666666667 -115.24633333333334 2601.74 0.0 0.0 1.0
4.379873333333333 -46.130500000000005 1362.1233333333332 -0.7790381190302346 -0.6135055352589645 0.129269359495767
8.276253333333333 109.58066666666666 1439.6266666666668 -0.3671414696530646 -0.8392237914091011 0.4011365966773931
4.951996666666667 130.94500000000002 1461.89 -0.5143898504494071 0.8575068780515904 0.009221488429281173
6.242556666666666 140.81966666666665 1444.25 0.8163777552777568 -0.5714264085143638 -0.08366134316413053
76.52173333333333 289.3913333333333 2601.74 0.0 0.0 1.0
2.3442776666666667 164.56166666666667 1383.0633333333335 -0.9295349882747757 -0.30996854438992555 0.1997103078506554
4.932203333333334 166.7506666666667 1401.41 0.9443872453205613 0.31487063783012104 -0.09481145662996036
78.6087 339.2463333333333 2601.74 0.0 0.0 1.0
77.91303333333333 366.3766666666667 2601.74 0.0 0.0 1.0
74.66666666666667 380.75333333333333 2601.74 0.0 0.0 1.0
76.28983333333333 -362.89866666666666 2601.74 0.0 0.0 1.0
14.254433333333333 -165.318 1530.4399999999998 0.7908170358065348 -0.6026827108493362 0.10668629678389585
17.552933333333332 -151.68566666666666 1581.6766666666665 -0.6562221606304458 0.1261997801688576 0.7439395750884888
4.80834 -131.91299999999998 1439.6833333333334 0.6123653766785542 -0.7826670135805275 -0.11153919175908819
16.875233333333334 -145.726 1584.4833333333333 -0.2934142534000293 -0.8062779177281961 0.513638000235173
78.14489999999999 -152.11566666666667 2601.74 0.0 0.0 1.0
77.21736666666668 -150.26066666666668 2601.74 0.0 0.0 1.0
-2.038228 -11.886386666666667 1307.5033333333333 -0.695953259793193 -0.4639688398621288 0.548071141203602
74.43476666666668 1.1594193333333334 2601.74 0.0 0.0 1.0
11.514276666666667 64.0615 1604.32 -0.37017772494170215 0.9254731611265631 -0.08042313094745873
10.50273 118.51366666666667 1482.4133333333332 0.5657182873916561 0.7543593043065997 0.33302381193649555
6.61974 141.49566666666666 1441.9333333333334 -0.94087372387242 0.3126476109498148 0.13041513368401114
75.36229999999999 296.11600000000004 2601.74 0.0 0.0 1.0
75.36229999999999 296.11600000000004 2601.74 0.0 0.0 1.0
78.6087 339.2463333333333 2601.74 0.0 0.0 1.0
7.428153333333334 -164.0066666666667 1453.6166666666668 0.4157963757269814 -0.29042457156016865 0.8618392786166104
24.93126666666667 -176.96766666666667 1612.9466666666667 0.5008289125259608 -0.8435958762586357 0.19369150197540577
10.981326666666668 -132.47466666666665 1521.36 0.5787133698651217 -0.6943196084660752 0.4277979860154451
-0.952655 -44.57156666666666 1333.74 0.8250249354734619 0.5500413442030218 -0.12956996378151509
75.13043333333333 17.391333333333336 2601.74 0.0 0.0 1.0
75.13043333333333 17.391333333333332 2601.74 0.0 0.0 1.0
74.66666666666667 35.4783 2601.74 0.0 0.0 1.0
13.638833333333332 58.6241 1577.506666666667 -0.9668558879762089 -0.048341076724640324 0.2507046712505354
9.916559999999999 80.15160000000002 1523.9666666666665 -0.9220249998863251 -0.3168772883570928 0.22239308376853345
12.2647 81.67466666666667 1563.7633333333335 0.7916008431514838 -0.43177757999677735 0.432361222282927
10.50273 118.51366666666667 1482.4133333333332 0.5657182873916562 0.7543593043066 0.33302381193649516
6.925936666666668 124.8 1425.8933333333334 -0.7684765520083437 -0.384246121032412 0.5116626891663222
76.52173333333333 289.3913333333333 2601.74 0.0 0.0 1.0
2.332331 161.241 1378.8066666666666 -0.19321787361729395 -0.39965535481694675 0.896070561217671
5.580683333333333 182.563 1422.51 -0.9441843192800106 -0.31474518128018664 0.09721852748651262
76.28983333333333 -354.5506666666667 2601.74 0.0 0.0 1.0
74.2029 -337.62300000000005 2601.74 0.0 0.0 1.0
6.6577366666666675 -151.00466666666665 1464.2833333333335 -0.9545987851915138 0.045459072204093044 0.29440555712355276
12.479833333333334 -134.08466666666666 1530.4399999999998 0.31245385315438595 -0.9404015732184641 -0.13422917245224716
4.120815666666666 -115.722 1419.1533333333334 -0.9255707833973802 0.17396356199162305 0.3362371246908147
1.0635116666666666 -47.404133333333334 1329.7833333333333 0.6521450167201785 0.7525571633201288 -0.09145814945973436
73.97099999999999 4.63768 2601.74 0.0 0.0 1.0
74.66666666666667 35.4783 2601.74 0.0 0.0 1.0
77.44926666666667 43.82606666666667 2601.74 0.0 0.0 1.0
-1.1076496666666666 59.05136666666667 1317.1466666666665 -0.15137268897587502 -0.9814927024831711 0.11729613806299986
12.440933333333334 81.73303333333332 1559.6966666666667 -0.8616803565740333 0.4700023532202054 0.19132368139338166
13.649843333333331 104.85963333333332 1479.97 0.25857141558941016 0.2872851708431826 0.9222841501693998
8.438313333333333 135.67066666666668 1467.8733333333332 0.9776207768735676 -0.18622521129232564 0.09786617037695344
5.575583333333334 140.404 1437.3233333333335 -0.9567612894001807 0.23817223210808727 0.16697851046753076
77.44926666666667 -370.5506666666667 2601.74 0.0 0.0 1.0
76.28983333333333 -362.89866666666666 2601.74 0.0 0.0 1.0
74.2029 -337.62300000000005 2601.74 0.0 0.0 1.0
6.018866666666667 -155.94766666666666 1469.0766666666668 0.9029679690714836 -0.043000354432431366 0.42755095175850744
13.49859 -159.19533333333334 1507.3100000000002 -0.34112696221552585 0.9382919991418185 0.056925565399540023
-4.522822666666666 -96.25853333333333 1356.9333333333332 0.27791535030157555 -0.9264467775211164 0.2538886103933999
-3.21471 -86.02046666666668 1311.3233333333335 0.9468176096245821 -0.2367077754649607 0.21795835184553494
72.5797 -112.0 2601.74 0.0 0.0 1.0
17.00453333333333 -31.6271 1570.6299999999999 -0.035473161915920745 -0.9554674682842601 0.2929566040118459
6.52063 -20.849933333333336 1538.323333333333 0.12090473745269921 0.9067980560660963 0.40385558059316545
10.693779999999999 64.22496666666666 1580.3 0.04164844918513625 0.9978945873508481 0.04971719236193361
-2.62127 58.58683333333334 1309.4366666666667 -0.5497754649690815 -0.8240810399863193 0.13651878131999498
12.11442 87.32243333333334 1535.6866666666667 -0.23689357006231027 0.9711980694474057 0.02560754507494573
3.2486533333333334 171.22600000000003 1400.3233333333335 -0.9495892388692794 -0.2798123720265279 0.14136942344280393
3.5336266666666667 184.48033333333333 1415.7766666666666 -0.8892303237237191 -0.27356760467547486 0.36664723787631737
3.0944266666666667 186.646 1416.8933333333334 -0.8351020616569436 -0.47720702173636254 0.2736384567670144
73.04346666666667 382.14466666666664 2601.74 0.0 0.0 1.0
72.11593333333333 -382.6086666666667 2601.74 0.0 0.0 1.0
73.27533333333334 -354.087 2601.74 0.0 0.0 1.0
71.42026666666668 -315.3623333333333 2601.74 0.0 0.0 1.0
-1.87449 -150.90766666666664 1363.1333333333334 -0.9339219263181667 -0.35575536702872124 0.0350421799040055
7.198856666666667 -132.45433333333332 1430.46 0.626409076480881 0.7656355885983102 -0.1463345973243821
1.5462613333333335 -105.96233333333335 1384.1633333333332 -0.9416975335855546 -0.3135156927474542 0.12212151997075155
3.0537033333333334 -104.09866666666666 1397.05 -0.9394366039741563 -0.17078833820043854 0.2971366868096849
3.442437 -99.07683333333334 1403.596666666667 -0.5686805992595176 0.568721483209299 0.5942711927748566
-3.2523366666666664 -89.53496666666666 1328.8100000000002 -0.5452815123969094 0.817563239837762 0.18509030526778278
71.88403333333333 -104.348 2601.74 0.0 0.0 1.0
0.36737000000000003 -44.025299999999994 1345.7466666666667 -0.7811572034909479 -0.6203958059023622 0.0700176224457858
18.064533333333333 -20.3584 1608.5999999999997 -1.0617311400805141e-28 1.108753446972621e-28 1.0
73.971 4.6376800000000005 2601.74 0.0 0.0 1.0
75.13043333333333 17.391333333333336 2601.74 0.0 0.0 1.0
73.27536666666667 28.05796666666667 2601.74 0.0 0.0 1.0
74.66666666666667 50.08696666666666 2601.74 0.0 0.0 1.0
9.188 66.20463333333333 1431.6000000000001 -0.06745952049871917 0.8122554487834464 0.5793878657822279
4.349676666666666 120.42266666666666 1455.9666666666665 -0.27259228586616147 -0.9151158973531778 0.29707968644414123
7.116673333333334 120.81400000000001 1465.4733333333334 0.8500249820724989 -0.18215462489231968 0.4942440920061528
2.6453633333333335 124.04 1415.7766666666666 0.46836053267240385 0.26022009377771665 0.8443482185858737
77.21736666666666 346.20266666666674 2601.74 0.0 0.0 1.0
72.11593333333333 -382.6086666666667 2601.74 0.0 0.0 1.0
71.4203 -343.652 2601.74 0.0 0.0 1.0
72.8116 -339.478 2601.74 0.0 0.0 1.0
3.103989 -151.98233333333334 1450.0933333333335 -0.1002209260530178 -0.935421499108319 0.3390315398115942
7.952766666666666 -135.9043333333333 1415.8066666666666 -0.443439672052216 0.8778076656125026 0.18114899790545938
9.618593333333333 -123.36633333333333 1467.8700000000001 0.2903885882663441 -0.7746806993405337 0.561733283573211
76.05796666666667 -141.913 2601.74 0.0 0.0 1.0
69.33333333333333 -12.98551 2601.74 0.0 0.0 1.0
72.8116 -0.6956506666666668 2601.74 0.0 0.0 1.0
73.971 4.6376800000000005 2601.74 0.0 0.0 1.0
72.5797 24.811600000000002 2601.74 0.0 0.0 1.0
73.27536666666667 31.536233333333332 2601.74 0.0 0.0 1.0
74.66666666666667 35.4783 2601.74 0.0 0.0 1.0
74.43476666666668 71.4203 2601.74 0.0 0.0 1.0
10.693779999999999 64.22496666666666 1580.3 0.041648449185136244 0.9978945873508481 0.04971719236193361
9.467153333333334 77.02776666666666 1516.2566666666664 -0.975945851890658 0.12289399422445244 0.1800743189935159
12.2647 81.67466666666667 1563.7633333333335 0.7916008431514836 -0.43177757999677735 0.432361222282927
3.58177 138.40566666666666 1433.8733333333332 -0.6643282211093154 0.7474191493001837 -0.005712258495721775
72.5797 274.78266666666667 2601.74 0.0 0.0 1.0
72.5797 296.81166666666667 2601.74 0.0 0.0 1.0
71.65216666666667 -332.058 2601.74 0.0 0.0 1.0
16.116600000000002 -172.08133333333333 1558.3400000000001 -0.3936613883299803 0.9187210456605673 0.03134248870887452
12.111303333333334 -166.39633333333333 1526.5366666666669 -0.4143367630111899 0.8286968468451058 0.3762799261804809
5.71408 -145.84366666666668 1457.1433333333334 0.8010358822857874 -0.5481214743305015 0.24063325761080412
2.3431213333333334 -102.63413333333335 1380.9366666666665 -0.9624970353169487 0.18982707779375008 0.1938172787508121
1.5548736666666667 -101.4757 1397.05 0.9729815902223333 0.17688677255146054 0.1483842807872421
74.66666666666667 -115.24633333333334 2601.74 0.0 0.0 1.0
15.509666666666666 -41.06553333333333 1583.0900000000001 0.6735258979748417 -0.7347607991602888 0.08055701567533907
72.5797 53.56523333333333 2601.74 0.0 0.0 1.0
74.43476666666668 71.4203 2601.74 0.0 0.0 1.0
6.242556666666666 140.81966666666668 1444.25 0.8163777552777569 -0.5714264085143638 -0.08366134316413043
72.3478 273.3913333333333 2601.74 0.0 0.0 1.0
72.5797 274.78266666666667 2601.74 0.0 0.0 1.0
72.5797 274.78266666666667 2601.74 0.0 0.0 1.0
1.4927133333333333 176.17600000000002 1395.9566666666667 0.9857246534097996 -5.898953840903917e-16 0.16836539923669053
1.4927133333333333 176.17600000000002 1395.9566666666667 0.9857246534097996 -5.898953840903917e-16 0.16836539923669053
73.04346666666667 382.14466666666664 2601.74 0.0 0.0 1.0
73.04346666666667 382.14466666666664 2601.74 0.0 0.0 1.0
18.47223333333333 -168.80866666666665 1594.3166666666668 -0.2783102993812461 -0.8698073455640062 0.4074046622968604
9.942963333333333 -135.64433333333332 1517.5133333333333 0.5745779062416099 -0.7018536534060148 0.42102455849942694
1.1982999999999997 -127.90100000000001 1390.5633333333335 -0.4687787170754921 -0.2861101812631136 0.8356958050598579
10.867393333333334 -132.83566666666667 1523.9433333333334 -0.5416970840990506 0.6499087923725105 0.5330880140047148
1.1345166666666666 -87.18456666666667 1332.75 -0.6006357086877985 0.7808331484678915 0.17186139677899062
-3.6869099999999997 -86.96406666666667 1313.24 0.9700137681717818 -0.2425068977385909 0.016238660855675695
-0.835738 -43.576966666666664 1339.73 -0.8536748321899174 -0.5120839216460369 0.09491753303332148
72.5797 53.56523333333333 2601.74 0.0 0.0 1.0
-2.62127 58.58683333333334 1309.4366666666667 -0.5497754649690805 -0.82408103998632 0.1365187813199949
12.2647 81.67466666666667 1563.7633333333333 0.7916008431514838 -0.43177757999677724 0.43236122228292706
7.390953333333333 77.0441 1506.08 -0.8728397355985644 0.43862798825291516 0.2139071852029021
12.075153333333333 84.16933333333333 1530.4399999999998 -0.3970256643269427 -0.4377816319391309 0.8066708527041628
5.69029 116.43066666666668 1467.8700000000001 0.9639575306749188 -0.20656960220639684 -0.16767491911256052
1.6070456666666668 127.95 1444.25 0.6460511741149338 -0.09571841936994994 0.7572686872029198
-0.2463423333333333 173.80733333333333 1383.0566666666666 -0.9264173085294877 -0.23161347848061617 0.2968268300593619
3.094426666666667 186.646 1416.8933333333334 -0.8351020616569436 -0.47720702173636254 0.2736384567670144
3.0944266666666667 186.646 1416.8933333333334 -0.8351020616569437 -0.4772070217363626 0.2736384567670143
71.1884 -352.6956666666667 2601.74 0.0 0.0 1.0
71.4203 -345.2753333333333 2601.74 0.0 0.0 1.0
71.42026666666668 -315.3623333333333 2601.74 0.0 0.0 1.0
-3.6259633333333334 -150.31733333333332 1355.9033333333334 -0.728939230393776 -0.41810324054530484 0.5420675960048197
4.758733333333333 -129.32466666666667 1483.6499999999999 0.3131557347311321 -0.9402515245234948 -0.13364339278935156
-3.6869099999999997 -86.96406666666667 1313.24 0.9700137681717818 -0.2425068977385909 0.016238660855675695
-3.6869099999999997 -86.96406666666667 1313.24 0.9700137681717816 -0.24250689773859102 0.01623866085567566
8.309043333333333 -68.72133333333333 1592.9033333333334 -0.7941208614430898 -0.1985325481286966 0.5744187364235358
72.11593333333333 -107.36233333333332 2601.74 0.0 0.0 1.0
71.88403333333333 -104.348 2601.74 0.0 0.0 1.0
4.554603333333334 -22.51703333333333 1550.2666666666667 0.11952810662388041 -0.7886825792404477 0.603069499253233
-2.038228 -11.886386666666667 1307.5033333333333 -0.6959532597931929 -0.4639688398621286 0.5480711412036023
71.65216666666667 22.492766666666665 2601.74 0.0 0.0 1.0
71.65216666666667 22.492766666666665 2601.74 0.0 0.0 1.0
71.1884 42.666666666666664 2601.74 0.0 0.0 1.0
8.984723333333333 56.6645 1550.2766666666666 -0.6929124120712039 -0.5196989743097565 0.4997853192112119
2.1596433333333334 88.254 1424.7666666666667 -0.9175281300256144 0.36667155212856056 0.15392889095725884
1.4927133333333333 176.17600000000002 1395.9566666666667 0.9857246534098 2.442213292299503e-16 0.16836539923668925
3.0983199999999997 188.46133333333333 1419.1333333333334 -0.7696927311618538 -0.43982980375009734 0.46273409570698065
72.34783333333333 371.2463333333333 2601.74 0.0 0.0 1.0
69.56523333333332 -345.73900000000003 2601.74 0.0 0.0 1.0
72.11596666666667 -341.565 2601.74 0.0 0.0 1.0
68.17393333333332 -305.62333333333333 2601.74 0.0 0.0 1.0
10.446318333333332 99.95333333333333 1366.2266666666667 0.43208977433294465 0.10802244358323304 0.8953376897010492
6.065196666666666 108.70466666666668 1460.7133333333334 -0.5835145028272258 0.582531374982502 0.5658339174627933
7.2589 111.85533333333335 1467.8700000000001 0.5651199417440886 0.40361887242851535 0.719535445452614
-1.04554 176.258 1381.9933333333336 -0.8223407645871222 -0.549320834867358 0.14833167995710106
72.11593333333333 -382.6086666666667 2601.74 0.0 0.0 1.0
67.47826666666667 -357.565 2601.74 0.0 0.0 1.0
68.86956666666667 -315.826 2601.74 0.0 0.0 1.0
12.783643333333332 -167.63233333333332 1558.3400000000001 -0.5611860475669561 -0.3222634733983493 0.7623755463873494
-5.896833333333333 -129.06433333333334 1349.7966666666669 0.4598846728058581 -0.6242429203149882 0.6315274057037146
7.1912400000000005 -139.66233333333332 1453.6066666666666 0.6887260894332219 0.612138684314316 0.38851332654100834
2.994177 -126.17433333333334 1404.7133333333334 0.20048530288366312 -0.6044959522945329 0.7709671114821771
11.679789999999999 -135.124 1542.2966666666664 0.5731739903596855 -0.8189066273500233 -0.02938558247449106
5.788876666666667 -127.63900000000001 1476.3533333333332 0.5233013215564373 -0.8370822704287436 -0.15952742520064042
1.7483570000000002 -100.21836666666665 1400.3233333333335 -0.4005241251198505 -0.9159918762781133 0.023223001302154225
68.86956666666667 -133.33333333333334 2601.74 0.0 0.0 1.0
68.86956666666667 -133.33333333333334 2601.74 0.0 0.0 1.0
11.831333333333333 -43.78853333333333 1590.1266666666668 0.3707818425814697 -0.9264459252822296 0.06495208033499651
70.49276666666667 -8.115943333333334 2601.74 0.0 0.0 1.0
73.04346666666667 15.768133333333333 2601.74 0.0 0.0 1.0
10.730003333333334 39.60660000000001 1615.8466666666666 -0.16561834653553487 -0.6624523224144042 0.7305665498902872
8.261629999999998 53.288199999999996 1544.9233333333334 -0.7826505564815269 -0.587004481894904 0.20708414877641323
2.1596433333333334 88.254 1424.7666666666667 -0.9175281300256142 0.36667155212856095 0.1539288909572588
2.1596433333333334 88.254 1424.7666666666667 -0.9175281300256144 0.3666715521285605 0.15392889095725884
0.9447773333333332 89.84493333333334 1408.0666666666668 -0.9983513239544891 3.4353124144818507e-15 0.05739890206544959
0.9447773333333332 89.84493333333334 1408.0666666666668 -0.9983513239544891 3.42145750665036e-15 0.05739890206544959
5.949333333333333 118.481 1420.2666666666667 -0.38956385270058297 0.9209384149755612 0.010603796083467532
4.951996666666667 130.945 1461.89 -0.5143898504494071 0.8575068780515904 0.009221488429281173
68.6377 281.5073333333333 2601.74 0.0 0.0 1.0
68.6377 -352.4636666666667 2601.74 0.0 0.0 1.0
4.6674766666666665 -149.22933333333333 1454.7933333333333 0.6598275259448123 -0.6210387012896303 0.4230113089576179
11.246493333333333 -141.76 1565.2133333333334 -0.8291417763385612 -0.5566412037825841 -0.05171542305358093
-0.6958296666666666 -122.41199999999999 1410.2233333333334 0.7317667086200353 -0.42068927098100667 0.5362257187387319
-5.827093333333333 -95.20953333333334 1348.7733333333333 -0.5410392914693473 0.7574191168839072 0.3655034424805722
66.55073333333333 -156.29 2601.74 0.0 0.0 1.0
-7.050896666666667 -42.06486666666667 1307.51 -0.7162690837681419 -0.6686697923738696 0.19959786673367194
-3.930930333333333 -43.21886666666666 1321.01 -0.7064265373893257 -0.7062823448751685 0.046117204921387614
16.18766666666667 -42.88233333333333 1598.5933333333332 0.09167796918942872 -0.9931940507247891 0.07183820411304465
68.86959999999999 -1.6231873333333333 2601.74 0.0 0.0 1.0
8.26163 53.288199999999996 1544.9233333333334 -0.7826505564815269 -0.587004481894904 0.20708414877641323
-1.3333333333333333 68.6694 1351.8333333333333 0.8783483355067165 0.3193981860967341 0.3556529210208972
-3.95239 67.43499999999999 1304.6499999999999 -0.8796504423140331 -0.045110494776886285 0.4734766547547096
70.26086666666667 278.493 2601.74 0.0 0.0 1.0
66.55073333333333 376.5796666666667 2601.74 0.0 0.0 1.0
70.26086666666667 -380.5216666666667 2601.74 0.0 0.0 1.0
67.94200000000001 -330.203 2601.74 0.0 0.0 1.0
66.08693333333333 -170.20266666666666 2601.74 0.0 0.0 1.0
6.187306666666667 -20.990166666666667 1559.7033333333331 -0.6533922412411456 -0.754027431729142 0.0672399530474749
9.527113333333332 78.7248 1497.2866666666669 0.27376984119998415 -0.9582036985399078 -0.08304062953625237
69.7971 299.826 2601.74 0.0 0.0 1.0
68.86956666666667 304.6956666666667 2601.74 0.0 0.0 1.0
-1.04554 176.258 1381.993333333333 -0.8223407645871227 -0.5493208348673575 0.1483316799571013
0.8086626666666668 179.80033333333333 1397.0433333333333 0.9729113607023794 0.22892611972019083 0.0321918611779644
66.55073333333333 -343.652 2601.74 0.0 0.0 1.0
68.17393333333332 -305.62333333333333 2601.74 0.0 0.0 1.0
3.7327376666666665 -160.39966666666666 1472.6966666666667 0.8416647248748633 -0.45879153945498335 0.2847996036265624
68.86956666666667 -133.33333333333334 2601.74 0.0 0.0 1.0
65.15943333333333 -91.3623 2601.74 0.0 0.0 1.0
2.59684 -37.438066666666664 1494.756666666667 -0.6522422501804469 0.6087594335017505 0.4516547345065421
11.914390000000003 -21.285766666666664 1581.6766666666665 -0.2816962802633392 0.9577660218790988 0.05771874062801598
66.31886666666666 40.347833333333334 2601.74 0.0 0.0 1.0
7.623453333333333 53.28926666666666 1540.96 -0.8888976029706666 -0.44418762906759984 0.11206427448704348
8.261629999999998 53.288199999999996 1544.9233333333334 -0.7826505564815269 -0.587004481894904 0.20708414877641323
59.826100000000004 144.92733333333334 2601.74 0.0 0.0 1.0
64.69566666666667 179.47833333333332 2601.74 0.0 0.0 1.0
4.21611 112.238 1455.966666666667 -0.6834148973120482 0.46735599197986794 0.5608230156586622
66.55073333333333 271.3043333333333 2601.74 0.0 0.0 1.0
66.55073333333333 283.82599999999996 2601.74 0.0 0.0 1.0
-1.04554 176.258 1381.993333333333 -0.8223407645871222 -0.549320834867358 0.14833167995710106
66.08693333333333 -360.8113333333333 2601.74 0.0 0.0 1.0
66.55073333333333 -343.65200000000004 2601.74 0.0 0.0 1.0
65.6232 -319.07233333333335 2601.74 0.0 0.0 1.0
68.17393333333332 -305.62333333333333 2601.74 0.0 0.0 1.0
63.99996666666667 -172.75333333333333 2601.74 0.0 0.0 1.0
66.55073333333333 -96.23203333333333 2601.74 0.0 0.0 1.0
0.8605333333333336 -36.40336666666667 1479.97 -0.4025318196642125 -0.23002482051773285 0.8860342635042974
7.253113333333334 -21.81226666666667 1578.8999999999999 -0.0766904135733683 -0.9970533839546318 -0.0017691835865703705
64.46376666666667 31.7681 2601.74 0.0 0.0 1.0
66.31886666666666 40.347833333333334 2601.74 0.0 0.0 1.0
64.92753333333333 112.69599999999998 2601.74 0.0 0.0 1.0
4.951996666666667 130.945 1461.89 -0.5143898504494071 0.8575068780515904 0.009221488429281307
3.58177 138.40566666666666 1433.8733333333332 -0.6643282211093161 0.7474191493001834 -0.005712258495721209
66.55073333333333 271.3043333333333 2601.74 0.0 0.0 1.0
64.23186666666668 311.884 2601.74 0.0 0.0 1.0
67.47826666666667 379.594 2601.74 0.0 0.0 1.0
65.3913 381.68100000000004 2601.74 0.0 0.0 1.0
68.17393333333334 -354.3186666666666 2601.74 0.0 0.0 1.0
67.0145 -316.5216666666667 2601.74 0.0 0.0 1.0
-3.6259633333333334 -150.31733333333332 1355.9033333333334 -0.7289392303937762 -0.4181032405453051 0.5420675960048192
-5.91823 -133.49433333333334 1383.0566666666666 0.21664196683460527 -0.33696163236573684 0.9162549407885623
2.398003333333333 -37.403166666666664 1493.5133333333333 -0.744449588028861 0.5093564715665724 0.4316836755738057
-2.0148596666666667 62.052033333333334 1325.8766666666666 0.6668831727417373 0.7153338579554078 -0.20872064003482457
0.5152966666666664 134.106 1445.41 0.0 0.0 1.0
66.55073333333333 -343.65200000000004 2601.74 0.0 0.0 1.0
65.39133333333332 -317.681 2601.74 0.0 0.0 1.0
3.103989 -151.98233333333334 1450.0933333333335 -0.10022092605301744 -0.9354214991083193 0.3390315398115939
4.758733333333333 -129.32466666666667 1483.6499999999999 0.3131557347311321 -0.9402515245234948 -0.13364339278935156
-6.24665 -91.08626666666665 1323.8966666666668 -0.606351885746096 0.17543956109688386 0.7756019282172305
66.55073333333333 -156.29 2601.74 0.0 0.0 1.0
66.55073333333333 -156.29 2601.74 0.0 0.0 1.0
4.591021666666666 -63.86626666666666 1581.7066666666667 -0.6559730837779145 -0.7543857310773904 0.024525132124506903
65.62316666666668 -102.02933333333333 2601.74 0.0 0.0 1.0
-9.059413333333334 -39.735099999999996 1311.33 0.5053673868371643 0.8590474423379759 -0.08149414785098294
63.072466666666664 -17.391299999999998 2601.74 0.0 0.0 1.0
66.08693333333333 46.144933333333334 2601.74 0.0 0.0 1.0
8.486263333333333 56.684400000000004 1614.3933333333334 0.661299770002121 1.111748446520376e-16 0.7501217329174924
8.918696666666667 62.73846666666666 1614.3933333333334 0.7669241017715649 7.071959094685847e-18 0.6417378141592393
64.92753333333333 112.69600000000001 2601.74 0.0 0.0 1.0
62.84056666666667 123.59400000000001 2601.74 0.0 0.0 1.0
1.0948833333333334 64.58623333333333 1362.11 -0.4452331178906646 -0.8903739646758183 0.09487715088904357
63.30433333333334 184.34799999999998 2601.74 0.0 0.0 1.0
66.55073333333333 271.3043333333333 2601.74 0.0 0.0 1.0
64.23186666666668 311.884 2601.74 0.0 0.0 1.0
60.75363333333333 338.551 2601.74 0.0 0.0 1.0
65.6232 -319.07233333333335 2601.74 0.0 0.0 1.0
3.6703433333333333 -69.15513333333332 1551.6299999999999 -0.9262523656377629 -0.37469349229233245 0.04075956310148287
5.386773333333333 -20.8586 1570.61 0.07025685037403372 0.9797644244164152 0.18741837589599275
66.087 -0.9275366666666667 2601.74 0.0 0.0 1.0
66.087 -0.9275366666666667 2601.74 0.0 0.0 1.0
65.15943333333333 39.88406666666666 2601.74 0.0 0.0 1.0
9.257203333333335 34.01226666666667 1610.0566666666666 -0.9882318486049073 -6.012896777252302e-16 0.15296343812469504
9.64017 37.12623333333334 1614.3933333333334 0.9990519296668442 -5.1001072388039185e-16 0.04353437525628721
-3.47447 130.06733333333332 1416.8933333333334 0.18041388920022663 0.36072906809851474 0.9150548442647716
63.072466666666664 -345.971 2601.74 0.0 0.0 1.0
-11.300566666666667 -146.199 1333.74 -0.7140209637339602 -0.6604915631716654 0.23221748066731923
-6.588636666666666 -105.70983333333334 1356.9233333333334 0.05733254394259756 0.40616058954033013 0.9120014007167542
-8.478846666666668 -103.1509 1339.71 0.15191206555667527 -0.6078219193703813 0.779406978844307
60.9855 -145.623 2601.74 0.0 0.0 1.0
0.8605333333333336 -36.40336666666667 1479.97 -0.4025318196642125 -0.23002482051773285 0.8860342635042974
63.072466666666664 -17.391299999999998 2601.74 0.0 0.0 1.0
64.46376666666667 31.768100000000004 2601.74 0.0 0.0 1.0
65.15943333333333 39.88406666666666 2601.74 0.0 0.0 1.0
9.880326666666667 40.97363333333334 1618.76 0.23245466936037434 0.9297891133142833 0.2854067824260629
60.52173333333334 154.89833333333334 2601.74 0.0 0.0 1.0
66.08696666666667 275.2463333333333 2601.74 0.0 0.0 1.0
66.55073333333333 376.5796666666667 2601.74 0.0 0.0 1.0
64.9275 -330.6666666666667 2601.74 0.0 0.0 1.0
64.9275 -330.6666666666667 2601.74 0.0 0.0 1.0
-9.115453333333333 -125.08633333333334 1327.8166666666666 0.7546084659634225 -0.3665105123689227 0.5442757641300962
-6.770779999999999 -127.387 1380.93 -0.23326681017662787 0.9330588042938507 0.2738391188266406
-5.787503333333333 -96.1499 1351.8166666666666 -0.24333532998834448 0.811172294297921 0.5317776096667766
61.44923333333333 -168.34766666666667 2601.74 0.0 0.0 1.0
63.072466666666664 -132.40566666666666 2601.74 0.0 0.0 1.0
2.2176666666666667 -29.599933333333336 1509.8666666666666 0.3126435964404242 0.9407019843967853 -0.13165773109372522
60.28983333333333 8.811583333333333 2601.74 0.0 0.0 1.0
6.502 30.7373 1604.2966666666664 0.602335078219157 -0.7829274186442862 -0.1556184779572032
7.531346666666667 59.2526 1594.3166666666668 -0.9883793815791078 0.06177244451119029 0.138889751848048
63.30433333333334 184.34799999999998 2601.74 0.0 0.0 1.0
-0.19649766666666682 126.533 1444.25 0.4822933740259601 0.3014615959005288 0.8225047158331443
1.6872866666666664 132.42100000000002 1452.45 0.22041393760442884 0.952225824682109 0.2113851340993224
61.91303333333334 -365.68100000000004 2601.74 0.0 0.0 1.0
60.28983333333334 -296.57966666666664 2601.74 0.0 0.0 1.0
-7.5673900000000005 -137.4706666666667 1358.9733333333334 -0.49702331692160606 -0.03681708573004441 0.8669557800918056
-10.685136666666665 -113.94333333333334 1331.7533333333333 0.3265297930459862 -0.16340247930096588 0.9309553823957637
66.31883333333333 -107.82633333333332 2601.74 0.0 0.0 1.0
7.5118323333333334 -39.20093333333333 1548.93 -0.34283913649452247 -0.9350150044136674 0.09059949232197508
3.4115766666666665 -32.25983333333333 1502.2733333333333 0.7869082097228176 0.5908142363634649 -0.17808427100978255
5.3142033333333325 -18.040166666666668 1569.2300000000002 -0.8479769508878597 -0.4909339123286625 0.19979735856262323
61.91303333333334 30.840533333333337 2601.74 0.0 0.0 1.0
6.06806 30.973433333333332 1601.43 -0.6022859535814266 0.782966108315273 0.1556139561483729
6.643913333333333 49.38596666666667 1620.22 -0.5706199294715009 -0.798875797292336 0.19023763189882834
7.531346666666667 59.2526 1594.3166666666666 -0.9883793815791078 0.06177244451119034 0.138889751848048
6.9522699999999995 62.267566666666674 1591.4966666666667 -0.9616664292930137 -0.19221954541393005 0.19557434681390928
64.92753333333333 112.69600000000001 2601.74 0.0 0.0 1.0
62.84056666666667 123.594 2601.74 0.0 0.0 1.0
60.9855 286.6083333333333 2601.74 0.0 0.0 1.0
65.85506666666667 371.4786666666667 2601.74 0.0 0.0 1.0
5.236923333333333 186.68033333333335 1341.72 -0.015272743190730976 -0.804215185944408 0.5941419678930545
60.9855 383.76800000000003 2601.74 0.0 0.0 1.0
60.52173333333334 -375.6523333333333 2601.74 0.0 0.0 1.0
61.91303333333334 -365.68100000000004 2601.74 0.0 0.0 1.0
61.91303333333334 -318.145 2601.74 0.0 0.0 1.0
62.3768 -315.3623333333333 2601.74 0.0 0.0 1.0
3.7327376666666665 -160.39966666666666 1472.6966666666667 0.8416647248748632 -0.4587915394549835 0.2847996036265623
-6.588636666666667 -111.019 1356.9233333333334 -0.8768484310071445 0.29218980083036766 0.3817878328745161
63.07243333333333 -173.21733333333336 2601.74 0.0 0.0 1.0
62.1449 -154.89833333333334 2601.74 0.0 0.0 1.0
62.608666666666664 45.44926666666667 2601.74 0.0 0.0 1.0
-6.0259 118.80366666666667 1409.1066666666666 -0.7608202503877228 -0.6342471206011212 -0.13741592560234683
61.21736666666666 287.07233333333335 2601.74 0.0 0.0 1.0
60.05793333333333 353.855 2601.74 0.0 0.0 1.0
59.5942 -378.203 2601.74 0.0 0.0 1.0
60.75363333333333 -367.3043333333333 2601.74 0.0 0.0 1.0
1.7670976666666665 -158.69533333333334 1463.0866666666668 -0.21499382117007354 0.9664597781567508 0.14047474528859136
-8.22842 -131.19566666666665 1357.9466666666667 -0.6685360709485945 0.15547438184557735 0.7272463395785169
6.85754 -65.21156666666666 1587.29 0.9649826870102596 0.2412485064352715 0.10299306730654359
59.8261 -87.88406666666667 2601.74 0.0 0.0 1.0
-9.32558 -39.768633333333334 1308.46 -0.5515871360767562 -0.8273754411302002 0.10583718972671279
3.913413333333333 -19.0628 1595.74 -0.03639510507253459 0.8275030500236047 0.5602803749270456
2.7642966666666666 25.274966666666668 1592.92 0.7217794459625028 -0.6135560604001943 0.3202864220229382
8.842946666666666 40.96746666666667 1612.9466666666667 -0.9658059742725714 -0.19311505211043334 0.1729895855472055
63.30433333333334 184.34799999999998 2601.74 0.0 0.0 1.0
3.996751 117.57333333333334 1602.8733333333332 -0.15993507052785072 -0.9828452955944784 0.09184714553568937
-1.8353833333333334 127.16733333333333 1416.8933333333334 0.3831227998760519 0.7660359808174279 0.5161451310515445
62.3768 267.36199999999997 2601.74 0.0 0.0 1.0
60.28983333333334 -296.57966666666664 2601.74 0.0 0.0 1.0
0.5171576666666667 -155.975 1459.5166666666667 0.8448226233767558 -0.49918774788728054 -0.1925781072449337
0.637309 -118.98766666666667 1415.7866666666669 -0.5656110398001247 0.8211221591118991 0.07643658464135378
60.05793333333333 -169.739 2601.74 0.0 0.0 1.0
59.594166666666666 -164.4056666666667 2601.74 0.0 0.0 1.0
59.594166666666666 -164.4056666666667 2601.74 0.0 0.0 1.0
6.85754 -65.21156666666666 1587.29 0.9649826870102601 0.24124850643526952 0.10299306730654394
60.753600000000006 -99.01466666666666 2601.74 0.0 0.0 1.0
60.057966666666665 -86.49276666666667 2601.74 0.0 0.0 1.0
4.232683333333333 -22.02606666666667 1554.2933333333333 -0.6765614346409721 -0.07624841643726006 0.7324280197721547
61.2174 -3.47826 2601.74 0.0 0.0 1.0
62.14490000000001 42.43476666666667 2601.74 0.0 0.0 1.0
6.9522699999999995 62.267566666666674 1591.4966666666667 -0.9616664292930138 -0.19221954541392966 0.19557434681390926
60.057966666666665 123.82600000000001 2601.74 0.0 0.0 1.0
59.130433333333336 156.05766666666668 2601.74 0.0 0.0 1.0
58.666666666666664 265.275 2601.74 0.0 0.0 1.0
60.5217 288.6956666666667 2601.74 0.0 0.0 1.0
59.362300000000005 311.4203333333333 2601.74 0.0 0.0 1.0
59.594166666666666 314.43466666666666 2601.74 0.0 0.0 1.0
58.89853333333334 356.4056666666667 2601.74 0.0 0.0 1.0
60.9855 383.76800000000003 2601.74 0.0 0.0 1.0
63.072466666666664 -345.971 2601.74 0.0 0.0 1.0
-8.130519999999999 -135.19566666666665 1343.7233333333334 -0.7940110400376025 0.39701435605541213 0.4603542868099646
-5.665476666666667 -88.00439999999999 1311.3233333333335 -0.4794686570224308 0.11986887237337358 0.8693338026149924
59.362300000000005 -162.78266666666664 2601.74 0.0 0.0 1.0
59.36233333333333 -141.681 2601.74 0.0 0.0 1.0
59.36233333333333 -141.681 2601.74 0.0 0.0 1.0
59.5942 -88.5797 2601.74 0.0 0.0 1.0
63.072466666666664 -17.391299999999998 2601.74 0.0 0.0 1.0
9.880326666666667 40.97363333333333 1618.76 0.23245466936037434 0.9297891133142833 0.2854067824260629
0.5773199999999999 122.24399999999999 1455.966666666667 -0.00013114969760358945 -0.7200795560418005 0.6938915014398146
60.9855 383.76800000000003 2601.74 0.0 0.0 1.0
59.594166666666666 -317.2176666666667 2601.74 0.0 0.0 1.0
-7.55641 -123.12733333333334 1356.9233333333334 -0.2845969614470638 0.2744170148865979 0.9185313666259999
60.28983333333333 -156.52166666666668 2601.74 0.0 0.0 1.0
60.9855 -145.62300000000002 2601.74 0.0 0.0 1.0
-0.895053 -63.88413333333333 1538.323333333333 0.7384434540012393 0.6713102330011953 -0.06359116535023106
1.9578633333333333 -28.395266666666668 1517.5366666666666 0.23984669919006713 0.9596562618881783 -0.14674269966999284
0.54005 -24.3368 1526.5566666666666 0.9167429787382937 0.3860018898894249 -0.10288270960580595
60.28983333333334 8.811583333333333 2601.74 0.0 0.0 1.0
61.91303333333334 30.840533333333337 2601.74 0.0 0.0 1.0
6.693583333333334 67.97816666666667 1615.8466666666666 0.7807425458090457 0.6072435336057866 0.14729687049482146
-5.189383333333333 112.98466666666667 1437.3100000000002 -0.16745798847400217 0.837178206970425 0.5206634919696458
59.362300000000005 288.6956666666667 2601.74 0.0 0.0 1.0
58.2029 -368.69599999999997 2601.74 0.0 0.0 1.0
58.2029 -368.69599999999997 2601.74 0.0 0.0 1.0
59.8261 -356.6376666666667 2601.74 0.0 0.0 1.0
54.95653333333333 -325.56533333333334 2601.74 0.0 0.0 1.0
0.7859623333333333 -154.58900000000003 1443.11 -0.19056673187635198 -0.8770926312683864 0.4409000304793192
59.36233333333333 -141.681 2601.74 0.0 0.0 1.0
58.89853333333334 -133.56499999999997 2601.74 0.0 0.0 1.0
57.739133333333335 -87.1884 2601.74 0.0 0.0 1.0
57.27536666666666 -2.5507233333333335 2601.74 0.0 0.0 1.0
57.27536666666666 7.4202900000000005 2601.74 0.0 0.0 1.0
2.939261 118.17333333333335 1607.1633333333332 -0.19457147872608024 -0.9708439625512463 0.14001407087911122
-4.676563333333333 115.54899999999999 1437.3100000000002 0.8260677204827075 0.534470489338832 0.1787551879034926
-0.51683 125.79466666666667 1459.5166666666667 0.050609416203879556 -0.7149325908411746 0.6973593604051129
59.82606666666667 287.768 2601.74 0.0 0.0 1.0
56.347833333333334 339.94233333333335 2601.74 0.0 0.0 1.0
56.347833333333334 339.94233333333335 2601.74 0.0 0.0 1.0
57.971000000000004 357.565 2601.74 0.0 0.0 1.0
59.130433333333336 -367.5363333333333 2601.74 0.0 0.0 1.0
58.66663333333333 -336.0 2601.74 0.0 0.0 1.0
59.594166666666666 -317.2176666666667 2601.74 0.0 0.0 1.0
57.50723333333334 -296.11566666666664 2601.74 0.0 0.0 1.0
-11.405416666666667 -133.98966666666666 1320.0033333333333 0.20393251059448156 -0.5535192910176973 0.8074824614775836
59.362300000000005 -162.7826666666667 2601.74 0.0 0.0 1.0
-1.4910573333333332 -65.448 1526.5366666666669 -0.8460572638635045 -0.3785062348092312 0.3753933090431142
57.04346666666667 -87.88403333333333 2601.74 0.0 0.0 1.0
0.86783 -39.9651 1494.756666666667 -0.7243805942971084 0.6760885546773012 0.1348221822999677
0.5707666666666666 -15.89263333333333 1591.4966666666667 0.060401833092899065 0.7870577952294152 0.6139150149064847
4.895865 31.4808 1620.2366666666667 0.7747841425919595 0.26615316919663706 0.5734736462250278
6.643913333333333 49.38596666666667 1620.22 -0.5706199294715009 -0.7988757972923358 0.19023763189882847
55.1884 130.78233333333336 2601.74 0.0 0.0 1.0
55.88406666666666 304.4636666666667 2601.74 0.0 0.0 1.0
57.50723333333334 316.98533333333336 2601.74 0.0 0.0 1.0
58.89853333333334 356.4056666666667 2601.74 0.0 0.0 1.0
57.971000000000004 357.565 2601.74 0.0 0.0 1.0
54.49276666666666 -311.18833333333333 2601.74 0.0 0.0 1.0
56.11596666666667 -305.855 2601.74 0.0 0.0 1.0
-11.35992 -110.98833333333334 1334.72 -0.8343715340755646 0.4866920695404275 0.2587565894249742
-7.313019999999999 -95.11056666666667 1345.73 -0.5177671672068436 0.2588655843276398 0.8154175432337166
1.301456 -68.0401 1533.0766666666666 -0.9751456006159697 -0.17189509503465006 0.13979675926983368
-0.07174333333333334 -63.35923333333333 1548.9399999999998 -0.7158300574168107 -0.6871504083691795 0.1241436473473994
57.739133333333335 -87.1884 2601.74 0.0 0.0 1.0
-2.51877 -41.5962 1491.0433333333333 -0.2747498402963664 -0.961366272205923 0.01695334545180235
6.457656666666668 -21.47453333333333 1574.7433333333336 0.00012717864424989072 0.9934315545203799 0.11442783887155239
5.314203333333334 -18.040166666666668 1569.2300000000002 -0.8479769508878596 -0.4909339123286623 0.19979735856262346
6.643913333333333 49.38596666666666 1620.22 -0.570619929471501 -0.7988757972923359 0.19023763189882842
55.4203 127.76799999999999 2601.74 0.0 0.0 1.0
55.4203 150.26066666666668 2601.74 0.0 0.0 1.0
-5.741626666666666 122.48800000000001 1431.58 0.0 0.0 1.0
56.8116 309.10133333333334 2601.74 0.0 0.0 1.0
-5.986116666666667 -138.04866666666666 1384.1266666666668 -0.45675837940222896 0.7104350619084157 0.5354006029666336
-7.435196666666667 -116.70299999999999 1356.9233333333334 -0.8852404337533322 9.737548034190112e-05 0.4651337065470831
-11.142499999999998 -105.88166666666666 1322.9166666666667 0.9552498048704471 -0.29390225960801053 0.033455524092116405
-11.142499999999998 -105.88166666666666 1322.9166666666667 0.9552498048704473 -0.2939022596080104 0.03345552409211648
-12.195033333333333 -100.71990000000001 1309.4133333333332 -0.6720531702303935 0.42729868674066934 0.6047812568962246
-6.459196666666667 -100.5927 1354.8733333333332 -0.0990783438536128 0.3302833480975533 0.9386673488242231
59.1304 -168.57966666666667 2601.74 0.0 0.0 1.0
54.956500000000005 -91.13040000000001 2601.74 0.0 0.0 1.0
57.04346666666667 -87.88403333333333 2601.74 0.0 0.0 1.0
55.652166666666666 -82.78263333333332 2601.74 0.0 0.0 1.0
-5.628943333333333 -27.757666666666665 1469.07 -0.6710016035903141 -0.6100058307819254 0.4214851532275838
5.495496666666667 65.81903333333334 1623.1599999999999 0.9863420228184484 -0.09863420228184426 0.1319117438389605
56.347833333333334 147.01433333333333 2601.74 0.0 0.0 1.0
-4.307706666666667 131.5533333333333 1444.25 -0.39915812995261635 0.5080444489921248 0.7632585572013055
-7.147936666666666 123.757 1406.8966666666668 0.3498751161655787 0.29166847870428664 0.8902341835823032
54.260866666666665 248.34766666666667 2601.74 0.0 0.0 1.0
55.1884 323.01433333333335 2601.74 0.0 0.0 1.0
55.4203 382.3766666666667 2601.74 0.0 0.0 1.0
55.4203 -378.4346666666667 2601.74 0.0 0.0 1.0
-6.770779999999999 -127.38699999999999 1380.93 -0.23326681017662768 0.9330588042938507 0.2738391188266408
-7.313019999999999 -95.11056666666667 1345.73 -0.5177671672068428 0.25886558432763723 0.815417543233718
-9.254333333333333 -96.44916666666666 1322.9166666666667 -0.6238461598989606 0.20794721369186467 0.7533750228784535
-10.107456666666666 -39.03639999999999 1311.33 -0.5165696312238915 -0.8542860821533094 0.05788873756061484
-1.5861333333333327 -38.81333333333333 1481.1933333333334 -0.4176373332086569 0.904776134109075 0.08342184999745776
52.6377 24.5797 2601.74 0.0 0.0 1.0
5.495496666666667 65.81903333333334 1623.1599999999999 0.9863420228184486 -0.09863420228184466 0.13191174383896032
56.347833333333334 147.01433333333333 2601.74 0.0 0.0 1.0
-6.0259 118.80366666666667 1409.1066666666666 -0.7608202503877226 -0.634247120601121 -0.13741592560234675
-3.47447 130.06733333333332 1416.8933333333334 0.18041388920022652 0.36072906809851485 0.9150548442647716
-7.098566666666667 148.90599999999998 1447.7733333333333 -0.18374649160997425 -0.9800170389768924 0.07618287298330162
55.4203 382.3766666666667 2601.74 0.0 0.0 1.0
55.88406666666666 -359.884 2601.74 0.0 0.0 1.0
54.72463333333334 -338.5506666666667 2601.74 0.0 0.0 1.0
-6.830826666666667 -157.212 1422.5600000000002 -0.6034242143143722 0.7757380786050423 0.18468798277429876
-5.986116666666667 -138.04866666666666 1384.1266666666668 -0.45675837940222913 0.7104350619084159 0.5354006029666334
-6.770779999999999 -127.387 1380.93 -0.23326681017662762 0.9330588042938507 0.2738391188266408
55.4203 -137.50733333333335 2601.74 0.0 0.0 1.0
-9.32558 -39.768633333333334 1308.46 -0.5515871360767562 -0.8273754411302005 0.10583718972671256
1.7926323333333334 -32.60593333333333 1550.2666666666667 0.8953279144414749 0.171153400706039 0.4112109422773634
2.9323533333333334 26.73753333333333 1604.2966666666664 -0.982702552560661 -0.1227757556170354 0.13864273159249108
5.0075433333333335 28.049633333333333 1605.7266666666667 0.7846604366054915 -0.5231052640010538 0.33266932831336754
55.4203 127.76799999999999 2601.74 0.0 0.0 1.0
2.939261 118.17333333333335 1607.1633333333332 -0.1945714787260806 -0.970843962551246 0.1400140708791116
-5.741626666666666 122.488 1431.58 0.0 0.0 1.0
53.565200000000004 246.261 2601.74 0.0 0.0 1.0
53.7971 284.2896666666667 2601.74 0.0 0.0 1.0
55.652166666666666 319.304 2601.74 0.0 0.0 1.0
55.652166666666666 -363.5943333333333 2601.74 0.0 0.0 1.0
54.49276666666666 -311.18833333333333 2601.74 0.0 0.0 1.0
54.028999999999996 -303.3043333333333 2601.74 0.0 0.0 1.0
53.10143333333334 -294.9563333333333 2601.74 0.0 0.0 1.0
-12.7296 -104.29236666666668 1310.3666666666668 -0.8980171359897348 0.310841840928721 0.3113560235435275
55.88406666666666 -87.42026666666668 2601.74 0.0 0.0 1.0
51.942033333333335 -77.21736666666668 2601.74 0.0 0.0 1.0
4.554603333333334 -22.517033333333334 1550.2666666666667 0.11952810662388041 -0.7886825792404477 0.603069499253233
53.7971 8.115943333333334 2601.74 0.0 0.0 1.0
2.8121733333333334 72.29083333333334 1615.8466666666666 -0.7820082253729718 -0.6082279499603659 0.13609517381606973
54.260866666666665 129.391 2601.74 0.0 0.0 1.0
-7.704983333333334 120.322 1440.7733333333335 -0.36067940806146354 -0.8659562576921007 0.3464536395599334
51.71016666666666 253.681 2601.74 0.0 0.0 1.0
55.1884 266.6663333333333 2601.74 0.0 0.0 1.0
55.652166666666666 319.304 2601.74 0.0 0.0 1.0
52.4058 344.116 2601.74 0.0 0.0 1.0
55.4203 382.3766666666667 2601.74 0.0 0.0 1.0
52.4058 -326.7246666666667 2601.74 0.0 0.0 1.0
-12.104466666666667 -108.28333333333335 1324.8700000000001 0.9399569012135701 -0.28919708310045417 0.18123485036595968
