ply
format ascii 1.0
comment VCGLIB generated
element vertex 781
property float x
property float y
property float z
property float nx
property float ny
property float nz
element face 0
property list uchar int vertex_indices
end_header
-99.104 -50.72466666666666 1306.5600000000002 0.9076133367510906 -0.4068633181474977 0.10344211568582352
-116.38866666666667 -60.4861 1558.33 0.0 0.0 1.0
-110.57766666666669 -64.44443333333334 1994.67 0.0 0.0 1.0
-110.75533333333334 -63.9111 1994.67 0.0 0.0 1.0
-110.57766666666669 -63.02223333333333 1994.67 0.0 0.0 1.0
-106.27300000000001 -25.544933333333333 1473.9099999999999 -0.6516987571872117 -0.7283469381705472 0.21165884705873478
-109.86666666666667 2.22222 1994.67 0.0 0.0 1.0
-109.86666666666667 13.244433333333333 1994.67 0.0 0.0 1.0
-110.75533333333334 36.53333333333333 1994.67 0.0 0.0 1.0
-110.40000000000002 58.57776666666666 1994.67 0.0 0.0 1.0
-110.75566666666667 78.13333333333333 1994.67 0.0 0.0 1.0
-110.39999999999999 96.08890000000001 1994.67 0.0 0.0 1.0
-110.222 98.93336666666666 1994.67 0.0 0.0 1.0
-110.40000000000002 103.02233333333334 1994.67 0.0 0.0 1.0
-111.11133333333333 106.40000000000002 1994.67 0.0 0.0 1.0
-110.39999999999999 121.68866666666668 1994.67 0.0 0.0 1.0
-110.93333333333334 132.35566666666668 1994.67 0.0 0.0 1.0
-109.68866666666668 146.57766666666666 1994.67 0.0 0.0 1.0
-111.111 -146.22199999999998 1994.67 0.0 0.0 1.0
-111.111 -146.222 1994.67 0.0 0.0 1.0
-101.52686666666666 -93.9078 1356.92 0.0 0.0 1.0
-110.22233333333334 -118.48899999999999 1994.67 0.0 0.0 1.0
-111.111 -116.0 1994.67 0.0 0.0 1.0
-110.75533333333333 -98.40000000000002 1994.67 0.0 0.0 1.0
-110.04433333333334 -92.71109999999999 1994.67 0.0 0.0 1.0
-123.73633333333333 -74.6526 1781.0466666666664 -0.43785096627330755 -0.703423602814812 0.5598944242770778
-110.75533333333334 -63.9111 1994.67 0.0 0.0 1.0
-110.75533333333334 -63.9111 1994.67 0.0 0.0 1.0
-110.93333333333334 -62.84446666666667 1994.67 0.0 0.0 1.0
-110.75533333333334 -62.31113333333334 1994.67 0.0 0.0 1.0
-110.933 -59.82223333333334 1994.67 0.0 0.0 1.0
-110.933 -59.82223333333334 1994.67 0.0 0.0 1.0
-101.26133333333333 -33.6937 1347.75 0.0 0.0 1.0
-110.222 -39.02223333333333 1994.67 0.0 0.0 1.0
-104.53066666666666 -30.249800000000004 1546.25 0.0 0.0 1.0
-105.83333333333333 -23.40276666666667 1558.33 0.0 0.0 1.0
-104.78500000000001 -14.987853333333334 1455.96 0.0 0.0 1.0
-110.04433333333334 14.311099999999998 1994.67 0.0 0.0 1.0
-99.30466666666666 18.4867 1223.72 0.0 0.0 1.0
-111.28866666666669 34.93333333333333 1994.67 0.0 0.0 1.0
-109.86633333333334 38.13333333333333 1994.67 0.0 0.0 1.0
-111.111 44.0 1994.67 0.0 0.0 1.0
-111.111 46.3111 1994.67 0.0 0.0 1.0
-111.64433333333334 54.844433333333335 1994.67 0.0 0.0 1.0
-110.40000000000002 58.57776666666666 1994.67 0.0 0.0 1.0
-110.93299999999999 68.17776666666667 1994.67 0.0 0.0 1.0
-110.22233333333334 90.22223333333334 1994.67 0.0 0.0 1.0
-110.57766666666669 97.8667 1994.67 0.0 0.0 1.0
-110.40000000000002 103.02233333333334 1994.67 0.0 0.0 1.0
-110.93333333333334 105.86666666666667 1994.67 0.0 0.0 1.0
-110.93333333333334 107.46666666666665 1994.67 0.0 0.0 1.0
-111.111 114.39999999999999 1994.67 0.0 0.0 1.0
-111.64433333333334 115.46666666666668 1994.67 0.0 0.0 1.0
-110.75533333333334 122.40000000000002 1994.67 0.0 0.0 1.0
-111.28866666666666 123.46666666666668 1994.67 0.0 0.0 1.0
-110.933 133.60000000000002 1994.67 0.0 0.0 1.0
-110.933 133.60000000000002 1994.67 0.0 0.0 1.0
-110.933 133.6 1994.67 0.0 0.0 1.0
-111.111 -146.222 1994.67 0.0 0.0 1.0
-99.30166666666666 -86.94530000000002 1353.8633333333335 -0.9590949301636451 -0.1918084122503558 0.20819809779244056
-111.467 -103.73333333333335 1994.67 0.0 0.0 1.0
-101.96499999999999 -70.8298 1369.3500000000001 -0.9894263289967151 0.1318769633618931 0.06036560297495123
-101.95366666666666 -59.59733333333333 1338.7 0.0 0.0 1.0
-97.2201 -43.5624 1278.6666666666667 0.4845578657058932 -0.6003756276353907 0.6362018394534554
-112.178 -68.0 1994.67 0.0 0.0 1.0
-112.178 -68.0 1994.67 0.0 0.0 1.0
-111.46666666666665 -63.37776666666667 1994.67 0.0 0.0 1.0
-105.134 -28.505733333333335 1375.63 0.0 0.0 1.0
-104.39266666666667 -32.45476666666667 1546.25 0.0 0.0 1.0
-105.082 -31.076666666666668 1546.25 0.0 0.0 1.0
-105.83333333333333 -23.40276666666667 1558.33 0.0 0.0 1.0
-104.86200000000001 -22.121966666666665 1499.75 0.0 0.0 1.0
-104.29166666666667 -10.788806666666666 1522.6500000000003 3.0135892205817803e-26 3.4569989895224245e-27 1.0
-104.29166666666667 -10.788806666666666 1522.6500000000003 3.0135892205817803e-26 3.4569989895224245e-27 1.0
-105.99333333333334 -10.4377 1511.11 0.0 0.0 1.0
-111.82233333333333 -3.466666666666667 1994.67 0.0 0.0 1.0
-111.82233333333333 7.2 1994.67 0.0 0.0 1.0
-112.35566666666666 20.000033333333334 1994.67 0.0 0.0 1.0
-111.82233333333333 41.155566666666665 1994.67 0.0 0.0 1.0
-111.82233333333333 41.155566666666665 1994.67 0.0 0.0 1.0
-111.467 71.0222 1994.67 0.0 0.0 1.0
-111.467 71.0222 1994.67 0.0 0.0 1.0
-111.467 71.0222 1994.67 0.0 0.0 1.0
-111.28899999999999 95.55556666666666 1994.67 0.0 0.0 1.0
-111.64433333333334 105.68900000000001 1994.67 0.0 0.0 1.0
-111.11133333333333 106.40000000000002 1994.67 0.0 0.0 1.0
-111.111 114.40000000000002 1994.67 0.0 0.0 1.0
-110.40000000000002 120.08866666666667 1994.67 0.0 0.0 1.0
-111.11133333333333 131.64433333333332 1994.67 0.0 0.0 1.0
-111.11133333333333 131.64433333333332 1994.67 0.0 0.0 1.0
-111.11099999999999 139.111 1994.67 0.0 0.0 1.0
-92.51580000000001 81.5667 1180.3033333333333 0.2348706321582229 0.9072275700001396 0.3489612046936425
-104.4536 -94.96266666666666 1438.4766666666667 0.37308023964481224 0.78166459065773 0.49981156699145424
-112.71100000000001 -127.2 1994.67 0.0 0.0 1.0
-113.77766666666666 -124.0 1994.67 0.0 0.0 1.0
-111.11099999999999 -116.0 1994.67 0.0 0.0 1.0
-112.17766666666667 -114.40000000000002 1994.67 0.0 0.0 1.0
-112.53333333333335 -112.8 1994.67 0.0 0.0 1.0
-101.111 -70.95216666666666 1385.2300000000002 -0.9436869566498443 0.2832403529710059 0.17096733693257019
-98.84623333333333 -57.594500000000004 1273.2033333333331 0.8002931690239729 -0.400135876100011 0.44656704342264597
-112.17766666666667 -98.22223333333334 1994.67 0.0 0.0 1.0
-102.073 -53.393 1338.7 0.0 0.0 1.0
-111.46666666666665 -63.37776666666667 1994.67 0.0 0.0 1.0
-101.01923333333333 -39.0284 1309.42 0.5996638185622772 0.7995517580830384 0.03347074623653417
-112.17766666666667 -53.6 1994.67 0.0 0.0 1.0
-112.17766666666667 -53.599999999999994 1994.67 0.0 0.0 1.0
-105.81633333333333 -29.44926666666667 1734.49 0.0 0.0 1.0
-110.93333333333334 -7.02222 1994.67 0.0 0.0 1.0
-111.41966666666667 -12.490549999999999 1744.6366666666665 0.2728745430371958 -0.6670619447535022 0.6932300091772694
-112.0 6.4888900000000005 1994.67 0.0 0.0 1.0
-112.0 6.4888900000000005 1994.67 0.0 0.0 1.0
-111.82233333333333 7.199999999999999 1994.67 0.0 0.0 1.0
-98.08236666666666 7.263493666666666 1139.81 0.0 0.0 1.0
-112.35533333333335 24.444433333333336 1994.67 0.0 0.0 1.0
-98.52636666666666 17.7622 1168.7566666666667 -0.1637615271937905 0.982647926221913 0.08709314153784571
-111.822 54.666666666666664 1994.67 0.0 0.0 1.0
-112.35533333333335 55.73333333333333 1994.67 0.0 0.0 1.0
-111.64433333333334 59.28886666666667 1994.67 0.0 0.0 1.0
-111.64433333333334 59.28886666666667 1994.67 0.0 0.0 1.0
-112.35566666666666 73.15556666666667 1994.67 0.0 0.0 1.0
-112.53333333333335 87.73333333333333 1994.67 0.0 0.0 1.0
-112.0 94.4889 1994.67 0.0 0.0 1.0
-111.822 124.0 1994.67 0.0 0.0 1.0
-111.28866666666666 127.37766666666668 1994.67 0.0 0.0 1.0
-112.71100000000001 141.778 1994.67 0.0 0.0 1.0
-112.35533333333335 143.73333333333332 1994.67 0.0 0.0 1.0
-112.17766666666667 144.622 1994.67 0.0 0.0 1.0
-111.46666666666665 146.57766666666666 1994.67 0.0 0.0 1.0
-110.93333333333334 -139.46666666666667 1994.67 0.0 0.0 1.0
-111.11099999999999 -136.26666666666668 1994.67 0.0 0.0 1.0
-111.64433333333334 -128.79999999999998 1994.67 0.0 0.0 1.0
-113.59999999999998 -94.66666666666667 1994.67 0.0 0.0 1.0
-112.17766666666667 -53.6 1994.67 0.0 0.0 1.0
-104.53066666666666 -30.249800000000004 1546.25 0.0 0.0 1.0
-113.42200000000001 -39.02223333333333 1994.67 0.0 0.0 1.0
-106.21233333333333 -21.605866666666667 1455.96 0.0 0.0 1.0
-106.19866666666667 -18.6466 1499.75 0.0 0.0 1.0
-104.29166666666667 -10.788806666666666 1522.6500000000003 3.0135892205817803e-26 3.4569989895224245e-27 1.0
-112.35566666666666 8.266663333333332 1994.67 0.0 0.0 1.0
-112.35566666666666 20.000033333333334 1994.67 0.0 0.0 1.0
-112.35533333333335 24.444433333333336 1994.67 0.0 0.0 1.0
-112.711 25.333333333333332 1994.67 0.0 0.0 1.0
-104.14666666666666 20.9422 1562.55 0.030985774908889065 0.9932091354362667 0.11214051470917755
-112.0 36.53333333333333 1994.67 0.0 0.0 1.0
-112.711 40.622233333333334 1994.67 0.0 0.0 1.0
-112.17766666666667 46.13333333333333 1994.67 0.0 0.0 1.0
-112.35533333333335 55.73333333333333 1994.67 0.0 0.0 1.0
-112.35533333333335 55.73333333333333 1994.67 0.0 0.0 1.0
-112.17766666666667 68.7111 1994.67 0.0 0.0 1.0
-112.88866666666667 93.95556666666668 1994.67 0.0 0.0 1.0
-112.533 98.39999999999999 1994.67 0.0 0.0 1.0
-111.82233333333333 106.22233333333334 1994.67 0.0 0.0 1.0
-112.17766666666667 116.17766666666667 1994.67 0.0 0.0 1.0
-112.71100000000001 124.0 1994.67 0.0 0.0 1.0
-112.17766666666667 126.31099999999999 1994.67 0.0 0.0 1.0
-111.46633333333334 133.95533333333333 1994.67 0.0 0.0 1.0
-112.53333333333335 138.22199999999998 1994.67 0.0 0.0 1.0
-112.17766666666667 142.66666666666666 1994.67 0.0 0.0 1.0
-112.17766666666667 144.622 1994.67 0.0 0.0 1.0
-112.71133333333334 -101.06666666666668 1994.67 0.0 0.0 1.0
-115.02233333333334 -86.84443333333333 1994.67 0.0 0.0 1.0
-102.073 -55.89860000000001 1338.7 0.0 0.0 1.0
-113.59999999999998 -50.22223333333333 1994.67 0.0 0.0 1.0
-113.42233333333331 -49.155566666666665 1994.67 0.0 0.0 1.0
-103.099 -32.71353333333333 1356.92 0.0 0.0 1.0
-104.80633333333333 -32.17916666666667 1546.25 0.0 0.0 1.0
-104.59499999999998 -22.785633333333333 1408.0133333333333 -0.8987163133543862 -0.39946787587343263 -0.18092651617678518
-104.30833333333334 -21.345433333333332 1356.92 0.0 0.0 1.0
-105.99333333333334 -10.4377 1511.11 0.0 0.0 1.0
-108.61099999999999 -10.069456666666667 1558.33 0.0 0.0 1.0
-112.889 7.377776666666667 1994.67 0.0 0.0 1.0
-113.60000000000001 18.577766666666665 1994.67 0.0 0.0 1.0
-113.24433333333333 20.355566666666665 1994.67 0.0 0.0 1.0
-112.711 25.333333333333332 1994.67 0.0 0.0 1.0
-112.17766666666667 37.244433333333326 1994.67 0.0 0.0 1.0
-113.42233333333333 46.31113333333334 1994.67 0.0 0.0 1.0
-99.47076666666668 27.56613333333333 1187.3 0.0 0.0 1.0
-113.067 69.77776666666666 1994.67 0.0 0.0 1.0
-113.77799999999998 75.2889 1994.67 0.0 0.0 1.0
-113.95566666666666 81.15553333333332 1994.67 0.0 0.0 1.0
-113.77799999999998 112.978 1994.67 0.0 0.0 1.0
-112.17766666666667 116.17766666666667 1994.67 0.0 0.0 1.0
-114.31133333333332 -126.13333333333333 1994.67 0.0 0.0 1.0
-114.48899999999999 -118.48899999999999 1994.67 0.0 0.0 1.0
-113.77766666666666 -114.222 1994.67 0.0 0.0 1.0
-112.17766666666667 -98.22223333333334 1994.67 0.0 0.0 1.0
-113.60000000000001 -94.66666666666667 1994.67 0.0 0.0 1.0
-101.95366666666666 -59.59733333333333 1338.7 0.0 0.0 1.0
-110.04166666666667 -81.08236666666666 1881.8700000000001 -0.44073272189614127 0.5517854831438387 0.7080165594403418
-100.30723333333333 -58.07053333333332 1309.42 0.8910480469475095 0.3084111580919741 0.333040441381218
-102.073 -53.393 1338.7 0.0 0.0 1.0
-114.31133333333332 -73.6889 1994.67 0.0 0.0 1.0
-114.13333333333333 -72.08886666666666 1994.67 0.0 0.0 1.0
-113.59999999999998 -70.1333 1994.67 0.0 0.0 1.0
-113.77766666666666 -68.7111 1994.67 0.0 0.0 1.0
-113.42233333333333 -49.86666666666667 1994.67 0.0 0.0 1.0
-113.42233333333333 -49.155566666666665 1994.67 0.0 0.0 1.0
-105.95566666666667 -25.066666666666663 1329.78 0.0 0.0 1.0
-110.64133333333332 -17.99459 1621.68 0.0 0.0 1.0
-114.66666666666667 0.6222213333333333 1994.67 0.0 0.0 1.0
-112.889 7.377776666666667 1994.67 0.0 0.0 1.0
-113.42200000000001 48.088899999999995 1994.67 0.0 0.0 1.0
-113.42233333333333 53.06666666666666 1994.67 0.0 0.0 1.0
-113.42233333333333 73.8667 1994.67 0.0 0.0 1.0
-113.24433333333333 102.84466666666667 1994.67 0.0 0.0 1.0
-113.77799999999998 112.978 1994.67 0.0 0.0 1.0
-113.77766666666666 123.64466666666665 1994.67 0.0 0.0 1.0
-113.95533333333333 136.8 1994.67 0.0 0.0 1.0
-113.24433333333333 140.71133333333333 1994.67 0.0 0.0 1.0
-114.48866666666667 -146.9333333333333 1994.67 0.0 0.0 1.0
-114.48866666666667 -146.9333333333333 1994.67 0.0 0.0 1.0
-112.86366666666667 -114.48033333333335 1639.4733333333334 -0.6239737010913885 -0.655161680889734 0.42593425811978664
-114.48866666666667 -130.57766666666666 1994.67 0.0 0.0 1.0
-120.02633333333331 -95.48496666666666 1893.7066666666667 0.19196087586466648 0.5886585204123652 0.7852593001570852
-110.30806666666668 -98.33763333333333 1852.6633333333332 0.27137160740739685 -0.8399825413302244 0.4698795387687611
-102.78166666666668 -78.55146666666666 1477.53 0.0 0.0 1.0
-94.48259999999999 -67.205 1221.2333333333333 0.6949014937163496 0.7188931605770865 0.01745100874658301
-115.2 -77.77776666666666 1994.67 0.0 0.0 1.0
-114.13333333333333 -72.08886666666666 1994.67 0.0 0.0 1.0
-114.31099999999999 -68.0 1994.67 0.0 0.0 1.0
-101.34609999999999 -34.7319 1204.0366666666666 0.7348650109891622 0.5750953175476788 0.35949797128583766
-114.66666666666667 -56.800000000000004 1994.67 0.0 0.0 1.0
-113.60000000000001 -50.22223333333333 1994.67 0.0 0.0 1.0
-103.099 -32.71353333333333 1356.92 0.0 0.0 1.0
-105.65433333333333 -25.84936666666667 1418.0266666666666 -0.7010447962146252 -0.7009830174528047 -0.13099237742386097
-106.49233333333332 -22.832233333333335 1303.7 0.0 0.0 1.0
-118.15266666666666 -34.23343333333333 1870.0333333333335 0.39057704468946136 -0.885298216640002 0.25238193234793765
-104.86500000000001 -16.287333333333333 1347.79 -0.3064465100912781 0.919062688311963 0.2478191102511349
-119.34333333333332 -22.830533333333335 1962.0133333333333 -0.7090024554804746 0.6794536241619399 0.1888340296023558
-114.717 -17.861633333333334 1881.76 0.0 0.0 1.0
-115.022 -2.22222 1994.67 0.0 0.0 1.0
-113.24433333333333 20.355566666666665 1994.67 0.0 0.0 1.0
-113.95533333333333 40.622233333333334 1994.67 0.0 0.0 1.0
-114.13333333333333 49.333333333333336 1994.67 0.0 0.0 1.0
-115.022 61.955533333333335 1994.67 0.0 0.0 1.0
-114.31099999999999 67.11113333333333 1994.67 0.0 0.0 1.0
-113.95566666666667 81.15553333333332 1994.67 0.0 0.0 1.0
-113.59966666666666 94.31110000000001 1994.67 0.0 0.0 1.0
-114.48866666666667 95.7333 1994.67 0.0 0.0 1.0
-113.95533333333333 98.2222 1994.67 0.0 0.0 1.0
-114.31099999999999 136.44466666666668 1994.67 0.0 0.0 1.0
-113.95533333333333 136.79999999999998 1994.67 0.0 0.0 1.0
-113.95533333333333 138.4 1994.67 0.0 0.0 1.0
-114.48866666666667 139.11133333333336 1994.67 0.0 0.0 1.0
-114.84433333333334 145.68866666666668 1994.67 0.0 0.0 1.0
-103.28766666666667 -96.82950000000001 1353.8633333333335 -0.37599698720972347 -0.9024259314873158 0.21036564307999886
-116.26666666666665 -142.31133333333332 1994.67 0.0 0.0 1.0
-102.78266666666666 -85.10973333333332 1206.4633333333334 -0.579128938936586 -0.47382536446815776 0.6633997257105262
-115.2 -126.84433333333334 1994.67 0.0 0.0 1.0
-114.66666666666667 -125.77766666666666 1994.67 0.0 0.0 1.0
-100.17073333333333 -86.19263333333333 1363.1133333333335 0.7068584924693525 0.7068197923055167 0.027510958346456674
-114.88066666666667 -98.22136666666665 1709.74 -0.6168270967151416 0.5639431685428159 0.5490832681951423
-115.2 -118.31099999999999 1994.67 0.0 0.0 1.0
-115.02233333333334 -117.77766666666666 1994.67 0.0 0.0 1.0
-111.77233333333334 -99.9103 1666.8766666666668 -0.6564229550991268 0.5009524171372453 0.5640528164837766
-95.48086666666667 -53.373866666666665 1249.2833333333335 0.44247366882253836 -0.4424829298562532 0.7800166082748167
-113.60000000000001 -94.66666666666667 1994.67 0.0 0.0 1.0
-116.84400000000001 -63.83253333333334 1445.41 0.0 0.0 1.0
-122.80499999999999 -86.38619999999999 1936.57 0.0 0.0 1.0
-104.29899999999999 -72.85646666666666 1473.9099999999999 -0.4674832911250697 0.6234030894559325 0.6267598906883497
-114.48899999999999 -78.66666666666667 1994.67 0.0 0.0 1.0
-114.48899999999999 -78.66666666666667 1994.67 0.0 0.0 1.0
-114.31133333333332 -73.6889 1994.67 0.0 0.0 1.0
-114.13333333333333 -72.8 1994.67 0.0 0.0 1.0
-115.73333333333333 -62.844433333333335 1994.67 0.0 0.0 1.0
-114.66666666666667 -56.79999999999999 1994.67 0.0 0.0 1.0
-104.06666666666668 -34.5276 1356.92 0.0 0.0 1.0
-114.84466666666667 -47.37776666666667 1994.67 0.0 0.0 1.0
-117.15566666666666 -28.888899999999996 1994.67 0.0 0.0 1.0
-112.02366666666667 -18.207883333333335 1695.2133333333331 -0.7981739341518673 -0.5819932041488171 0.1555708236306667
-116.91533333333332 -10.54875 1807.8866666666665 0.2214646508306213 0.9744718698196282 -0.036850825807688344
-115.37766666666668 0.799999 1994.67 0.0 0.0 1.0
-114.31099999999999 10.933343333333333 1994.67 0.0 0.0 1.0
-114.66666666666667 24.8 1994.67 0.0 0.0 1.0
-113.77799999999998 46.84446666666667 1994.67 0.0 0.0 1.0
-114.48899999999999 50.57776666666666 1994.67 0.0 0.0 1.0
-114.66666666666667 52.35556666666667 1994.67 0.0 0.0 1.0
-114.13366666666667 69.42223333333332 1994.67 0.0 0.0 1.0
-114.13366666666667 69.42223333333332 1994.67 0.0 0.0 1.0
-114.66666666666667 74.04446666666666 1994.67 0.0 0.0 1.0
-115.02233333333334 74.57780000000001 1994.67 0.0 0.0 1.0
-113.95566666666667 81.15553333333332 1994.67 0.0 0.0 1.0
-116.089 86.13336666666667 1994.67 0.0 0.0 1.0
-113.77799999999998 112.97800000000001 1994.67 0.0 0.0 1.0
-115.02233333333334 120.089 1994.67 0.0 0.0 1.0
-115.55566666666668 130.22233333333335 1994.67 0.0 0.0 1.0
-114.48899999999999 135.73366666666666 1994.67 0.0 0.0 1.0
-114.31099999999999 136.44466666666668 1994.67 0.0 0.0 1.0
-115.02233333333334 144.97766666666666 1994.67 0.0 0.0 1.0
-115.02233333333334 144.97766666666666 1994.67 0.0 0.0 1.0
-114.48866666666667 -146.9333333333333 1994.67 0.0 0.0 1.0
-120.74233333333332 -113.44823333333333 1905.7700000000002 0.1645533716252797 0.5046119102837086 0.8475193259664224
-115.2 -126.84433333333334 1994.67 0.0 0.0 1.0
-115.2 -118.31099999999999 1994.67 0.0 0.0 1.0
-116.27 -83.91956666666667 1591.51 -0.3268916940630852 0.32712152183027415 0.8866416019497461
-108.04333333333334 -86.06546666666667 1709.74 -0.9253531482836485 0.2672827407072956 0.2688521665926028
-114.66666666666667 -69.24443333333333 1994.67 0.0 0.0 1.0
-115.02199999999999 -67.64446666666667 1994.67 0.0 0.0 1.0
-114.66666666666667 -56.79999999999999 1994.67 0.0 0.0 1.0
-103.61899999999999 -29.015866666666668 1424.76 0.0 0.0 1.0
-103.61899999999999 -29.015866666666668 1424.76 0.0 0.0 1.0
-105.93133333333333 -27.201333333333334 1499.75 0.0 0.0 1.0
-105.414 -20.939600000000002 1338.7 0.0 0.0 1.0
-114.28599999999999 -24.620833333333334 1583.07 0.0 0.0 1.0
-107.52366666666667 -21.4716 1492.29 -0.8028682891912758 0.5915715145557877 0.07379467038509945
-108.99166666666667 -8.68378 1534.36 0.0 0.0 1.0
-114.03966666666668 -9.302326666666666 1546.25 0.0 0.0 1.0
-115.37766666666666 -2.7555533333333333 1994.67 0.0 0.0 1.0
-100.00716666666666 10.698123333333333 1206.4633333333334 0.7971379721176599 0.06644911522396915 0.6001296264092423
-115.19999999999999 19.644433333333335 1994.67 0.0 0.0 1.0
-98.69933333333334 18.340076666666665 1184.96 0.7370530500283833 -0.08931567238225978 0.6699070921484279
-113.95533333333333 40.622233333333334 1994.67 0.0 0.0 1.0
-115.022 61.955533333333335 1994.67 0.0 0.0 1.0
-116.089 84.0 1994.67 0.0 0.0 1.0
-115.02199999999999 96.79996666666666 1994.67 0.0 0.0 1.0
-115.02233333333334 102.84466666666667 1994.67 0.0 0.0 1.0
-115.02233333333334 120.089 1994.67 0.0 0.0 1.0
-115.02233333333334 120.089 1994.67 0.0 0.0 1.0
-113.77766666666668 123.64466666666665 1994.67 0.0 0.0 1.0
-114.48866666666667 139.11133333333336 1994.67 0.0 0.0 1.0
-120.26166666666666 83.29033333333334 1251.8966666666668 -0.36081563294499386 0.6888278444774432 0.6287513655611914
-115.2 -126.31099999999999 1994.67 0.0 0.0 1.0
-115.37766666666668 -125.06666666666666 1994.67 0.0 0.0 1.0
-115.2 -118.31099999999999 1994.67 0.0 0.0 1.0
-115.73333333333335 -115.111 1994.67 0.0 0.0 1.0
-116.622 -109.95566666666667 1994.67 0.0 0.0 1.0
-116.27 -83.91956666666667 1591.51 -0.3268916940631196 0.3271215218302104 0.8866416019497567
-116.44433333333332 -86.31110000000001 1994.67 0.0 0.0 1.0
-116.79966666666667 -83.4667 1994.67 0.0 0.0 1.0
-115.911 -68.0 1994.67 0.0 0.0 1.0
-116.26666666666667 -61.955533333333335 1994.67 0.0 0.0 1.0
-115.911 -61.4222 1994.67 0.0 0.0 1.0
-97.32663333333333 -35.02093333333333 1159.716666666667 0.018788219247561053 0.623918170170665 0.7812637965171525
-108.88933333333334 -30.261466666666664 1466.67 0.0 0.0 1.0
-109.36033333333332 -33.19866666666667 1511.11 0.0 0.0 1.0
-104.70633333333335 -28.5621 1466.67 0.0 0.0 1.0
-114.61666666666667 -26.478566666666666 1875.8966666666668 0.9312166868278371 0.3643656972215071 0.008551073714509782
-104.07333333333334 -19.094733333333334 1452.4433333333334 -0.9616777039508109 0.10304760997179438 0.25408105754462973
-109.956 -9.5888 1570.5999999999997 -2.4142452903164145e-27 -2.279000171584599e-27 1.0
-116.08866666666667 -0.08888866666666669 1994.67 0.0 0.0 1.0
-115.733 0.088889 1994.67 0.0 0.0 1.0
-115.37766666666668 0.799999 1994.67 0.0 0.0 1.0
-116.089 12.0 1994.67 0.0 0.0 1.0
-116.79966666666667 16.8 1994.67 0.0 0.0 1.0
-116.622 33.6889 1994.67 0.0 0.0 1.0
-115.02233333333334 51.46666666666667 1994.67 0.0 0.0 1.0
-116.089 60.355533333333334 1994.67 0.0 0.0 1.0
-115.02233333333334 74.57780000000001 1994.67 0.0 0.0 1.0
-115.911 97.86663333333333 1994.67 0.0 0.0 1.0
-115.37766666666666 116.711 1994.67 0.0 0.0 1.0
-115.911 129.15566666666666 1994.67 0.0 0.0 1.0
-115.55566666666668 144.97766666666666 1994.67 0.0 0.0 1.0
-116.44466666666666 -102.84466666666667 1994.67 0.0 0.0 1.0
-116.44466666666666 -102.84466666666667 1994.67 0.0 0.0 1.0
-116.62233333333334 -95.3778 1994.67 0.0 0.0 1.0
-101.267 -56.673033333333336 1275.9166666666667 0.898090960116297 -0.19245253041840268 0.39546763570858956
-116.62233333333334 -87.19996666666667 1994.67 0.0 0.0 1.0
-116.089 -75.46666666666667 1994.67 0.0 0.0 1.0
-116.26666666666667 -61.955533333333335 1994.67 0.0 0.0 1.0
-103.62266666666666 -35.49466666666667 1366.21 0.0 0.0 1.0
-102.28366666666666 -32.76396666666667 1238.9566666666667 -0.8659939018975744 -0.43043866860577534 0.2545134857823874
-105.134 -28.505733333333335 1375.63 0.0 0.0 1.0
-104.55 -22.312933333333334 1356.92 0.0 0.0 1.0
-117.15566666666666 -28.888899999999996 1994.67 0.0 0.0 1.0
-114.84466666666667 -16.8 1994.67 0.0 0.0 1.0
-101.13430000000001 -7.397056666666668 1394.87 0.0 0.0 1.0
-108.61099999999999 -10.069456666666667 1558.33 0.0 0.0 1.0
-116.26666666666665 18.755566666666667 1994.67 0.0 0.0 1.0
-116.089 60.355533333333334 1994.67 0.0 0.0 1.0
-116.089 60.355533333333334 1994.67 0.0 0.0 1.0
-116.97800000000001 67.82223333333333 1994.67 0.0 0.0 1.0
-116.26666666666665 85.24446666666667 1994.67 0.0 0.0 1.0
-116.8 100.17776666666667 1994.67 0.0 0.0 1.0
-116.44466666666666 103.73333333333333 1994.67 0.0 0.0 1.0
-116.44466666666666 104.26666666666667 1994.67 0.0 0.0 1.0
-116.44466666666666 104.8 1994.67 0.0 0.0 1.0
-116.44433333333332 131.111 1994.67 0.0 0.0 1.0
-116.26666666666667 144.44433333333333 1994.67 0.0 0.0 1.0
-116.26666666666665 -142.31133333333332 1994.67 0.0 0.0 1.0
-94.51473333333333 -87.93246666666668 1262.45 0.0 0.0 1.0
-117.33333333333333 -129.8663333333333 1994.67 0.0 0.0 1.0
-117.33333333333333 -129.8663333333333 1994.67 0.0 0.0 1.0
-116.8 -119.02199999999999 1994.67 0.0 0.0 1.0
-116.08866666666667 -112.97766666666666 1994.67 0.0 0.0 1.0
-116.97766666666666 -109.06666666666666 1994.67 0.0 0.0 1.0
-116.8 -108.0 1994.67 0.0 0.0 1.0
-116.8 -108.0 1994.67 0.0 0.0 1.0
-116.44466666666666 -102.84466666666667 1994.67 0.0 0.0 1.0
-117.33333333333333 -77.24443333333333 1994.67 0.0 0.0 1.0
-116.622 -67.82223333333333 1994.67 0.0 0.0 1.0
-116.62233333333332 -62.13333333333333 1994.67 0.0 0.0 1.0
-116.62233333333332 -62.13333333333333 1994.67 0.0 0.0 1.0
-101.26133333333333 -33.6937 1347.75 0.0 0.0 1.0
-115.911 -49.15553333333333 1994.67 0.0 0.0 1.0
-116.089 -47.73329999999999 1994.67 0.0 0.0 1.0
-107.06866666666667 -31.159233333333333 1503.5366666666666 -0.9799781170992873 0.19599562341985743 0.03505147082216415
-116.08866666666667 -39.555566666666664 1994.67 0.0 0.0 1.0
-105.90866666666666 -27.217933333333335 1546.25 0.0 0.0 1.0
-105.83333333333333 -23.40276666666667 1558.33 0.0 0.0 1.0
-110.44466666666666 -10.782650000000002 1626.11 0.9427358135415541 0.18249128548446747 0.27918831742816674
-108.99166666666667 -8.68378 1534.36 0.0 0.0 1.0
-117.68866666666666 -5.244443333333334 1994.67 0.0 0.0 1.0
-116.44433333333332 -2.7555533333333333 1994.67 0.0 0.0 1.0
-116.08866666666667 0.44444466666666665 1994.67 0.0 0.0 1.0
-115.91099999999999 6.488886666666667 1994.67 0.0 0.0 1.0
-116.44466666666666 24.8 1994.67 0.0 0.0 1.0
-100.54583333333333 14.5769 1206.4633333333334 -2.577901904498562e-15 -0.8116770625810193 0.5841064509829078
-116.622 33.6889 1994.67 0.0 0.0 1.0
-116.089 46.4889 1994.67 0.0 0.0 1.0
-116.089 46.4889 1994.67 0.0 0.0 1.0
-116.97800000000001 67.82223333333333 1994.67 0.0 0.0 1.0
-116.62233333333334 83.46666666666667 1994.67 0.0 0.0 1.0
-117.33333333333333 90.2222 1994.67 0.0 0.0 1.0
-116.26666666666667 98.75553333333333 1994.67 0.0 0.0 1.0
-116.8 103.55533333333334 1994.67 0.0 0.0 1.0
-116.44466666666666 104.8 1994.67 0.0 0.0 1.0
-116.44466666666666 111.2 1994.67 0.0 0.0 1.0
-115.73333333333333 119.73333333333333 1994.67 0.0 0.0 1.0
-116.26666666666667 144.44433333333333 1994.67 0.0 0.0 1.0
-112.86366666666667 -114.48033333333332 1639.4733333333334 -0.6239737010913884 -0.6551616808897338 0.42593425811978686
-117.03233333333333 -142.01633333333334 1988.0866666666668 0.8945899102753344 -0.4468757471197304 -0.0033104485726257495
-116.26666666666665 -142.31133333333332 1994.67 0.0 0.0 1.0
-101.52686666666666 -93.9078 1356.92 0.0 0.0 1.0
-116.622 -109.95566666666666 1994.67 0.0 0.0 1.0
-118.04433333333334 -100.53333333333335 1994.67 0.0 0.0 1.0
-118.39999999999999 -93.59999999999998 1994.67 0.0 0.0 1.0
-117.15533333333333 -85.77776666666666 1994.67 0.0 0.0 1.0
-115.911 -81.8667 1994.67 0.0 0.0 1.0
-117.33333333333333 -77.24443333333333 1994.67 0.0 0.0 1.0
-116.622 -67.82223333333333 1994.67 0.0 0.0 1.0
-117.33333333333333 -57.15553333333333 1994.67 0.0 0.0 1.0
-103.62266666666666 -35.49466666666667 1366.21 0.0 0.0 1.0
-104.91333333333334 -36.70446666666666 1356.92 0.0 0.0 1.0
-105.71499999999999 -27.684366666666666 1428.1766666666665 0.9862740355133365 2.283982976254737e-15 0.16511670682350033
-106.47133333333333 -21.293766666666667 1401.4166666666667 -0.8089210208933149 -0.359555019936752 0.46515263042919497
-107.63933333333334 -10.461356666666667 1372.49 -0.30206217950402764 0.906679299000682 0.29443350433826054
-117.51100000000001 -3.8222199999999997 1994.67 0.0 0.0 1.0
-117.33333333333333 -3.11111 1994.67 0.0 0.0 1.0
-118.39999999999999 3.288886666666667 1994.67 0.0 0.0 1.0
-117.33300000000001 17.15556666666667 1994.67 0.0 0.0 1.0
-117.33300000000001 17.15556666666667 1994.67 0.0 0.0 1.0
-117.33300000000001 17.15556666666667 1994.67 0.0 0.0 1.0
-103.55833333333334 17.723233333333337 1223.72 0.0 0.0 1.0
-94.9301 20.976033333333334 1372.49 1.3804899882793504e-17 0.9843450594833628 0.17625210316672804
-117.33300000000001 31.2 1994.67 0.0 0.0 1.0
-116.622 33.6889 1994.67 0.0 0.0 1.0
-118.39999999999999 38.13333333333333 1994.67 0.0 0.0 1.0
-118.222 49.333333333333336 1994.67 0.0 0.0 1.0
-118.04433333333333 72.6222 1994.67 0.0 0.0 1.0
-116.97766666666666 76.7111 1994.67 0.0 0.0 1.0
-117.15566666666666 85.95556666666668 1994.67 0.0 0.0 1.0
-117.33333333333333 90.2222 1994.67 0.0 0.0 1.0
-118.04433333333334 94.66663333333334 1994.67 0.0 0.0 1.0
-117.51100000000001 100.889 1994.67 0.0 0.0 1.0
-116.8 103.55533333333334 1994.67 0.0 0.0 1.0
-116.8 105.68866666666668 1994.67 0.0 0.0 1.0
-117.51100000000001 118.48866666666667 1994.67 0.0 0.0 1.0
-117.33300000000001 128.44433333333333 1994.67 0.0 0.0 1.0
-117.51100000000001 132.17766666666668 1994.67 0.0 0.0 1.0
-115.73333333333333 -147.11133333333333 1994.67 0.0 0.0 1.0
-102.63576666666667 -85.48026666666668 1309.42 -0.43057489786659914 -0.7783698034755336 0.45688697329276845
-118.75566666666667 -125.42233333333331 1994.67 0.0 0.0 1.0
-116.8 -119.02199999999999 1994.67 0.0 0.0 1.0
-117.33333333333333 -101.42233333333333 1994.67 0.0 0.0 1.0
-117.51133333333333 -87.19996666666667 1994.67 0.0 0.0 1.0
-117.33333333333333 -77.24443333333333 1994.67 0.0 0.0 1.0
-117.15566666666666 -62.844433333333335 1994.67 0.0 0.0 1.0
-104.91333333333334 -36.70446666666667 1356.92 0.0 0.0 1.0
-111.64033333333333 -38.338166666666666 1724.5233333333333 -0.41891382124341525 -0.7181045090106633 0.5557311620827055
-104.91300000000001 -20.619799999999998 1356.92 0.0 0.0 1.0
-106.03166666666668 -17.079366666666665 1424.76 0.0 0.0 1.0
-119.919 -14.626249999999999 1813.33 0.0 0.0 1.0
-111.38266666666668 -9.784323333333333 1578.9133333333332 0.8513831109785985 -0.5238937910870535 -0.026116929391461364
-118.04433333333333 -4.1777766666666665 1994.67 0.0 0.0 1.0
-118.57800000000002 13.066633333333334 1994.67 0.0 0.0 1.0
-117.86666666666667 15.022233333333332 1994.67 0.0 0.0 1.0
-117.51133333333333 20.355566666666665 1994.67 0.0 0.0 1.0
-117.86666666666667 24.26666666666667 1994.67 0.0 0.0 1.0
-100.54583333333333 14.5769 1206.4633333333334 -2.577901904498562e-15 -0.8116770625810193 0.5841064509829078
-103.55833333333334 17.723233333333337 1223.72 0.0 0.0 1.0
-118.40000000000002 40.0889 1994.67 0.0 0.0 1.0
-116.978 67.82223333333333 1994.67 0.0 0.0 1.0
-118.04433333333334 72.6222 1994.67 0.0 0.0 1.0
-118.40033333333334 80.44443333333334 1994.67 0.0 0.0 1.0
-118.04466666666667 81.68886666666667 1994.67 0.0 0.0 1.0
-117.51133333333333 82.57776666666666 1994.67 0.0 0.0 1.0
-117.15566666666666 85.95556666666668 1994.67 0.0 0.0 1.0
-118.04466666666667 90.93333333333334 1994.67 0.0 0.0 1.0
-116.44466666666666 111.2 1994.67 0.0 0.0 1.0
-118.04433333333333 133.06633333333332 1994.67 0.0 0.0 1.0
-117.86666666666667 146.04433333333336 1994.67 0.0 0.0 1.0
-118.93333333333334 -128.97766666666666 1994.67 0.0 0.0 1.0
-118.22200000000002 -94.31110000000001 1994.67 0.0 0.0 1.0
-117.86666666666667 -86.3111 1994.67 0.0 0.0 1.0
-118.57766666666667 -73.68886666666667 1994.67 0.0 0.0 1.0
-118.57766666666669 -73.15553333333332 1994.67 0.0 0.0 1.0
-118.57766666666667 -73.15553333333332 1994.67 0.0 0.0 1.0
-109.36033333333332 -33.19866666666667 1511.11 0.0 0.0 1.0
-104.925 -22.146066666666666 1221.2333333333333 -0.8342778755268879 -0.5134802233706481 0.200794637910407
-105.55333333333333 -22.592966666666666 1251.8966666666668 0.8501609562949035 -0.4637094952282014 0.24939898240959596
-105.17533333333331 -14.973910000000002 1338.7 0.0 0.0 1.0
-114.84466666666667 -16.8 1994.67 0.0 0.0 1.0
-105.99333333333334 -10.4377 1511.11 0.0 0.0 1.0
-105.50066666666667 -12.995786666666666 1452.4433333333334 -0.7113844274119504 -0.5241630158281507 0.4681723286074367
-107.29066666666667 -8.234233333333334 1292.4533333333334 -0.7898655845836233 0.04384073423603918 0.6117110006465603
-119.289 2.577776666666667 1994.67 0.0 0.0 1.0
-118.04466666666667 13.777766666666666 1994.67 0.0 0.0 1.0
-118.93333333333334 20.888900000000003 1994.67 0.0 0.0 1.0
-97.32693333333333 4.2771333333333335 1315.1766666666665 -0.5192537898182181 -0.14378909094072134 0.8424370594209747
-119.111 40.622233333333334 1994.67 0.0 0.0 1.0
-118.22200000000002 49.333333333333336 1994.67 0.0 0.0 1.0
-119.289 58.755533333333325 1994.67 0.0 0.0 1.0
-118.04433333333334 94.66663333333334 1994.67 0.0 0.0 1.0
-118.75566666666668 95.37776666666667 1994.67 0.0 0.0 1.0
-118.57766666666667 118.31099999999999 1994.67 0.0 0.0 1.0
-119.289 120.79966666666667 1994.67 0.0 0.0 1.0
-118.93333333333334 126.133 1994.67 0.0 0.0 1.0
-119.822 138.22233333333335 1994.67 0.0 0.0 1.0
-118.75533333333334 -128.26666666666665 1994.67 0.0 0.0 1.0
-118.933 -127.02233333333334 1994.67 0.0 0.0 1.0
-118.75566666666667 -125.42233333333333 1994.67 0.0 0.0 1.0
-118.57766666666667 -107.111 1994.67 0.0 0.0 1.0
-118.57766666666667 -100.0 1994.67 0.0 0.0 1.0
-118.93333333333334 -94.13333333333333 1994.67 0.0 0.0 1.0
-118.57766666666669 -73.15553333333332 1994.67 0.0 0.0 1.0
-119.28866666666666 -68.71113333333334 1994.67 0.0 0.0 1.0
-119.28866666666666 -67.64446666666667 1994.67 0.0 0.0 1.0
-118.93333333333334 -42.04443333333333 1994.67 0.0 0.0 1.0
-104.66366666666666 -20.276899999999998 1246.7 -0.9894499173820825 -0.1141444580198853 0.08921829238411114
-109.50333333333333 -23.892833333333332 1414.66 0.0 0.0 1.0
-105.63866666666667 -21.708233333333336 1356.92 0.0 0.0 1.0
-118.123 -30.9665 1852.6633333333332 -0.7528039937769848 0.4391642461882643 0.49032735169814384
-107.24366666666667 -10.44734 1295.24 0.0 0.0 1.0
-107.63933333333334 -10.461356666666667 1372.49 -0.3020621795040337 0.9066792990006792 0.2944335043382627
-108.87399999999998 -11.513810000000001 1338.7 0.0 0.0 1.0
-109.956 -9.588799999999999 1570.5999999999997 -1.6777970654377094e-27 -1.3335854558604233e-27 1.0
-118.57766666666667 -4.355556666666667 1994.67 0.0 0.0 1.0
-118.57766666666667 -4.355556666666667 1994.67 0.0 0.0 1.0
-117.86633333333334 17.6889 1994.67 0.0 0.0 1.0
-118.75566666666667 23.911133333333336 1994.67 0.0 0.0 1.0
-103.46533333333332 21.040333333333333 1579.0433333333333 -0.2619700444265086 0.964066188255982 0.04413706475010262
-119.64433333333334 28.1778 1994.67 0.0 0.0 1.0
-119.64433333333334 28.1778 1994.67 0.0 0.0 1.0
-119.111 40.622233333333334 1994.67 0.0 0.0 1.0
-118.22200000000002 49.333333333333336 1994.67 0.0 0.0 1.0
-118.04433333333334 72.6222 1994.67 0.0 0.0 1.0
-118.933 101.95566666666666 1994.67 0.0 0.0 1.0
-118.93333333333334 127.55533333333334 1994.67 0.0 0.0 1.0
-118.04433333333334 133.06633333333332 1994.67 0.0 0.0 1.0
-118.93333333333334 -128.97766666666666 1994.67 0.0 0.0 1.0
-119.64433333333334 -125.59999999999998 1994.67 0.0 0.0 1.0
-119.46666666666665 -100.53333333333335 1994.67 0.0 0.0 1.0
-119.64466666666665 -92.88889999999999 1994.67 0.0 0.0 1.0
-119.467 -92.53333333333335 1994.67 0.0 0.0 1.0
-119.467 -92.53333333333335 1994.67 0.0 0.0 1.0
-119.28899999999999 -57.15553333333333 1994.67 0.0 0.0 1.0
-113.19433333333332 -34.93053333333334 1558.33 0.0 0.0 1.0
-118.62533333333333 -27.37953333333333 1988.0866666666668 -9.574327964200127e-17 0.9955880187870723 0.09383228041368395
-109.956 -9.588799999999999 1570.5999999999997 -1.6777970654377094e-27 -1.3335854558604233e-27 1.0
-118.57766666666667 -3.11111 1994.67 0.0 0.0 1.0
-120.0 2.2222233333333334 1994.67 0.0 0.0 1.0
-119.11133333333333 12.177766666666665 1994.67 0.0 0.0 1.0
-118.75566666666667 23.911133333333336 1994.67 0.0 0.0 1.0
-120.71133333333334 55.3778 1994.67 0.0 0.0 1.0
-119.82233333333333 61.06666666666666 1994.67 0.0 0.0 1.0
-119.82233333333333 61.06666666666666 1994.67 0.0 0.0 1.0
-119.467 81.33333333333333 1994.67 0.0 0.0 1.0
-120.178 87.02223333333335 1994.67 0.0 0.0 1.0
-119.64466666666665 91.28890000000001 1994.67 0.0 0.0 1.0
-119.28899999999999 96.08890000000001 1994.67 0.0 0.0 1.0
-119.11099999999999 103.55533333333334 1994.67 0.0 0.0 1.0
-119.64466666666668 121.15533333333333 1994.67 0.0 0.0 1.0
-119.11133333333333 124.88866666666667 1994.67 0.0 0.0 1.0
-119.11133333333333 124.88866666666667 1994.67 0.0 0.0 1.0
-118.57766666666667 128.26666666666668 1994.67 0.0 0.0 1.0
-119.82233333333333 141.0666666666667 1994.67 0.0 0.0 1.0
-120.178 142.8443333333333 1994.67 0.0 0.0 1.0
-120.0 -130.22199999999998 1994.67 0.0 0.0 1.0
-121.95566666666667 -117.24433333333333 1994.67 0.0 0.0 1.0
-120.35533333333332 -107.64433333333334 1994.67 0.0 0.0 1.0
-119.46666666666665 -100.53333333333335 1994.67 0.0 0.0 1.0
-120.35566666666666 -99.11113333333333 1994.67 0.0 0.0 1.0
-119.64466666666665 -92.88889999999999 1994.67 0.0 0.0 1.0
-119.82233333333333 -78.13333333333334 1994.67 0.0 0.0 1.0
-120.0 -69.95556666666666 1994.67 0.0 0.0 1.0
-119.822 -66.22223333333334 1994.67 0.0 0.0 1.0
-109.556 -31.514133333333334 1326.8433333333332 -0.825934302655244 -0.19819301235964315 0.5277803118241585
-106.66699999999999 -29.064333333333334 1312.28 0.0 0.0 1.0
-107.681 -24.638333333333335 1338.7 0.0 0.0 1.0
-105.95566666666666 -25.066666666666666 1329.78 0.0 0.0 1.0
-109.02066666666667 -23.55333333333333 1318.0733333333335 0.28526825442927556 -0.9508941814309194 0.12009279218877207
-119.28866666666666 -5.066666666666666 1994.67 0.0 0.0 1.0
-120.17766666666667 1.8666666666666665 1994.67 0.0 0.0 1.0
-120.0 2.2222233333333334 1994.67 0.0 0.0 1.0
-120.53333333333335 10.044443333333334 1994.67 0.0 0.0 1.0
-120.0 10.40001 1994.67 0.0 0.0 1.0
-119.82233333333333 11.466666666666669 1994.67 0.0 0.0 1.0
-103.55833333333334 17.723233333333337 1223.72 0.0 0.0 1.0
-120.53333333333335 38.48886666666667 1994.67 0.0 0.0 1.0
-119.64433333333334 39.2 1994.67 0.0 0.0 1.0
-119.64433333333334 40.0889 1994.67 0.0 0.0 1.0
-121.06666666666666 56.97776666666667 1994.67 0.0 0.0 1.0
-119.46666666666668 77.77776666666666 1994.67 0.0 0.0 1.0
-120.178 87.02223333333335 1994.67 0.0 0.0 1.0
-120.178 96.62223333333333 1994.67 0.0 0.0 1.0
-120.35566666666666 119.911 1994.67 0.0 0.0 1.0
-120.35566666666666 119.911 1994.67 0.0 0.0 1.0
-120.178 140.711 1994.67 0.0 0.0 1.0
-119.82233333333333 141.0666666666667 1994.67 0.0 0.0 1.0
-120.35566666666666 144.622 1994.67 0.0 0.0 1.0
-120.35566666666666 144.622 1994.67 0.0 0.0 1.0
-121.42233333333333 -144.44433333333333 1994.67 0.0 0.0 1.0
-120.0 -130.22199999999998 1994.67 0.0 0.0 1.0
-121.06666666666666 -127.55533333333334 1994.67 0.0 0.0 1.0
-119.64433333333334 -125.59999999999998 1994.67 0.0 0.0 1.0
-121.24433333333333 -122.93333333333334 1994.67 0.0 0.0 1.0
-120.53333333333335 -109.42199999999998 1994.67 0.0 0.0 1.0
-119.822 -86.13333333333334 1994.67 0.0 0.0 1.0
-119.822 -86.13333333333334 1994.67 0.0 0.0 1.0
-120.88866666666667 -74.93329999999999 1994.67 0.0 0.0 1.0
-120.35533333333332 -73.15553333333332 1994.67 0.0 0.0 1.0
-120.88866666666667 -65.15556666666667 1994.67 0.0 0.0 1.0
-104.67866666666667 -34.21053333333333 1312.28 0.0 0.0 1.0
-110.02500000000002 -24.559700000000003 1477.53 0.0 0.0 1.0
-120.88900000000001 -28.0 1994.67 0.0 0.0 1.0
-106.19866666666667 -18.646600000000003 1499.75 0.0 0.0 1.0
-109.58333333333333 -14.513889999999998 1558.33 0.0 0.0 1.0
-114.717 -17.861633333333334 1881.76 0.0 0.0 1.0
-110.01433333333334 -11.3187 1503.5366666666666 -0.9926497185426815 -6.882740407100544e-17 0.12102287501598868
-120.17766666666667 1.8666666666666665 1994.67 0.0 0.0 1.0
-120.35533333333335 2.4 1994.67 0.0 0.0 1.0
-120.53333333333335 20.533333333333335 1994.67 0.0 0.0 1.0
-120.71100000000001 37.59996666666666 1994.67 0.0 0.0 1.0
-119.82233333333333 61.06666666666666 1994.67 0.0 0.0 1.0
-120.17766666666667 63.199999999999996 1994.67 0.0 0.0 1.0
-121.06633333333333 64.08890000000001 1994.67 0.0 0.0 1.0
-121.24433333333333 77.06666666666668 1994.67 0.0 0.0 1.0
-120.53333333333335 103.911 1994.67 0.0 0.0 1.0
-121.24433333333332 105.51100000000001 1994.67 0.0 0.0 1.0
-119.822 138.22233333333335 1994.67 0.0 0.0 1.0
-120.711 139.82233333333332 1994.67 0.0 0.0 1.0
-121.42233333333333 -144.44433333333333 1994.67 0.0 0.0 1.0
-121.06666666666666 -127.55533333333334 1994.67 0.0 0.0 1.0
-121.24433333333333 -122.93333333333334 1994.67 0.0 0.0 1.0
-121.77799999999998 -112.97766666666666 1994.67 0.0 0.0 1.0
-121.24433333333333 -109.59966666666666 1994.67 0.0 0.0 1.0
-120.889 -71.2 1994.67 0.0 0.0 1.0
-121.60033333333332 -60.71113333333333 1994.67 0.0 0.0 1.0
-121.60033333333332 -60.53333333333333 1994.67 0.0 0.0 1.0
-121.24466666666666 -57.15553333333333 1994.67 0.0 0.0 1.0
-121.77766666666666 -43.46666666666666 1994.67 0.0 0.0 1.0
-111.39966666666668 -27.186133333333334 1295.24 0.0 0.0 1.0
-106.07333333333332 -22.66173333333333 1213.8033333333333 0.7740303381987998 0.6331244463741724 -0.005520049931752966
-111.605 -25.12346666666667 1385.1899999999998 -2.2465843877338323e-28 -4.0868429019455614e-30 1.0
-109.00600000000001 -24.619866666666667 1312.28 0.0 0.0 1.0
-106.49233333333332 -22.832233333333335 1303.7 0.0 0.0 1.0
-107.766 -19.7581 1241.5033333333333 0.21873036300398702 0.8749874805014581 0.43191890126024174
-108.99166666666667 -8.68378 1534.36 0.0 0.0 1.0
-121.067 0.26666666666666666 1994.67 0.0 0.0 1.0
-121.067 0.26666666666666666 1994.67 0.0 0.0 1.0
-121.067 0.26666666666666666 1994.67 0.0 0.0 1.0
-121.42233333333331 24.266633333333335 1994.67 0.0 0.0 1.0
-121.95566666666666 27.644433333333335 1994.67 0.0 0.0 1.0
-120.71133333333331 55.3778 1994.67 0.0 0.0 1.0
-121.24466666666666 81.15556666666667 1994.67 0.0 0.0 1.0
-121.24466666666666 86.13336666666667 1994.67 0.0 0.0 1.0
-121.59999999999998 86.84446666666668 1994.67 0.0 0.0 1.0
-120.71133333333334 97.5111 1994.67 0.0 0.0 1.0
-121.778 98.75553333333333 1994.67 0.0 0.0 1.0
-120.178 120.622 1994.67 0.0 0.0 1.0
-122.31133333333332 130.7553333333333 1994.67 0.0 0.0 1.0
-120.889 140.35533333333333 1994.67 0.0 0.0 1.0
-120.178 143.911 1994.67 0.0 0.0 1.0
-121.06666666666666 -127.55533333333334 1994.67 0.0 0.0 1.0
-121.77799999999998 -112.97766666666666 1994.67 0.0 0.0 1.0
-120.35566666666666 -99.11113333333333 1994.67 0.0 0.0 1.0
-121.06666666666666 -77.77776666666666 1994.67 0.0 0.0 1.0
-121.95566666666666 -76.53333333333333 1994.67 0.0 0.0 1.0
-121.06666666666666 -72.44443333333334 1994.67 0.0 0.0 1.0
-112.45766666666667 -35.7576 1511.11 0.0 0.0 1.0
-109.22633333333333 -22.796400000000002 1275.9166666666667 -0.8130219423580721 -0.5655678944843324 0.13830501788751837
-105.42566666666666 -23.008499999999998 1208.92 -0.9613303914237115 -0.2748783753824733 0.016904356604895223
-105.134 -28.505733333333335 1375.63 0.0 0.0 1.0
-109.84133333333334 -15.682533333333332 1424.76 0.0 0.0 1.0
-117.80533333333334 -2.6774466666666665 1630.54 0.5301441419526927 0.8434358149598442 0.08696674534709614
-121.778 -0.9777756666666666 1994.67 0.0 0.0 1.0
-121.42200000000001 3.11111 1994.67 0.0 0.0 1.0
-122.31099999999999 7.555556666666667 1994.67 0.0 0.0 1.0
-121.42233333333333 10.222223333333332 1994.67 0.0 0.0 1.0
-121.77799999999998 24.088866666666664 1994.67 0.0 0.0 1.0
-122.13333333333333 25.333333333333332 1994.67 0.0 0.0 1.0
-121.24433333333332 36.355533333333334 1994.67 0.0 0.0 1.0
-120.53333333333335 38.48886666666667 1994.67 0.0 0.0 1.0
-122.84433333333334 43.1111 1994.67 0.0 0.0 1.0
-122.31099999999999 48.26669999999999 1994.67 0.0 0.0 1.0
-122.31099999999999 51.111133333333335 1994.67 0.0 0.0 1.0
-121.42233333333333 56.26666666666667 1994.67 0.0 0.0 1.0
-121.06666666666666 56.97776666666667 1994.67 0.0 0.0 1.0
-122.48899999999999 71.91109999999999 1994.67 0.0 0.0 1.0
-121.59999999999998 86.84446666666668 1994.67 0.0 0.0 1.0
-122.48899999999999 91.82223333333333 1994.67 0.0 0.0 1.0
-121.24433333333333 104.44433333333332 1994.67 0.0 0.0 1.0
-121.24433333333333 105.51100000000001 1994.67 0.0 0.0 1.0
-122.48899999999999 122.40000000000002 1994.67 0.0 0.0 1.0
-121.24433333333333 139.64466666666667 1994.67 0.0 0.0 1.0
-121.42233333333333 140.0 1994.67 0.0 0.0 1.0
-122.13333333333333 -122.93333333333334 1994.67 0.0 0.0 1.0
-105.0116 -79.70606666666667 1318.0733333333335 -0.5004794037034463 -0.750733275413713 0.43118431749686914
-121.06666666666666 -108.88866666666667 1994.67 0.0 0.0 1.0
-122.48866666666667 -65.6889 1994.67 0.0 0.0 1.0
-121.59966666666666 -64.9778 1994.67 0.0 0.0 1.0
-112.45766666666667 -35.7576 1511.11 0.0 0.0 1.0
-116.06099999999999 -26.934866666666665 1538.323333333333 0.4471307956996573 -0.8383787565082387 0.31176130640714644
-105.33033333333333 -16.943566666666666 1246.7 -0.9627083333581484 -0.2548546491707501 0.0907842094134761
-113.58033333333333 -14.74426333333333 1583.07 0.0 0.0 1.0
-121.77766666666666 1.866666666666667 1994.67 0.0 0.0 1.0
-121.95533333333333 2.755556666666667 1994.67 0.0 0.0 1.0
-122.13333333333333 9.68889 1994.67 0.0 0.0 1.0
-121.95533333333333 26.044433333333334 1994.67 0.0 0.0 1.0
-122.31099999999999 26.933333333333334 1994.67 0.0 0.0 1.0
-122.66666666666667 40.08886666666667 1994.67 0.0 0.0 1.0
-122.31099999999999 49.51113333333333 1994.67 0.0 0.0 1.0
-121.95533333333333 59.1111 1994.67 0.0 0.0 1.0
-122.133 61.0667 1994.67 0.0 0.0 1.0
-122.48899999999999 64.08890000000001 1994.67 0.0 0.0 1.0
-123.37766666666666 69.7778 1994.67 0.0 0.0 1.0
-121.60000000000001 86.84446666666668 1994.67 0.0 0.0 1.0
-122.84433333333334 111.37766666666668 1994.67 0.0 0.0 1.0
-122.31133333333334 -144.79999999999998 1994.67 0.0 0.0 1.0
-121.95566666666667 -117.24433333333333 1994.67 0.0 0.0 1.0
-122.48899999999999 -112.62233333333332 1994.67 0.0 0.0 1.0
-123.37766666666668 -102.84466666666667 1994.67 0.0 0.0 1.0
-123.55566666666668 -83.46663333333333 1994.67 0.0 0.0 1.0
-121.60000000000001 -75.64443333333334 1994.67 0.0 0.0 1.0
-122.13366666666667 -60.8889 1994.67 0.0 0.0 1.0
-122.13366666666667 -60.53333333333333 1994.67 0.0 0.0 1.0
-123.05933333333333 -54.67106666666666 1988.0866666666668 0.3094096307449809 0.9282288922349485 0.2065352367576409
-107.67933333333333 -21.322100000000002 1262.45 0.0 0.0 1.0
-108.19200000000001 -24.54596666666667 1492.29 -0.7426063399989251 0.5471691474007565 0.38618874650374035
-114.575 -22.564333333333334 1617.32 -0.5509866343280003 0.5853989768412723 0.5947451275169006
-110.43966666666665 -21.718033333333334 1388.4166666666667 -0.8673982555430422 -0.4956051643952361 0.044674235367361155
-105.90033333333334 -20.953666666666667 1221.2333333333333 -0.818434547932354 -0.5037289934377702 0.27644527834805593
-111.45299999999999 -16.8091 1278.63 0.0 0.0 1.0
-122.84466666666667 -5.422223333333332 1994.67 0.0 0.0 1.0
-121.778 -0.9777756666666666 1994.67 0.0 0.0 1.0
-122.13333333333333 9.688889999999999 1994.67 0.0 0.0 1.0
-122.13333333333333 21.422233333333335 1994.67 0.0 0.0 1.0
-122.13333333333333 25.333333333333332 1994.67 0.0 0.0 1.0
-121.95566666666667 27.644433333333335 1994.67 0.0 0.0 1.0
-122.66666666666667 40.08886666666667 1994.67 0.0 0.0 1.0
-123.2 44.53333333333333 1994.67 0.0 0.0 1.0
-122.84433333333334 63.3778 1994.67 0.0 0.0 1.0
-122.48899999999999 64.08890000000001 1994.67 0.0 0.0 1.0
-122.48899999999999 71.91109999999999 1994.67 0.0 0.0 1.0
-123.02233333333334 88.08890000000001 1994.67 0.0 0.0 1.0
-123.2 92.35556666666666 1994.67 0.0 0.0 1.0
-123.2 122.04466666666667 1994.67 0.0 0.0 1.0
-123.2 126.48899999999999 1994.67 0.0 0.0 1.0
-122.31133333333334 130.7553333333333 1994.67 0.0 0.0 1.0
-122.48899999999999 140.71099999999998 1994.67 0.0 0.0 1.0
-122.31133333333334 -144.79999999999998 1994.67 0.0 0.0 1.0
-88.38426666666668 -77.48110000000001 1135.49 -0.15774478098763653 0.4351493508918266 0.8864319638244011
-123.91133333333333 -133.422 1994.67 0.0 0.0 1.0
-123.02199999999999 -123.11133333333333 1994.67 0.0 0.0 1.0
-123.378 -118.133 1994.67 0.0 0.0 1.0
-122.48899999999999 -112.62233333333332 1994.67 0.0 0.0 1.0
-124.089 -94.66666666666667 1994.67 0.0 0.0 1.0
-124.26666666666667 -92.71109999999999 1994.67 0.0 0.0 1.0
-123.55566666666668 -83.46663333333333 1994.67 0.0 0.0 1.0
-122.48866666666667 -65.6889 1994.67 0.0 0.0 1.0
-123.2 -56.97776666666666 1994.67 0.0 0.0 1.0
-118.38 -49.26273333333334 1864.17 0.0 0.0 1.0
-127.06066666666668 -45.25599999999999 1905.7700000000002 0.8158300113380764 0.5675369571705161 0.11100988625228801
-114.72233333333334 -33.40276666666667 1558.33 0.0 0.0 1.0
-105.95566666666666 -25.066666666666666 1329.78 0.0 0.0 1.0
-107.67933333333333 -21.322100000000002 1262.45 0.0 0.0 1.0
-107.52333333333333 -21.365466666666666 1201.61 0.0 0.0 1.0
-108.25466666666667 -22.838466666666665 1366.2533333333333 0.7222308850731575 0.66211618205047 0.1999617716298607
-123.2 7.022223333333333 1994.67 0.0 0.0 1.0
-122.48899999999999 10.755556666666665 1994.67 0.0 0.0 1.0
-123.73333333333333 23.2 1994.67 0.0 0.0 1.0
