ply
format ascii 1.0
comment VCGLIB generated
element vertex 800
property float x
property float y
property float z
property float nx
property float ny
property float nz
element face 0
property list uchar int vertex_indices
end_header
-52.110066666666675 15.351666666666667 1372.4800000000002 1.5747451448743624e-26 2.249849033724068e-26 1.0
-52.1792 21.321166666666667 1363.1 0.0 0.0 1.0
-52.976200000000006 27.4405 1335.71 0.0 0.0 1.0
-53.84503333333333 36.560066666666664 1275.91 0.0 0.0 1.0
-53.84503333333333 38.3795 1275.91 0.0 0.0 1.0
-53.785333333333334 43.446333333333335 1267.8 0.0 0.0 1.0
-53.785333333333334 43.446333333333335 1267.8 0.0 0.0 1.0
-54.672266666666665 54.728033333333336 1251.88 0.0 0.0 1.0
-54.11436666666666 58.96793333333333 1251.88 0.0 0.0 1.0
-54.225966666666665 70.01393333333334 1251.88 0.0 0.0 1.0
-54.114399999999996 70.57183333333334 1251.88 0.0 0.0 1.0
-55.495466666666665 72.3493 1244.07 0.0 0.0 1.0
-54.5607 73.69596666666666 1251.88 0.0 0.0 1.0
-50.39933333333334 -106.47066666666666 1463.08 0.0 0.0 1.0
-52.07546666666667 -90.8805 1411.32 0.0 0.0 1.0
-51.572333333333326 -89.62263333333334 1411.32 0.0 0.0 1.0
-51.547333333333334 -64.97306666666667 1381.99 0.0 0.0 1.0
-52.354733333333336 -60.24463333333333 1372.4800000000002 1.864912312226722e-26 1.7316109331485765e-26 1.0
-52.232400000000005 -58.89906666666667 1372.4800000000002 3.1098408841263916e-27 -5.919663036519143e-28 1.0
-52.54366666666667 -54.12303333333333 1363.1 0.0 0.0 1.0
-52.54363333333333 -43.918000000000006 1363.1 0.0 0.0 1.0
-53.15106666666667 -42.581633333333336 1363.1 0.0 0.0 1.0
-52.54363333333333 -35.4138 1363.1 0.0 0.0 1.0
-53.09203333333334 -23.107066666666668 1353.85 0.0 0.0 1.0
-52.7866 -20.956733333333336 1363.1 0.0 0.0 1.0
-52.7866 -20.956733333333336 1363.1 0.0 0.0 1.0
-52.42216666666667 -18.526933333333332 1363.1 0.0 0.0 1.0
-52.66513333333334 -13.7889 1363.1 0.0 0.0 1.0
-52.9081 -10.7517 1363.1 0.0 0.0 1.0
-55.30353333333333 -8.541363333333335 1378.82 0.4938665130786097 -0.8642627781370207 0.09563324519462091
-52.66513333333334 -2.2475333333333336 1363.1 0.0 0.0 1.0
-52.232433333333326 1.8960236666666666 1372.4800000000002 -6.327378835153766e-27 -4.247575033751235e-27 1.0
-52.477066666666666 9.3578 1372.4800000000002 0.0 1.0 0.0
-52.43446666666667 22.951333333333327 1344.72 0.0 0.0 1.0
-54.64106666666667 38.60693333333333 1275.91 0.0 0.0 1.0
-55.18596666666667 45.193000000000005 1259.79 0.0 0.0 1.0
-55.453300000000006 60.4184 1251.88 0.0 0.0 1.0
-55.230133333333335 64.65830000000001 1251.88 0.0 0.0 1.0
-54.9411 78.00416666666668 1244.07 0.0 0.0 1.0
-55.453300000000006 88.98186666666668 1251.88 0.0 0.0 1.0
-50.39933333333334 -106.34033333333332 1463.08 0.0 0.0 1.0
-51.149699999999996 -101.57136666666668 1484.86 0.0 0.0 1.0
-50.885 -99.18940000000002 1484.86 0.0 0.0 1.0
-50.22653333333333 -94.69256666666666 1452.43 0.0 0.0 1.0
-50.9224 -94.03163333333333 1424.78 -1.4884460498828633e-16 -0.9999606412607349 0.008872199807265061
-52.20126666666666 -89.62263333333334 1411.32 0.0 0.0 1.0
-52.20126666666667 -87.23270000000001 1411.32 0.0 0.0 1.0
-52.20126666666667 -87.23270000000001 1411.32 0.0 0.0 1.0
-52.32703333333333 -84.71696666666668 1411.32 0.0 0.0 1.0
-52.57863333333333 -78.93079999999999 1411.32 0.0 0.0 1.0
-52.57863333333333 -77.54713333333332 1411.32 0.0 0.0 1.0
-52.589133333333336 -67.78296666666667 1391.63 0.0 0.0 1.0
-52.589133333333336 -67.78296666666665 1391.63 0.0 0.0 1.0
-52.47706666666667 -59.87766666666667 1372.4800000000002 1.1997805288794847e-26 4.497287049025722e-27 1.0
-52.54363333333333 -35.4138 1363.1 0.0 0.0 1.0
-53.816 -34.3288 1353.85 0.0 0.0 1.0
-52.7866 -20.956733333333336 1363.1 0.0 0.0 1.0
-53.029599999999995 -17.55503333333333 1363.1 0.0 0.0 1.0
-52.66513333333334 -13.7889 1363.1 0.0 0.0 1.0
-52.844033333333336 6.788990000000001 1372.4800000000002 -7.497112904345165e-28 -2.9990903375430332e-27 1.0
-52.844033333333336 9.11315 1372.4800000000002 5.999106973654012e-27 4.086863528459926e-31 1.0
-52.7217 15.5963 1372.4800000000002 0.0 -1.0 0.0
-35.8151 32.79803333333333 2183.94 0.0 0.0 1.0
-54.59226666666667 34.5064 1284.12 0.0 0.0 1.0
-54.2999 39.85783333333333 1275.91 0.0 0.0 1.0
-55.3234 42.01846666666666 1275.91 0.0 0.0 1.0
-54.961400000000005 44.74386666666667 1259.79 0.0 0.0 1.0
-54.961400000000005 44.74386666666667 1259.79 0.0 0.0 1.0
-55.11853333333334 63.877266666666664 1251.88 0.0 0.0 1.0
-55.11853333333334 63.877266666666664 1251.88 0.0 0.0 1.0
-56.0499 67.58139999999999 1244.07 0.0 0.0 1.0
-55.939 68.80106666666667 1244.07 0.0 0.0 1.0
-55.495466666666665 72.3493 1244.07 0.0 0.0 1.0
-55.4955 75.67566666666666 1244.07 0.0 0.0 1.0
-55.4955 75.67566666666666 1244.07 0.0 0.0 1.0
-54.9411 78.00416666666668 1244.07 0.0 0.0 1.0
-50.968799999999995 -103.97366666666666 1473.89 0.0 0.0 1.0
-50.22653333333333 -94.69256666666666 1452.43 0.0 0.0 1.0
-52.07546666666667 -90.8805 1411.32 0.0 0.0 1.0
-52.20126666666667 -87.23270000000001 1411.32 0.0 0.0 1.0
-52.32703333333333 -84.71696666666668 1411.32 0.0 0.0 1.0
-52.32703333333333 -84.71696666666666 1411.32 0.0 0.0 1.0
-52.83016666666666 -81.19496666666667 1411.32 0.0 0.0 1.0
-52.20126666666667 -74.6541 1411.32 0.0 0.0 1.0
-52.589133333333336 -67.78296666666667 1391.63 0.0 0.0 1.0
-52.779066666666665 -62.879133333333336 1381.99 0.0 0.0 1.0
-54.311933333333336 -55.474 1372.4800000000002 -3.0001665998999606e-27 -2.700477056087172e-26 1.0
-53.27256666666667 -53.515566666666665 1363.1 0.0 0.0 1.0
-53.15110000000001 -50.47836666666666 1363.1 0.0 0.0 1.0
-53.88003333333333 -45.37586666666667 1363.1 0.0 0.0 1.0
-53.93666666666667 -30.7089 1353.85 0.0 0.0 1.0
-53.212700000000005 -29.7436 1353.85 0.0 0.0 1.0
-54.05733333333334 -24.193066666666667 1353.85 0.0 0.0 1.0
-52.66513333333334 -2.2475333333333336 1363.1 0.0 0.0 1.0
-53.333333333333336 4.220183333333334 1372.4800000000002 1.7992421183838625e-26 -2.81194087721366e-28 1.0
-53.333333333333336 5.3211 1372.4800000000002 1.7992417352856503e-26 -7.498066355498776e-28 1.0
-53.333333333333336 5.3211 1372.4800000000002 1.7992417352856503e-26 -7.498066355498779e-28 1.0
-52.84403333333333 9.11315 1372.4800000000002 -1.1998213947308021e-26 -8.173727056919852e-31 1.0
-52.7217 15.5963 1372.4800000000002 0.0 -1.0 0.0
-36.399033333333335 32.019466666666666 2183.94 0.0 0.0 1.0
-52.1792 21.321166666666667 1363.1 0.0 0.0 1.0
-53.80953333333334 27.559533333333334 1335.71 0.0 0.0 1.0
-54.1667 28.630966666666666 1335.71 0.0 0.0 1.0
-54.04763333333333 28.869033333333334 1335.71 0.0 0.0 1.0
-55.97193333333333 46.54036666666667 1259.79 0.0 0.0 1.0
-55.56486666666667 53.277566666666665 1251.88 0.0 0.0 1.0
-55.453300000000006 60.4184 1251.88 0.0 0.0 1.0
-55.230133333333335 64.65830000000001 1251.88 0.0 0.0 1.0
-54.89543333333333 72.46863333333333 1251.88 0.0 0.0 1.0
-55.4955 75.67566666666666 1244.07 0.0 0.0 1.0
-56.6043 82.772 1244.07 0.0 0.0 1.0
-55.453300000000006 88.98186666666668 1251.88 0.0 0.0 1.0
-55.34173333333334 89.7629 1251.88 0.0 0.0 1.0
-52.7044 -89.49683333333333 1411.32 0.0 0.0 1.0
-52.95596666666666 -87.1069 1411.32 0.0 0.0 1.0
-52.7044 -80.44026666666666 1411.32 0.0 0.0 1.0
-52.57863333333333 -78.93079999999999 1411.32 0.0 0.0 1.0
-52.57863333333333 -78.93079999999999 1411.32 0.0 0.0 1.0
-52.20126666666667 -74.6541 1411.32 0.0 0.0 1.0
-54.0203 -70.8821 1401.41 0.0 0.0 1.0
-52.8372 -68.15506666666666 1391.63 0.0 0.0 1.0
-52.779066666666665 -62.87913333333333 1381.99 0.0 0.0 1.0
-52.966366666666666 -60.24463333333333 1372.4800000000002 -3.427660774196537e-27 1.7138303870982883e-27 1.0
-53.75853333333333 -52.54366666666667 1363.1 0.0 0.0 1.0
-53.75853333333333 -50.72136666666666 1363.1 0.0 0.0 1.0
-53.637033333333335 -44.039500000000004 1363.1 0.0 0.0 1.0
-53.39406666666667 -40.030366666666666 1363.1 0.0 0.0 1.0
-54.17796666666666 -33.84616666666667 1353.85 0.0 0.0 1.0
-53.816 -23.710399999999996 1353.85 0.0 0.0 1.0
-53.15106666666666 -17.919500000000003 1363.1 0.0 0.0 1.0
-54.123 -12.088099999999999 1363.1 0.0 0.0 1.0
-52.844033333333336 -9.480093333333333 1372.4800000000002 -9.997222034101891e-29 -2.399459695979877e-28 1.0
-54.189600000000006 -8.134543333333333 1372.4800000000002 6.987542590913243e-27 3.2633488825325016e-27 1.0
-54.29863333333333 1.8702866666666667 1353.85 0.0 0.0 1.0
-53.578 4.220183333333334 1372.4800000000002 3.5133490436408886e-16 1.7568061625792104e-16 1.0
-53.577999999999996 5.3211 1372.4800000000002 4.840136523344315e-11 -4.84053220717598e-11 1.0
-53.21099999999999 6.544340000000001 1372.4800000000002 -2.518322332842294e-26 2.3868621605759478e-27 1.0
-54.189600000000006 12.293566666666669 1372.4800000000002 6.297318834548027e-26 -5.397634410999983e-26 1.0
-55.53516666666667 20.122333333333334 1372.4800000000002 0.0 0.0 1.0
-54.28573333333333 29.1071 1335.71 0.0 0.0 1.0
-55.323366666666665 38.720666666666666 1275.91 0.0 0.0 1.0
-55.3234 42.01846666666666 1275.91 0.0 0.0 1.0
-55.18596666666667 45.193000000000005 1259.79 0.0 0.0 1.0
-54.23726666666667 47.627133333333326 1267.8 0.0 0.0 1.0
-55.8996 57.62903333333333 1251.88 0.0 0.0 1.0
-55.453300000000006 60.4184 1251.88 0.0 0.0 1.0
-56.382533333333335 68.1358 1244.07 0.0 0.0 1.0
-55.453300000000006 88.98186666666668 1251.88 0.0 0.0 1.0
-38.54013333333334 160.292 2183.94 0.0 0.0 1.0
-52.0197 -105.41866666666665 1473.89 0.0 0.0 1.0
-51.54670000000001 -98.5277 1484.86 0.0 0.0 1.0
-53.333333333333336 -89.24526666666667 1411.32 0.0 0.0 1.0
-53.3333 -83.96226666666666 1411.32 0.0 0.0 1.0
-53.3333 -81.44656666666667 1411.32 0.0 0.0 1.0
-53.64126666666667 -65.7121 1381.99 0.0 0.0 1.0
-54.24446666666666 -52.1792 1363.1 0.0 0.0 1.0
-53.88003333333333 -48.29156666666666 1363.1 0.0 0.0 1.0
-53.51553333333334 -41.366733333333336 1363.1 0.0 0.0 1.0
-54.00149999999999 -40.6378 1363.1 0.0 0.0 1.0
-53.815999999999995 -34.3288 1353.85 0.0 0.0 1.0
-54.298633333333335 -33.242866666666664 1353.85 0.0 0.0 1.0
-53.51553333333334 -11.116166666666667 1363.1 0.0 0.0 1.0
-54.60896666666667 -4.92027 1363.1 0.0 0.0 1.0
-54.48746666666667 -4.677293333333334 1363.1 0.0 0.0 1.0
-54.298633333333335 1.8702866666666667 1353.85 0.0 0.0 1.0
-55.58086666666667 2.3690206666666667 1363.1 0.0 0.0 1.0
-53.577999999999996 5.076453333333333 1372.4800000000002 -1.1994944901904561e-26 2.249419906649533e-27 1.0
-53.944966666666666 9.3578 1372.4800000000002 -4.998075269563435e-28 1.9993935583620285e-27 1.0
-54.311933333333336 11.681966666666668 1372.4800000000002 1.9491989767014134e-26 1.3493495781129852e-26 1.0
-54.2986 23.951766666666668 1353.85 0.0 0.0 1.0
-54.4048 28.273833333333332 1335.71 0.0 0.0 1.0
-54.6429 28.5119 1335.71 0.0 0.0 1.0
-54.52383333333333 29.226166666666668 1335.71 0.0 0.0 1.0
-54.52383333333333 29.226166666666668 1335.71 0.0 0.0 1.0
-54.59226666666667 34.5064 1284.12 0.0 0.0 1.0
-55.664566666666666 42.13216666666667 1275.91 0.0 0.0 1.0
-55.664566666666666 42.13216666666667 1275.91 0.0 0.0 1.0
-46.326 84.5742 2183.94 0.0 0.0 1.0
-55.8996 54.61646666666667 1251.88 0.0 0.0 1.0
-56.382533333333335 68.1358 1244.07 0.0 0.0 1.0
-56.16076666666667 72.57103333333333 1244.07 0.0 0.0 1.0
-56.6043 82.772 1244.07 0.0 0.0 1.0
-57.38046666666667 88.4269 1244.07 0.0 0.0 1.0
-38.929433333333336 159.90266666666665 2183.94 0.0 0.0 1.0
-52.8769 -106.99266666666666 1463.08 0.0 0.0 1.0
-52.094500000000004 -106.471 1463.08 0.0 0.0 1.0
-52.60543333333334 -98.13066666666668 1484.86 0.0 0.0 1.0
-52.95596666666666 -87.1069 1411.32 0.0 0.0 1.0
-53.08176666666666 -76.79243333333334 1411.32 0.0 0.0 1.0
-53.333333333333336 -76.03773333333332 1411.32 0.0 0.0 1.0
-52.95596666666666 -74.02516666666666 1411.32 0.0 0.0 1.0
-54.0203 -70.8821 1401.41 0.0 0.0 1.0
-53.333333333333336 -68.15506666666666 1391.63 0.0 0.0 1.0
-54.92353333333333 -57.0642 1372.4800000000002 -1.933264868282538e-27 5.94816438653654e-28 1.0
-54.48749999999999 -45.49733333333334 1363.1 0.0 0.0 1.0
-54.244499999999995 -43.796533333333336 1363.1 0.0 0.0 1.0
-54.244499999999995 -43.796533333333336 1363.1 0.0 0.0 1.0
-53.39406666666667 -35.77826666666667 1363.1 0.0 0.0 1.0
-54.66060000000001 -33.1222 1353.85 0.0 0.0 1.0
-54.298633333333335 -31.794866666666664 1353.85 0.0 0.0 1.0
-54.05733333333333 -24.193066666666663 1353.85 0.0 0.0 1.0
-54.97343333333333 -13.424466666666667 1363.1 0.0 0.0 1.0
-53.515566666666665 -1.3971159999999998 1363.1 0.0 0.0 1.0
-54.298633333333335 1.8702866666666667 1353.85 0.0 0.0 1.0
-54.189600000000006 7.88991 1372.4800000000002 1.4401781195146324e-25 7.200759781699179e-26 1.0
-54.311933333333336 11.681966666666668 1372.4800000000002 1.949198976701414e-26 1.3493495781129858e-26 1.0
-55.323366666666665 38.720666666666666 1275.91 0.0 0.0 1.0
-56.723166666666664 42.99436666666667 1267.8 0.0 0.0 1.0
-56.723166666666664 42.99436666666667 1267.8 0.0 0.0 1.0
-57.094766666666665 50.13336666666667 1259.79 0.0 0.0 1.0
-56.382533333333335 68.1358 1244.07 0.0 0.0 1.0
-56.16076666666667 72.57103333333333 1244.07 0.0 0.0 1.0
-39.318733333333334 160.48666666666668 2183.94 0.0 0.0 1.0
-53.07059999999999 -106.33833333333332 1473.89 0.0 0.0 1.0
-54.08806666666666 -89.74843333333332 1411.32 0.0 0.0 1.0
-54.08806666666666 -89.74843333333332 1411.32 0.0 0.0 1.0
-54.21386666666666 -79.43396666666668 1411.32 0.0 0.0 1.0
-54.21386666666666 -79.43396666666668 1411.32 0.0 0.0 1.0
-53.82946666666666 -68.52716666666667 1391.63 0.0 0.0 1.0
-54.311933333333336 -55.474 1372.4800000000002 -3.0001665998999606e-27 -2.700477056087172e-26 1.0
-54.24446666666666 -52.1792 1363.1 0.0 0.0 1.0
-54.66060000000001 -33.1222 1353.85 0.0 0.0 1.0
-54.97343333333333 -13.424466666666667 1363.1 0.0 0.0 1.0
-55.16816666666667 9.3578 1372.4800000000002 5.849104777797359e-26 5.998747326545188e-26 1.0
-54.8012 12.048933333333332 1372.4800000000002 5.397398368121403e-26 1.4391646107192094e-25 1.0
-55.6704 29.063666666666666 1344.72 0.0 0.0 1.0
-56.61626666666666 34.73 1292.44 0.0 0.0 1.0
-56.6456 47.21406666666667 1259.79 0.0 0.0 1.0
-56.23433333333333 53.947 1251.88 0.0 0.0 1.0
-57.35006666666667 61.422599999999996 1251.88 0.0 0.0 1.0
-57.26956666666666 66.36173333333333 1244.07 0.0 0.0 1.0
-57.26956666666666 66.36173333333333 1244.07 0.0 0.0 1.0
-52.8769 -106.99266666666666 1463.08 0.0 0.0 1.0
-53.6642 -102.76233333333334 1484.86 0.0 0.0 1.0
-53.96223333333333 -92.0126 1411.32 0.0 0.0 1.0
-54.339633333333325 -89.87420000000002 1411.32 0.0 0.0 1.0
-54.2138 -83.8365 1411.32 0.0 0.0 1.0
-53.83646666666667 -80.9434 1411.32 0.0 0.0 1.0
-55.296933333333335 -75.31273333333333 1421.38 0.0 0.0 1.0
-55.735166666666665 -64.97306666666667 1381.99 0.0 0.0 1.0
-54.311933333333336 -55.474 1372.4800000000002 -3.000166599899961e-27 -2.700477056087173e-26 1.0
-55.459399999999995 -49.50646666666666 1363.1 0.0 0.0 1.0
-55.50526666666667 -28.29563333333333 1353.85 0.0 0.0 1.0
-55.3846 -28.0543 1353.85 0.0 0.0 1.0
-55.3846 -28.0543 1353.85 0.0 0.0 1.0
-54.97343333333333 -4.434316666666667 1363.1 0.0 0.0 1.0
-55.6575 15.351700000000001 1372.4800000000002 -6.598780616452191e-28 -1.4993272187724434e-28 1.0
-54.434266666666666 15.596333333333334 1372.4800000000002 -7.19785358324479e-28 -3.7493396430977873e-28 1.0
-55.95236666666667 33.39286666666666 1335.71 0.0 0.0 1.0
-56.61626666666666 34.73 1292.44 0.0 0.0 1.0
-56.87016666666667 45.19296666666667 1259.79 0.0 0.0 1.0
-58.10523333333334 52.26666666666667 1259.79 0.0 0.0 1.0
-56.45746666666667 56.2901 1251.88 0.0 0.0 1.0
-57.934866666666665 69.57726666666667 1244.07 0.0 0.0 1.0
-56.93696666666667 75.12126666666667 1244.07 0.0 0.0 1.0
-57.38046666666667 88.4269 1244.07 0.0 0.0 1.0
-39.318733333333334 160.48666666666668 2183.94 0.0 0.0 1.0
-54.33963333333333 -89.62263333333334 1411.32 0.0 0.0 1.0
-54.59119999999999 -86.85533333333332 1411.32 0.0 0.0 1.0
-54.71696666666666 -84.08806666666668 1411.32 0.0 0.0 1.0
-54.21386666666666 -79.43396666666666 1411.32 0.0 0.0 1.0
-54.46543333333333 -78.80503333333333 1411.32 0.0 0.0 1.0
-54.99613333333334 -62.755966666666666 1381.99 0.0 0.0 1.0
-56.066833333333335 -50.599866666666664 1363.1 0.0 0.0 1.0
-55.823866666666675 -49.263466666666666 1363.1 0.0 0.0 1.0
-55.3379 -44.16096666666667 1363.1 0.0 0.0 1.0
-55.3379 -41.609700000000004 1363.1 0.0 0.0 1.0
-55.867266666666666 -29.260933333333337 1353.85 0.0 0.0 1.0
-55.7466 -28.416299999999996 1353.85 0.0 0.0 1.0
-54.97343333333333 -13.424466666666667 1363.1 0.0 0.0 1.0
-56.02443333333333 -6.42202 1372.4800000000002 -3.5994641841924944e-26 7.199026454446086e-26 1.0
-55.823866666666675 -4.434316666666667 1363.1 0.0 0.0 1.0
-55.16816666666667 9.3578 1372.4800000000002 5.849104777797359e-26 5.998747326545188e-26 1.0
-55.16816666666667 9.3578 1372.4800000000002 5.849104777797354e-26 5.998747326545183e-26 1.0
-54.8012 12.048933333333332 1372.4800000000002 5.397398368121403e-26 1.4391646107192094e-25 1.0
-55.6704 29.063666666666666 1344.72 0.0 0.0 1.0
-55.6704 29.063666666666666 1344.72 0.0 0.0 1.0
-56.071400000000004 32.67856666666666 1335.71 0.0 0.0 1.0
-55.95236666666667 33.39286666666666 1335.71 0.0 0.0 1.0
-55.95236666666667 33.39286666666666 1335.71 0.0 0.0 1.0
-41.2652 62.96836666666667 2183.94 0.0 0.0 1.0
-41.2652 62.96836666666667 2183.94 0.0 0.0 1.0
-57.094766666666665 50.13336666666666 1259.79 0.0 0.0 1.0
-57.094766666666665 50.13336666666666 1259.79 0.0 0.0 1.0
-57.35006666666667 61.422599999999996 1251.88 0.0 0.0 1.0
-57.35006666666666 61.422599999999996 1251.88 0.0 0.0 1.0
-57.57320000000001 63.7657 1251.88 0.0 0.0 1.0
-57.57320000000001 63.7657 1251.88 0.0 0.0 1.0
-57.57320000000001 63.7657 1251.88 0.0 0.0 1.0
-57.6022 66.4726 1244.07 0.0 0.0 1.0
-56.93696666666667 75.12126666666667 1244.07 0.0 0.0 1.0
-57.82396666666667 79.0021 1244.07 0.0 0.0 1.0
-57.82396666666667 79.0021 1244.07 0.0 0.0 1.0
-57.49133333333333 82.99376666666667 1244.07 0.0 0.0 1.0
-58.60013333333333 84.65693333333333 1244.07 0.0 0.0 1.0
-53.727399999999996 -106.33833333333332 1473.89 0.0 0.0 1.0
-53.6642 -102.76233333333334 1484.86 0.0 0.0 1.0
-52.60543333333333 -98.13066666666667 1484.86 0.0 0.0 1.0
-55.3459 -92.0126 1411.32 0.0 0.0 1.0
-55.09433333333333 -88.49056666666667 1411.32 0.0 0.0 1.0
-54.71696666666666 -84.08806666666668 1411.32 0.0 0.0 1.0
-55.768899999999995 -70.38250000000001 1401.41 0.0 0.0 1.0
-56.39143333333333 -58.16513333333334 1372.4800000000002 -2.3993521796035498e-27 2.666754019596308e-28 1.0
-56.066833333333335 -50.599866666666664 1363.1 0.0 0.0 1.0
-55.82383333333333 -43.918000000000006 1363.1 0.0 0.0 1.0
-56.0668 -43.432066666666664 1363.1 0.0 0.0 1.0
-55.98793333333333 -32.3982 1353.85 0.0 0.0 1.0
-55.98793333333333 -28.657633333333337 1353.85 0.0 0.0 1.0
-56.22926666666666 -28.416299999999996 1353.85 0.0 0.0 1.0
-56.4706 -25.1584 1353.85 0.0 0.0 1.0
-56.02443333333333 -6.42202 1372.4800000000002 -3.599464184192482e-26 7.19902645444606e-26 1.0
-55.53516666666667 20.122333333333334 1372.4800000000002 0.0 0.0 1.0
-56.96183333333334 34.614799999999995 1292.44 0.0 0.0 1.0
-56.96183333333334 34.614799999999995 1292.44 0.0 0.0 1.0
-56.346833333333336 40.199 1275.91 0.0 0.0 1.0
-57.966100000000004 43.220333333333336 1267.8 0.0 0.0 1.0
-57.88066666666666 45.0807 1259.79 0.0 0.0 1.0
-58.217533333333336 47.663166666666676 1259.79 0.0 0.0 1.0
-57.99296666666667 57.207033333333335 1259.79 0.0 0.0 1.0
-57.99296666666667 57.207033333333335 1259.79 0.0 0.0 1.0
-58.1566 65.2529 1244.07 0.0 0.0 1.0
-57.6022 66.4726 1244.07 0.0 0.0 1.0
-58.378366666666665 69.79903333333333 1244.07 0.0 0.0 1.0
-57.82396666666667 79.0021 1244.07 0.0 0.0 1.0
-54.515566666666665 -107.78300000000002 1473.89 0.0 0.0 1.0
-54.515566666666665 -107.78300000000002 1473.89 0.0 0.0 1.0
-54.98763333333333 -105.012 1484.86 0.0 0.0 1.0
-53.79656666666667 -103.95333333333333 1484.86 0.0 0.0 1.0
-51.703333333333326 -102.29810000000002 1463.08 0.0 0.0 1.0
-59.0428 -105.12169999999999 1507.3 0.0 0.0 1.0
-57.39263333333333 -93.36453333333334 1401.41 0.0 0.0 1.0
-55.4717 -87.73586666666667 1411.32 0.0 0.0 1.0
-55.768899999999995 -70.38250000000001 1401.41 0.0 0.0 1.0
-56.55813333333333 -68.40313333333333 1391.63 0.0 0.0 1.0
-55.981500000000004 -65.83523333333333 1381.99 0.0 0.0 1.0
-55.981500000000004 -65.83523333333333 1381.99 0.0 0.0 1.0
-56.10466666666667 -65.34256666666666 1381.99 0.0 0.0 1.0
-56.0668 -43.432066666666664 1363.1 0.0 0.0 1.0
-56.4313 -41.85266666666667 1363.1 0.0 0.0 1.0
-56.066833333333335 -41.002266666666664 1363.1 0.0 0.0 1.0
-56.59126666666666 -27.812966666666664 1353.85 0.0 0.0 1.0
-56.4706 -25.1584 1353.85 0.0 0.0 1.0
-56.79576666666667 -23.265 1363.1 0.0 0.0 1.0
-56.4313 -19.377366666666664 1363.1 0.0 0.0 1.0
-56.55276666666666 -17.798033333333333 1363.1 0.0 0.0 1.0
-55.14326666666667 1.8702866666666667 1353.85 0.0 0.0 1.0
-55.2905 8.134556666666667 1372.4800000000002 9.937897935613402e-28 -1.7748643511070448e-28 1.0
-56.79576666666666 25.2088 1363.1 0.0 0.0 1.0
-55.9101 28.2247 1344.72 0.0 0.0 1.0
-57.88336666666667 37.4946 1292.44 0.0 0.0 1.0
-43.2117 66.8613 2183.94 0.0 0.0 1.0
-58.079100000000004 42.76836666666667 1267.8 0.0 0.0 1.0
-57.966100000000004 43.220333333333336 1267.8 0.0 0.0 1.0
-58.217533333333336 47.663166666666676 1259.79 0.0 0.0 1.0
-59.228100000000005 62.14736666666666 1259.79 0.0 0.0 1.0
-58.1566 65.2529 1244.07 0.0 0.0 1.0
-58.60013333333333 69.46640000000001 1244.07 0.0 0.0 1.0
-58.71103333333334 70.90783333333333 1244.07 0.0 0.0 1.0
-57.49133333333333 82.99376666666667 1244.07 0.0 0.0 1.0
-57.38046666666667 88.4269 1244.07 0.0 0.0 1.0
-54.515566666666665 -107.78300000000002 1473.89 0.0 0.0 1.0
-51.49426666666667 -99.63889999999999 1473.89 0.0 0.0 1.0
-55.4717 -87.73586666666667 1411.32 0.0 0.0 1.0
-55.930366666666664 -81.52016666666667 1421.38 0.0 0.0 1.0
-55.930366666666664 -81.52016666666667 1421.38 0.0 0.0 1.0
-55.296933333333335 -75.31273333333334 1421.38 0.0 0.0 1.0
-56.22783333333333 -64.60353333333333 1381.99 0.0 0.0 1.0
-56.22783333333333 -64.60353333333335 1381.99 0.0 0.0 1.0
-57.125400000000006 -60.12233333333334 1372.4800000000002 1.9196677287651153e-27 1.1997705330808306e-27 1.0
-56.88073333333333 -59.0214 1372.4800000000002 9.226107024145512e-28 -2.768025524245058e-27 1.0
-56.55276666666666 -50.964333333333336 1363.1 0.0 0.0 1.0
-56.4313 -50.35686666666667 1363.1 0.0 0.0 1.0
-56.674299999999995 -45.37586666666667 1363.1 0.0 0.0 1.0
-57.5566 -38.069399999999995 1353.85 0.0 0.0 1.0
-57.43593333333333 -36.500766666666664 1353.85 0.0 0.0 1.0
-56.71193333333334 -28.174966666666666 1353.85 0.0 0.0 1.0
-56.4706 -25.1584 1353.85 0.0 0.0 1.0
-57.646166666666666 -24.479866666666666 1363.1 0.0 0.0 1.0
-57.524699999999996 -20.835233333333335 1363.1 0.0 0.0 1.0
-56.4313 -15.003799999999998 1363.1 0.0 0.0 1.0
-55.82386666666667 -4.434316666666667 1363.1 0.0 0.0 1.0
-56.88073333333333 13.272166666666669 1372.4800000000002 2.997918462908923e-27 -1.7990782273248133e-26 1.0
-57.281733333333335 25.694766666666666 1363.1 0.0 0.0 1.0
-56.785733333333326 33.630966666666666 1335.71 0.0 0.0 1.0
-56.785733333333326 33.630966666666666 1335.71 0.0 0.0 1.0
-57.88336666666667 37.4946 1292.44 0.0 0.0 1.0
-58.079100000000004 42.76836666666667 1267.8 0.0 0.0 1.0
-58.55440000000001 50.9193 1259.79 0.0 0.0 1.0
-58.3298 56.757933333333334 1259.79 0.0 0.0 1.0
-58.60013333333333 69.46640000000001 1244.07 0.0 0.0 1.0
-58.378366666666665 69.79903333333333 1244.07 0.0 0.0 1.0
-58.71103333333334 70.90783333333333 1244.07 0.0 0.0 1.0
-57.39263333333333 -93.36453333333334 1401.41 0.0 0.0 1.0
-55.84903333333333 -82.32706666666667 1411.32 0.0 0.0 1.0
-56.437066666666674 -75.18606666666666 1421.38 0.0 0.0 1.0
-55.768899999999995 -70.3825 1401.41 0.0 0.0 1.0
-56.55813333333333 -68.40313333333334 1391.63 0.0 0.0 1.0
-57.12536666666667 -56.4526 1372.4800000000002 2.5490483752898094e-26 1.1996987971768489e-26 1.0
-57.00303333333333 -56.33026666666666 1372.4800000000002 -1.9794846346167435e-25 -5.399032812883283e-26 1.0
-57.2817 -51.450266666666664 1363.1 0.0 0.0 1.0
-57.073933333333336 -32.3982 1353.85 0.0 0.0 1.0
-56.83259999999999 -27.812966666666664 1353.85 0.0 0.0 1.0
-57.4032 -16.2187 1363.1 0.0 0.0 1.0
-56.8807 -8.134556666666667 1372.4800000000002 1.0 0.0 0.0
-56.513733333333334 -7.033640000000001 1372.4800000000002 3.01779981839236e-27 -1.221917199852808e-27 1.0
-57.00303333333333 -6.911316666666667 1372.4800000000002 -1.0012371401789637e-25 -1.8326820856097465e-26 1.0
-58.01063333333334 -0.7896746666666666 1363.1 0.0 0.0 1.0
-56.88073333333333 13.272166666666669 1372.4800000000002 2.9979184629089134e-27 -1.799078227324812e-26 1.0
-57.2477 15.3517 1372.4800000000002 7.077252853771515e-27 2.1595608056384265e-27 1.0
-57.1086 29.183533333333333 1344.72 0.0 0.0 1.0
-57.88336666666667 37.4946 1292.44 0.0 0.0 1.0
-43.2117 66.8613 2183.94 0.0 0.0 1.0
-59.00346666666667 44.51930000000001 1259.79 0.0 0.0 1.0
-58.66663333333333 44.85613333333333 1259.79 0.0 0.0 1.0
-58.217533333333336 47.663166666666676 1259.79 0.0 0.0 1.0
-58.55436666666666 52.37893333333333 1259.79 0.0 0.0 1.0
-58.3298 56.757933333333334 1259.79 0.0 0.0 1.0
-59.9163 65.66250000000001 1251.88 0.0 0.0 1.0
-58.71103333333334 70.90783333333333 1244.07 0.0 0.0 1.0
-56.3522 -91.25786666666666 1411.32 0.0 0.0 1.0
-55.930366666666664 -81.52016666666667 1421.38 0.0 0.0 1.0
-57.6147 -55.71863333333332 1372.4800000000002 -4.351584919207185e-43 -7.19696694114288e-26 1.0
-56.67426666666666 -42.46013333333334 1363.1 0.0 0.0 1.0
-57.43593333333333 -36.500766666666664 1353.85 0.0 0.0 1.0
-57.67726666666667 -34.3288 1353.85 0.0 0.0 1.0
-58.0392 -29.1403 1353.85 0.0 0.0 1.0
-57.646166666666666 -21.321166666666667 1363.1 0.0 0.0 1.0
-56.636066666666665 -6.42202 1372.4800000000002 -1.4689974813342092e-27 -7.345587863444706e-28 1.0
-57.91856666666666 4.2835600000000005 1353.85 0.0 0.0 1.0
-57.64619999999999 6.256643333333334 1363.1 0.0 0.0 1.0
-57.12536666666667 12.660533333333333 1372.4800000000002 6.297468647392009e-26 -8.997025840348898e-27 1.0
-56.88073333333333 13.272166666666669 1372.4800000000002 2.9979184629089252e-27 -1.7990782273248136e-26 1.0
-57.2477 15.351700000000001 1372.4800000000002 5.997472450952296e-27 2.394262816552501e-41 1.0
-57.737 21.345566666666667 1372.4800000000002 0.0 0.0 1.0
-57.37003333333333 21.834866666666667 1372.4800000000002 -7.195986472463912e-26 -1.7990783164178235e-26 1.0
-57.49236666666667 23.792033333333336 1372.4800000000002 1.77475844393015e-26 -4.896658271113997e-28 1.0
-57.28173333333333 25.694766666666666 1363.1 0.0 0.0 1.0
-57.976200000000006 32.916666666666664 1335.71 0.0 0.0 1.0
-58.4181 41.86443333333333 1267.8 0.0 0.0 1.0
-58.666666666666664 46.428066666666666 1259.79 0.0 0.0 1.0
-58.55436666666666 48.22456666666667 1259.79 0.0 0.0 1.0
-57.461666666666666 53.835433333333334 1251.88 0.0 0.0 1.0
-58.378366666666665 66.69436666666667 1244.07 0.0 0.0 1.0
-59.9449 86.99723333333334 1236.36 0.0 0.0 1.0
-52.46336666666667 -87.6632 1320.9833333333333 0.4977833117581378 0.3555652736831703 0.791065806798469
-57.61003333333333 -84.08806666666668 1411.32 0.0 0.0 1.0
-57.07046666666667 -79.11323333333334 1421.38 0.0 0.0 1.0
-56.8171 -78.73320000000001 1421.38 0.0 0.0 1.0
-56.8171 -78.7332 1421.38 0.0 0.0 1.0
-57.3023 -68.15506666666667 1391.63 0.0 0.0 1.0
-57.6147 -55.71863333333332 1372.4800000000002 0.0 -7.196966941142879e-26 1.0
-57.6147 -55.107 1372.4800000000002 0.0 0.0 1.0
-58.375099999999996 -49.263466666666666 1363.1 0.0 0.0 1.0
-57.76766666666666 -45.98330000000001 1363.1 0.0 0.0 1.0
-58.28053333333333 -39.03466666666667 1353.85 0.0 0.0 1.0
-58.52186666666666 -37.58676666666666 1353.85 0.0 0.0 1.0
-57.5566 -33.0015 1353.85 0.0 0.0 1.0
-57.28173333333333 -13.667433333333333 1363.1 0.0 0.0 1.0
-57.91856666666666 4.2835600000000005 1353.85 0.0 0.0 1.0
-57.6462 6.256643333333334 1363.1 0.0 0.0 1.0
-57.6462 6.256643333333334 1363.1 0.0 0.0 1.0
-58.375099999999996 9.415336666666667 1363.1 0.0 0.0 1.0
-57.2477 13.3945 1372.4800000000002 6.997051192777621e-27 1.9991574836506997e-27 1.0
-57.2477 15.351700000000001 1372.4800000000002 5.997472450952296e-27 2.3763261962091435e-41 1.0
-57.37003333333334 22.69113333333333 1372.4800000000002 3.5744883505087905e-26 4.799024012529694e-28 1.0
-57.49236666666667 23.792033333333332 1372.4800000000002 1.811483380963505e-26 2.448329135557025e-28 1.0
-57.28173333333333 25.694766666666666 1363.1 0.0 0.0 1.0
-58.0674 29.66293333333333 1344.72 0.0 0.0 1.0
-58.0674 30.501899999999996 1344.72 0.0 0.0 1.0
-59.55949999999999 37.533 1318.06 0.0 0.0 1.0
-44.76886666666667 67.44526666666667 2183.94 0.0 0.0 1.0
-59.00346666666667 44.51930000000001 1259.79 0.0 0.0 1.0
-60.263299999999994 77.56063333333333 1244.07 0.0 0.0 1.0
-60.263299999999994 77.56063333333333 1244.07 0.0 0.0 1.0
-60.38566666666666 81.15703333333335 1236.36 0.0 0.0 1.0
-60.15246666666667 86.09840000000001 1244.07 0.0 0.0 1.0
-57.3585 -90.50313333333334 1411.32 0.0 0.0 1.0
-57.45053333333334 -76.45286666666667 1421.38 0.0 0.0 1.0
-57.45053333333334 -76.45286666666667 1421.38 0.0 0.0 1.0
-57.6147 -55.71863333333332 1372.4800000000002 4.351584919207185e-43 -7.19696694114288e-26 1.0
-58.010600000000004 -51.3288 1363.1 0.0 0.0 1.0
-58.401199999999996 -38.672666666666665 1353.85 0.0 0.0 1.0
-58.0392 -29.1403 1353.85 0.0 0.0 1.0
-58.401166666666676 -28.898966666666666 1353.85 0.0 0.0 1.0
-58.618066666666664 3.583903333333333 1363.1 0.0 0.0 1.0
-57.91856666666666 4.2835600000000005 1353.85 0.0 0.0 1.0
-57.07386666666667 25.7617 1353.85 0.0 0.0 1.0
-59.166666666666664 35.29763333333334 1335.71 0.0 0.0 1.0
-59.45263333333333 51.14386666666667 1259.79 0.0 0.0 1.0
-60.01406666666667 59.677166666666665 1259.79 0.0 0.0 1.0
-60.01406666666666 62.0351 1259.79 0.0 0.0 1.0
-60.01406666666666 62.0351 1259.79 0.0 0.0 1.0
-59.9163 65.66250000000001 1251.88 0.0 0.0 1.0
-59.154533333333326 76.0083 1244.07 0.0 0.0 1.0
-60.38566666666666 81.15703333333335 1236.36 0.0 0.0 1.0
-60.596000000000004 86.98546666666668 1244.07 0.0 0.0 1.0
-59.9449 86.99723333333334 1236.36 0.0 0.0 1.0
-54.98763333333333 -105.012 1484.86 0.0 0.0 1.0
-56.47796666666667 -92.38993333333333 1411.32 0.0 0.0 1.0
-57.61003333333333 -84.08806666666668 1411.32 0.0 0.0 1.0
-57.32383333333333 -79.36656666666667 1421.38 0.0 0.0 1.0
-57.32383333333333 -79.36656666666667 1421.38 0.0 0.0 1.0
-57.577200000000005 -75.81946666666666 1421.38 0.0 0.0 1.0
-58.17053333333334 -67.28683333333333 1391.63 0.0 0.0 1.0
-58.10396666666667 -59.51070000000001 1372.4800000000002 -2.93321164854072e-26 2.2669518846569945e-25 1.0
-57.98166666666666 -56.0856 1372.4800000000002 -1.0496394022679773e-26 4.497695707538894e-27 1.0
-58.73953333333333 -49.87093333333333 1363.1 0.0 0.0 1.0
-58.28053333333333 -39.03466666666666 1353.85 0.0 0.0 1.0
-58.642500000000005 -37.94873333333333 1353.85 0.0 0.0 1.0
-58.883833333333335 -29.984933333333334 1353.85 0.0 0.0 1.0
-58.401166666666676 -28.898966666666666 1353.85 0.0 0.0 1.0
-59.10403333333333 -20.3493 1363.1 0.0 0.0 1.0
-59.347 -17.3121 1363.1 0.0 0.0 1.0
-57.6462 -14.1534 1363.1 0.0 0.0 1.0
-58.618066666666664 -0.9111613333333333 1363.1 0.0 0.0 1.0
-58.618066666666664 -0.9111613333333333 1363.1 0.0 0.0 1.0
-58.618066666666664 3.583903333333333 1363.1 0.0 0.0 1.0
-58.375099999999996 9.415336666666667 1363.1 0.0 0.0 1.0
-57.85933333333333 14.495433333333333 1372.4800000000002 -2.5541156955889656e-32 3.7489310179936428e-28 1.0
-58.83793333333333 18.776766666666667 1372.4800000000002 0.0 0.0 1.0
-57.07386666666667 25.7617 1353.85 0.0 0.0 1.0
-58.3071 30.38203333333333 1344.72 0.0 0.0 1.0
-57.976200000000006 32.916666666666664 1335.71 0.0 0.0 1.0
-59.166666666666664 35.29763333333334 1335.71 0.0 0.0 1.0
-59.55949999999999 37.533 1318.06 0.0 0.0 1.0
-58.757066666666674 43.10733333333334 1267.8 0.0 0.0 1.0
-59.34033333333334 45.86666666666667 1259.79 0.0 0.0 1.0
-60.2386 51.592966666666676 1259.79 0.0 0.0 1.0
-60.68770000000001 55.29826666666667 1259.79 0.0 0.0 1.0
-60.12633333333333 63.270199999999996 1259.79 0.0 0.0 1.0
-60.585766666666665 69.12136666666667 1251.88 0.0 0.0 1.0
-59.708933333333334 73.23626666666667 1244.07 0.0 0.0 1.0
-58.46393333333333 -94.69516666666668 1421.38 0.0 0.0 1.0
-58.239 -90.0 1411.32 0.0 0.0 1.0
-58.3648 -86.72956666666668 1411.32 0.0 0.0 1.0
-58.239 -86.35223333333333 1411.32 0.0 0.0 1.0
-58.490566666666666 -84.96853333333334 1411.32 0.0 0.0 1.0
-57.32383333333333 -80.76006666666667 1421.38 0.0 0.0 1.0
-57.45053333333334 -76.45286666666667 1421.38 0.0 0.0 1.0
-59.104000000000006 -53.75853333333333 1363.1 0.0 0.0 1.0
-59.104000000000006 -53.75853333333333 1363.1 0.0 0.0 1.0
-58.98253333333333 -50.2354 1363.1 0.0 0.0 1.0
-58.98253333333333 -49.62793333333334 1363.1 0.0 0.0 1.0
-57.76766666666666 -45.98330000000001 1363.1 0.0 0.0 1.0
-58.618066666666664 -43.918 1363.1 0.0 0.0 1.0
-59.22549999999999 -41.97416666666667 1363.1 0.0 0.0 1.0
-58.642500000000005 -38.3107 1353.85 0.0 0.0 1.0
-59.00450000000001 -37.466100000000004 1353.85 0.0 0.0 1.0
-58.982499999999995 -22.0501 1363.1 0.0 0.0 1.0
-58.982499999999995 -22.0501 1363.1 0.0 0.0 1.0
-58.982499999999995 -2.2475333333333336 1363.1 0.0 0.0 1.0
-58.98253333333333 -1.3971140000000002 1363.1 0.0 0.0 1.0
-58.375099999999996 9.415336666666667 1363.1 0.0 0.0 1.0
-59.2049 16.4526 1372.4800000000002 0.0 0.0 1.0
-59.2049 16.4526 1372.4800000000002 0.0 0.0 1.0
-59.449533333333335 21.345566666666667 1372.4800000000002 0.0 0.0 1.0
-45.7421 67.6399 2183.94 0.0 0.0 1.0
-61.361399999999996 57.65613333333334 1259.79 0.0 0.0 1.0
-60.350899999999996 62.0351 1259.79 0.0 0.0 1.0
-60.3509 63.270199999999996 1259.79 0.0 0.0 1.0
-57.2263 120.19466666666666 2183.94 0.0 0.0 1.0
-60.585766666666665 69.12136666666667 1251.88 0.0 0.0 1.0
-60.92053333333333 72.24546666666667 1251.88 0.0 0.0 1.0
-60.92053333333333 72.24546666666667 1251.88 0.0 0.0 1.0
-60.15246666666667 86.09840000000001 1244.07 0.0 0.0 1.0
-48.2725 160.292 2183.94 0.0 0.0 1.0
-58.3648 -86.72956666666668 1411.32 0.0 0.0 1.0
-58.3648 -86.72956666666668 1411.32 0.0 0.0 1.0
-58.490566666666666 -84.96853333333333 1411.32 0.0 0.0 1.0
-59.37106666666667 -72.8931 1411.32 0.0 0.0 1.0
-58.4186 -68.40313333333333 1391.63 0.0 0.0 1.0
-59.30716666666666 -65.2194 1381.99 0.0 0.0 1.0
-59.225500000000004 -41.97416666666667 1363.1 0.0 0.0 1.0
-59.00450000000001 -37.466100000000004 1353.85 0.0 0.0 1.0
-59.24583333333334 -36.862766666666666 1353.85 0.0 0.0 1.0
-59.225500000000004 -22.1716 1363.1 0.0 0.0 1.0
-59.10403333333333 -20.3493 1363.1 0.0 0.0 1.0
-58.982499999999995 -2.2475333333333336 1363.1 0.0 0.0 1.0
-59.58996666666667 1.0326526666666667 1363.1 0.0 0.0 1.0
-58.618066666666664 3.583903333333333 1363.1 0.0 0.0 1.0
-58.132133333333336 6.742596666666667 1363.1 0.0 0.0 1.0
-59.81653333333333 13.027533333333333 1372.4800000000002 -1.9993844666690866e-27 2.9992810230712585e-27 1.0
-58.83793333333333 18.776766666666663 1372.4800000000002 4.498104338214205e-26 3.5984834705713643e-26 1.0
-59.44956666666667 18.8991 1372.4800000000002 7.998082744689451e-27 -1.1996034459984497e-26 1.0
-60.224700000000006 32.53933333333333 1344.72 0.0 0.0 1.0
-51.33523333333333 52.9263 1875.9733333333334 -0.050422289231642395 -0.9971130061868156 0.05677363509351816
-45.7421 67.6399 2183.94 0.0 0.0 1.0
-60.35086666666667 48.22456666666667 1259.79 0.0 0.0 1.0
-60.687733333333334 51.9298 1259.79 0.0 0.0 1.0
-60.57543333333333 53.95086666666666 1259.79 0.0 0.0 1.0
-60.350899999999996 61.922799999999995 1259.79 0.0 0.0 1.0
-60.808933333333336 66.1088 1251.88 0.0 0.0 1.0
-60.585766666666665 69.12136666666667 1251.88 0.0 0.0 1.0
-60.38566666666666 81.15703333333333 1236.36 0.0 0.0 1.0
-61.0395 87.76163333333334 1244.07 0.0 0.0 1.0
-59.097366666666666 -97.22893333333333 1421.38 0.0 0.0 1.0
-51.245200000000004 -86.31153333333334 1372.5233333333333 -0.7246224269988749 0.6145513649907407 0.3118476520326514
-58.46393333333333 -94.69516666666668 1421.38 0.0 0.0 1.0
-58.46393333333333 -94.69516666666668 1421.38 0.0 0.0 1.0
-58.490566666666666 -84.96853333333333 1411.32 0.0 0.0 1.0
-58.666666666666664 -68.03103333333333 1391.63 0.0 0.0 1.0
-58.790699999999994 -67.28683333333333 1391.63 0.0 0.0 1.0
-59.30716666666666 -65.2194 1381.99 0.0 0.0 1.0
-59.676700000000004 -62.016933333333334 1381.99 0.0 0.0 1.0
-58.10396666666667 -59.51070000000001 1372.4800000000002 -2.93321164854072e-26 2.2669518846569945e-25 1.0
-59.10399999999999 -53.75853333333333 1363.1 0.0 0.0 1.0
-59.347 -50.2354 1363.1 0.0 0.0 1.0
-59.347 -49.87093333333333 1363.1 0.0 0.0 1.0
-59.95443333333333 -41.609700000000004 1363.1 0.0 0.0 1.0
-58.883833333333335 -29.984933333333334 1353.85 0.0 0.0 1.0
-59.225500000000004 -22.1716 1363.1 0.0 0.0 1.0
-59.71146666666667 -20.713766666666668 1363.1 0.0 0.0 1.0
-59.347 -16.461666666666666 1363.1 0.0 0.0 1.0
-58.8379 -10.947989999999999 1372.4800000000002 -3.5984246343281674e-27 5.577663103989075e-27 1.0
-60.197399999999995 -8.443436666666665 1363.1 0.0 0.0 1.0
-59.22549999999999 -1.8830666666666669 1363.1 0.0 0.0 1.0
-58.98253333333333 4.191343333333333 1363.1 0.0 0.0 1.0
-59.3272 21.71253333333333 1372.4800000000002 1.2565269917800306e-19 1.256502564302193e-19 1.0
-59.166666666666664 35.29763333333334 1335.71 0.0 0.0 1.0
-47.88323333333333 74.25793333333333 2183.94 0.0 0.0 1.0
-60.35086666666667 47.4386 1259.79 0.0 0.0 1.0
-61.02453333333333 56.42106666666666 1259.79 0.0 0.0 1.0
-61.92466666666667 74.8117 1251.88 0.0 0.0 1.0
-60.8177 78.22589999999998 1244.07 0.0 0.0 1.0
-61.70476666666667 79.66736666666667 1244.07 0.0 0.0 1.0
-61.70476666666667 79.66736666666667 1244.07 0.0 0.0 1.0
-61.70476666666667 81.88496666666667 1244.07 0.0 0.0 1.0
-61.70476666666667 82.8829 1244.07 0.0 0.0 1.0
-14.357406666666664 136.317 2107.4066666666663 0.2302358319037691 0.9655389143733273 0.12135100551027955
-61.3648 -107.41233333333332 1514.9533333333331 -0.6186113294744284 0.7613876211644546 0.19393017656727246
-58.86793333333333 -90.25156666666668 1411.32 0.0 0.0 1.0
-58.86793333333333 -90.25156666666668 1411.32 0.0 0.0 1.0
-59.224066666666666 -78.47983333333333 1421.38 0.0 0.0 1.0
-59.47743333333333 -78.09976666666667 1421.38 0.0 0.0 1.0
-59.30716666666667 -65.21940000000001 1381.99 0.0 0.0 1.0
-59.676700000000004 -62.016933333333334 1381.99 0.0 0.0 1.0
-59.95443333333333 -41.609700000000004 1363.1 0.0 0.0 1.0
-60.0905 -35.17343333333333 1353.85 0.0 0.0 1.0
-60.68333333333334 -24.236900000000002 1363.1 0.0 0.0 1.0
-59.83293333333334 -18.162499999999998 1363.1 0.0 0.0 1.0
-60.318900000000006 -15.854199999999999 1363.1 0.0 0.0 1.0
-60.197399999999995 -8.443436666666665 1363.1 0.0 0.0 1.0
-59.93883333333333 22.20183333333333 1372.4800000000002 1.8031671747910425e-26 3.605026285797795e-26 1.0
-60.224700000000006 32.53933333333333 1344.72 0.0 0.0 1.0
-50.10753333333333 34.2473 1206.45 0.0 0.0 1.0
-47.88323333333333 74.25793333333333 2183.94 0.0 0.0 1.0
-60.79999999999999 51.81753333333333 1259.79 0.0 0.0 1.0
-61.03210000000001 67.22456666666666 1251.88 0.0 0.0 1.0
-61.58996666666667 72.24546666666667 1251.88 0.0 0.0 1.0
-61.58996666666667 73.02646666666665 1251.88 0.0 0.0 1.0
-61.70476666666667 82.3285 1244.07 0.0 0.0 1.0
-48.2725 160.292 2183.94 0.0 0.0 1.0
-59.8953 -108.55133333333333 1566.49 0.0 0.0 1.0
-59.496833333333335 -84.59116666666667 1411.32 0.0 0.0 1.0
-59.604099999999995 -78.60653333333333 1421.38 0.0 0.0 1.0
-59.73076666666666 -76.57956666666666 1421.38 0.0 0.0 1.0
-59.73076666666666 -76.57956666666666 1421.38 0.0 0.0 1.0
-60.0 -72.64153333333333 1411.32 0.0 0.0 1.0
-58.891466666666666 -69.6331 1401.41 0.0 0.0 1.0
-59.676700000000004 -62.016933333333334 1381.99 0.0 0.0 1.0
-61.16206666666667 -54.86236666666667 1372.4800000000002 6.803447064308354e-29 8.617411294506662e-28 1.0
-59.954433333333334 -41.609700000000004 1363.1 0.0 0.0 1.0
-59.832966666666664 -21.3212 1363.1 0.0 0.0 1.0
-60.55043333333334 -12.293566666666665 1372.4800000000002 8.996072487853766e-27 -9.245581312382382e-27 1.0
-58.56813333333334 -10.038503333333333 1381.99 0.0 0.0 1.0
-60.197399999999995 2.9764633333333337 1363.1 0.0 0.0 1.0
-60.30583333333334 13.149866666666668 1372.4800000000002 4.6480207193462273e-26 1.0496802569841783e-26 1.0
-60.30583333333334 13.149866666666668 1372.4800000000002 4.6480207193462285e-26 1.049680256984179e-26 1.0
-60.55046666666667 15.840966666666667 1372.4800000000002 4.8005937317154326e-26 -3.6001182828647733e-26 1.0
-60.1835 18.77676666666667 1372.4800000000002 6.665068953908014e-28 -2.69886260292853e-26 1.0
-60.18346666666667 21.223233333333337 1372.4800000000002 8.100511398387195e-26 -1.0799864391540655e-25 1.0
-59.86516666666666 29.662899999999997 1344.72 0.0 0.0 1.0
-59.55949999999999 37.533 1318.06 0.0 0.0 1.0
-18.787166666666668 57.12916666666666 2001.3799999999999 0.22368544967814177 0.23611209764385063 0.9456298942760367
-47.88323333333333 74.25793333333333 2183.94 0.0 0.0 1.0
-48.4672 76.59366666666666 2183.94 0.0 0.0 1.0
-61.78863333333334 44.168499999999995 1326.83 0.0 0.0 1.0
-48.85646666666667 78.73476666666666 2183.94 0.0 0.0 1.0
-61.922799999999995 57.76843333333333 1259.79 0.0 0.0 1.0
-61.922799999999995 57.76843333333333 1259.79 0.0 0.0 1.0
-61.92466666666667 74.8117 1251.88 0.0 0.0 1.0
-61.70476666666667 81.88496666666667 1244.07 0.0 0.0 1.0
-61.92653333333334 83.21553333333334 1244.07 0.0 0.0 1.0
-61.92653333333333 87.98336666666667 1244.07 0.0 0.0 1.0
-62.48093333333333 89.64656666666667 1244.07 0.0 0.0 1.0
-59.01636666666667 -97.11146666666667 1401.41 0.0 0.0 1.0
-59.604099999999995 -95.20189999999998 1421.38 0.0 0.0 1.0
-59.496833333333335 -84.59116666666667 1411.32 0.0 0.0 1.0
-60.251599999999996 -72.38996666666667 1411.32 0.0 0.0 1.0
-60.5619 -50.842833333333324 1363.1 0.0 0.0 1.0
-60.31889999999999 -44.52546666666667 1363.1 0.0 0.0 1.0
-60.81446666666667 -36.98343333333333 1353.85 0.0 0.0 1.0
-60.93516666666667 -35.17343333333333 1353.85 0.0 0.0 1.0
-61.169333333333334 -28.003033333333335 1363.1 0.0 0.0 1.0
-61.04783333333334 -4.43432 1363.1 0.0 0.0 1.0
-60.92636666666667 -3.948366666666667 1363.1 0.0 0.0 1.0
-59.832966666666664 -1.8830666666666669 1363.1 0.0 0.0 1.0
-60.683366666666664 7.95748 1363.1 0.0 0.0 1.0
-61.16933333333333 11.480633333333335 1363.1 0.0 0.0 1.0
-60.30583333333334 13.149866666666668 1372.4800000000002 4.6480207193462273e-26 1.0496802569841783e-26 1.0
-60.91743333333333 15.718633333333335 1372.4800000000002 -7.50068244386401e-26 -1.2599433075919087e-25 1.0
-60.91743333333333 22.5688 1372.4800000000002 -1.5999071901453742e-26 -7.999535950726795e-27 1.0
-61.30336666666667 31.700366666666667 1344.72 0.0 0.0 1.0
-60.9438 32.4195 1344.72 0.0 0.0 1.0
-63.05083333333334 56.10166666666667 1267.8 0.0 0.0 1.0
-61.922799999999995 57.76843333333333 1259.79 0.0 0.0 1.0
-62.2594 69.56763333333333 1251.88 0.0 0.0 1.0
-62.37006666666667 79.66736666666667 1244.07 0.0 0.0 1.0
-62.48093333333333 83.3264 1244.07 0.0 0.0 1.0
-62.8136 85.1005 1244.07 0.0 0.0 1.0
-62.591833333333334 85.544 1244.07 0.0 0.0 1.0
-62.48093333333333 89.64656666666667 1244.07 0.0 0.0 1.0
-59.01636666666667 -97.11146666666667 1401.41 0.0 0.0 1.0
-55.960566666666665 -105.813 1473.89 0.0 0.0 1.0
-58.76376666666666 -97.99336666666666 1441.9800000000002 -0.8147443575804342 0.26193364293296906 0.5172836731337161
-60.17453333333333 -107.57433333333334 1566.49 0.0 0.0 1.0
-59.83916666666667 -108.74000000000001 1604.29 0.0 0.0 1.0
-59.604099999999995 -95.20189999999998 1421.38 0.0 0.0 1.0
-60.0 -83.83646666666668 1411.32 0.0 0.0 1.0
-59.98413333333334 -78.22646666666667 1421.38 0.0 0.0 1.0
-60.23749999999999 -77.59303333333334 1421.38 0.0 0.0 1.0
-59.98413333333334 -77.08630000000001 1421.38 0.0 0.0 1.0
-60.251599999999996 -72.38996666666667 1411.32 0.0 0.0 1.0
-60.251599999999996 -72.38996666666667 1411.32 0.0 0.0 1.0
-61.13973333333333 -70.00779999999999 1401.41 0.0 0.0 1.0
-60.66206666666667 -64.35723333333334 1381.99 0.0 0.0 1.0
-59.83293333333333 -54.36596666666666 1363.1 0.0 0.0 1.0
-61.176500000000004 -38.6727 1353.85 0.0 0.0 1.0
-61.417833333333334 -30.9502 1353.85 0.0 0.0 1.0
-61.29080000000001 -28.731966666666665 1363.1 0.0 0.0 1.0
-61.1693 -23.62946666666667 1363.1 0.0 0.0 1.0
-61.1693 -23.629466666666662 1363.1 0.0 0.0 1.0
-61.1693 -18.526966666666667 1363.1 0.0 0.0 1.0
-61.53376666666667 -9.050883333333333 1363.1 0.0 0.0 1.0
-60.92633333333333 -5.04176 1363.1 0.0 0.0 1.0
-60.92633333333333 -5.04176 1363.1 0.0 0.0 1.0
-61.2908 2.126046666666667 1363.1 0.0 0.0 1.0
-61.04783333333334 10.873166666666668 1363.1 0.0 0.0 1.0
-60.91743333333333 15.718633333333335 1372.4800000000002 -7.500682443864005e-26 -1.2599433075919075e-25 1.0
-60.67276666666667 21.345533333333332 1372.4800000000002 0.0 0.0 1.0
-61.03976666666667 22.324133333333332 1372.4800000000002 1.199494490190457e-26 -2.3986621426451682e-26 1.0
-58.73956666666667 26.180733333333336 1363.1 0.0 0.0 1.0
-61.65853333333333 44.77883333333333 1254.5166666666667 -0.9228730538398343 -0.05769248980983971 0.3807583263907432
-49.63503333333333 80.8759 2183.94 0.0 0.0 1.0
-63.6247 54.75476666666666 1275.91 0.0 0.0 1.0
-62.70876666666667 66.5263 1259.79 0.0 0.0 1.0
-62.70876666666667 66.52629999999999 1259.79 0.0 0.0 1.0
-62.48256666666666 72.58016666666667 1251.88 0.0 0.0 1.0
-61.92466666666667 74.8117 1251.88 0.0 0.0 1.0
-63.2636 76.48536666666666 1251.88 0.0 0.0 1.0
-62.5918 81.21966666666667 1244.07 0.0 0.0 1.0
-62.7027 88.09423333333332 1244.07 0.0 0.0 1.0
-59.74843333333333 -90.12576666666666 1411.32 0.0 0.0 1.0
-60.25156666666667 -86.22643333333333 1411.32 0.0 0.0 1.0
-62.0155 -66.91473333333333 1391.63 0.0 0.0 1.0
-61.406733333333335 -56.81956666666667 1372.4800000000002 2.7988567957136574e-26 -3.998678153328075e-27 1.0
-61.65136666666666 -56.33026666666667 1372.4800000000002 -3.999041372344725e-27 3.5674469205288947e-43 1.0
-68.12653333333334 -82.23846666666667 2183.94 0.0 0.0 1.0
-61.65529999999999 -50.842833333333324 1363.1 0.0 0.0 1.0
-62.38423333333333 -47.9271 1363.1 0.0 0.0 1.0
-61.77676666666667 -45.861799999999995 1363.1 0.0 0.0 1.0
-61.659166666666664 -40.48266666666667 1353.85 0.0 0.0 1.0
-61.659166666666664 -40.48266666666666 1353.85 0.0 0.0 1.0
-61.65913333333333 -31.553533333333334 1353.85 0.0 0.0 1.0
-61.90046666666667 -29.9849 1353.85 0.0 0.0 1.0
-61.2908 -28.731966666666665 1363.1 0.0 0.0 1.0
-61.2908 -28.731966666666665 1363.1 0.0 0.0 1.0
-61.29080000000001 -22.900533333333332 1363.1 0.0 0.0 1.0
-61.04783333333334 -22.1716 1363.1 0.0 0.0 1.0
-60.318900000000006 -15.854199999999999 1363.1 0.0 0.0 1.0
-61.53376666666667 -9.050883333333333 1363.1 0.0 0.0 1.0
-60.92636666666667 -3.948366666666667 1363.1 0.0 0.0 1.0
-61.04783333333334 5.406226666666666 1363.1 0.0 0.0 1.0
-61.04783333333334 10.873166666666668 1363.1 0.0 0.0 1.0
-61.29083333333333 12.209566666666667 1363.1 0.0 0.0 1.0
-60.91743333333333 15.718633333333335 1372.4800000000002 -7.50068244386401e-26 -1.2599433075919087e-25 1.0
-61.03976666666667 18.5321 1372.4800000000002 2.937994962668419e-27 -1.4689974813342237e-27 1.0
-61.03976666666667 23.0581 1372.4800000000002 3.1497763980397663e-26 1.7998547063551046e-26 1.0
-61.03976666666667 23.0581 1372.4800000000002 3.1497763980397663e-26 1.7998547063551046e-26 1.0
-62.14066666666667 25.626899999999996 1372.4800000000002 1.2466826791824687e-27 1.1192470688521119e-27 1.0
-61.78276666666667 32.6592 1344.72 0.0 0.0 1.0
-62.2619 36.7262 1335.71 0.0 0.0 1.0
-62.6164 42.512933333333336 1326.83 0.0 0.0 1.0
-63.17596666666666 45.26466666666666 1284.12 0.0 0.0 1.0
-61.58996666666667 47.58716666666667 1251.88 0.0 0.0 1.0
-62.371933333333324 61.47366666666667 1259.79 0.0 0.0 1.0
-62.7057 75.92746666666666 1251.88 0.0 0.0 1.0
-63.1462 81.21966666666667 1244.07 0.0 0.0 1.0
-62.92446666666667 83.21553333333334 1244.07 0.0 0.0 1.0
-63.14623333333333 85.76573333333333 1244.07 0.0 0.0 1.0
-62.92446666666667 89.09216666666669 1244.07 0.0 0.0 1.0
-60.87093333333333 -76.83293333333333 1421.38 0.0 0.0 1.0
-61.89603333333333 -57.30886666666666 1372.4800000000002 7.997356306656565e-27 -5.597713591427609e-26 1.0
-61.776766666666674 -45.861799999999995 1363.1 0.0 0.0 1.0
-61.659166666666664 -40.48266666666667 1353.85 0.0 0.0 1.0
-62.383100000000006 -36.259433333333334 1353.85 0.0 0.0 1.0
-61.90046666666667 -29.9849 1353.85 0.0 0.0 1.0
-61.776766666666674 -28.367499999999996 1363.1 0.0 0.0 1.0
-62.627199999999995 -20.4708 1363.1 0.0 0.0 1.0
-61.898266666666665 12.452566666666668 1363.1 0.0 0.0 1.0
