ply
format ascii 1.0
comment VCGLIB generated
element vertex 839
property float x
property float y
property float z
property float nx
property float ny
property float nz
element face 0
property list uchar int vertex_indices
end_header
-20.4033 67.85289999999999 2129.54 0.0 0.0 1.0
-20.9727 70.1305 2129.54 0.0 0.0 1.0
-20.782899999999998 73.7367 2129.54 0.0 0.0 1.0
-21.162499999999998 75.06523333333332 2129.54 0.0 0.0 1.0
-21.162499999999998 82.847 2129.54 0.0 0.0 1.0
-20.9727 85.12456666666667 2129.54 0.0 0.0 1.0
-20.9727 85.12456666666667 2129.54 0.0 0.0 1.0
-20.9727 91.1981 2129.54 0.0 0.0 1.0
-9.275366666666667 129.27533333333335 2601.74 0.0 0.0 1.0
-13.866666666666667 -117.86666666666667 2393.6 0.0 0.0 1.0
-13.866666666666667 -117.86666666666666 2393.6 0.0 0.0 1.0
-14.293333333333335 -111.46666666666668 2393.6 0.0 0.0 1.0
-31.2008 -69.88683333333334 1772.1833333333334 0.8018462955970986 0.589606864799067 0.09698589185559504
-14.650866666666667 -86.3241 2365.22 0.0 0.0 1.0
-14.440066666666667 -85.90249999999999 2365.22 0.0 0.0 1.0
-15.0725 -84.4269 2365.22 0.0 0.0 1.0
-14.861666666666666 -81.05400000000002 2365.22 0.0 0.0 1.0
-15.1181 -69.18636666666667 2355.91 0.0 0.0 1.0
-17.648466666666668 -62.04746666666667 2316.3933333333334 -1.264263562984774e-15 0.6622765514620751 0.7492594806764219
-15.328066666666667 -56.37796666666667 2355.91 0.0 0.0 1.0
-15.1181 -55.53806666666667 2355.91 0.0 0.0 1.0
-15.1181 -54.69816666666666 2355.91 0.0 0.0 1.0
-15.538066666666666 -54.27823333333333 2355.91 0.0 0.0 1.0
-15.1181 -44.619433333333326 2355.91 0.0 0.0 1.0
-15.7085 -41.36193333333333 2349.75 -2.710960448490165e-16 0.9963484838428402 0.085379732630604
-15.710566666666665 -30.077533333333335 2319.38 0.0 0.0 1.0
-15.710566666666665 -30.077533333333335 2319.38 0.0 0.0 1.0
-15.503866666666665 -27.803633333333334 2319.38 0.0 0.0 1.0
-16.33073333333333 -23.46253333333333 2319.38 0.0 0.0 1.0
-15.503866666666665 -20.9819 2319.38 0.0 0.0 1.0
-15.710566666666665 -20.361766666666668 2319.38 0.0 0.0 1.0
-15.297133333333333 -15.193800000000001 2319.38 0.0 0.0 1.0
-21.40846666666667 -5.539903333333332 2107.04 0.0 0.0 1.0
-16.9328 -3.14322 2275.29 0.0 0.0 1.0
-16.9328 -2.1292793333333333 2275.29 0.0 0.0 1.0
-18.585866666666664 5.55556 2266.67 0.0 0.0 1.0
-17.506333333333334 4.376589999999999 2283.97 0.0 0.0 1.0
-18.181833333333334 12.82826666666667 2266.67 0.0 0.0 1.0
-16.118 14.484126666666668 2304.5 -0.8503007045594599 0.32703546214371976 0.41235484515903253
-17.979799999999997 15.45453333333333 2266.67 0.0 0.0 1.0
-33.0425 15.962800000000001 1621.7133333333331 -0.060943276458973135 0.9728945074903429 0.22307441437683512
-25.410166666666665 22.675699999999996 1920.006666666667 -0.4366274319439782 0.8732974367654859 -0.2161205048412545
-21.9217 26.8565 2129.54 0.0 0.0 1.0
-21.5421 31.601399999999998 2129.54 0.0 0.0 1.0
-21.3523 32.3606 2129.54 0.0 0.0 1.0
-21.7319 33.1198 2129.54 0.0 0.0 1.0
-22.3013 35.20759999999999 2129.54 0.0 0.0 1.0
-20.782899999999998 38.81379999999999 2129.54 0.0 0.0 1.0
-20.782899999999998 45.0771 2129.54 0.0 0.0 1.0
-21.162499999999998 52.858799999999995 2129.54 0.0 0.0 1.0
-20.782899999999998 54.377199999999995 2129.54 0.0 0.0 1.0
-21.3523 60.8304 2129.54 0.0 0.0 1.0
-21.162499999999998 64.6263 2129.54 0.0 0.0 1.0
-21.5421 65.57530000000001 2129.54 0.0 0.0 1.0
-21.162499999999998 73.3571 2129.54 0.0 0.0 1.0
-21.162499999999998 73.92649999999999 2129.54 0.0 0.0 1.0
-21.3523 74.30606666666667 2129.54 0.0 0.0 1.0
-21.3523 74.30606666666667 2129.54 0.0 0.0 1.0
-21.3523 81.13879999999999 2129.54 0.0 0.0 1.0
-21.5421 84.745 2129.54 0.0 0.0 1.0
-16.7619 95.33333333333333 2137.14 0.0 0.0 1.0
-23.640666666666664 100.52006666666666 2121.99 0.0 0.0 1.0
-9.275366666666667 129.27533333333335 2601.74 0.0 0.0 1.0
-15.36 -109.76 2393.6 0.0 0.0 1.0
-15.146666666666667 -99.09333333333332 2393.6 0.0 0.0 1.0
-38.88226666666667 -69.91953333333333 1741.2833333333335 0.5388271025369112 -0.8419521198616501 -0.0279639309137763
-15.0725 -84.4269 2365.22 0.0 0.0 1.0
-15.1181 -70.23623333333335 2355.91 0.0 0.0 1.0
-17.648466666666668 -62.04746666666667 2316.3933333333334 -1.264263562984774e-15 0.6622765514620751 0.7492594806764219
-15.538066666666666 -64.14696666666667 2355.91 0.0 0.0 1.0
-15.328066666666667 -56.37796666666666 2355.91 0.0 0.0 1.0
-15.118099999999998 -49.868766666666666 2355.91 0.0 0.0 1.0
-15.328066666666667 -48.818900000000006 2355.91 0.0 0.0 1.0
-15.1181 -44.619433333333326 2355.91 0.0 0.0 1.0
-17.217833333333335 -33.91073333333333 2355.91 0.0 0.0 1.0
-23.32556666666667 -10.7916 2390.42 -0.287372185401167 0.21321162142667227 0.933786930485947
-37.894800000000004 -3.7955500000000004 1548.9233333333334 -0.009319879840580917 -0.9413031422399277 0.3374337479402377
-17.7099 2.1374033333333333 2283.97 0.0 0.0 1.0
-17.7099 2.1374033333333333 2283.97 0.0 0.0 1.0
-17.7099 2.1374033333333333 2283.97 0.0 0.0 1.0
-18.78786666666667 4.747476666666667 2266.67 0.0 0.0 1.0
-18.841666666666665 9.987126666666667 2310.42 0.0 0.0 1.0
-18.181833333333334 12.828266666666666 2266.67 0.0 0.0 1.0
-18.38383333333333 13.838366666666667 2266.67 0.0 0.0 1.0
-22.680900000000005 20.782899999999998 2129.54 0.0 0.0 1.0
-21.9217 26.8565 2129.54 0.0 0.0 1.0
-21.9217 31.411600000000004 2129.54 0.0 0.0 1.0
-21.9217 41.8505 2129.54 0.0 0.0 1.0
-21.9217 41.8505 2129.54 0.0 0.0 1.0
-21.9217 41.850500000000004 2129.54 0.0 0.0 1.0
-22.111500000000003 43.179100000000005 2129.54 0.0 0.0 1.0
-21.7319 49.062900000000006 2129.54 0.0 0.0 1.0
-22.111500000000003 51.150666666666666 2129.54 0.0 0.0 1.0
-21.9217 52.858799999999995 2129.54 0.0 0.0 1.0
-21.9217 61.21 2129.54 0.0 0.0 1.0
-21.5421 65.0059 2129.54 0.0 0.0 1.0
-21.3523 66.3345 2129.54 0.0 0.0 1.0
-22.301299999999998 80.3796 2129.54 0.0 0.0 1.0
-22.491100000000003 91.0083 2129.54 0.0 0.0 1.0
-16.0 -108.26666666666667 2393.6 0.0 0.0 1.0
-16.426666666666666 -101.86666666666667 2393.6 0.0 0.0 1.0
-15.146666666666667 -99.09333333333332 2393.6 0.0 0.0 1.0
-15.146666666666667 -99.09333333333332 2393.6 0.0 0.0 1.0
-16.0 -96.32000000000001 2393.6 0.0 0.0 1.0
-16.213333333333335 -92.48000000000002 2393.6 0.0 0.0 1.0
-15.915700000000001 -80.42160000000001 2365.22 0.0 0.0 1.0
-16.377966666666666 -63.517066666666665 2355.91 0.0 0.0 1.0
-16.587966666666667 -62.88713333333334 2355.91 0.0 0.0 1.0
-15.538066666666666 -54.27823333333333 2355.91 0.0 0.0 1.0
-25.70574666666667 -37.42683333333334 2104.6133333333332 -0.40791552526692565 0.1941908252953387 0.8921293895043048
-18.018 -37.992266666666666 2310.42 0.0 0.0 1.0
-18.018 -36.138999999999996 2310.42 0.0 0.0 1.0
-17.427833333333336 -27.821533333333335 2355.91 0.0 0.0 1.0
-16.33073333333333 -23.462533333333337 2319.38 0.0 0.0 1.0
-17.9845 -17.4677 2319.38 0.0 0.0 1.0
-10.434766666666667 -8.695663333333334 2601.74 0.0 0.0 1.0
-18.9313 -2.74809 2283.97 0.0 0.0 1.0
-18.787866666666662 4.747476666666667 2266.67 0.0 0.0 1.0
-19.569066666666668 12.674266666666666 2275.29 0.0 0.0 1.0
-18.78786666666667 12.828266666666666 2266.67 0.0 0.0 1.0
-37.952333333333335 6.527640000000001 1772.2066666666667 -0.6989939749942365 0.23993243001468942 0.6736763703359371
-41.4897 7.874133333333333 1713.0166666666667 -0.49538763001130726 0.8424218676452514 0.2119351149405563
-42.57326666666666 15.296633333333334 1345.77 -0.986075901925448 -0.09385000924951026 0.13728252403631316
-22.680899999999998 24.5789 2129.54 0.0 0.0 1.0
-21.9217 26.8565 2129.54 0.0 0.0 1.0
-22.4911 27.995266666666666 2129.54 0.0 0.0 1.0
-21.9217 31.411600000000004 2129.54 0.0 0.0 1.0
-22.8707 33.3096 2129.54 0.0 0.0 1.0
-22.491100000000003 43.7485 2129.54 0.0 0.0 1.0
-22.680899999999998 49.442499999999995 2129.54 0.0 0.0 1.0
-22.491100000000003 52.858799999999995 2129.54 0.0 0.0 1.0
-22.301299999999998 54.56700000000001 2129.54 0.0 0.0 1.0
-21.9217 61.21 2129.54 0.0 0.0 1.0
-22.301299999999998 72.0285 2129.54 0.0 0.0 1.0
-23.0605 77.153 2129.54 0.0 0.0 1.0
-22.4911 85.12456666666667 2129.54 0.0 0.0 1.0
-22.4911 85.12456666666667 2129.54 0.0 0.0 1.0
-22.680899999999998 85.50413333333334 2129.54 0.0 0.0 1.0
-22.8707 87.59190000000001 2129.54 0.0 0.0 1.0
-22.8707 88.7307 2129.54 0.0 0.0 1.0
-22.491100000000003 91.0083 2129.54 0.0 0.0 1.0
-22.582866666666664 102.87266666666666 2147.3733333333334 -0.6745559039560537 -0.6739683117052261 0.30123254680601574
-16.426666666666666 -112.10666666666667 2393.6 0.0 0.0 1.0
-16.0 -111.04 2393.6 0.0 0.0 1.0
-16.0 -108.26666666666667 2393.6 0.0 0.0 1.0
-16.426666666666666 -104.42666666666666 2393.6 0.0 0.0 1.0
-16.213333333333335 -93.33333333333333 2393.6 0.0 0.0 1.0
-17.1805 -79.5784 2365.22 0.0 0.0 1.0
-17.602099999999997 -71.56786666666666 2365.22 0.0 0.0 1.0
-17.3913 -66.9302 2365.22 0.0 0.0 1.0
-16.587966666666667 -62.88713333333334 2355.91 0.0 0.0 1.0
-16.797933333333333 -61.6273 2355.91 0.0 0.0 1.0
-17.673233333333332 -55.52943333333334 2346.67 0.0 0.0 1.0
-17.6021 -49.644266666666674 2365.22 0.0 0.0 1.0
-17.84776666666667 -41.6798 2355.91 0.0 0.0 1.0
-18.018 -37.992266666666666 2310.42 0.0 0.0 1.0
-18.018 -37.37453333333333 2310.42 0.0 0.0 1.0
-18.018 -37.37453333333333 2310.42 0.0 0.0 1.0
-17.0079 -30.761133333333333 2355.91 0.0 0.0 1.0
-18.05773333333333 -25.931766666666665 2355.91 0.0 0.0 1.0
-17.9845 -17.4677 2319.38 0.0 0.0 1.0
-12.7536 -16.579733333333333 2601.74 0.0 0.0 1.0
-18.9313 -2.74809 2283.97 0.0 0.0 1.0
-19.393933333333333 5.55556 2266.67 0.0 0.0 1.0
-18.841666666666665 9.987126666666667 2310.42 0.0 0.0 1.0
-18.787866666666662 12.82826666666667 2266.67 0.0 0.0 1.0
-33.0425 15.962800000000001 1621.7133333333331 -0.06094327645897322 0.9728945074903432 0.22307441437683512
-22.680899999999998 20.782899999999998 2129.54 0.0 0.0 1.0
-23.4401 20.9727 2129.54 0.0 0.0 1.0
-22.8707 22.8707 2129.54 0.0 0.0 1.0
-23.2503 28.564633333333333 2129.54 0.0 0.0 1.0
-22.491100000000003 31.032 2129.54 0.0 0.0 1.0
-23.2503 32.93 2129.54 0.0 0.0 1.0
-22.8707 33.309599999999996 2129.54 0.0 0.0 1.0
-22.8707 35.9668 2129.54 0.0 0.0 1.0
-22.4911 43.7485 2129.54 0.0 0.0 1.0
-22.4911 52.858799999999995 2129.54 0.0 0.0 1.0
-22.680899999999998 54.187400000000004 2129.54 0.0 0.0 1.0
-23.0605 56.654799999999994 2129.54 0.0 0.0 1.0
-23.4401 69.5611 2129.54 0.0 0.0 1.0
-23.4401 71.6489 2129.54 0.0 0.0 1.0
-23.0605 77.153 2129.54 0.0 0.0 1.0
-23.0605 85.50413333333334 2129.54 0.0 0.0 1.0
-22.4911 91.0083 2129.54 0.0 0.0 1.0
-23.629900000000003 92.9063 2129.54 0.0 0.0 1.0
-23.2503 93.6655 2129.54 0.0 0.0 1.0
-23.034633333333336 101.79233333333333 2144.8 0.0 0.0 1.0
-17.28 -118.93333333333334 2393.6 0.0 0.0 1.0
-16.853333333333335 -117.01333333333332 2393.6 0.0 0.0 1.0
-16.853333333333335 -116.15999999999998 2393.6 0.0 0.0 1.0
-16.0 -108.26666666666667 2393.6 0.0 0.0 1.0
-16.426666666666666 -107.62666666666667 2393.6 0.0 0.0 1.0
-16.64 -102.71999999999998 2393.6 0.0 0.0 1.0
-16.085023333333332 -75.66199999999999 2173.3733333333334 -0.880646644421236 0.4036307631481782 0.24808001674870336
-20.9296 -95.72376666666666 2384.06 0.0 0.0 1.0
-17.529866666666667 -86.37453333333333 2384.06 0.0 0.0 1.0
-43.22136666666666 -44.660066666666665 1624.62 -0.4722083885422917 -0.22036331127668998 0.8534982418455616
-17.8129 -73.2543 2365.22 0.0 0.0 1.0
-17.8129 -72.6219 2365.22 0.0 0.0 1.0
-17.3913 -67.56259999999999 2365.22 0.0 0.0 1.0
-17.754099999999998 -56.70956666666667 2343.6133333333332 -0.9454831625322511 -0.3151777966898585 0.08200332823574394
-17.673233333333332 -55.52943333333334 2346.67 0.0 0.0 1.0
-17.8824 -54.06536666666667 2346.67 0.0 0.0 1.0
-17.8824 -54.06536666666667 2346.67 0.0 0.0 1.0
-17.602099999999997 -49.64426666666666 2365.22 0.0 0.0 1.0
-17.84776666666667 -41.6798 2355.91 0.0 0.0 1.0
-17.84776666666667 -32.6509 2355.91 0.0 0.0 1.0
-18.057733333333335 -27.191633333333332 2355.91 0.0 0.0 1.0
-17.9845 -17.4677 2319.38 0.0 0.0 1.0
-17.407300000000003 -25.598833333333335 2553.6333333333337 -0.8240009013521188 0.5665067393743957 -0.009624386436881592
-40.232499999999995 0.8336899999999995 1318.13 -0.5635484069088501 0.34990949885129485 0.74831579943506
-30.1187 -13.894296666666667 1936.57 0.0 0.0 1.0
-18.9313 -2.74809 2283.97 0.0 0.0 1.0
-19.393933333333333 4.747476666666667 2266.67 0.0 0.0 1.0
-19.393933333333333 5.55556 2266.67 0.0 0.0 1.0
-19.569066666666668 12.674266666666666 2275.29 0.0 0.0 1.0
-23.2503 32.93 2129.54 0.0 0.0 1.0
-23.8197 42.2301 2129.54 0.0 0.0 1.0
-24.009500000000003 42.6097 2129.54 0.0 0.0 1.0
-24.199299999999997 48.493500000000004 2129.54 0.0 0.0 1.0
-23.4401 49.442499999999995 2129.54 0.0 0.0 1.0
-24.3891 58.7426 2129.54 0.0 0.0 1.0
-23.2503 65.7651 2129.54 0.0 0.0 1.0
-23.4401 69.5611 2129.54 0.0 0.0 1.0
-23.4401 69.5611 2129.54 0.0 0.0 1.0
-22.8707 75.63459999999999 2129.54 0.0 0.0 1.0
-23.0605 77.153 2129.54 0.0 0.0 1.0
-23.2503 80.5694 2129.54 0.0 0.0 1.0
-23.4401 85.69393333333333 2129.54 0.0 0.0 1.0
-23.4401 85.69393333333333 2129.54 0.0 0.0 1.0
-23.4401 89.3001 2129.54 0.0 0.0 1.0
-23.629900000000003 92.9063 2129.54 0.0 0.0 1.0
-24.199299999999997 97.27163333333334 2129.54 0.0 0.0 1.0
-23.034633333333336 101.79233333333333 2144.8 0.0 0.0 1.0
-23.034633333333336 101.79233333333333 2144.8 0.0 0.0 1.0
-18.540233333333333 111.56666666666666 2337.523333333333 0.0016998815314523735 -0.9834079889501196 0.18139966282179382
-17.493333333333336 -118.50666666666666 2393.6 0.0 0.0 1.0
-17.28 -115.51999999999998 2393.6 0.0 0.0 1.0
-16.426666666666666 -112.10666666666667 2393.6 0.0 0.0 1.0
-17.493333333333336 -101.44 2393.6 0.0 0.0 1.0
-50.21216666666667 -52.6838 1408.0466666666669 0.23374414189992176 0.5034701419003627 0.8317941406034897
-16.853333333333335 -93.12 2393.6 0.0 0.0 1.0
-17.28 -92.26666666666667 2393.6 0.0 0.0 1.0
-17.529866666666667 -86.37453333333333 2384.06 0.0 0.0 1.0
-17.954833333333337 -82.97473333333333 2384.06 0.0 0.0 1.0
-17.3913 -67.56259999999999 2365.22 0.0 0.0 1.0
-17.602100000000004 -65.87616666666668 2365.22 0.0 0.0 1.0
-18.0237 -64.1897 2365.22 0.0 0.0 1.0
-18.0237 -64.1897 2365.22 0.0 0.0 1.0
-18.0237 -64.1897 2365.22 0.0 0.0 1.0
-29.808066666666665 -40.97303333333334 1858.4166666666667 0.6535468990347094 -0.6943987020652804 0.30114264615322917
-18.897633333333335 -43.56956666666667 2355.91 0.0 0.0 1.0
-19.202833333333334 -36.047133333333335 2304.5 -0.9866021221002554 -2.425532937447942e-15 0.16314488244279196
-19.202833333333334 -36.047133333333335 2304.5 -0.9866021221002554 -2.4947359435804463e-15 0.16314488244279196
-18.687633333333334 -34.9606 2355.91 0.0 0.0 1.0
-18.057733333333335 -27.191633333333332 2355.91 0.0 0.0 1.0
-18.057733333333335 -27.191633333333332 2355.91 0.0 0.0 1.0
-18.39793333333333 -18.501266666666666 2319.38 0.0 0.0 1.0
-30.1187 -13.894296666666667 1936.57 0.0 0.0 1.0
-35.3212 -7.946369999999999 1765.2 0.529644527107306 -0.8474366456155614 -0.036439080300189004
-19.366266666666665 -3.751583333333333 2275.29 0.0 0.0 1.0
-19.366266666666665 -3.751583333333333 2275.29 0.0 0.0 1.0
-16.6154 10.564110000000001 2301.54 0.0 0.0 1.0
-20.380233333333333 14.093766666666667 2275.29 0.0 0.0 1.0
-24.9585 16.986966666666664 2129.54 0.0 0.0 1.0
-24.0095 21.7319 2129.54 0.0 0.0 1.0
-24.3891 28.7544 2129.54 0.0 0.0 1.0
-24.199300000000004 33.3096 2129.54 0.0 0.0 1.0
-24.3891 35.9668 2129.54 0.0 0.0 1.0
-24.199299999999997 41.4709 2129.54 0.0 0.0 1.0
-24.199300000000004 49.252700000000004 2129.54 0.0 0.0 1.0
-24.389100000000003 58.9324 2129.54 0.0 0.0 1.0
-24.199300000000004 61.20996666666667 2129.54 0.0 0.0 1.0
-24.199300000000004 62.53853333333333 2129.54 0.0 0.0 1.0
-24.199300000000004 63.6773 2129.54 0.0 0.0 1.0
-24.199300000000004 63.6773 2129.54 0.0 0.0 1.0
-24.199300000000004 81.7082 2129.54 0.0 0.0 1.0
-24.3891 89.48989999999999 2129.54 0.0 0.0 1.0
-23.629900000000003 90.43889999999999 2129.54 0.0 0.0 1.0
-23.629900000000003 92.9063 2129.54 0.0 0.0 1.0
-24.7687 97.6512 2129.54 0.0 0.0 1.0
-19.401133333333334 110.094 2328.4266666666667 -0.43921254654496794 -0.8813490755282064 0.17411532391797185
-18.540233333333333 111.56666666666666 2337.523333333333 0.0016998815314508353 -0.9834079889501195 0.1813996628217939
-24.964566666666666 102.97866666666665 2121.99 0.0 0.0 1.0
-12.753633333333333 128.57966666666667 2601.74 0.0 0.0 1.0
-17.706666666666667 -118.93333333333334 2393.6 0.0 0.0 1.0
-17.92 -115.51999999999998 2393.6 0.0 0.0 1.0
-18.346666666666668 -98.45333333333333 2393.6 0.0 0.0 1.0
-18.592266666666664 -84.46213333333333 2384.06 0.0 0.0 1.0
-17.954833333333337 -82.97473333333333 2384.06 0.0 0.0 1.0
-18.3798 -82.76226666666668 2384.06 0.0 0.0 1.0
-18.3798 -81.6999 2384.06 0.0 0.0 1.0
-18.866899999999998 -78.3136 2365.22 0.0 0.0 1.0
-18.866899999999998 -78.3136 2365.22 0.0 0.0 1.0
-18.4453 -73.4651 2365.22 0.0 0.0 1.0
-18.4453 -72.4111 2365.22 0.0 0.0 1.0
-18.9662 -58.05076666666667 2313.4066666666668 -0.9372544457346823 -2.359854860972769e-15 0.3486461012983994
-16.899 -52.055933333333336 2313.4066666666668 -0.6848075875555261 -5.250045874218141e-15 0.7287239312842556
-17.602099999999997 -49.64426666666666 2365.22 0.0 0.0 1.0
-18.897633333333335 -43.56956666666667 2355.91 0.0 0.0 1.0
-18.687666666666665 -41.88976666666667 2355.91 0.0 0.0 1.0
-19.97366666666667 -36.56626666666667 2298.6 -0.9954516927928068 -3.0726178493715976e-15 0.09526766143836757
-23.368266666666667 -34.077666666666666 2269.5433333333335 0.7998440869129338 1.8089839346938214e-14 0.6002078278649946
-23.368266666666667 -34.077666666666666 2269.5433333333335 0.7998440869129215 -1.421101473425034e-14 0.6002078278650111
-18.897633333333335 -35.170566666666666 2355.91 0.0 0.0 1.0
-18.897633333333335 -34.75063333333333 2355.91 0.0 0.0 1.0
-18.2677 -27.821533333333335 2355.91 0.0 0.0 1.0
-18.897633333333335 -26.141733333333335 2355.91 0.0 0.0 1.0
-24.2332 -11.660333333333334 2275.29 0.0 0.0 1.0
-35.48513333333333 -7.364513333333332 1777.4366666666667 0.49302882214499477 -0.862818557581073 0.11165445458214307
-19.33843333333333 -1.93384 2283.97 0.0 0.0 1.0
-20.606033333333333 12.626266666666666 2266.67 0.0 0.0 1.0
-20.606033333333333 12.626266666666666 2266.67 0.0 0.0 1.0
-20.380233333333333 14.093766666666667 2275.29 0.0 0.0 1.0
-24.9585 16.986966666666664 2129.54 0.0 0.0 1.0
-24.009500000000003 22.3013 2129.54 0.0 0.0 1.0
-24.9585 33.3096 2129.54 0.0 0.0 1.0
-25.338099999999997 38.434200000000004 2129.54 0.0 0.0 1.0
-24.199300000000004 41.47089999999999 2129.54 0.0 0.0 1.0
-24.5789 43.179100000000005 2129.54 0.0 0.0 1.0
-24.9585 44.3179 2129.54 0.0 0.0 1.0
-24.9585 45.2669 2129.54 0.0 0.0 1.0
-24.199300000000004 49.252700000000004 2129.54 0.0 0.0 1.0
-25.148300000000003 54.9466 2129.54 0.0 0.0 1.0
-24.009500000000003 69.1815 2129.54 0.0 0.0 1.0
-24.3891 71.64890000000001 2129.54 0.0 0.0 1.0
-24.9585 77.9122 2129.54 0.0 0.0 1.0
-24.9585 77.9122 2129.54 0.0 0.0 1.0
-25.3381 82.2776 2129.54 0.0 0.0 1.0
-23.640666666666664 100.52006666666666 2121.99 0.0 0.0 1.0
-24.7687 97.6512 2129.54 0.0 0.0 1.0
-25.148299999999995 98.97980000000001 2129.54 0.0 0.0 1.0
-25.148299999999995 98.97980000000001 2129.54 0.0 0.0 1.0
-17.92 -118.50666666666666 2393.6 0.0 0.0 1.0
-17.92 -115.52 2393.6 0.0 0.0 1.0
-18.986666666666665 -106.34666666666668 2393.6 0.0 0.0 1.0
-19.2 -105.70666666666666 2393.6 0.0 0.0 1.0
-17.92 -99.94666666666666 2393.6 0.0 0.0 1.0
-18.56 -97.17333333333333 2393.6 0.0 0.0 1.0
-18.346666666666668 -91.62666666666667 2393.6 0.0 0.0 1.0
-18.592299999999998 -82.33733333333333 2384.06 0.0 0.0 1.0
-18.592299999999998 -82.33733333333333 2384.06 0.0 0.0 1.0
-18.866899999999998 -78.3136 2365.22 0.0 0.0 1.0
-19.2885 -73.2543 2365.22 0.0 0.0 1.0
-18.897666666666666 -56.37796666666667 2355.91 0.0 0.0 1.0
-19.73753333333333 -43.1496 2355.91 0.0 0.0 1.0
-19.1076 -34.9606 2355.91 0.0 0.0 1.0
-19.107633333333336 -26.5617 2355.91 0.0 0.0 1.0
-19.3176 -26.14173333333333 2355.91 0.0 0.0 1.0
-16.034866666666666 -20.8728 2307.46 -0.7280836632862057 -0.2426814584566628 0.6410927304041797
-34.6078 -10.152656666666665 2054.013333333334 -0.6460707508791222 -0.7600834396230061 0.0697549257712099
-34.6078 -10.152656666666665 2054.013333333334 -0.6460707508791225 -0.760083439623006 0.06975492577120962
-21.170466666666666 -7.226466666666667 2283.97 0.0 0.0 1.0
-23.6652 1.7400543333333331 2298.6 0.4467307582290252 0.8296419329939411 0.33485204593998996
-19.771866666666664 -1.1153353333333333 2275.29 0.0 0.0 1.0
-23.80586666666667 0.10217000000000002 2292.72 0.0 0.0 1.0
-25.9075 19.6441 2129.54 0.0 0.0 1.0
-25.9075 31.601399999999998 2129.54 0.0 0.0 1.0
-25.338099999999997 38.434200000000004 2129.54 0.0 0.0 1.0
-24.9585 43.55870000000001 2129.54 0.0 0.0 1.0
-25.338099999999997 46.2159 2129.54 0.0 0.0 1.0
-26.0973 52.669000000000004 2129.54 0.0 0.0 1.0
-25.148300000000003 53.618 2129.54 0.0 0.0 1.0
-25.5279 55.8956 2129.54 0.0 0.0 1.0
-25.717699999999997 58.9324 2129.54 0.0 0.0 1.0
-25.717699999999997 58.9324 2129.54 0.0 0.0 1.0
-25.717699999999997 71.2693 2129.54 0.0 0.0 1.0
-24.5789 77.34280000000001 2129.54 0.0 0.0 1.0
-25.717699999999997 86.4531 2129.54 0.0 0.0 1.0
-25.9075 87.21230000000001 2129.54 0.0 0.0 1.0
-25.148299999999995 89.67969999999998 2129.54 0.0 0.0 1.0
-24.7687 95.3737 2129.54 0.0 0.0 1.0
-24.7687 97.6512 2129.54 0.0 0.0 1.0
-30.5616 111.91466666666668 2403.286666666667 0.03702281407662347 -0.9990911795284738 0.0211217003636101
-16.665333333333333 110.01266666666668 2322.3866666666668 0.24193012460830884 -0.9675742287085655 0.07259426110949015
-13.681166666666668 127.884 2601.74 0.0 0.0 1.0
-13.681166666666668 127.884 2601.74 0.0 0.0 1.0
-19.2 -105.70666666666666 2393.6 0.0 0.0 1.0
-19.41333333333333 -96.32 2393.6 0.0 0.0 1.0
-18.986666666666665 -91.2 2393.6 0.0 0.0 1.0
-19.626666666666665 -90.77333333333333 2393.6 0.0 0.0 1.0
-19.84 -89.06666666666666 2393.6 0.0 0.0 1.0
-19.4422 -85.0996 2384.06 0.0 0.0 1.0
-19.2885 -73.2543 2365.22 0.0 0.0 1.0
-18.6561 -67.141 2365.22 0.0 0.0 1.0
-19.499333333333336 -64.1897 2365.22 0.0 0.0 1.0
-20.342533333333332 -59.34120000000001 2365.22 0.0 0.0 1.0
-20.342533333333332 -59.34120000000001 2365.22 0.0 0.0 1.0
-20.553366666666665 -55.7576 2365.22 0.0 0.0 1.0
-19.71013333333333 -51.541500000000006 2365.22 0.0 0.0 1.0
-20.7874 -48.60896666666667 2355.91 0.0 0.0 1.0
-20.1575 -34.54066666666667 2355.91 0.0 0.0 1.0
-12.7536 -16.579733333333333 2601.74 0.0 0.0 1.0
-12.7536 -16.579733333333333 2601.74 0.0 0.0 1.0
-26.4218 -5.858806666666666 2227.306666666667 0.34790004579083145 -0.2571432246280041 0.9015780166833314
-22.4242 0.9090903333333333 2266.67 0.0 0.0 1.0
-22.4242 0.9090903333333333 2266.67 0.0 0.0 1.0
-22.4242 0.9090903333333333 2266.67 0.0 0.0 1.0
-23.601533333333336 7.254136666666668 2292.72 0.0 0.0 1.0
-21.1068 11.222663333333335 2310.42 0.0 0.0 1.0
-25.5279 16.797166666666666 2129.54 0.0 0.0 1.0
-25.9075 17.17673333333333 2129.54 0.0 0.0 1.0
-25.9075 18.1257 2129.54 0.0 0.0 1.0
-26.0973 18.884900000000002 2129.54 0.0 0.0 1.0
-26.2871 28.564633333333333 2129.54 0.0 0.0 1.0
-26.0973 29.513599999999997 2129.54 0.0 0.0 1.0
-25.338099999999997 32.740199999999994 2129.54 0.0 0.0 1.0
-25.717699999999997 36.346399999999996 2129.54 0.0 0.0 1.0
-25.338099999999997 38.434200000000004 2129.54 0.0 0.0 1.0
-25.717699999999997 42.6097 2129.54 0.0 0.0 1.0
-25.338099999999997 46.2159 2129.54 0.0 0.0 1.0
-25.717699999999997 63.86709999999999 2129.54 0.0 0.0 1.0
-25.717699999999997 81.32860000000001 2129.54 0.0 0.0 1.0
-25.717699999999997 86.4531 2129.54 0.0 0.0 1.0
-25.717699999999997 86.4531 2129.54 0.0 0.0 1.0
-26.0973 89.8695 2129.54 0.0 0.0 1.0
-25.338099999999997 97.27163333333334 2129.54 0.0 0.0 1.0
-25.9075 98.79 2129.54 0.0 0.0 1.0
-20.05333333333333 -115.09333333333332 2393.6 0.0 0.0 1.0
-20.05333333333333 -115.09333333333332 2393.6 0.0 0.0 1.0
-20.906666666666666 -108.69333333333334 2393.6 0.0 0.0 1.0
-19.2 -105.70666666666666 2393.6 0.0 0.0 1.0
-20.05333333333333 -104.64 2393.6 0.0 0.0 1.0
-20.504666666666665 -78.51263333333333 2384.06 0.0 0.0 1.0
-20.292166666666663 -75.9628 2384.06 0.0 0.0 1.0
-20.292166666666663 -75.9628 2384.06 0.0 0.0 1.0
-20.292166666666663 -72.77556666666668 2384.06 0.0 0.0 1.0
-20.717133333333333 -72.3506 2384.06 0.0 0.0 1.0
-20.764166666666668 -64.40050000000001 2365.22 0.0 0.0 1.0
-21.1858 -62.9249 2365.22 0.0 0.0 1.0
-19.107633333333332 -58.26773333333333 2355.91 0.0 0.0 1.0
-20.553366666666665 -55.7576 2365.22 0.0 0.0 1.0
-21.1858 -54.07113333333333 2365.22 0.0 0.0 1.0
-29.808066666666665 -40.97303333333334 1858.4166666666667 0.6535468990347096 -0.6943987020652806 0.3011426461532291
-20.7874 -48.60896666666667 2355.91 0.0 0.0 1.0
-20.50463333333333 -45.577666666666666 2384.06 0.0 0.0 1.0
-20.577433333333335 -42.939633333333326 2355.91 0.0 0.0 1.0
-20.997366666666668 -36.8504 2355.91 0.0 0.0 1.0
-20.7874 -36.22046666666666 2355.91 0.0 0.0 1.0
-20.7874 -35.59053333333333 2355.91 0.0 0.0 1.0
-20.36746666666667 -35.170566666666666 2355.91 0.0 0.0 1.0
-20.577433333333335 -32.6509 2355.91 0.0 0.0 1.0
-20.7874 -31.39106666666667 2355.91 0.0 0.0 1.0
-20.7874 -29.921266666666668 2355.91 0.0 0.0 1.0
-20.36746666666667 -28.241500000000002 2355.91 0.0 0.0 1.0
-35.3212 -7.946369999999999 1765.2 0.5296445271073056 -0.8474366456155615 -0.036439080300189
-22.79896666666667 -10.076343333333334 2283.97 0.0 0.0 1.0
-22.62623333333333 0.10101 2266.67 0.0 0.0 1.0
-13.4225 19.0329 2334.4666666666667 -0.3099464118577875 0.8523526326089156 0.42122228272152645
-27.801500000000004 15.123473333333335 1835.5933333333335 -0.6793438395949865 0.13406623415710783 0.7214694674504756
-26.4769 19.2645 2129.54 0.0 0.0 1.0
-26.0973 20.403299999999998 2129.54 0.0 0.0 1.0
-26.8565 24.5789 2129.54 0.0 0.0 1.0
-25.9075 30.4626 2129.54 0.0 0.0 1.0
-26.4769 42.2301 2129.54 0.0 0.0 1.0
-26.2871 44.3179 2129.54 0.0 0.0 1.0
-27.236100000000004 49.06289999999999 2129.54 0.0 0.0 1.0
-26.4769 56.275200000000005 2129.54 0.0 0.0 1.0
-25.717699999999997 58.9324 2129.54 0.0 0.0 1.0
-26.8565 65.1957 2129.54 0.0 0.0 1.0
-26.8565 84.55516666666666 2129.54 0.0 0.0 1.0
-25.9075 87.21230000000001 2129.54 0.0 0.0 1.0
-27.236100000000004 92.14710000000001 2129.54 0.0 0.0 1.0
-23.9682 109.33133333333335 2269.5433333333335 -1.377748159362246e-15 -0.9825871229834942 0.18580243740871552
-13.681166666666668 127.88400000000001 2601.74 0.0 0.0 1.0
-14.608699999999999 129.04333333333335 2601.74 0.0 0.0 1.0
-12.521723333333334 -120.92733333333335 2601.74 0.0 0.0 1.0
-20.05333333333333 -115.09333333333332 2393.6 0.0 0.0 1.0
-20.05333333333333 -96.53333333333335 2393.6 0.0 0.0 1.0
-20.266666666666666 -95.89333333333333 2393.6 0.0 0.0 1.0
-19.41333333333333 -92.05333333333334 2393.6 0.0 0.0 1.0
-19.626666666666665 -90.77333333333333 2393.6 0.0 0.0 1.0
-20.504633333333334 -85.0996 2384.06 0.0 0.0 1.0
-20.292166666666663 -75.9628 2384.06 0.0 0.0 1.0
-20.717133333333333 -72.3506 2384.06 0.0 0.0 1.0
-20.342533333333336 -59.34119999999999 2365.22 0.0 0.0 1.0
-20.553366666666665 -55.757600000000004 2365.22 0.0 0.0 1.0
-20.7874 -48.60896666666667 2355.91 0.0 0.0 1.0
-20.50463333333333 -45.577666666666666 2384.06 0.0 0.0 1.0
-20.50463333333333 -45.577666666666666 2384.06 0.0 0.0 1.0
-21.207333333333334 -42.519666666666666 2355.91 0.0 0.0 1.0
-21.627266666666667 -41.88973333333333 2355.91 0.0 0.0 1.0
-20.997366666666668 -36.8504 2355.91 0.0 0.0 1.0
-21.073966666666667 -32.18853333333333 2352.83 -0.9956995748839285 -6.972366511053411e-16 0.09264100914802281
-22.828266666666664 1.3131303333333333 2266.67 0.0 0.0 1.0
-20.69496666666667 8.133843333333333 2310.42 0.0 0.0 1.0
-24.0404 5.151516666666667 2266.67 0.0 0.0 1.0
-26.4769 19.2645 2129.54 0.0 0.0 1.0
-26.8565 24.5789 2129.54 0.0 0.0 1.0
-26.8565 24.578900000000004 2129.54 0.0 0.0 1.0
-26.8565 27.805466666666664 2129.54 0.0 0.0 1.0
-27.236099999999997 37.675000000000004 2129.54 0.0 0.0 1.0
-27.236099999999997 37.675000000000004 2129.54 0.0 0.0 1.0
-26.4769 42.2301 2129.54 0.0 0.0 1.0
-27.236100000000004 44.5077 2129.54 0.0 0.0 1.0
-27.236100000000004 64.8161 2129.54 0.0 0.0 1.0
-27.236100000000004 65.57530000000001 2129.54 0.0 0.0 1.0
-27.236099999999997 67.4733 2129.54 0.0 0.0 1.0
-27.046266666666668 70.6999 2129.54 0.0 0.0 1.0
-27.6157 75.06523333333332 2129.54 0.0 0.0 1.0
-26.666700000000002 81.5184 2129.54 0.0 0.0 1.0
-27.0463 82.4674 2129.54 0.0 0.0 1.0
-26.8565 83.41640000000001 2129.54 0.0 0.0 1.0
-26.8565 85.50413333333334 2129.54 0.0 0.0 1.0
-26.666700000000002 86.07350000000001 2129.54 0.0 0.0 1.0
-27.046300000000002 90.05930000000001 2129.54 0.0 0.0 1.0
-27.425866666666668 93.09609999999999 2129.54 0.0 0.0 1.0
-26.666700000000002 98.60020000000002 2129.54 0.0 0.0 1.0
-26.666700000000002 98.60020000000002 2129.54 0.0 0.0 1.0
-30.27886666666667 95.9364 2384.06 0.0 0.0 1.0
-18.732466666666667 -105.99396666666667 2362.1166666666663 -0.8688885226436471 0.4827175421228668 0.10961984193109738
-18.732466666666667 -105.99396666666667 2362.1166666666663 -0.868888522643647 0.4827175421228668 0.10961984193109746
-21.546666666666667 -107.84000000000002 2393.6 0.0 0.0 1.0
-21.546666666666667 -107.84000000000002 2393.6 0.0 0.0 1.0
-21.12 -104.0 2393.6 0.0 0.0 1.0
-21.333333333333332 -96.10666666666667 2393.6 0.0 0.0 1.0
-20.266666666666666 -89.06666666666666 2393.6 0.0 0.0 1.0
-21.354566666666667 -84.88713333333332 2384.06 0.0 0.0 1.0
-21.992033333333335 -81.4874 2384.06 0.0 0.0 1.0
-21.354566666666667 -72.56306666666667 2384.06 0.0 0.0 1.0
-21.779566666666668 -70.86319999999999 2384.06 0.0 0.0 1.0
-20.764166666666668 -64.40050000000001 2365.22 0.0 0.0 1.0
-23.083 -49.01186666666666 2365.22 0.0 0.0 1.0
-21.627266666666667 -41.88973333333333 2355.91 0.0 0.0 1.0
-31.570899999999998 -17.21473333333333 1940.7766666666666 0.9580978134057617 -0.26129940365611665 0.11735076308254795
-34.089166666666664 -6.668066666666667 1895.6866666666667 0.34679888085356214 0.6002307512487216 0.7207312824445128
-35.3212 -7.946369999999999 1765.2 0.5296445271073059 -0.8474366456155614 -0.03643908030018897
-24.0404 5.151516666666666 2266.67 0.0 0.0 1.0
-24.444433333333336 5.75758 2266.67 0.0 0.0 1.0
-18.857986666666665 15.973133333333331 2374.6266666666666 0.07336476466082593 0.9560242003652764 0.2839636237657837
-21.010099999999998 16.8687 2266.67 0.0 0.0 1.0
-41.173333333333325 16.711100000000002 1595.7300000000002 -1.331332790020605e-26 -6.659654779170576e-27 1.0
-27.236099999999997 26.666700000000002 2129.54 0.0 0.0 1.0
-28.37483333333333 34.638200000000005 2129.54 0.0 0.0 1.0
-27.6157 37.1056 2129.54 0.0 0.0 1.0
-27.6157 45.2669 2129.54 0.0 0.0 1.0
-27.236100000000004 49.062900000000006 2129.54 0.0 0.0 1.0
-27.4259 49.632299999999994 2129.54 0.0 0.0 1.0
-28.185066666666668 52.2894 2129.54 0.0 0.0 1.0
-28.185066666666668 52.2894 2129.54 0.0 0.0 1.0
-27.61566666666667 56.275200000000005 2129.54 0.0 0.0 1.0
-27.805466666666664 68.8019 2129.54 0.0 0.0 1.0
-28.374866666666662 76.3938 2129.54 0.0 0.0 1.0
-27.80546666666667 79.6204 2129.54 0.0 0.0 1.0
-24.64646666666667 108.586 2266.67 0.0 0.0 1.0
-15.768133333333333 129.04333333333332 2601.74 0.0 0.0 1.0
-22.826666666666664 -112.10666666666667 2393.6 0.0 0.0 1.0
-21.76 -108.48000000000002 2393.6 0.0 0.0 1.0
-22.399999999999995 -100.37333333333333 2393.6 0.0 0.0 1.0
-22.629466666666662 -89.98673333333333 2384.06 0.0 0.0 1.0
-21.354566666666667 -85.52456666666666 2384.06 0.0 0.0 1.0
-21.779533333333333 -84.24966666666667 2384.06 0.0 0.0 1.0
-22.2045 -83.39973333333334 2384.06 0.0 0.0 1.0
-21.992033333333335 -81.4874 2384.06 0.0 0.0 1.0
-21.992033333333335 -72.77553333333333 2384.06 0.0 0.0 1.0
-22.629466666666662 -67.67593333333333 2384.06 0.0 0.0 1.0
-22.450599999999998 -61.238499999999995 2365.22 0.0 0.0 1.0
-22.450599999999998 -61.238499999999995 2365.22 0.0 0.0 1.0
-22.029 -60.18446666666667 2365.22 0.0 0.0 1.0
-22.872200000000003 -53.86033333333334 2365.22 0.0 0.0 1.0
-23.083 -53.2279 2365.22 0.0 0.0 1.0
-23.915333333333333 -46.66663333333333 2374.6 0.0 0.0 1.0
-37.72853333333333 -21.129833333333334 1817.0166666666667 -2.1227255817589445e-16 -0.9695767654467705 0.2447874504662729
-36.748 -18.617900000000002 1824.39 0.0 0.0 1.0
-36.748 -18.617900000000002 1824.39 0.0 0.0 1.0
-32.35556666666667 -22.488866666666667 1994.67 0.0 0.0 1.0
-20.028366666666667 -25.917533333333335 2539.186666666667 -0.9444845513027647 0.2951503339054625 0.1443440776267222
-24.8346 -10.687016666666665 2283.97 0.0 0.0 1.0
-24.64646666666667 -4.141417 2266.67 0.0 0.0 1.0
-25.45913333333333 -4.327043333333333 2258.11 0.0 0.0 1.0
-24.444433333333336 5.75758 2266.67 0.0 0.0 1.0
-23.165999999999997 12.6641 2310.42 0.0 0.0 1.0
-37.200966666666666 13.584366666666668 1743.0366666666666 0.82021724726033 -0.3025290041157694 0.4855099061454952
-26.4654 20.628933333333332 2258.11 0.0 0.0 1.0
-44.265233333333335 15.176516666666666 1310.3866666666665 -0.7490162588332419 0.2431860844825201 0.6163076928917202
-41.173333333333325 16.711100000000002 1595.7300000000002 -1.331332790020605e-26 -6.659654779170576e-27 1.0
-27.3642 24.607699999999998 2132.0733333333333 0.9922183099682235 -5.451555294301852e-16 0.12451034239693497
-27.6157 31.411599999999996 2129.54 0.0 0.0 1.0
-28.374866666666666 32.740199999999994 2129.54 0.0 0.0 1.0
-28.185066666666668 37.1056 2129.54 0.0 0.0 1.0
-28.185066666666668 37.4852 2129.54 0.0 0.0 1.0
-27.8055 42.98929999999999 2129.54 0.0 0.0 1.0
-28.185099999999995 44.128099999999996 2129.54 0.0 0.0 1.0
-27.995299999999997 45.0771 2129.54 0.0 0.0 1.0
-28.374866666666662 49.442499999999995 2129.54 0.0 0.0 1.0
-28.185066666666668 56.465 2129.54 0.0 0.0 1.0
-27.805499999999995 65.0059 2129.54 0.0 0.0 1.0
-27.805499999999995 65.3855 2129.54 0.0 0.0 1.0
-28.185066666666668 74.11626666666666 2129.54 0.0 0.0 1.0
-28.374866666666662 76.3938 2129.54 0.0 0.0 1.0
-28.18506666666666 85.69393333333333 2129.54 0.0 0.0 1.0
-28.374866666666666 90.2491 2129.54 0.0 0.0 1.0
-27.6157 91.1981 2129.54 0.0 0.0 1.0
-28.564666666666664 96.51246666666667 2129.54 0.0 0.0 1.0
-28.185099999999995 96.70226666666667 2129.54 0.0 0.0 1.0
-28.564666666666664 97.08183333333334 2129.54 0.0 0.0 1.0
-25.0505 108.384 2266.67 0.0 0.0 1.0
-24.64646666666667 108.586 2266.67 0.0 0.0 1.0
-40.78326666666667 80.99130000000001 1848.8433333333332 0.8436748503831871 -0.5324988842369426 0.06824723523570639
-16.927566666666667 128.57966666666667 2601.74 0.0 0.0 1.0
-12.521723333333334 -120.92733333333335 2601.74 0.0 0.0 1.0
-21.76 -108.48000000000002 2393.6 0.0 0.0 1.0
-22.186666666666667 -103.78666666666668 2393.6 0.0 0.0 1.0
-22.613333333333333 -99.73333333333333 2393.6 0.0 0.0 1.0
-21.333333333333332 -96.74666666666667 2393.6 0.0 0.0 1.0
-22.841966666666668 -94.2364 2384.06 0.0 0.0 1.0
-22.629499999999997 -93.17399999999999 2384.06 0.0 0.0 1.0
-22.841966666666668 -91.6866 2384.06 0.0 0.0 1.0
-22.841966666666668 -91.6866 2384.06 0.0 0.0 1.0
-22.841966666666668 -90.83666666666666 2384.06 0.0 0.0 1.0
-22.841966666666664 -82.76226666666668 2384.06 0.0 0.0 1.0
-23.4794 -77.66266666666667 2384.06 0.0 0.0 1.0
-22.62946666666667 -75.9628 2384.06 0.0 0.0 1.0
-21.992033333333335 -72.77553333333333 2384.06 0.0 0.0 1.0
-22.20453333333333 -69.37579999999998 2384.06 0.0 0.0 1.0
-22.629466666666662 -67.67593333333333 2384.06 0.0 0.0 1.0
-23.6919 -63.213766666666665 2384.06 0.0 0.0 1.0
-23.083 -53.2279 2365.22 0.0 0.0 1.0
-23.083 -50.9091 2365.22 0.0 0.0 1.0
-23.083 -50.9091 2365.22 0.0 0.0 1.0
-23.5046 -50.487500000000004 2365.22 0.0 0.0 1.0
-24.973533333333332 -39.894200000000005 2374.6 0.0 0.0 1.0
-23.517066666666665 -35.38056666666667 2355.91 0.0 0.0 1.0
-23.727033333333335 -34.75063333333333 2355.91 0.0 0.0 1.0
-32.35556666666667 -22.488866666666667 1994.67 0.0 0.0 1.0
-31.570899999999998 -17.21473333333333 1940.7766666666666 0.9580978134057617 -0.26129940365611665 0.11735076308254795
-26.261066666666665 -11.863133333333332 2275.29 0.0 0.0 1.0
-35.48513333333333 -7.364513333333332 1777.4366666666667 0.49302882214499477 -0.862818557581073 0.11165445458214307
-25.45913333333333 -4.327043333333333 2258.11 0.0 0.0 1.0
-25.45913333333333 -4.327043333333333 2258.11 0.0 0.0 1.0
-26.257966666666665 -1.1238833333333333 2292.72 0.0 0.0 1.0
-24.834633333333333 -1.3231553333333332 2283.97 0.0 0.0 1.0
-23.191033333333333 19.284233333333333 2442.4766666666665 0.9480141155700399 0.31600457397561205 0.03755457237736864
-24.813366666666667 12.4582 2310.42 0.0 0.0 1.0
-23.191033333333333 19.284233333333333 2442.4766666666665 0.9480141155700398 0.3160045739756127 0.03755457237736798
-26.867933333333337 17.0063 2258.11 0.0 0.0 1.0
-41.17333333333334 16.711100000000002 1595.7300000000002 1.3312807777224366e-26 -6.656534041280479e-27 1.0
-33.76406666666667 28.70956666666667 1957.6966666666667 0.9331886774274253 2.681504005541381e-15 0.35938682825230595
-33.76406666666667 28.70956666666667 1957.6966666666667 0.9331886774274253 2.681504005541381e-15 0.35938682825230595
-28.37483333333333 34.638200000000005 2129.54 0.0 0.0 1.0
-28.37483333333333 34.638200000000005 2129.54 0.0 0.0 1.0
-28.374866666666662 37.2954 2129.54 0.0 0.0 1.0
-27.995266666666666 38.81376666666667 2129.54 0.0 0.0 1.0
-29.90476666666667 45.61906666666667 2137.14 0.0 0.0 1.0
-28.564633333333333 55.8956 2129.54 0.0 0.0 1.0
-28.754433333333328 58.1732 2129.54 0.0 0.0 1.0
-28.564633333333333 69.9407 2129.54 0.0 0.0 1.0
-27.995266666666666 89.67969999999998 2129.54 0.0 0.0 1.0
-29.133999999999997 94.2349 2129.54 0.0 0.0 1.0
-25.0505 108.384 2266.67 0.0 0.0 1.0
-28.557933333333335 102.78966666666668 2121.99 0.0 0.0 1.0
-23.679999999999996 -112.53333333333335 2393.6 0.0 0.0 1.0
-22.826666666666664 -102.71999999999998 2393.6 0.0 0.0 1.0
-23.679999999999996 -100.8 2393.6 0.0 0.0 1.0
-22.841966666666668 -94.2364 2384.06 0.0 0.0 1.0
-23.054433333333332 -91.26163333333334 2384.06 0.0 0.0 1.0
-23.054433333333332 -91.26163333333334 2384.06 0.0 0.0 1.0
-35.663466666666665 -64.15033333333334 1917.9866666666667 0.3083566888348885 -0.8839582542277239 0.35147397803174324
-23.4794 -77.66266666666667 2384.06 0.0 0.0 1.0
-23.266933333333338 -67.46346666666666 2384.06 0.0 0.0 1.0
-23.083 -53.2279 2365.22 0.0 0.0 1.0
-24.9802 -38.260866666666665 2365.22 0.0 0.0 1.0
-23.727033333333335 -34.75063333333333 2355.91 0.0 0.0 1.0
-23.727033333333335 -34.75063333333333 2355.91 0.0 0.0 1.0
-18.782633333333333 -34.666666666666664 2601.74 0.0 0.0 1.0
-18.550766666666664 -30.26086666666667 2601.74 0.0 0.0 1.0
-26.464633333333335 -18.0808 2266.67 0.0 0.0 1.0
-26.464633333333335 -18.0808 2266.67 0.0 0.0 1.0
-27.0707 -15.0505 2266.67 0.0 0.0 1.0
-26.8687 -4.747476666666667 2266.67 0.0 0.0 1.0
-26.257966666666665 -1.1238833333333333 2292.72 0.0 0.0 1.0
-31.442800000000002 34.32836666666667 2232.84 0.0 0.0 1.0
-29.523833333333332 35.333333333333336 2137.14 0.0 0.0 1.0
-28.94423333333333 36.5362 2129.54 0.0 0.0 1.0
-29.134 36.726 2129.54 0.0 0.0 1.0
-29.52383333333334 41.04763333333333 2137.14 0.0 0.0 1.0
-29.893199999999997 48.8731 2129.54 0.0 0.0 1.0
-28.754433333333335 52.4792 2129.54 0.0 0.0 1.0
-28.754433333333335 52.669000000000004 2129.54 0.0 0.0 1.0
-28.564633333333333 55.8956 2129.54 0.0 0.0 1.0
-30.09523333333333 56.09523333333334 2137.14 0.0 0.0 1.0
-28.754433333333328 58.1732 2129.54 0.0 0.0 1.0
-28.94423333333333 63.297733333333326 2129.54 0.0 0.0 1.0
-28.94423333333333 63.297733333333326 2129.54 0.0 0.0 1.0
-29.134 71.2693 2129.54 0.0 0.0 1.0
-29.323799999999995 72.5979 2129.54 0.0 0.0 1.0
-28.94423333333333 73.3571 2129.54 0.0 0.0 1.0
-28.374866666666666 76.3938 2129.54 0.0 0.0 1.0
-29.32383333333333 84.36540000000001 2129.54 0.0 0.0 1.0
-28.185066666666668 85.88373333333334 2129.54 0.0 0.0 1.0
-29.134 93.6655 2129.54 0.0 0.0 1.0
-29.134 93.6655 2129.54 0.0 0.0 1.0
-29.513599999999997 94.6145 2129.54 0.0 0.0 1.0
-28.564666666666664 97.08183333333334 2129.54 0.0 0.0 1.0
-16.927566666666667 128.57966666666667 2601.74 0.0 0.0 1.0
-24.320000000000004 -119.14666666666666 2393.6 0.0 0.0 1.0
-23.679999999999996 -112.53333333333332 2393.6 0.0 0.0 1.0
-23.893333333333334 -107.2 2393.6 0.0 0.0 1.0
-23.893333333333334 -107.2 2393.6 0.0 0.0 1.0
-23.893333333333334 -100.16000000000001 2393.6 0.0 0.0 1.0
-23.25333333333333 -99.73333333333333 2393.6 0.0 0.0 1.0
-23.266933333333338 -92.11156666666666 2384.06 0.0 0.0 1.0
-23.479433333333333 -82.33733333333333 2384.06 0.0 0.0 1.0
-23.479433333333333 -82.33733333333333 2384.06 0.0 0.0 1.0
-37.409400000000005 -68.1701 1768.7333333333333 -0.8897529911966477 -0.18468118358056135 0.417411637461033
-23.904366666666665 -67.67596666666667 2384.06 0.0 0.0 1.0
-23.6919 -63.213766666666665 2384.06 0.0 0.0 1.0
-24.541833333333333 -58.326666666666675 2384.06 0.0 0.0 1.0
-24.5586 -50.2767 2365.22 0.0 0.0 1.0
-23.926199999999998 -50.0659 2365.22 0.0 0.0 1.0
-25.185166666666664 -46.66663333333333 2374.6 0.0 0.0 1.0
-25.191033333333337 -41.633700000000005 2365.22 0.0 0.0 1.0
-24.3386 -40.529133333333334 2374.6 0.0 0.0 1.0
-33.3775 -27.2848 1981.46 0.0 0.0 1.0
-33.3775 -27.2848 1981.46 0.0 0.0 1.0
-18.782633333333333 -34.666666666666664 2601.74 0.0 0.0 1.0
-20.536366666666666 -29.389433333333333 2546.4100000000003 -0.44657532058059984 -0.8929767960824598 0.05623988537185401
-17.407300000000003 -25.598833333333335 2553.6333333333337 -0.8240009013521186 0.5665067393743958 -0.00962438643688159
-33.3775 -27.2848 1981.46 0.0 0.0 1.0
-26.8687 -19.494933333333332 2266.67 0.0 0.0 1.0
-26.261066666666665 -11.863133333333332 2275.29 0.0 0.0 1.0
-26.257966666666665 -7.662836666666666 2292.72 0.0 0.0 1.0
-27.279666666666667 -6.2324399999999995 2292.72 0.0 0.0 1.0
-25.252533333333332 5.959600000000001 2266.67 0.0 0.0 1.0
-26.86793333333333 15.396233333333333 2258.11 0.0 0.0 1.0
-26.4654 17.811333333333334 2258.11 0.0 0.0 1.0
-27.270433333333333 18.616366666666664 2258.11 0.0 0.0 1.0
-29.714299999999998 42.0 2137.14 0.0 0.0 1.0
-29.714299999999998 42.0 2137.14 0.0 0.0 1.0
-29.714299999999998 42.0 2137.14 0.0 0.0 1.0
-29.714266666666663 46.76193333333333 2137.14 0.0 0.0 1.0
-29.893199999999997 48.8731 2129.54 0.0 0.0 1.0
-30.09523333333333 53.04760000000001 2137.14 0.0 0.0 1.0
-30.083 79.2408 2129.54 0.0 0.0 1.0
-29.893199999999997 80.5694 2129.54 0.0 0.0 1.0
-30.083 82.2776 2129.54 0.0 0.0 1.0
-30.666666666666668 88.66666666666667 2137.14 0.0 0.0 1.0
-24.320000000000004 -119.14666666666666 2393.6 0.0 0.0 1.0
-23.679999999999996 -112.53333333333335 2393.6 0.0 0.0 1.0
-24.746666666666666 -108.05333333333334 2393.6 0.0 0.0 1.0
-23.679999999999996 -100.8 2393.6 0.0 0.0 1.0
-41.5448 -60.99986666666666 1691.993333333333 -0.9559738202506244 2.09078551558662e-16 0.29345196369325355
-23.234333333333336 -86.12146666666666 2412.98 1.5560875414123804e-15 -0.9953349856088126 0.09647935749736866
-24.7543 -76.38779999999998 2384.06 0.0 0.0 1.0
-24.7543 -76.38779999999998 2384.06 0.0 0.0 1.0
-24.541833333333333 -68.5259 2384.06 0.0 0.0 1.0
-24.541833333333333 -63.42626666666666 2384.06 0.0 0.0 1.0
-24.541833333333333 -58.326666666666675 2384.06 0.0 0.0 1.0
-24.558600000000002 -50.276700000000005 2365.22 0.0 0.0 1.0
-25.191033333333337 -41.633700000000005 2365.22 0.0 0.0 1.0
-25.6168 -36.8504 2355.91 0.0 0.0 1.0
-32.35556666666667 -22.488866666666667 1994.67 0.0 0.0 1.0
-24.507366666666666 -33.47956666666666 2340.556666666667 3.949793154570067e-16 -0.9822965372413202 0.18733262642612955
-18.782633333333333 -34.666666666666664 2601.74 0.0 0.0 1.0
-19.014533333333333 -30.26086666666667 2601.74 0.0 0.0 1.0
-27.0707 -17.676766666666666 2266.67 0.0 0.0 1.0
-27.883399999999998 -14.904933333333332 2275.29 0.0 0.0 1.0
-27.676766666666666 -16.464633333333335 2266.67 0.0 0.0 1.0
-26.261066666666665 -11.863133333333332 2275.29 0.0 0.0 1.0
-27.484033333333333 -8.480206666666666 2292.72 0.0 0.0 1.0
-26.264166666666664 -4.1257866666666665 2258.11 0.0 0.0 1.0
-28.075466666666667 6.339623333333333 2258.11 0.0 0.0 1.0
-24.813366666666667 12.4582 2310.42 0.0 0.0 1.0
-28.679233333333332 22.641499999999997 2258.11 0.0 0.0 1.0
-29.523833333333332 35.333333333333336 2137.14 0.0 0.0 1.0
-17.81673333333333 35.962066666666665 2107.06 -0.19035555547523983 -0.952266498954888 0.2386488580905291
-29.893199999999997 48.8731 2129.54 0.0 0.0 1.0
-30.09523333333333 53.04760000000001 2137.14 0.0 0.0 1.0
-30.09523333333333 53.04760000000001 2137.14 0.0 0.0 1.0
-30.476166666666668 59.523799999999994 2137.14 0.0 0.0 1.0
-30.476166666666668 60.666666666666664 2137.14 0.0 0.0 1.0
-30.476166666666668 70.0 2137.14 0.0 0.0 1.0
-30.476166666666668 70.57143333333333 2137.14 0.0 0.0 1.0
-30.666633333333333 71.90476666666666 2137.14 0.0 0.0 1.0
-30.083 79.2408 2129.54 0.0 0.0 1.0
-29.893199999999997 83.4164 2129.54 0.0 0.0 1.0
-30.083 94.9941 2129.54 0.0 0.0 1.0
-30.4626 95.56349999999999 2129.54 0.0 0.0 1.0
-30.083 96.32266666666668 2129.54 0.0 0.0 1.0
-24.959999999999997 -119.57333333333334 2393.6 0.0 0.0 1.0
-35.0966 -84.14166666666667 2449.2566666666667 0.23772414696660227 0.9691905380050715 0.0644742661101401
-26.029233333333334 -78.30013333333333 2384.06 0.0 0.0 1.0
-24.7543 -76.38779999999998 2384.06 0.0 0.0 1.0
-25.39176666666667 -70.43826666666666 2384.06 0.0 0.0 1.0
-25.179266666666667 -69.37583333333333 2384.06 0.0 0.0 1.0
-25.179266666666667 -65.12613333333333 2384.06 0.0 0.0 1.0
-25.391766666666665 -63.42626666666666 2384.06 0.0 0.0 1.0
-24.966800000000003 -60.02653333333333 2384.06 0.0 0.0 1.0
-24.541833333333333 -58.326666666666675 2384.06 0.0 0.0 1.0
-21.992033333333335 -47.27753333333334 2384.06 0.0 0.0 1.0
-25.608433333333334 -45.60843333333333 2374.6 0.0 0.0 1.0
-25.608433333333334 -44.7619 2374.6 0.0 0.0 1.0
-25.823433333333337 -39.5257 2365.22 0.0 0.0 1.0
-24.9802 -38.260866666666665 2365.22 0.0 0.0 1.0
-25.616799999999998 -36.8504 2355.91 0.0 0.0 1.0
-25.616799999999998 -36.8504 2355.91 0.0 0.0 1.0
-24.507366666666666 -33.47956666666666 2340.556666666667 3.949793154570067e-16 -0.9822965372413202 0.18733262642612955
-34.58076666666667 -30.451600000000003 2255.28 0.6677215065365916 -8.9416981393007e-16 0.7444111697902609
-27.6806 -28.897333333333336 2275.29 0.0 0.0 1.0
-27.6806 -28.897333333333336 2275.29 0.0 0.0 1.0
-27.6806 -28.897333333333336 2275.29 0.0 0.0 1.0
-20.028366666666667 -25.917533333333335 2539.186666666667 -0.9444845513027649 0.2951503339054622 0.14434407762672197
-28.0808 -18.484833333333334 2266.67 0.0 0.0 1.0
-27.676766666666666 -17.0707 2266.67 0.0 0.0 1.0
-27.676766666666666 -16.464633333333335 2266.67 0.0 0.0 1.0
-28.0808 -13.636366666666666 2266.67 0.0 0.0 1.0
-28.0808 -13.636366666666666 2266.67 0.0 0.0 1.0
-28.0916 -9.058513333333332 2283.97 0.0 0.0 1.0
-27.88803333333333 -8.65139 2283.97 0.0 0.0 1.0
-28.075466666666667 6.339623333333333 2258.11 0.0 0.0 1.0
-28.478000000000005 15.798733333333333 2258.11 0.0 0.0 1.0
-28.276733333333336 16.201266666666665 2258.11 0.0 0.0 1.0
-27.27043333333333 18.616366666666664 2258.11 0.0 0.0 1.0
-28.679233333333332 25.861666666666665 2258.11 0.0 0.0 1.0
-28.477966666666664 30.691833333333335 2258.11 0.0 0.0 1.0
-29.640666666666664 37.96776666666667 2224.54 0.0 0.0 1.0
-31.0476 47.14286666666667 2137.14 0.0 0.0 1.0
-30.285700000000002 52.66663333333333 2137.14 0.0 0.0 1.0
-31.238066666666665 58.7619 2137.14 0.0 0.0 1.0
-31.619033333333334 62.19046666666666 2137.14 0.0 0.0 1.0
-31.23806666666667 65.23810000000002 2137.14 0.0 0.0 1.0
-31.23806666666667 65.23810000000002 2137.14 0.0 0.0 1.0
-31.23806666666667 68.66666666666667 2137.14 0.0 0.0 1.0
-30.47616666666666 70.0 2137.14 0.0 0.0 1.0
-30.666633333333333 71.14286666666665 2137.14 0.0 0.0 1.0
-30.666633333333333 71.90476666666666 2137.14 0.0 0.0 1.0
-31.23806666666667 77.0476 2137.14 0.0 0.0 1.0
-31.23806666666667 78.0 2137.14 0.0 0.0 1.0
-31.8095 80.4762 2137.14 0.0 0.0 1.0
-31.619033333333334 85.04763333333334 2137.14 0.0 0.0 1.0
-30.8571 85.80953333333333 2137.14 0.0 0.0 1.0
-30.476166666666668 87.14286666666668 2137.14 0.0 0.0 1.0
-31.619033333333334 91.33333333333333 2137.14 0.0 0.0 1.0
-25.813333333333333 -119.57333333333334 2393.6 0.0 0.0 1.0
-25.600000000000005 -114.24 2393.6 0.0 0.0 1.0
-25.386666666666667 -111.46666666666668 2393.6 0.0 0.0 1.0
-26.241699999999998 -94.44886666666666 2384.06 0.0 0.0 1.0
-26.666633333333333 -88.07436666666666 2384.06 0.0 0.0 1.0
-23.234333333333336 -86.12146666666666 2412.98 1.2448700331299047e-15 -0.9953349856088124 0.09647935749736859
