ply
format ascii 1.0
comment VCGLIB generated
element vertex 811
property float x
property float y
property float z
property float nx
property float ny
property float nz
element face 0
property list uchar int vertex_indices
end_header
-78.55466666666668 112.08666666666666 1621.68 0.0 0.0 1.0
-76.8 -105.15566666666666 1994.67 0.0 0.0 1.0
-76.79996666666666 -103.02233333333334 1994.67 0.0 0.0 1.0
-76.79996666666666 -103.02233333333334 1994.67 0.0 0.0 1.0
-76.07176666666666 -85.89233333333334 1695.18 0.0 0.0 1.0
-76.8 -90.75556666666667 1994.67 0.0 0.0 1.0
-77.6097 -50.4202 1676.1899999999998 0.0 -1.0 0.0
-77.6143 -50.028333333333336 1673.07 -3.299757427146843e-17 0.9922046428188614 0.1246192070617351
-78.01903333333333 -41.21903333333333 1709.71 0.0 0.0 1.0
-78.32379999999999 -38.01903333333333 1709.71 0.0 0.0 1.0
-78.32379999999999 -23.3905 1709.71 0.0 0.0 1.0
-77.86666666666666 -21.066633333333332 1994.67 0.0 0.0 1.0
-77.86666666666666 -6.47619 1709.71 0.0 0.0 1.0
-76.7908 -3.89685 1714.61 0.0 0.0 1.0
-77.55489999999999 -0.3820423333333333 1714.61 0.0 0.0 1.0
-77.68886666666667 31.377766666666663 1994.67 0.0 0.0 1.0
-77.25386666666667 32.158966666666664 1621.68 0.0 0.0 1.0
-77.54293333333332 35.91693333333333 1621.68 0.0 0.0 1.0
-77.25386666666667 61.355 1621.68 0.0 0.0 1.0
-77.5111 84.88886666666666 1994.67 0.0 0.0 1.0
-78.11596666666667 73.40583333333332 1626.09 0.0 0.0 1.0
-78.11596666666667 73.40583333333332 1626.09 0.0 0.0 1.0
-77.54293333333332 85.78143333333333 1621.68 0.0 0.0 1.0
-78.12106666666666 94.01983333333332 1621.68 0.0 0.0 1.0
-78.12106666666666 94.01983333333332 1621.68 0.0 0.0 1.0
-75.94203333333333 116.44933333333334 1626.09 0.0 0.0 1.0
-78.63636666666666 -116.591 1700.0 0.0 0.0 1.0
-78.9424 -113.08800000000001 1695.18 0.0 0.0 1.0
-77.15556666666667 -122.93299999999999 1994.67 0.0 0.0 1.0
-78.04696666666666 -100.88266666666665 1685.63 0.0 0.0 1.0
-77.89076666666666 -91.07343333333334 1690.4000000000003 6.590286539219191e-28 3.51500581296675e-27 1.0
-78.22223333333334 -94.31110000000001 1994.67 0.0 0.0 1.0
-78.49766666666666 -49.3521 1685.63 0.0 0.0 1.0
-77.6889 -54.666666666666664 1994.67 0.0 0.0 1.0
-78.78093333333332 -37.4095 1709.71 0.0 0.0 1.0
-78.62856666666667 -22.628600000000002 1709.71 0.0 0.0 1.0
-78.4 -21.244433333333333 1994.67 0.0 0.0 1.0
-78.4762 -14.704766666666666 1709.71 0.0 0.0 1.0
-78.78096666666667 -10.438080000000001 1709.71 0.0 0.0 1.0
-78.3238 -3.12381 1709.71 0.0 0.0 1.0
-78.47616666666667 -2.6666666666666665 1709.71 0.0 0.0 1.0
-78.47179999999999 0.38204400000000005 1714.61 0.0 0.0 1.0
-78.6127 21.0405 1729.4800000000002 0.0 1.0 0.0
-78.2914 25.218866666666667 1741.2233333333334 4.0977800180087818e-16 -0.9809686592388699 0.19416613914659336
-77.24640000000001 30.362333333333336 1626.09 0.0 0.0 1.0
-78.6992 37.217733333333335 1621.68 0.0 0.0 1.0
-77.97103333333334 40.50726666666666 1626.09 0.0 0.0 1.0
-78.55466666666668 41.69826666666666 1621.68 0.0 0.0 1.0
-78.41013333333335 42.2764 1621.68 0.0 0.0 1.0
-76.9778 57.8667 1994.67 0.0 0.0 1.0
-77.24636666666667 49.7826 1626.09 0.0 0.0 1.0
-78.6992 78.41013333333333 1621.68 0.0 0.0 1.0
-78.2656 78.84373333333333 1621.68 0.0 0.0 1.0
-78.2656 79.85546666666667 1621.68 0.0 0.0 1.0
-78.2656 79.85546666666667 1621.68 0.0 0.0 1.0
-78.6992 97.3442 1621.68 0.0 0.0 1.0
-77.54293333333334 103.84833333333334 1621.68 0.0 0.0 1.0
-77.97653333333334 107.89533333333334 1621.68 0.0 0.0 1.0
-78.63636666666667 -116.591 1700.0 0.0 0.0 1.0
-78.03590000000001 -113.69233333333334 1695.18 0.0 0.0 1.0
-78.94836666666667 -101.033 1685.63 0.0 0.0 1.0
-76.52499999999999 -78.48913333333333 1695.18 0.0 0.0 1.0
-78.93333333333334 -80.26666666666667 1994.67 0.0 0.0 1.0
-78.93333333333334 -76.53333333333333 1994.67 0.0 0.0 1.0
-77.15556666666667 -71.73333333333333 1994.67 0.0 0.0 1.0
-76.65716666666667 -55.23266666666667 1704.84 0.0 0.0 1.0
-78.57776666666668 -64.26666666666667 1994.67 0.0 0.0 1.0
-78.78096666666667 -22.32383333333333 1709.71 0.0 0.0 1.0
-78.17143333333333 -20.800033333333335 1709.71 0.0 0.0 1.0
-78.2222 -20.711100000000002 1994.67 0.0 0.0 1.0
-78.93333333333334 -19.644433333333335 1994.67 0.0 0.0 1.0
-78.4762 -14.704766666666666 1709.71 0.0 0.0 1.0
-78.4762 -14.704766666666666 1709.71 0.0 0.0 1.0
-78.4762 -13.790466666666667 1709.71 0.0 0.0 1.0
-78.62856666666667 -3.42857 1709.71 0.0 0.0 1.0
-77.39463333333333 4.061306666666666 1719.54 0.0 0.0 1.0
-77.5408 13.756 1724.5 0.0 0.0 1.0
-77.37333333333333 19.535233333333334 1732.82 2.5025964335258805e-17 0.9116898255162433 0.4108791331403457
-78.6127 21.0405 1729.4800000000002 0.0 1.0 0.0
-78.921 21.657033333333334 1729.4800000000002 6.610010701631774e-27 1.888603638030134e-27 1.0
-77.24640000000001 30.362333333333336 1626.09 0.0 0.0 1.0
-78.55466666666666 34.61606666666666 1621.68 0.0 0.0 1.0
-78.6992 37.217733333333335 1621.68 0.0 0.0 1.0
-77.97103333333334 40.50726666666666 1626.09 0.0 0.0 1.0
-80.8889 47.73336666666666 1994.67 0.0 0.0 1.0
-78.41013333333335 42.2764 1621.68 0.0 0.0 1.0
-79.13513333333333 57.5856 1617.3 0.0 0.0 1.0
-77.97653333333334 60.77686666666667 1621.68 0.0 0.0 1.0
-77.82613333333335 64.13043333333333 1626.09 0.0 0.0 1.0
-77.82613333333335 64.13043333333333 1626.09 0.0 0.0 1.0
-78.2222 84.88886666666666 1994.67 0.0 0.0 1.0
-78.11596666666667 73.40583333333333 1626.09 0.0 0.0 1.0
-79.42343333333334 75.60360000000001 1617.3 0.0 0.0 1.0
-79.13046666666666 92.53623333333333 1626.09 0.0 0.0 1.0
-79.13046666666666 92.53623333333333 1626.09 0.0 0.0 1.0
-78.12106666666666 94.01983333333332 1621.68 0.0 0.0 1.0
-78.55466666666668 95.89883333333334 1621.68 0.0 0.0 1.0
-77.54293333333334 103.84833333333334 1621.68 0.0 0.0 1.0
-78.57776666666666 136.8 1994.67 0.0 0.0 1.0
-78.98826666666666 112.52033333333334 1621.68 0.0 0.0 1.0
-79.1111 -145.68866666666668 1994.67 0.0 0.0 1.0
-78.1818 -118.40933333333334 1700.0 0.0 0.0 1.0
-78.63636666666667 -116.591 1700.0 0.0 0.0 1.0
-78.75553333333333 -126.48866666666667 1994.67 0.0 0.0 1.0
-79.5493 -94.4225 1685.63 0.0 0.0 1.0
-79.69866666666667 -90.77213333333334 1690.4000000000003 1.2652416955443385e-27 8.225050908117234e-27 1.0
-79.11110000000001 -89.33333333333333 1994.67 0.0 0.0 1.0
-78.39996666666667 -89.15556666666667 1994.67 0.0 0.0 1.0
-78.93333333333334 -80.26666666666667 1994.67 0.0 0.0 1.0
-78.93333333333334 -76.53333333333333 1994.67 0.0 0.0 1.0
-78.80483333333332 -50.1214 1676.1899999999998 1.0724820170332493e-26 1.340542699670797e-26 1.0
-77.6889 -54.666666666666664 1994.67 0.0 0.0 1.0
-80.4301 -42.79569999999999 1608.5999999999997 3.363116314379561e-44 0.9995120760870788 0.03123475237772124
-79.08569999999999 -41.37143333333333 1709.71 0.0 0.0 1.0
-79.0857 -39.39046666666667 1709.71 0.0 0.0 1.0
-76.41913333333333 -32.911766666666665 1674.63 0.4162449907175064 0.7492372683110085 0.5151539803558164
-79.54286666666667 -23.390500000000003 1709.71 0.0 0.0 1.0
-78.39999999999999 -21.244433333333333 1994.67 0.0 0.0 1.0
-78.78096666666666 -7.238093333333334 1709.71 0.0 0.0 1.0
-78.62856666666667 -3.42857 1709.71 0.0 0.0 1.0
-78.78093333333334 -2.6666666666666665 1709.71 0.0 0.0 1.0
-79.3852 10.835713333333333 1724.5 0.0 0.0 1.0
-79.3852 10.835713333333333 1724.5 0.0 0.0 1.0
-78.6127 21.0405 1729.4800000000002 0.0 1.0 0.0
-78.93329999999999 30.488866666666667 1994.67 0.0 0.0 1.0
-78.6992 37.217733333333335 1621.68 0.0 0.0 1.0
-79.42186666666667 40.9756 1621.68 0.0 0.0 1.0
-80.0 45.4775 1617.3 0.0 0.0 1.0
-79.13513333333333 57.5856 1617.3 0.0 0.0 1.0
-79.28886666666666 84.88886666666666 1994.67 0.0 0.0 1.0
-80.14376666666668 72.66843333333333 1612.9399999999998 -1.0137283433109102e-25 -9.365026864552083e-26 1.0
-79.85586666666667 85.11713333333334 1617.3 0.0 0.0 1.0
-79.5664 87.08223333333335 1621.68 0.0 0.0 1.0
-80.35556666666666 119.55566666666668 1994.67 0.0 0.0 1.0
-79.85546666666666 98.93406666666665 1621.68 0.0 0.0 1.0
-79.27733333333333 107.75066666666667 1621.68 0.0 0.0 1.0
-78.55466666666666 112.08666666666666 1621.68 0.0 0.0 1.0
-78.98826666666668 112.52033333333334 1621.68 0.0 0.0 1.0
-80.1537 -124.09566666666666 1717.8966666666665 0.9830909163952277 6.964143489511381e-17 0.1831181315468008
-80.75116666666666 -103.58666666666666 1685.63 0.0 0.0 1.0
-79.5493 -94.4225 1685.63 0.0 0.0 1.0
-78.57776666666666 -90.04443333333332 1994.67 0.0 0.0 1.0
-80.0 -87.02223333333335 1994.67 0.0 0.0 1.0
-79.46666666666667 -77.7778 1994.67 0.0 0.0 1.0
-78.93333333333334 -76.53333333333333 1994.67 0.0 0.0 1.0
-81.21556666666667 -60.8547 1704.84 0.0 0.0 1.0
-80.30303333333333 -59.166666666666664 1700.0 0.0 0.0 1.0
-80.00003333333333 -56.4394 1700.0 0.0 0.0 1.0
-78.80483333333332 -50.1214 1676.1899999999998 1.0724820170332499e-26 1.340542699670798e-26 1.0
-78.04446666666666 -51.82223333333334 1994.67 0.0 0.0 1.0
-80.1528 -30.028666666666666 1714.61 0.0 0.0 1.0
-79.54286666666667 -22.628600000000002 1709.71 0.0 0.0 1.0
-79.84763333333333 -7.847616666666667 1709.71 0.0 0.0 1.0
-80.15283333333333 -0.8404953333333335 1714.61 0.0 0.0 1.0
-79.38873333333333 0.38204400000000005 1714.61 0.0 0.0 1.0
-78.00766666666667 5.593873333333334 1719.54 0.0 0.0 1.0
-79.07513333333334 21.657033333333334 1729.4800000000002 7.55431253168802e-27 -1.4163506584048345e-27 1.0
-78.41013333333333 33.893366666666665 1621.68 0.0 0.0 1.0
-79.13513333333333 57.5856 1617.3 0.0 0.0 1.0
-80.35556666666666 71.37776666666666 1994.67 0.0 0.0 1.0
-79.71013333333333 70.50726666666667 1626.09 0.0 0.0 1.0
-79.71013333333333 70.50726666666667 1626.09 0.0 0.0 1.0
-80.14376666666668 72.66843333333333 1612.9399999999998 -1.0137283433109102e-25 -9.365026864552083e-26 1.0
-79.71173333333333 75.02703333333334 1617.3 0.0 0.0 1.0
-79.71173333333333 75.02703333333334 1617.3 0.0 0.0 1.0
-79.82223333333333 96.6222 1994.67 0.0 0.0 1.0
-78.6992 78.41013333333333 1621.68 0.0 0.0 1.0
-79.85586666666667 85.11713333333334 1617.3 0.0 0.0 1.0
-79.5664 87.08223333333335 1621.68 0.0 0.0 1.0
-77.10146666666667 100.5074 1626.09 0.0 0.0 1.0
-80.0 144.26666666666665 1994.67 0.0 0.0 1.0
-79.84893333333333 -112.48366666666668 1695.18 0.0 0.0 1.0
-80.4507 -100.73233333333333 1685.63 0.0 0.0 1.0
-79.5493 -94.4225 1685.63 0.0 0.0 1.0
-80.1515 -63.25756666666667 1700.0 0.0 0.0 1.0
-80.1515 -63.25756666666666 1700.0 0.0 0.0 1.0
-79.42496666666666 -43.6693 1614.3933333333334 -0.1841490232213663 0.9821328682442338 0.03878358365301917
-80.30563333333333 -31.709666666666667 1714.61 0.0 0.0 1.0
-80.30563333333333 -31.709666666666667 1714.61 0.0 0.0 1.0
-80.1528 -30.028666666666666 1714.61 0.0 0.0 1.0
-80.15236666666667 -25.371433333333332 1709.71 0.0 0.0 1.0
-80.15236666666667 -23.69526666666667 1709.71 0.0 0.0 1.0
-79.3905 -22.019066666666664 1709.71 0.0 0.0 1.0
-78.93333333333334 -19.644433333333335 1994.67 0.0 0.0 1.0
-80.45453333333334 -13.003366666666667 1706.4633333333331 -0.7187566063656637 0.6160642196277198 0.32226358481870493
-79.8463 9.759833333333333 1724.5 0.0 0.0 1.0
-78.2914 25.218866666666667 1741.2233333333334 4.097780018008782e-16 -0.98096865923887 0.1941661391465934
-80.0 45.4775 1617.3 0.0 0.0 1.0
-79.71013333333333 70.50726666666667 1626.09 0.0 0.0 1.0
-80.0 75.74773333333333 1617.3 0.0 0.0 1.0
-79.82223333333333 96.6222 1994.67 0.0 0.0 1.0
-79.82223333333333 96.6222 1994.67 0.0 0.0 1.0
-79.5664 87.08223333333335 1621.68 0.0 0.0 1.0
-79.13046666666666 92.53623333333333 1626.09 0.0 0.0 1.0
-80.4336 99.0786 1621.68 0.0 0.0 1.0
-80.71113333333334 142.13333333333333 1994.67 0.0 0.0 1.0
-80.7663 -124.06133333333334 1719.54 0.0 0.0 1.0
-80.7663 -124.06133333333334 1719.54 0.0 0.0 1.0
-80.53330000000001 -126.66666666666667 1994.67 0.0 0.0 1.0
-80.4507 -100.73233333333333 1685.63 0.0 0.0 1.0
-80.30046666666665 -99.98119999999999 1685.63 0.0 0.0 1.0
-80.35556666666666 -92.71109999999999 1994.67 0.0 0.0 1.0
-79.82223333333333 -77.42223333333334 1994.67 0.0 0.0 1.0
-80.75756666666666 -62.803 1700.0 0.0 0.0 1.0
-78.49766666666666 -49.3521 1685.63 0.0 0.0 1.0
-79.54283333333333 -40.7619 1709.71 0.0 0.0 1.0
-79.23806666666667 -37.71426666666667 1709.71 0.0 0.0 1.0
-80.91426666666666 -26.895233333333334 1709.71 0.0 0.0 1.0
-80.30473333333333 -26.590466666666668 1709.71 0.0 0.0 1.0
-80.15236666666667 -20.1905 1709.71 0.0 0.0 1.0
-80.7641 -4.813756666666667 1714.61 0.0 0.0 1.0
-80.61130000000001 -0.6876783333333334 1714.61 0.0 0.0 1.0
-80.91693333333335 -0.38204366666666667 1714.61 0.0 0.0 1.0
-79.8463 9.759833333333333 1724.5 0.0 0.0 1.0
-80.53330000000001 29.77776666666667 1994.67 0.0 0.0 1.0
-81.06666666666666 69.42219999999999 1994.67 0.0 0.0 1.0
-79.85546666666666 62.511266666666664 1621.68 0.0 0.0 1.0
-80.53330000000001 85.06666666666666 1994.67 0.0 0.0 1.0
-80.0 75.74773333333333 1617.3 0.0 0.0 1.0
-80.86483333333334 79.2072 1617.3 0.0 0.0 1.0
-80.28906666666667 80.72266666666665 1621.68 0.0 0.0 1.0
-82.84443333333333 114.57766666666667 1994.67 0.0 0.0 1.0
-79.85546666666666 96.9106 1621.68 0.0 0.0 1.0
-80.4336 97.92233333333333 1621.68 0.0 0.0 1.0
-80.4336 99.0786 1621.68 0.0 0.0 1.0
-80.57813333333333 107.31700000000001 1621.68 0.0 0.0 1.0
-80.57813333333333 107.31700000000001 1621.68 0.0 0.0 1.0
-80.14453333333333 108.473 1621.68 0.0 0.0 1.0
-80.53333333333335 136.97766666666666 1994.67 0.0 0.0 1.0
-80.35556666666666 145.689 1994.67 0.0 0.0 1.0
-80.1778 -140.71099999999998 1994.67 0.0 0.0 1.0
-81.51086666666667 -115.354 1695.18 0.0 0.0 1.0
-81.20186666666666 -102.53500000000001 1685.63 0.0 0.0 1.0
-80.4507 -100.73233333333333 1685.63 0.0 0.0 1.0
-81.42223333333332 -104.26666666666667 1994.67 0.0 0.0 1.0
-81.60000000000001 -93.95556666666666 1994.67 0.0 0.0 1.0
-80.00003333333333 -56.4394 1700.0 0.0 0.0 1.0
-82.71953333333333 -55.52406666666667 1695.18 0.0 0.0 1.0
-81.2903 -42.93906666666666 1608.5999999999997 -2.620069161812784e-26 5.240138323625481e-26 1.0
-81.06973333333333 -37.97516666666667 1714.61 0.0 0.0 1.0
-81.06973333333333 -37.97516666666667 1714.61 0.0 0.0 1.0
-81.37536666666666 -33.849066666666666 1714.61 0.0 0.0 1.0
-80.9169 -31.556866666666664 1714.61 0.0 0.0 1.0
-81.77776666666666 -20.888900000000003 1994.67 0.0 0.0 1.0
-80.76193333333333 -15.314299999999998 1709.71 0.0 0.0 1.0
-80.60953333333333 -8.0 1709.71 0.0 0.0 1.0
-80.7641 -4.813756666666667 1714.61 0.0 0.0 1.0
-80.7641 -4.8137566666666665 1714.61 0.0 0.0 1.0
-79.69523333333333 -2.514283333333333 1709.71 0.0 0.0 1.0
-80.61130000000001 -0.6876783333333334 1714.61 0.0 0.0 1.0
-81.3833 15.1393 1724.5 0.0 0.0 1.0
-82.31113333333333 44.0 1994.67 0.0 0.0 1.0
-79.5664 37.5068 1621.68 0.0 0.0 1.0
-80.28906666666667 39.81933333333333 1621.68 0.0 0.0 1.0
-81.00903333333333 45.62166666666667 1617.3 0.0 0.0 1.0
-80.53336666666667 73.6889 1994.67 0.0 0.0 1.0
-82.13336666666667 75.64446666666667 1994.67 0.0 0.0 1.0
-80.14493333333333 70.79713333333332 1626.09 0.0 0.0 1.0
-79.85586666666667 85.11713333333334 1617.3 0.0 0.0 1.0
-80.35556666666666 119.55566666666668 1994.67 0.0 0.0 1.0
-80.35556666666666 119.55566666666668 1994.67 0.0 0.0 1.0
-80.4336 99.0786 1621.68 0.0 0.0 1.0
-80.57813333333333 108.18399999999998 1621.68 0.0 0.0 1.0
-81.60000000000001 146.04433333333336 1994.67 0.0 0.0 1.0
-83.02223333333335 -145.15566666666666 1994.67 0.0 0.0 1.0
-81.22606666666667 -123.908 1719.54 0.0 0.0 1.0
-80.75756666666668 -116.74233333333332 1700.0 0.0 0.0 1.0
-81.51086666666667 -115.354 1695.18 0.0 0.0 1.0
-81.20870000000001 -112.48366666666668 1695.18 0.0 0.0 1.0
-81.95556666666666 -104.62233333333332 1994.67 0.0 0.0 1.0
-81.95556666666666 -103.91133333333333 1994.67 0.0 0.0 1.0
-81.24446666666667 -86.84443333333333 1994.67 0.0 0.0 1.0
-81.2121 -65.68183333333333 1700.0 0.0 0.0 1.0
-81.21556666666667 -60.8547 1704.84 0.0 0.0 1.0
-81.2903 -42.93906666666666 1608.5999999999997 -2.620069161812784e-26 5.240138323625481e-26 1.0
-81.52820000000001 -37.6695 1714.61 0.0 0.0 1.0
-81.681 -32.77936666666667 1714.61 0.0 0.0 1.0
-81.37143333333334 -24.1524 1709.71 0.0 0.0 1.0
-81.3714 -20.647633333333335 1709.71 0.0 0.0 1.0
-81.24443333333333 -19.288899999999998 1994.67 0.0 0.0 1.0
-81.37143333333333 -7.390476666666667 1709.71 0.0 0.0 1.0
-81.37536666666666 -0.5348613333333333 1714.61 0.0 0.0 1.0
-81.69069999999999 12.987499999999999 1724.5 0.0 0.0 1.0
-82.13333333333333 24.8 1994.67 0.0 0.0 1.0
-82.84443333333333 32.800000000000004 1994.67 0.0 0.0 1.0
-81.01173333333332 63.956633333333336 1621.68 0.0 0.0 1.0
-81.01173333333332 63.956633333333336 1621.68 0.0 0.0 1.0
-80.28986666666667 72.82613333333335 1626.09 0.0 0.0 1.0
-81.15043333333334 75.61213333333333 1614.3933333333334 -0.9547571620477502 0.2387031267701512 0.17736848307599432
-82.29776666666667 83.52026666666667 1611.493333333333 -0.6432698152488597 -0.6432698152488596 0.41522029042352415
-80.28906666666667 87.51583333333333 1621.68 0.0 0.0 1.0
-81.8391 -123.75466666666667 1719.54 0.0 0.0 1.0
-81.36536666666667 -119.73633333333333 1701.6133333333335 0.3555719806864225 0.8001151902035664 0.4830985913416073
-82.1212 -117.197 1700.0 0.0 0.0 1.0
-80.53330000000001 -126.66666666666667 1994.67 0.0 0.0 1.0
-82.25350000000002 -104.03733333333332 1685.63 0.0 0.0 1.0
-82.25350000000002 -97.72773333333333 1685.63 0.0 0.0 1.0
-82.8625 -90.32016666666668 1690.4000000000003 -1.9608975893681906e-28 2.5491451820327632e-27 1.0
-81.81816666666667 -62.803 1700.0 0.0 0.0 1.0
-83.2 -68.17776666666667 1994.67 0.0 0.0 1.0
-81.34453333333333 -49.225 1676.1899999999998 0.0 0.0 1.0
-81.2903 -42.93906666666667 1608.5999999999997 5.240138323625565e-26 -1.0480276647250955e-25 1.0
-81.681 -32.77936666666667 1714.61 0.0 0.0 1.0
-81.52816666666666 -32.015299999999996 1714.61 0.0 0.0 1.0
-81.52380000000001 -26.590500000000002 1709.71 0.0 0.0 1.0
-81.77776666666666 -20.888900000000003 1994.67 0.0 0.0 1.0
-81.77776666666666 -20.8889 1994.67 0.0 0.0 1.0
-82.74286666666667 -11.9619 1709.71 0.0 0.0 1.0
-81.98096666666667 -6.933333333333334 1709.71 0.0 0.0 1.0
-81.37536666666666 -0.5348613333333333 1714.61 0.0 0.0 1.0
-81.69069999999999 12.987499999999999 1724.5 0.0 0.0 1.0
-81.69069999999999 12.987499999999999 1724.5 0.0 0.0 1.0
-81.3833 15.1393 1724.5 0.0 0.0 1.0
-83.55553333333334 19.288866666666667 1994.67 0.0 0.0 1.0
-82.3111 25.866666666666664 1994.67 0.0 0.0 1.0
-82.31110000000001 28.888900000000003 1994.67 0.0 0.0 1.0
-82.17389999999999 51.81156666666667 1626.09 0.0 0.0 1.0
-82.17389999999999 51.81156666666667 1626.09 0.0 0.0 1.0
-81.7391 52.68113333333334 1626.09 0.0 0.0 1.0
-79.85583333333334 58.88290000000001 1617.3 0.0 0.0 1.0
-82.66666666666667 85.0667 1994.67 0.0 0.0 1.0
-80.86253333333333 74.106 1612.9399999999998 2.209907144623993e-27 6.1669651695869345e-28 1.0
-84.44443333333334 93.06670000000001 1994.67 0.0 0.0 1.0
-81.009 82.23423333333334 1617.3 0.0 0.0 1.0
-83.2 101.95566666666666 1994.67 0.0 0.0 1.0
-80.57813333333333 91.56276666666666 1621.68 0.0 0.0 1.0
-83.02223333333335 132.178 1994.67 0.0 0.0 1.0
-81.8391 -123.75466666666667 1719.54 0.0 0.0 1.0
-81.96413333333334 -115.20299999999999 1695.18 0.0 0.0 1.0
-81.96413333333334 -115.20299999999999 1695.18 0.0 0.0 1.0
-81.96413333333334 -113.23899999999999 1695.18 0.0 0.0 1.0
-84.06779999999999 -111.11066666666666 1690.4000000000003 -9.885794356153777e-28 -1.1861640990087777e-26 1.0
-82.10326666666667 -104.488 1685.63 0.0 0.0 1.0
-82.25349999999999 -104.03733333333332 1685.63 0.0 0.0 1.0
-82.25350000000002 -97.72773333333333 1685.63 0.0 0.0 1.0
-81.50233333333334 -95.6244 1685.63 0.0 0.0 1.0
-83.55556666666666 -95.91109999999999 1994.67 0.0 0.0 1.0
-83.91113333333334 -90.57780000000001 1994.67 0.0 0.0 1.0
-82.31113333333333 -88.44443333333334 1994.67 0.0 0.0 1.0
-83.47496666666666 -72.89896666666667 1695.18 0.0 0.0 1.0
-82.1212 -65.68183333333333 1700.0 0.0 0.0 1.0
-84.26666666666667 -68.7111 1994.67 0.0 0.0 1.0
-82.71953333333333 -55.52406666666667 1695.18 0.0 0.0 1.0
-82.24300000000001 -48.97173333333333 1677.7600000000002 -3.0339217104651174e-17 -0.9978187756526895 0.06601280902194744
-81.5282 -37.6695 1714.61 0.0 0.0 1.0
-82.28573333333334 -26.133366666666664 1709.71 0.0 0.0 1.0
-82.43806666666667 -21.257166666666667 1709.71 0.0 0.0 1.0
-82.44510000000001 0.8404976666666667 1714.61 0.0 0.0 1.0
-83.074 4.995196666666667 1724.5 0.0 0.0 1.0
-82.4889 23.733333333333334 1994.67 0.0 0.0 1.0
-83.02223333333335 41.333333333333336 1994.67 0.0 0.0 1.0
-82.84446666666668 42.755533333333325 1994.67 0.0 0.0 1.0
-81.00903333333333 45.62166666666667 1617.3 0.0 0.0 1.0
-82.87509999999999 57.14283333333333 1612.9399999999998 4.523972102749651e-27 -1.1158985261294452e-27 1.0
-82.66666666666667 85.0667 1994.67 0.0 0.0 1.0
-81.95556666666667 98.93343333333333 1994.67 0.0 0.0 1.0
-81.73440000000001 80.86720000000001 1621.68 0.0 0.0 1.0
-90.39670000000001 94.05239999999999 1493.5199999999998 -0.10737863789702781 -0.7516504652791683 0.6507621732776027
-82.6667 127.2 1994.67 0.0 0.0 1.0
-82.6667 127.2 1994.67 0.0 0.0 1.0
-82.6667 127.2 1994.67 0.0 0.0 1.0
-82.4889 134.66666666666666 1994.67 0.0 0.0 1.0
-82.66666666666667 137.33333333333334 1994.67 0.0 0.0 1.0
-83.3778 138.39999999999998 1994.67 0.0 0.0 1.0
-83.02223333333335 -145.15566666666666 1994.67 0.0 0.0 1.0
-82.25349999999999 -104.03733333333332 1685.63 0.0 0.0 1.0
-82.85443333333333 -98.77946666666666 1685.63 0.0 0.0 1.0
-83.02223333333333 -104.62233333333332 1994.67 0.0 0.0 1.0
-83.15786666666666 -85.94253333333334 1687.22 -0.5963617104554857 0.5963617104554777 0.5373131494810307
-83.73333333333333 -95.2 1994.67 0.0 0.0 1.0
-82.57576666666667 -63.40906666666667 1700.0 0.0 0.0 1.0
-82.88696666666668 -61.158566666666665 1704.84 0.0 0.0 1.0
-81.34453333333333 -49.225 1676.1899999999998 0.0 0.0 1.0
-82.72399999999999 -44.086000000000006 1608.5999999999997 1.2289927855553346e-26 -1.7249913365420623e-26 1.0
-82.2962 -43.98226666666667 1610.0466666666664 0.8313478552840459 -0.5542319035227 0.041082120590608125
-82.74286666666667 -25.523833333333332 1709.71 0.0 0.0 1.0
-82.74286666666666 -15.009533333333332 1709.71 0.0 0.0 1.0
-83.19086666666666 -13.751166666666668 1704.84 0.0 0.0 1.0
-82.74286666666667 -11.9619 1709.71 0.0 0.0 1.0
-81.98096666666667 -6.933333333333334 1709.71 0.0 0.0 1.0
-82.13336666666667 -4.038093333333333 1709.71 0.0 0.0 1.0
-82.4889 23.733333333333334 1994.67 0.0 0.0 1.0
-83.2 26.755566666666667 1994.67 0.0 0.0 1.0
-83.91109999999999 37.7778 1994.67 0.0 0.0 1.0
-80.2844 33.69 1618.7666666666667 -0.8123815841800329 0.541587722786688 0.21614555330117183
-83.55556666666666 44.17776666666666 1994.67 0.0 0.0 1.0
-83.91109999999999 48.26666666666667 1994.67 0.0 0.0 1.0
-83.33333333333333 48.6232 1626.09 0.0 0.0 1.0
-82.75363333333333 49.7826 1626.09 0.0 0.0 1.0
-82.66666666666667 68.5333 1994.67 0.0 0.0 1.0
-81.72973333333333 56.0 1617.3 0.0 0.0 1.0
-83.30636666666668 58.2929 1612.9399999999998 -2.0138794972070757e-27 -9.318478343552683e-28 1.0
-83.55556666666666 79.73336666666667 1994.67 0.0 0.0 1.0
-83.2 82.40003333333333 1994.67 0.0 0.0 1.0
-82.66666666666667 85.0667 1994.67 0.0 0.0 1.0
-82.72396666666667 78.92473333333334 1608.5999999999997 0.0 0.0 1.0
-81.73440000000001 80.86720000000001 1621.68 0.0 0.0 1.0
-83.2 101.95566666666666 1994.67 0.0 0.0 1.0
-82.72396666666667 78.92473333333334 1608.5999999999997 0.0 0.0 1.0
-82.6087 92.68116666666667 1626.09 0.0 0.0 1.0
-84.31033333333333 96.73263333333334 1611.493333333333 0.16428562555498846 0.9856375717275413 0.03910000556320099
-83.7299 96.5021 1610.0466666666664 -1.505202344539892e-16 0.999224686286247 0.039370373584089874
-83.73333333333333 144.08900000000003 1994.67 0.0 0.0 1.0
-82.4889 145.33333333333334 1994.67 0.0 0.0 1.0
-82.1212 -117.197 1700.0 0.0 0.0 1.0
-83.75583333333333 -106.59133333333334 1685.63 0.0 0.0 1.0
-83.45536666666666 -101.634 1685.63 0.0 0.0 1.0
-83.30513333333333 -101.033 1685.63 0.0 0.0 1.0
-81.8028 -94.12203333333332 1685.63 0.0 0.0 1.0
-83.46513333333333 -89.71753333333334 1690.4000000000003 -1.4036648377797497e-28 1.8718775364004674e-27 1.0
-84.26663333333333 -78.31113333333333 1994.67 0.0 0.0 1.0
-84.26663333333333 -78.31113333333333 1994.67 0.0 0.0 1.0
-82.57576666666667 -63.40906666666667 1700.0 0.0 0.0 1.0
-83.57889999999999 -42.57756666666666 1605.7333333333333 0.9948487472031657 3.4871628075905564e-15 0.10137046013652874
-84.11426666666667 -41.98096666666667 1709.71 0.0 0.0 1.0
-83.82046666666666 -35.835699999999996 1714.61 0.0 0.0 1.0
-83.66763333333334 -35.377266666666664 1714.61 0.0 0.0 1.0
-83.20916666666666 -33.390633333333334 1714.61 0.0 0.0 1.0
-83.5148 -29.570166666666665 1714.61 0.0 0.0 1.0
-82.74286666666667 -25.523833333333332 1709.71 0.0 0.0 1.0
-84.43169999999999 -4.8137566666666665 1714.61 0.0 0.0 1.0
-83.074 4.995196666666667 1724.5 0.0 0.0 1.0
-84.44443333333334 16.799966666666666 1994.67 0.0 0.0 1.0
-84.34783333333333 29.927533333333333 1626.09 0.0 0.0 1.0
-83.02223333333335 41.333333333333336 1994.67 0.0 0.0 1.0
-83.91109999999999 48.26666666666667 1994.67 0.0 0.0 1.0
-82.89853333333333 51.66663333333333 1626.09 0.0 0.0 1.0
-81.72973333333333 56.0 1617.3 0.0 0.0 1.0
-83.45516666666667 66.3795 1617.3066666666666 -0.8705410492932751 0.21733195311281447 0.44150323175661244
-83.00763333333333 77.9936 1607.1633333333332 -0.6594527455316671 0.6594527455316676 0.3608935477692722
-83.5939 85.1752 1612.9399999999998 -6.515285228048394e-27 -9.772739004172519e-27 1.0
-83.0222 114.39966666666668 1994.67 0.0 0.0 1.0
-83.02223333333333 118.66666666666667 1994.67 0.0 0.0 1.0
-85.15556666666667 -144.44433333333333 1994.67 0.0 0.0 1.0
-83.45536666666666 -105.53966666666668 1685.63 0.0 0.0 1.0
-83.30513333333333 -101.033 1685.63 0.0 0.0 1.0
-83.76646666666666 -91.82673333333334 1690.4000000000003 -3.1631042640233044e-26 -7.907760660058505e-27 1.0
-83.76646666666666 -91.82673333333334 1690.4000000000003 -3.1631042640233044e-26 -7.907760660058505e-27 1.0
-84.08890000000001 -103.55566666666665 1994.67 0.0 0.0 1.0
-83.15786666666666 -85.94253333333334 1687.22 -0.5963617104554857 0.5963617104554777 0.5373131494810307
-83.91113333333334 -90.57779999999998 1994.67 0.0 0.0 1.0
-84.41903333333333 -40.45713333333333 1709.71 0.0 0.0 1.0
-84.12606666666666 -30.792733333333334 1714.61 0.0 0.0 1.0
-83.5148 -29.570166666666665 1714.61 0.0 0.0 1.0
-83.8095 -22.323833333333337 1709.71 0.0 0.0 1.0
-83.50476666666667 -11.809533333333334 1709.71 0.0 0.0 1.0
-82.5979 0.68768 1714.61 0.0 0.0 1.0
-83.99616666666667 5.1488933333333335 1724.5 0.0 0.0 1.0
-84.44443333333334 16.799966666666666 1994.67 0.0 0.0 1.0
-84.26666666666667 27.46666666666667 1994.67 0.0 0.0 1.0
-84.34783333333333 29.927533333333333 1626.09 0.0 0.0 1.0
-84.47783333333332 55.089400000000005 1620.22 0.1162836910492314 0.9302963465882703 0.34788907818510745
-85.15556666666667 68.5333 1994.67 0.0 0.0 1.0
-83.3033 57.6659 1611.493333333333 -0.8921866102981922 0.4460933051490969 0.07073765267364057
-82.84446666666666 77.60003333333333 1994.67 0.0 0.0 1.0
-84.02513333333333 63.036833333333334 1612.9399999999998 5.645070037925547e-26 7.381371857407114e-26 1.0
-83.00763333333333 77.9936 1607.1633333333332 -0.6594527455316674 0.6594527455316672 0.360893547769272
-84.08890000000001 103.2 1994.67 0.0 0.0 1.0
-84.26666666666667 117.60000000000001 1994.67 0.0 0.0 1.0
-84.6377 101.087 1626.09 0.0 0.0 1.0
-84.16890000000001 100.12603333333334 1612.9399999999998 -1.1181839515995773e-27 -3.1886575743289677e-28 1.0
-84.44446666666667 128.44433333333333 1994.67 0.0 0.0 1.0
-82.75863333333334 -123.44833333333334 1719.54 0.0 0.0 1.0
-84.06779999999999 -111.11066666666666 1690.4000000000003 -9.885794356153777e-28 -1.1861640990087775e-26 1.0
-84.05630000000001 -102.08466666666668 1685.63 0.0 0.0 1.0
-83.76646666666666 -91.82673333333334 1690.4000000000003 -3.1631042640233044e-26 -7.907760660058505e-27 1.0
-84.8 -102.84433333333334 1994.67 0.0 0.0 1.0
-85.68889999999999 -97.68886666666667 1994.67 0.0 0.0 1.0
-83.91113333333334 -90.57779999999998 1994.67 0.0 0.0 1.0
-83.47496666666667 -72.89896666666665 1695.18 0.0 0.0 1.0
-84.68363333333333 -72.29463333333332 1695.18 0.0 0.0 1.0
-84.83473333333335 -70.6327 1695.18 0.0 0.0 1.0
-85.5111 -68.17776666666667 1994.67 0.0 0.0 1.0
-85.15553333333334 -64.08890000000001 1994.67 0.0 0.0 1.0
-83.44086666666666 -44.086000000000006 1608.5999999999997 -1.940641569359511e-27 -3.881583943426321e-27 1.0
-83.871 -43.51253333333333 1608.5999999999997 1.0 0.0 0.0
-83.871 -43.51253333333333 1608.5999999999997 1.0 0.0 0.0
-84.12606666666666 -30.792733333333334 1714.61 0.0 0.0 1.0
-84.1143 -27.352366666666665 1709.71 0.0 0.0 1.0
-83.50476666666667 -11.809533333333334 1709.71 0.0 0.0 1.0
-83.5351 12.833799999999998 1724.5 0.0 0.0 1.0
-84.08886666666666 20.711100000000002 1994.67 0.0 0.0 1.0
-84.8 36.1778 1994.67 0.0 0.0 1.0
-87.11113333333333 32.4978 1595.7300000000002 -1.7095230999194738e-27 3.3949433081283574e-27 1.0
-84.8 45.06666666666666 1994.67 0.0 0.0 1.0
-84.8 48.26666666666667 1994.67 0.0 0.0 1.0
-83.91303333333333 51.3768 1626.09 0.0 0.0 1.0
-82.87509999999999 57.14283333333333 1612.9399999999998 4.523972102749651e-27 -1.115898526129445e-27 1.0
-84.02513333333333 63.036833333333334 1612.9399999999998 5.645070037925547e-26 7.381371857407114e-26 1.0
-85.68889999999999 104.622 1994.67 0.0 0.0 1.0
-84.75676666666668 88.72073333333333 1617.3 0.0 0.0 1.0
-85.15556666666667 116.53333333333335 1994.67 0.0 0.0 1.0
-83.3778 138.4 1994.67 0.0 0.0 1.0
-85.76576666666666 112.793 1617.3 0.0 0.0 1.0
-84.62223333333333 142.84466666666665 1994.67 0.0 0.0 1.0
-85.5111 -143.911 1994.67 0.0 0.0 1.0
-83.45536666666666 -105.53966666666668 1685.63 0.0 0.0 1.0
-84.95773333333334 -97.42726666666665 1685.63 0.0 0.0 1.0
-84.80746666666667 -96.6761 1685.63 0.0 0.0 1.0
-85.68886666666667 -102.48866666666667 1994.67 0.0 0.0 1.0
-85.86666666666667 -95.3778 1994.67 0.0 0.0 1.0
-84.26663333333333 -78.31113333333333 1994.67 0.0 0.0 1.0
-84.69696666666668 -63.10603333333333 1700.0 0.0 0.0 1.0
-85.01423333333334 -61.00663333333333 1704.84 0.0 0.0 1.0
-85.01423333333334 -59.943000000000005 1704.84 0.0 0.0 1.0
-85.5111 -68.17776666666667 1994.67 0.0 0.0 1.0
-86.2222 -53.60003333333333 1994.67 0.0 0.0 1.0
-84.11426666666667 -41.98096666666666 1709.71 0.0 0.0 1.0
-84.41903333333333 -40.45713333333333 1709.71 0.0 0.0 1.0
-84.5845 -34.15473333333333 1714.61 0.0 0.0 1.0
-84.5845 -34.15473333333333 1714.61 0.0 0.0 1.0
-84.5845 -34.15473333333333 1714.61 0.0 0.0 1.0
-84.73733333333332 -30.945566666666664 1714.61 0.0 0.0 1.0
-84.1143 -14.704766666666666 1709.71 0.0 0.0 1.0
-84.43169999999999 -4.8137566666666665 1714.61 0.0 0.0 1.0
-84.91836666666667 11.9116 1724.5 0.0 0.0 1.0
-84.44443333333334 16.799966666666666 1994.67 0.0 0.0 1.0
-84.44443333333334 21.77776666666667 1994.67 0.0 0.0 1.0
-84.26666666666667 26.400000000000002 1994.67 0.0 0.0 1.0
-84.97776666666665 28.355566666666665 1994.67 0.0 0.0 1.0
-84.97776666666665 28.355566666666665 1994.67 0.0 0.0 1.0
-86.2222 58.044466666666665 1994.67 0.0 0.0 1.0
-86.2222 58.044466666666665 1994.67 0.0 0.0 1.0
-83.51433333333334 53.496833333333335 1577.506666666667 0.644585914507838 0.7645087927685839 0.005941767213271094
-88.17313333333334 61.43723333333333 1554.29 0.0 0.0 1.0
-82.46256666666666 59.000800000000005 1624.62 0.6610488929962618 0.30509858942701185 0.6855138304936411
-83.73333333333333 85.0667 1994.67 0.0 0.0 1.0
-86.04443333333332 93.42223333333334 1994.67 0.0 0.0 1.0
-85.05869999999999 107.02766666666666 1621.68 0.0 0.0 1.0
-86.40000000000002 -145.86666666666667 1994.67 0.0 0.0 1.0
-84.05630000000001 -102.08466666666668 1685.63 0.0 0.0 1.0
-85.6889 -97.68886666666667 1994.67 0.0 0.0 1.0
-85.86666666666667 -95.3778 1994.67 0.0 0.0 1.0
-84.44443333333334 -79.55556666666666 1994.67 0.0 0.0 1.0
-82.71953333333333 -55.52406666666667 1695.18 0.0 0.0 1.0
-83.13266666666667 -49.327866666666665 1674.6299999999999 1.0560280641381317e-16 -0.9871760036311484 0.15963564092906862
-85.33333333333333 -40.1524 1709.71 0.0 0.0 1.0
-85.04296666666666 -35.377266666666664 1714.61 0.0 0.0 1.0
-85.63810000000001 -14.4 1709.71 0.0 0.0 1.0
-86.09523333333334 -6.62857 1709.71 0.0 0.0 1.0
-84.76463333333334 5.30259 1724.5 0.0 0.0 1.0
-85.8405 8.37656 1724.5 0.0 0.0 1.0
-86.04446666666666 48.800000000000004 1994.67 0.0 0.0 1.0
-85.2174 48.333333333333336 1626.09 0.0 0.0 1.0
-83.91303333333333 51.3768 1626.09 0.0 0.0 1.0
-84.02513333333333 63.036833333333334 1612.9399999999998 5.645070037925547e-26 7.381371857407114e-26 1.0
-84.87453333333333 71.75626666666666 1608.5999999999997 2.0375286151585845e-26 -7.376251058502848e-27 1.0
-86.04443333333332 93.42223333333334 1994.67 0.0 0.0 1.0
-86.75556666666667 97.15556666666667 1994.67 0.0 0.0 1.0
-86.75556666666667 97.15556666666667 1994.67 0.0 0.0 1.0
-84.75676666666668 88.72073333333333 1617.3 0.0 0.0 1.0
-85.05869999999999 107.02766666666666 1621.68 0.0 0.0 1.0
-84.44446666666666 141.42233333333334 1994.67 0.0 0.0 1.0
-86.39999999999999 -145.86666666666667 1994.67 0.0 0.0 1.0
-87.46666666666665 -126.48866666666667 1994.67 0.0 0.0 1.0
-86.00940000000001 -100.432 1685.63 0.0 0.0 1.0
-85.70890000000001 -95.9249 1685.63 0.0 0.0 1.0
-85.8757 -90.01883333333335 1690.4000000000003 -7.116984594052875e-26 7.116984594052876e-26 1.0
-86.75556666666667 -96.97776666666665 1994.67 0.0 0.0 1.0
-86.57776666666666 -96.62223333333333 1994.67 0.0 0.0 1.0
-86.2222 -67.64443333333334 1994.67 0.0 0.0 1.0
-86.2222 -53.60003333333333 1994.67 0.0 0.0 1.0
-85.04296666666666 -35.377266666666664 1714.61 0.0 0.0 1.0
-84.73733333333332 -30.945566666666664 1714.61 0.0 0.0 1.0
-86.39996666666667 -22.78096666666666 1709.71 0.0 0.0 1.0
-87.11110000000001 -21.95556666666667 1994.67 0.0 0.0 1.0
-86.75556666666667 -21.422233333333335 1994.67 0.0 0.0 1.0
-86.26550000000002 -5.27221 1714.61 0.0 0.0 1.0
-86.30160000000001 2.997116666666667 1724.5 0.0 0.0 1.0
-85.5331 3.7656066666666668 1724.5 0.0 0.0 1.0
-84.76463333333334 5.30259 1724.5 0.0 0.0 1.0
-87.11113333333333 14.844466666666667 1994.67 0.0 0.0 1.0
-86.04443333333332 34.93336666666667 1994.67 0.0 0.0 1.0
-86.22223333333334 45.77779999999999 1994.67 0.0 0.0 1.0
-85.2174 48.333333333333336 1626.09 0.0 0.0 1.0
-86.7565 59.15543333333333 1612.9399999999998 9.552730751748801e-26 -2.691917216813183e-25 1.0
-86.2319 91.8116 1626.09 0.0 0.0 1.0
-84.34783333333333 92.10146666666667 1626.09 0.0 0.0 1.0
-86.22223333333334 116.71100000000001 1994.67 0.0 0.0 1.0
-85.65216666666667 100.79700000000001 1626.09 0.0 0.0 1.0
-84.6377 101.087 1626.09 0.0 0.0 1.0
-86.57780000000001 128.44433333333333 1994.67 0.0 0.0 1.0
-85.76576666666666 112.793 1617.3 0.0 0.0 1.0
-86.39999999999999 -145.86666666666667 1994.67 0.0 0.0 1.0
-86.39996666666667 -143.19966666666667 1994.67 0.0 0.0 1.0
-87.46666666666665 -141.95533333333333 1994.67 0.0 0.0 1.0
-86.06060000000001 -119.16666666666667 1700.0 0.0 0.0 1.0
-86.06060000000001 -119.16666666666667 1700.0 0.0 0.0 1.0
-86.3277 -110.50833333333334 1690.4000000000003 -3.870978519111247e-20 -1.9365599703459e-20 1.0
-85.85916666666667 -99.53063333333334 1685.63 0.0 0.0 1.0
-85.5587 -98.02819999999998 1685.63 0.0 0.0 1.0
-86.17703333333333 -90.92276666666667 1690.4000000000003 1.581902110354713e-26 3.1645043322872895e-26 1.0
-85.8757 -90.01883333333335 1690.4000000000003 -7.116984594052887e-26 7.116984594052886e-26 1.0
-87.8222 -103.37766666666666 1994.67 0.0 0.0 1.0
-86.94993333333333 -83.92823333333334 1695.18 0.0 0.0 1.0
-87.11110000000001 -96.2667 1994.67 0.0 0.0 1.0
-85.43906666666668 -71.23703333333333 1695.18 0.0 0.0 1.0
-85.92590000000001 -62.22220000000001 1704.84 0.0 0.0 1.0
-85.62203333333333 -59.48716666666667 1704.84 0.0 0.0 1.0
-86.93333333333334 -67.46666666666667 1994.67 0.0 0.0 1.0
-86.2222 -53.60003333333333 1994.67 0.0 0.0 1.0
-86.57116666666667 -36.905433333333335 1714.61 0.0 0.0 1.0
-86.70476666666667 -27.199966666666665 1709.71 0.0 0.0 1.0
-85.48570000000001 -10.895233333333332 1709.71 0.0 0.0 1.0
-85.34859999999999 -0.3820433333333333 1714.61 0.0 0.0 1.0
-85.5331 6.993273333333334 1724.5 0.0 0.0 1.0
-86.609 10.220916666666666 1724.5 0.0 0.0 1.0
-86.04443333333334 34.93336666666667 1994.67 0.0 0.0 1.0
-87.46666666666665 54.4889 1994.67 0.0 0.0 1.0
-85.2174 48.333333333333336 1626.09 0.0 0.0 1.0
-86.04443333333334 93.42223333333334 1994.67 0.0 0.0 1.0
-85.76576666666666 88.2883 1617.3 0.0 0.0 1.0
-86.14836666666666 108.31099999999999 1604.29 0.0 0.0 1.0
-87.46666666666665 -141.95533333333333 1994.67 0.0 0.0 1.0
-86.06059999999998 -119.16666666666667 1700.0 0.0 0.0 1.0
-86.66666666666667 -116.894 1700.0 0.0 0.0 1.0
-86.3277 -110.50833333333333 1690.4000000000003 -1.5496772156205576e-19 -7.752673665937144e-20 1.0
-88.35556666666666 -125.95533333333333 1994.67 0.0 0.0 1.0
-86.00943333333333 -98.77936666666666 1685.63 0.0 0.0 1.0
-86.17703333333333 -90.92276666666667 1690.4000000000003 1.581902110354713e-26 3.1645043322872895e-26 1.0
-86.17703333333333 -90.92276666666667 1690.4000000000003 1.5819021103547135e-26 3.16450433228729e-26 1.0
-87.28890000000001 -96.97776666666665 1994.67 0.0 0.0 1.0
-86.64776666666667 -71.3881 1695.18 0.0 0.0 1.0
-86.81816666666667 -64.31816666666667 1700.0 0.0 0.0 1.0
-86.81816666666667 -64.16663333333334 1700.0 0.0 0.0 1.0
-85.62203333333333 -59.48716666666667 1704.84 0.0 0.0 1.0
-86.93333333333334 -67.46666666666667 1994.67 0.0 0.0 1.0
-85.33333333333333 -40.1524 1709.71 0.0 0.0 1.0
-87.02956666666667 -34.46033333333333 1714.61 0.0 0.0 1.0
-88.0 -19.8222 1994.67 0.0 0.0 1.0
-86.09523333333334 -6.62857 1709.71 0.0 0.0 1.0
-86.26549999999999 -5.27221 1714.61 0.0 0.0 1.0
-85.34859999999999 -0.3820433333333333 1714.61 0.0 0.0 1.0
-86.609 9.452436666666665 1724.5 0.0 0.0 1.0
-87.64446666666667 15.022233333333332 1994.67 0.0 0.0 1.0
-87.64446666666667 15.022233333333332 1994.67 0.0 0.0 1.0
-88.1778 26.04443333333333 1994.67 0.0 0.0 1.0
-87.64446666666667 46.13336666666667 1994.67 0.0 0.0 1.0
-88.17776666666667 49.5111 1994.67 0.0 0.0 1.0
-87.82223333333333 50.400000000000006 1994.67 0.0 0.0 1.0
-86.57780000000001 74.4 1994.67 0.0 0.0 1.0
-86.32523333333334 64.47443333333332 1612.9399999999998 -6.601290940260813e-27 -1.6445724572352144e-26 1.0
-88.35556666666666 82.4 1994.67 0.0 0.0 1.0
-84.86916666666667 95.47193333333333 1607.1633333333332 9.924598939998105e-17 -0.7974172131399632 0.6034283621011649
-87.46666666666665 116.889 1994.67 0.0 0.0 1.0
-85.45496666666668 96.78963333333333 1610.0466666666664 -1.630915307062278e-16 -0.9875398315871996 0.15736925058195336
-86.5041 106.73866666666667 1621.68 0.0 0.0 1.0
-86.8633 107.024 1604.29 0.0 0.0 1.0
-88.1778 -141.77766666666665 1994.67 0.0 0.0 1.0
-86.66666666666667 -116.894 1700.0 0.0 0.0 1.0
-86.66666666666667 -116.894 1700.0 0.0 0.0 1.0
-86.77966666666667 -109.906 1690.4000000000003 5.540335685636719e-26 4.753942956444905e-26 1.0
-86.46010000000001 -101.033 1685.63 0.0 0.0 1.0
-87.8222 -103.37766666666666 1994.67 0.0 0.0 1.0
-87.10103333333335 -86.49669999999999 1695.18 0.0 0.0 1.0
-87.46666666666665 -96.62223333333333 1994.67 0.0 0.0 1.0
-89.24443333333333 -89.68886666666667 1994.67 0.0 0.0 1.0
-89.31403333333333 -57.17583333333334 1712.9766666666665 0.4723166678539234 -0.877153218478933 0.08671330105246701
-86.57116666666667 -36.905433333333335 1714.61 0.0 0.0 1.0
-86.57116666666667 -36.905433333333335 1714.61 0.0 0.0 1.0
-87.31426666666668 -26.438066666666668 1709.71 0.0 0.0 1.0
-87.31426666666668 -22.628566666666668 1709.71 0.0 0.0 1.0
-87.0095 -22.01903333333333 1709.71 0.0 0.0 1.0
-88.0 -19.8222 1994.67 0.0 0.0 1.0
-85.77396666666668 -14.8148 1704.84 0.0 0.0 1.0
-87.1619 -11.200000000000001 1709.71 0.0 0.0 1.0
-86.09523333333334 -6.62857 1709.71 0.0 0.0 1.0
-86.26549999999999 -5.27221 1714.61 0.0 0.0 1.0
-86.39999999999999 -3.5809533333333334 1709.71 0.0 0.0 1.0
-87.64446666666667 15.022233333333332 1994.67 0.0 0.0 1.0
-88.1778 26.044433333333334 1994.67 0.0 0.0 1.0
-88.53333333333335 32.44446666666666 1994.67 0.0 0.0 1.0
-84.34783333333333 29.927533333333333 1626.09 0.0 0.0 1.0
-87.46666666666665 58.044466666666665 1994.67 0.0 0.0 1.0
-87.3913 53.2609 1626.09 0.0 0.0 1.0
-86.75556666666667 69.42219999999999 1994.67 0.0 0.0 1.0
-87.82223333333333 71.55553333333333 1994.67 0.0 0.0 1.0
-88.35556666666666 82.39999999999999 1994.67 0.0 0.0 1.0
-87.11110000000001 104.97766666666666 1994.67 0.0 0.0 1.0
-85.894 85.31896666666667 1612.9399999999998 -2.479915664850823e-28 1.0723894529817476e-28 1.0
-86.52173333333333 100.21719999999999 1626.09 0.0 0.0 1.0
-85.89396666666669 100.41356666666667 1612.9399999999998 -2.8363048901411682e-27 1.6758787773303146e-27 1.0
-86.5041 106.73866666666667 1621.68 0.0 0.0 1.0
-86.77966666666667 -109.906 1690.4000000000003 5.540335685636719e-26 4.753942956444905e-26 1.0
-89.06666666666666 -126.133 1994.67 0.0 0.0 1.0
-87.51176666666667 -101.48366666666668 1685.63 0.0 0.0 1.0
-87.81223333333334 -96.67606666666667 1685.63 0.0 0.0 1.0
-87.81223333333334 -96.0751 1685.63 0.0 0.0 1.0
-88.58756666666666 -94.38796666666667 1690.4000000000003 -6.455722891596711e-28 -9.68287020875669e-28 1.0
-87.8222 -103.37766666666666 1994.67 0.0 0.0 1.0
-87.99996666666668 -102.48899999999999 1994.67 0.0 0.0 1.0
-88.35556666666666 -97.33333333333333 1994.67 0.0 0.0 1.0
-85.9259 -62.222199999999994 1704.84 0.0 0.0 1.0
-87.64443333333332 -62.666666666666664 1994.67 0.0 0.0 1.0
-87.64086666666667 -34.765966666666664 1714.61 0.0 0.0 1.0
-87.02956666666667 -34.46033333333333 1714.61 0.0 0.0 1.0
-86.70476666666667 -27.199966666666665 1709.71 0.0 0.0 1.0
-87.0095 -22.01903333333333 1709.71 0.0 0.0 1.0
-88.71109999999999 -21.422233333333338 1994.67 0.0 0.0 1.0
-88.5333 -21.066666666666666 1994.67 0.0 0.0 1.0
-88.71109999999999 -20.711100000000002 1994.67 0.0 0.0 1.0
-87.00953333333332 -13.6381 1709.71 0.0 0.0 1.0
-87.0095 -3.733333333333333 1709.71 0.0 0.0 1.0
-86.30160000000001 6.071083333333334 1724.5 0.0 0.0 1.0
-87.68490000000001 8.991353333333334 1724.5 0.0 0.0 1.0
-86.609 10.220916666666666 1724.5 0.0 0.0 1.0
-88.0 15.733333333333334 1994.67 0.0 0.0 1.0
-89.06663333333334 20.177766666666667 1994.67 0.0 0.0 1.0
-89.06663333333334 20.177766666666667 1994.67 0.0 0.0 1.0
-87.11113333333333 32.4978 1595.7300000000002 -1.7095230999194738e-27 3.3949433081283574e-27 1.0
-88.17776666666667 49.5111 1994.67 0.0 0.0 1.0
-87.82223333333333 50.4 1994.67 0.0 0.0 1.0
-86.8116 48.62316666666667 1626.09 0.0 0.0 1.0
-86.79313333333333 54.56183333333333 1621.68 0.0 0.0 1.0
-88.60216666666666 66.4516 1608.5999999999997 0.0 1.0 0.0
-88.0 96.97776666666665 1994.67 0.0 0.0 1.0
-87.63856666666668 83.25453333333333 1587.2766666666666 -0.9357538109461694 -0.330214017755685 0.12378815685423589
-89.60000000000001 104.62233333333332 1994.67 0.0 0.0 1.0
-87.06306666666667 87.71173333333333 1617.3 0.0 0.0 1.0
-88.53333333333335 117.59999999999998 1994.67 0.0 0.0 1.0
-86.5041 106.73866666666667 1621.68 0.0 0.0 1.0
-86.8633 107.024 1604.29 0.0 0.0 1.0
-89.42219999999999 145.33333333333334 1994.67 0.0 0.0 1.0
-89.24446666666665 -142.66666666666666 1994.67 0.0 0.0 1.0
-88.88889999999999 -141.24433333333332 1994.67 0.0 0.0 1.0
-89.24446666666665 -126.48866666666667 1994.67 0.0 0.0 1.0
-89.06666666666666 -126.133 1994.67 0.0 0.0 1.0
-88.5634 -105.089 1685.63 0.0 0.0 1.0
-88.53333333333335 -96.9778 1994.67 0.0 0.0 1.0
-86.64776666666667 -71.38810000000001 1695.18 0.0 0.0 1.0
-87.27273333333333 -64.31816666666667 1700.0 0.0 0.0 1.0
-87.27273333333333 -64.01513333333334 1700.0 0.0 0.0 1.0
-90.31113333333333 -52.0 1994.67 0.0 0.0 1.0
-87.61903333333333 -41.06666666666667 1709.71 0.0 0.0 1.0
-87.92379999999999 -25.980933333333336 1709.71 0.0 0.0 1.0
-88.71109999999999 -21.422233333333335 1994.67 0.0 0.0 1.0
-88.71109999999999 -20.711100000000002 1994.67 0.0 0.0 1.0
-88.50903333333333 -13.751166666666668 1704.84 0.0 0.0 1.0
-88.29970000000002 2.8434199999999996 1724.5 0.0 0.0 1.0
-88.1778 26.04443333333333 1994.67 0.0 0.0 1.0
-88.35556666666666 47.3778 1994.67 0.0 0.0 1.0
-87.46666666666665 58.22223333333333 1994.67 0.0 0.0 1.0
-87.3913 53.2609 1626.09 0.0 0.0 1.0
-86.7565 59.15543333333333 1612.9399999999998 9.55273075174867e-26 -2.6919172168131463e-25 1.0
-88.10103333333332 99.0242 1623.1499999999999 0.4394415946640695 -0.8788831893281386 0.18562172393203125
-88.11593333333333 101.95666666666666 1626.09 0.0 0.0 1.0
-90.13336666666667 127.55533333333334 1994.67 0.0 0.0 1.0
-89.79783333333334 107.258 1592.9033333333334 2.9600622901825165e-16 0.9911767856911892 0.13254651827521505
-89.24446666666665 -142.66666666666666 1994.67 0.0 0.0 1.0
-89.42223333333334 -140.35533333333333 1994.67 0.0 0.0 1.0
-89.42223333333334 -140.35533333333333 1994.67 0.0 0.0 1.0
-89.06666666666666 -126.133 1994.67 0.0 0.0 1.0
-88.1127 -103.73700000000001 1685.63 0.0 0.0 1.0
-88.26293333333335 -96.67606666666667 1685.63 0.0 0.0 1.0
-88.26293333333335 -96.67606666666667 1685.63 0.0 0.0 1.0
-88.28623333333333 -95.14126666666668 1690.4000000000003 -7.591394248271615e-26 7.275097819763847e-26 1.0
-89.3673 -80.90653333333334 1695.18 0.0 0.0 1.0
-89.77776666666666 -91.46666666666665 1994.67 0.0 0.0 1.0
-89.95553333333334 -90.39999999999999 1994.67 0.0 0.0 1.0
-88.5399 -57.57686666666666 1711.3433333333332 -0.8110990694257099 0.5793528571832339 0.08042739862988757
-85.12923333333333 -56.075700000000005 1693.5866666666668 -0.16007390425256354 0.9603374864655793 0.22831613448531018
-87.64443333333332 -62.666666666666664 1994.67 0.0 0.0 1.0
-87.05133333333333 -48.50933333333334 1682.4766666666667 -3.965188104035223e-17 -0.9872051107719866 0.15945554009086624
-87.64086666666667 -34.765966666666664 1714.61 0.0 0.0 1.0
-87.31426666666668 -22.62856666666666 1709.71 0.0 0.0 1.0
-88.29969999999999 2.8434199999999996 1724.5 0.0 0.0 1.0
-88.6071 3.76561 1724.5 0.0 0.0 1.0
-87.68116666666667 48.333333333333336 1626.09 0.0 0.0 1.0
-86.7565 59.15543333333333 1612.9399999999998 9.552730751748801e-26 -2.691917216813183e-25 1.0
-89.60000000000001 83.11110000000001 1994.67 0.0 0.0 1.0
-89.77776666666666 97.5111 1994.67 0.0 0.0 1.0
-89.70306666666666 83.0227 1577.506666666667 2.062159162236084e-16 0.9988081194540148 0.04880922569283537
-87.63856666666668 83.25453333333333 1587.2766666666666 -0.9357538109461695 -0.33021401775568465 0.12378815685423573
-89.95553333333334 117.77766666666666 1994.67 0.0 0.0 1.0
-86.7511 98.6016 1611.493333333333 0.8866211929077467 -0.24178709174884463 0.39426116033725717
-87.3913 100.5072 1626.09 0.0 0.0 1.0
-88.11593333333333 101.95666666666666 1626.09 0.0 0.0 1.0
-86.8633 107.024 1604.29 0.0 0.0 1.0
-88.53333333333335 138.578 1994.67 0.0 0.0 1.0
-89.55436666666667 109.58966666666667 1600.0 0.0 0.0 1.0
-89.60000000000001 145.68866666666668 1994.67 0.0 0.0 1.0
-88.1127 -101.48366666666668 1685.63 0.0 0.0 1.0
-88.1127 -101.48366666666668 1685.63 0.0 0.0 1.0
-88.5634 -99.07979999999999 1685.63 0.0 0.0 1.0
-88.26293333333335 -96.67606666666667 1685.63 0.0 0.0 1.0
-89.06516666666668 -88.61189999999999 1695.18 0.0 0.0 1.0
-89.77776666666666 -91.46666666666665 1994.67 0.0 0.0 1.0
-90.48886666666665 -89.68886666666667 1994.67 0.0 0.0 1.0
-89.39393333333334 -72.04543333333334 1700.0 0.0 0.0 1.0
-92.08890000000001 -80.08890000000001 1994.67 0.0 0.0 1.0
-87.61903333333333 -41.06666666666667 1709.71 0.0 0.0 1.0
-88.40496666666667 -37.82233333333333 1714.61 0.0 0.0 1.0
-89.4747 -30.028666666666666 1714.61 0.0 0.0 1.0
-89.95556666666668 -20.177766666666667 1994.67 0.0 0.0 1.0
-88.5333 -11.504766666666667 1709.71 0.0 0.0 1.0
-89.29523333333333 -10.133333333333333 1709.71 0.0 0.0 1.0
-87.31426666666668 -6.933329999999999 1709.71 0.0 0.0 1.0
-88.91450000000002 3.150816666666666 1724.5 0.0 0.0 1.0
-88.7608 3.458213333333333 1724.5 0.0 0.0 1.0
-88.6071 3.76561 1724.5 0.0 0.0 1.0
-89.06663333333334 20.177766666666667 1994.67 0.0 0.0 1.0
-87.68116666666667 48.333333333333336 1626.09 0.0 0.0 1.0
-88.26086666666667 52.68116666666666 1626.09 0.0 0.0 1.0
-88.62533333333333 65.19319999999999 1612.9399999999998 8.6880542813728e-27 1.0073106415100793e-30 1.0
-90.13333333333333 85.60000000000001 1994.67 0.0 0.0 1.0
-89.20036666666665 84.8877 1612.9399999999998 1.2511811186989418e-27 -2.2298268437259723e-27 1.0
-89.27536666666667 92.10143333333333 1626.09 0.0 0.0 1.0
-90.4889 127.022 1994.67 0.0 0.0 1.0
-89.95556666666668 128.26633333333334 1994.67 0.0 0.0 1.0
-88.36036666666666 112.93700000000001 1617.3 0.0 0.0 1.0
-90.4889 144.79999999999998 1994.67 0.0 0.0 1.0
