ply
format ascii 1.0
comment VCGLIB generated
element vertex 632
property float x
property float y
property float z
property float nx
property float ny
property float nz
element face 0
property list uchar int vertex_indices
end_header
-0.9722213333333333 -85.90276666666666 1558.33 0.0 0.0 1.0
-0.9722213333333333 -85.90276666666666 1558.33 0.0 0.0 1.0
-0.349956 -82.3797 1570.5999999999997 -1.2523880558930957e-28 -7.156521424376296e-29 1.0
0.20997133333333343 -78.74016666666667 1570.5999999999997 1.1927389056712476e-29 -2.385185262144636e-29 1.0
-0.6299223333333334 -71.74103333333333 1570.5999999999997 -3.797541263684109e-29 8.763493856181882e-30 1.0
-0.06999099999999998 -70.06126666666667 1570.5999999999997 0.0 0.0 1.0
-0.20997400000000002 -69.6413 1570.5999999999997 3.1808769100122944e-29 4.770724630735134e-29 1.0
0.3499566666666667 -39.54503333333333 1570.5999999999997 2.035993936241317e-27 2.850717347347749e-26 1.0
0.13888866666666666 -18.819433333333333 1558.33 0.0 0.0 1.0
0.13888866666666666 -18.819433333333333 1558.33 0.0 0.0 1.0
0.5555566666666667 -7.98611 1558.33 0.0 0.0 1.0
-0.41666800000000004 -2.4305566666666665 1558.33 0.0 0.0 1.0
24.355566666666665 3.6444433333333333 1994.67 0.0 0.0 1.0
0.4166666666666667 3.6805566666666665 1558.33 0.0 0.0 1.0
0.0 8.26389 1558.33 0.0 0.0 1.0
0.4166663333333333 15.069466666666665 1558.33 0.0 0.0 1.0
0.13889000000000004 18.958333333333332 1558.33 0.0 0.0 1.0
4.054581 34.23 1749.71 0.0 0.0 1.0
5.50964 37.68593333333333 1648.4800000000002 -1.8480625694141746e-27 1.0780372267452328e-27 1.0
3.14441 34.99913333333333 1639.4733333333334 -0.9272598153330829 0.37090392613323375 0.051181172782670606
22.04446666666667 65.8667 1994.67 0.0 0.0 1.0
14.833100000000002 63.955533333333335 1818.8766666666668 0.7411442676055306 -0.6670221978186022 0.07606945650327018
-18.21139666666667 43.197833333333335 1216.26 0.0 0.0 1.0
22.399999999999995 80.44443333333334 1994.67 0.0 0.0 1.0
22.933366666666668 84.53333333333333 1994.67 0.0 0.0 1.0
-12.018803333333333 70.67293333333333 1404.6899999999998 1.590688954565736e-28 5.965311229308846e-28 1.0
21.155566666666665 101.42199999999998 1994.67 0.0 0.0 1.0
22.400000000000002 119.37766666666668 1994.67 0.0 0.0 1.0
22.400000000000002 143.02233333333334 1994.67 0.0 0.0 1.0
0.349956 -100.85699999999999 1570.5999999999997 -2.9976019204843113e-27 1.2203591744966519e-26 1.0
-0.4718466666666668 -92.81400000000001 1530.4566666666667 -0.6856472585506828 -0.5921458996265063 0.42338052671025006
-0.20997133333333343 -93.0184 1570.5999999999997 -4.732967338319152e-18 9.465878325080516e-18 1.0
2.2155566666666666 -91.48790000000001 1514.9566666666667 0.34370654798894557 0.705501924593785 0.619784513572248
0.20997366666666664 -87.13913333333333 1570.5999999999997 -7.156416395492185e-29 3.57775659365039e-29 1.0
-0.6299200000000001 -67.68153333333333 1570.5999999999997 -2.9275413262794453e-29 -1.1233881419779215e-29 1.0
17.96432666666667 -69.4269 1870.0333333333335 0.5643711940521184 -0.752496323271224 0.33946198430380375
21.488700000000005 -64.466 1936.57 0.0 0.0 1.0
-0.5555553333333334 -56.59723333333333 1558.33 0.0 0.0 1.0
17.057033333333333 -67.1872 1797.0 0.0 0.0 1.0
0.7699023333333334 -43.46456666666666 1570.5999999999997 4.718492794363903e-27 8.558942557913731e-27 1.0
0.3499566666666667 -39.54503333333333 1570.5999999999997 2.0359939362413164e-27 2.850717347347749e-26 1.0
-2.5000009999999997 -33.680566666666664 1558.33 0.0 0.0 1.0
0.0 -19.930533333333333 1558.33 0.0 0.0 1.0
-0.9722210000000001 -12.430533333333335 1558.33 0.0 0.0 1.0
-11.48489 -3.2394366666666663 1270.5233333333333 -0.7925253389068057 0.48669782371623377 0.3674626723635131
-0.6944443333333333 4.930556666666667 1558.33 0.0 0.0 1.0
-0.4166666666666667 7.847223333333333 1558.33 0.0 0.0 1.0
-0.6944453333333334 11.4583 1558.33 0.0 0.0 1.0
-0.6944443333333333 13.125 1558.33 0.0 0.0 1.0
-0.8333333333333334 19.5139 1558.33 0.0 0.0 1.0
3.83226 32.47566666666666 1653.0600000000002 -0.9311611976280174 0.3103917605302582 0.19130023268904536
21.688866666666666 33.86663333333333 1994.67 0.0 0.0 1.0
-1.7497816666666666 31.006133333333334 1570.5999999999997 -2.1184618406614802e-26 2.5371299626018662e-26 1.0
16.60376666666667 54.42346666666666 1881.76 0.0 0.0 1.0
20.799966666666666 60.53333333333333 1994.67 0.0 0.0 1.0
20.444433333333333 62.133333333333326 1994.67 0.0 0.0 1.0
20.977766666666668 68.8889 1994.67 0.0 0.0 1.0
19.9111 70.66666666666667 1994.67 0.0 0.0 1.0
-0.4232806666666667 62.1517 1583.07 0.0 0.0 1.0
21.333299999999998 129.33333333333334 1994.67 0.0 0.0 1.0
20.977766666666668 137.33333333333334 1994.67 0.0 0.0 1.0
20.977766666666668 137.33333333333334 1994.67 0.0 0.0 1.0
21.866666666666664 142.8443333333333 1994.67 0.0 0.0 1.0
-0.3499536666666667 -95.3981 1570.5999999999997 0.0 0.0 1.0
-0.349956 -82.3797 1570.5999999999997 -1.2523880558930957e-28 -7.156521424376296e-29 1.0
-0.909887 -81.5398 1570.5999999999997 2.862775585042127e-28 1.4312139811462517e-28 1.0
-1.0498703333333335 -80.13996666666667 1570.5999999999997 -3.3995718917449553e-28 -5.368016323817719e-29 1.0
3.1555166666666667 -93.9566 1744.6366666666665 0.2191078196543192 -0.47994817880420493 0.8494948552103522
-0.48993899999999996 -70.34123333333334 1570.5999999999997 1.0734168774998877e-28 -1.0733252806775468e-28 1.0
-1.6666676666666664 -61.59723333333333 1558.33 0.0 0.0 1.0
19.9111 -71.91109999999999 1994.67 0.0 0.0 1.0
19.9111 -71.91109999999999 1994.67 0.0 0.0 1.0
-0.9098873333333333 -51.44356666666667 1570.5999999999997 0.0 0.0 1.0
-0.9098873333333333 -51.44356666666667 1570.5999999999997 0.0 0.0 1.0
-1.5277766666666668 -37.9861 1558.33 0.0 0.0 1.0
-1.5277766666666668 -37.9861 1558.33 0.0 0.0 1.0
17.77776666666667 -36.53333333333333 1994.67 0.0 0.0 1.0
-1.6097973333333335 -23.0271 1570.5999999999997 -3.505472881319266e-29 2.4538719199503928e-29 1.0
0.349956 -21.90726666666667 1570.5999999999997 2.650161360742182e-28 -3.4845608898674535e-28 1.0
-0.13888866666666666 -4.23611 1558.33 0.0 0.0 1.0
-1.6666666666666667 -0.20833333333333334 1558.33 0.0 0.0 1.0
-0.2777776666666667 20.34723333333333 1558.33 0.0 0.0 1.0
20.266666666666666 29.955533333333335 1994.67 0.0 0.0 1.0
-1.7497816666666666 31.006133333333334 1570.5999999999997 -2.1184618406614802e-26 2.5371299626018662e-26 1.0
20.9778 66.04446666666666 1994.67 0.0 0.0 1.0
0.28904066666666667 60.969166666666666 1608.67 -0.926551341401456 0.3243049157558898 0.19060150409618412
-5.4985 66.54016666666666 1550.2766666666666 -0.1087663215247099 -0.7976268528218762 0.5932632560334852
-0.4232803333333333 64.127 1583.07 0.0 0.0 1.0
19.555566666666667 91.46666666666665 1994.67 0.0 0.0 1.0
0.40404 75.21886666666667 1511.11 0.0 0.0 1.0
20.977766666666664 125.06666666666666 1994.67 0.0 0.0 1.0
21.6889 144.26666666666668 1994.67 0.0 0.0 1.0
-2.157347 -105.16266666666667 1470.29 -0.446821157517967 -0.8937149573025372 -0.0403041969034044
-1.4470299999999998 -85.92593333333333 1546.25 0.0 0.0 1.0
-0.909887 -81.5398 1570.5999999999997 2.8627755850421266e-28 1.431213981146252e-28 1.0
-0.909887 -81.5398 1570.5999999999997 2.862775585042127e-28 1.4312139811462517e-28 1.0
-1.4698166666666665 -73.2808 1570.5999999999997 3.817137127316357e-28 9.542842818290889e-29 1.0
-0.909887 -70.20123333333333 1570.5999999999997 5.010198131163505e-28 1.4314695956447892e-28 1.0
-0.6299220000000001 -69.78126666666667 1570.5999999999997 -3.180876910012294e-29 2.385646320881967e-29 1.0
-1.8897633333333335 -62.08226666666667 1570.5999999999997 -5.550257729601648e-29 2.629093430545357e-29 1.0
18.185533333333336 -44.60756666666666 1829.97 0.0 0.0 1.0
-0.41666800000000004 -17.01386666666667 1558.33 0.0 0.0 1.0
-1.9444433333333333 -1.1805566666666667 1558.33 0.0 0.0 1.0
-1.6666666666666667 -0.20833333333333334 1558.33 0.0 0.0 1.0
-1.5277776666666665 11.5972 1558.33 0.0 0.0 1.0
-13.099413333333331 14.561399999999999 1312.28 0.0 0.0 1.0
-21.717166666666667 17.929299999999998 1133.33 0.0 0.0 1.0
19.377799999999997 28.711100000000002 1994.67 0.0 0.0 1.0
0.9039533333333333 30.659100000000006 1690.4000000000003 -1.4461101724699974e-25 -5.886750952865837e-25 1.0
2.9336566666666664 33.63046666666667 1643.9766666666667 -0.9462204536805128 0.3154115884723126 0.07198876922143631
3.1075006666666667 50.081266666666664 1621.68 0.0 0.0 1.0
20.9778 66.04446666666666 1994.67 0.0 0.0 1.0
-0.7054673333333333 60.74073333333333 1583.07 0.0 0.0 1.0
-0.4232803333333333 64.127 1583.07 0.0 0.0 1.0
-12.4432 66.3515 1375.676666666667 0.4618906192488289 0.6655860654859297 0.5862185985457073
-20.0057 57.98186666666667 1175.7 -8.672425354565302e-05 0.9760685836721692 0.21746289901293353
19.022233333333336 107.28866666666666 1994.67 0.0 0.0 1.0
8.139043333333333 93.22776666666665 1807.8866666666665 0.6441009607737906 -0.7085070714889288 0.28836033357669305
-7.924199999999999 87.02843333333333 1546.25 0.0 0.0 1.0
19.022233333333332 116.53333333333335 1994.67 0.0 0.0 1.0
20.977766666666668 137.33333333333334 1994.67 0.0 0.0 1.0
4.215296666666667 103.05433333333333 1526.5533333333333 0.41970298434925 0.8393523654682749 0.3454518946411273
-0.7238406666666668 -103.12026666666668 1617.32 -0.06789378522224998 -0.8486809272665666 0.5245294249345365
-0.5555546666666666 -89.23610000000001 1558.33 0.0 0.0 1.0
-4.239310000000001 -90.73503333333333 1534.36 0.0 0.0 1.0
-1.3298336666666668 -79.58006666666667 1570.5999999999997 -2.1468695370714374e-28 -2.146696566199039e-28 1.0
-1.8897633333333335 -72.72086666666667 1570.5999999999997 -2.862830121502267e-28 -1.7042684375438124e-33 1.0
-1.469817 -50.463699999999996 1570.5999999999997 1.236337276572114e-25 1.6485053135656116e-25 1.0
-1.7497833333333332 -49.90376666666666 1570.5999999999997 1.5265215967988843e-27 6.106740766541652e-27 1.0
-1.7497833333333332 -46.4042 1570.5999999999997 4.5806554514974126e-27 -2.0359034276118747e-27 1.0
-0.7699063333333332 -45.14436666666666 1570.5999999999997 -3.595978027300011e-27 4.014546068394852e-27 1.0
-1.5277766666666668 -37.9861 1558.33 0.0 0.0 1.0
-3.8615366666666673 -29.814566666666664 1470.29 -0.4977230843058495 0.8295180262308931 0.25332109171380834
-2.222221 -11.5972 1558.33 0.0 0.0 1.0
-1.9444433333333333 -1.1805566666666667 1558.33 0.0 0.0 1.0
-1.9444433333333333 -0.625001 1558.33 0.0 0.0 1.0
-1.5277776666666665 11.5972 1558.33 0.0 0.0 1.0
-5.569353333333333 21.769366666666667 1391.6433333333334 1.2983026757851862e-14 -0.9915663335373787 0.12960017822225334
20.266666666666666 29.955533333333335 1994.67 0.0 0.0 1.0
-1.9444433333333333 25.48613333333333 1558.33 0.0 0.0 1.0
5.670483333333333 39.15706666666666 1719.54 0.0 0.0 1.0
2.7036366666666667 33.67683333333334 1639.4733333333334 -0.9262473877203709 0.37049895508814845 0.06925533206749482
18.84443333333333 58.4 1994.67 0.0 0.0 1.0
-0.7054673333333333 60.74073333333333 1583.07 0.0 0.0 1.0
-0.4232806666666667 62.151700000000005 1583.07 0.0 0.0 1.0
-0.4232806666666667 62.151700000000005 1583.07 0.0 0.0 1.0
18.84443333333333 89.68886666666667 1994.67 0.0 0.0 1.0
-5.25752 68.98753333333333 1456.0133333333333 0.7149747145939384 0.6701366281697826 -0.19931898323178165
10.649063333333332 99.18576666666667 1974.92 0.0 0.0 1.0
-1.04987 91.4785 1570.5999999999997 5.281466773979866e-28 -4.3166053320662675e-28 1.0
19.0222 118.66666666666667 1994.67 0.0 0.0 1.0
20.444433333333333 121.33333333333333 1994.67 0.0 0.0 1.0
19.555533333333333 125.06666666666666 1994.67 0.0 0.0 1.0
19.199966666666665 127.37766666666668 1994.67 0.0 0.0 1.0
19.733333333333334 139.1113333333333 1994.67 0.0 0.0 1.0
-3.28959 -113.176 1570.5999999999997 -1.717665351025278e-29 -3.434901285712786e-29 1.0
-2.6531066666666665 -107.71499999999999 1566.51 0.8310635361135437 0.5544164130117274 0.04422487903502654
-2.3097100000000004 -101.697 1570.5999999999997 -3.675644974342482e-28 -2.120311960130657e-28 1.0
-2.3097100000000004 -101.697 1570.5999999999997 -3.675644974342482e-28 -2.120311960130657e-28 1.0
-1.7497813333333332 -93.99826666666667 1570.5999999999997 9.066699885120668e-28 -1.2407345230846809e-27 1.0
-1.4470299999999998 -85.92593333333332 1546.25 0.0 0.0 1.0
-1.3298336666666668 -79.58006666666667 1570.5999999999997 -2.1468695370714374e-28 -2.146696566199039e-28 1.0
-2.0297466666666666 -78.18023333333333 1570.5999999999997 2.977614943154149e-28 1.9469322846072979e-28 1.0
-1.8897633333333335 -72.72086666666667 1570.5999999999997 -2.862830121502267e-28 -1.7042684375438124e-33 1.0
-1.6097980000000003 -66.14173333333333 1570.5999999999997 -7.452988173204524e-29 -5.323768586893825e-29 1.0
-2.0297466666666666 -61.522333333333336 1570.5999999999997 5.368030194264128e-29 5.368818423362258e-29 1.0
-2.30971 -56.622899999999994 1570.5999999999997 -8.186517661964587e-26 1.6399710364518975e-25 1.0
-1.88976 -55.50306666666666 1570.5999999999997 1.0 0.0 0.0
-2.169726666666667 -54.663199999999996 1570.5999999999997 1.8898456093390638e-26 1.5462664511365414e-26 1.0
18.84443333333333 -62.844433333333335 1994.67 0.0 0.0 1.0
18.84443333333333 -62.844433333333335 1994.67 0.0 0.0 1.0
8.754444 -53.92496666666667 1918.0666666666666 -0.48175216254267456 -0.8539322300782956 0.19676026102586214
17.77776666666667 -36.53333333333333 1994.67 0.0 0.0 1.0
6.831953333333334 -26.666666666666668 1648.4800000000002 -2.0960548320451226e-30 8.121836513739313e-30 1.0
-1.9444433333333333 25.48613333333333 1558.33 0.0 0.0 1.0
18.666666666666664 51.288900000000005 1994.67 0.0 0.0 1.0
8.84428 46.6582 1852.6633333333332 -0.7247998921239737 0.6885661353541371 -0.02327646065329485
-2.1333333333333333 68.30559999999998 1591.51 0.8318979540455306 0.5545986360303542 0.01913496715782422
-0.7710133333333333 66.34283333333333 1578.9133333333332 -0.8639934973568777 0.43202736864881663 0.258587681963798
19.555566666666667 91.46666666666665 1994.67 0.0 0.0 1.0
19.733333333333334 92.7111 1994.67 0.0 0.0 1.0
20.266666666666666 95.37776666666667 1994.67 0.0 0.0 1.0
0.34230333333333324 72.47160000000001 1562.42 0.555470528882715 0.7035962995023877 0.44317574264540155
19.2 104.97766666666666 1994.67 0.0 0.0 1.0
19.555533333333333 120.089 1994.67 0.0 0.0 1.0
19.2 136.62233333333333 1994.67 0.0 0.0 1.0
3.577806666666667 126.44100000000002 1824.4233333333334 -0.2282968627779395 -0.8561960615657512 0.4634747529316427
19.733333333333334 139.1113333333333 1994.67 0.0 0.0 1.0
3.434863333333333 127.61033333333334 1786.3 -0.5348772275201701 0.8446011171360059 -0.023564897898081496
-2.5896766666666666 -109.116 1570.5999999999997 0.0 0.0 1.0
-2.5896766666666666 -109.116 1570.5999999999997 0.0 0.0 1.0
-2.16973 -72.4409 1570.5999999999997 0.0 1.0 0.0
-1.8897633333333335 -71.1811 1570.5999999999997 -1.6700562023981897e-28 7.157813882761159e-29 1.0
-3.4722233333333334 -63.819433333333336 1558.33 0.0 0.0 1.0
-2.30971 -56.622899999999994 1570.5999999999997 -8.186517661964587e-26 1.6399710364518975e-25 1.0
-1.7497833333333332 -49.90376666666666 1570.5999999999997 1.526521596798884e-27 6.106740766541652e-27 1.0
-1.7497833333333332 -47.804 1570.5999999999997 0.0 0.0 1.0
6.032555666666667 -37.70223333333333 1630.54 0.07496340151876872 -0.9370624966496617 0.34101959739205434
-0.8821006666666668 -30.059366666666666 1522.6500000000003 -4.137941326170799e-30 3.0929309119250435e-31 1.0
-2.9166676666666667 -13.402766666666666 1558.33 0.0 0.0 1.0
-3.3333333333333335 -2.4305533333333336 1558.33 0.0 0.0 1.0
-2.8251500000000003 10.54263 1546.25 0.0 0.0 1.0
17.244466666666668 23.022199999999998 1994.67 0.0 0.0 1.0
18.666666666666668 51.288900000000005 1994.67 0.0 0.0 1.0
5.565926666666666 56.57323333333333 1864.17 0.0 0.0 1.0
18.84443333333333 58.4 1994.67 0.0 0.0 1.0
18.3111 62.3111 1994.67 0.0 0.0 1.0
3.1075006666666667 50.081266666666664 1621.68 0.0 0.0 1.0
18.84443333333333 89.68886666666667 1994.67 0.0 0.0 1.0
18.133333333333333 102.48899999999999 1994.67 0.0 0.0 1.0
-19.489333333333335 66.52863333333333 1238.92 0.0 0.0 1.0
19.022233333333332 116.53333333333332 1994.67 0.0 0.0 1.0
0.3300166666666667 -101.45423333333333 1514.9566666666667 0.47956047317495876 -0.6118517473226573 0.6290144607768733
-3.0096233333333333 -97.91773333333333 1570.5999999999997 0.0 0.0 1.0
-3.0096233333333333 -97.91773333333333 1570.5999999999997 0.0 0.0 1.0
-3.28959 -86.9991 1570.5999999999997 0.0 0.0 1.0
-2.7296566666666666 -77.90026666666667 1570.5999999999997 4.770929118359847e-29 -4.770304259160399e-29 1.0
-2.30971 -72.72086666666667 1570.5999999999997 5.725523902341173e-28 4.294142926755879e-28 1.0
-3.0096233333333338 -64.18196666666667 1570.5999999999997 -6.978020608638197e-28 1.0734206949390922e-28 1.0
-3.0096233333333338 -64.18196666666667 1570.5999999999997 -6.978020608638196e-28 1.0734206949390917e-28 1.0
-2.5896766666666666 -57.18283333333333 1570.5999999999997 -1.5269639304558193e-26 6.107710282835703e-27 1.0
18.84443333333333 -72.97776666666665 1994.67 0.0 0.0 1.0
-2.30971 -56.622899999999994 1570.5999999999997 -8.186517661964587e-26 1.6399710364518975e-25 1.0
-2.1697266666666666 -54.663199999999996 1570.5999999999997 2.491127889803104e-26 1.975772787945621e-26 1.0
18.84443333333333 -62.844433333333335 1994.67 0.0 0.0 1.0
14.023266666666666 -34.162266666666675 1864.28 0.8865434343262436 -0.45970648565538097 0.05206424972482023
11.398919999999999 -38.5009 1881.8700000000001 0.9485072868592979 -0.31617615150375383 0.019145965504214723
-2.3097103333333333 -24.7069 1570.5999999999997 4.0061834010792005e-29 -1.4879666805503387e-28 1.0
15.466633333333332 -19.644433333333332 1994.67 0.0 0.0 1.0
-3.0555533333333336 -1.3194433333333333 1558.33 0.0 0.0 1.0
-3.8888866666666666 4.652776666666667 1558.33 0.0 0.0 1.0
-15.7639 15.060599999999999 1315.1766666666665 -0.5033213652748209 -0.8628102794925632 -0.04718076790235279
8.117213333333334 40.4772 1841.2633333333333 0.6115154048661783 -0.5809448975003474 0.5371703041677425
-9.87928 23.9717 1375.676666666667 0.9287351861070154 0.32033039977716393 0.1866531249815273
18.666666666666664 51.288900000000005 1994.67 0.0 0.0 1.0
10.074056666666666 56.634899999999995 1899.68 0.0 0.0 1.0
18.84443333333333 58.4 1994.67 0.0 0.0 1.0
5.122416666666667 49.039566666666666 1690.4000000000003 0.0 0.0 1.0
18.3111 62.3111 1994.67 0.0 0.0 1.0
18.3111 62.3111 1994.67 0.0 0.0 1.0
-24.9161 42.75663333333333 1157.4566666666667 -0.4013988529427486 0.903155509882551 0.15227963036806688
-24.9161 42.75663333333333 1157.4566666666667 -0.40139885294274874 0.9031555098825509 0.15227963036806696
16.5333 82.2222 1994.67 0.0 0.0 1.0
18.84443333333333 89.68886666666667 1994.67 0.0 0.0 1.0
-19.378899999999998 62.88473333333334 1238.92 0.0 0.0 1.0
18.133333333333333 102.48899999999999 1994.67 0.0 0.0 1.0
-20.905466666666666 65.5873 1244.0866666666668 -0.04947652293378506 -0.9893226988313144 0.13708636422163575
18.84443333333333 117.59999999999998 1994.67 0.0 0.0 1.0
18.133300000000002 125.06666666666666 1994.67 0.0 0.0 1.0
18.133300000000002 127.55533333333334 1994.67 0.0 0.0 1.0
19.2 136.62233333333333 1994.67 0.0 0.0 1.0
-3.28959 -113.596 1570.5999999999997 -1.71773897656136e-27 6.0113502441176365e-27 1.0
-2.5896766666666666 -109.116 1570.5999999999997 0.0 0.0 1.0
-2.8696433333333338 -108.41633333333334 1570.5999999999997 -1.3844088442921408e-27 -2.9678634448383494e-27 1.0
-2.86964 -100.57719999999999 1570.5999999999997 8.27913676114928e-27 7.94183930524046e-27 1.0
-3.1496066666666667 -94.27823333333333 1570.5999999999997 -1.5904359301910735e-29 6.31225563667207e-35 1.0
-3.7095366666666667 -85.73926666666667 1570.5999999999997 -1.1451593177075843e-27 1.4314423298983939e-27 1.0
-2.5896766666666666 -61.94226666666666 1570.5999999999997 -1.3923514257865929e-27 2.2614549789763604e-27 1.0
17.599999999999998 -74.57776666666666 1994.67 0.0 0.0 1.0
-11.2124 -28.312966666666668 1421.3933333333334 0.6401389077179581 0.7681465252892357 0.0131565387444008
-9.89753 -30.701333333333334 1414.66 0.0 0.0 1.0
-3.1944433333333335 -10.4861 1558.33 0.0 0.0 1.0
-4.166666666666667 -9.652776666666666 1558.33 0.0 0.0 1.0
-4.583333333333333 -4.791666666666667 1558.33 0.0 0.0 1.0
-3.4722233333333334 -2.4305533333333336 1558.33 0.0 0.0 1.0
-3.61111 -1.8749966666666669 1558.33 0.0 0.0 1.0
-3.61111 3.6805566666666665 1558.33 0.0 0.0 1.0
-3.8888866666666666 4.652776666666667 1558.33 0.0 0.0 1.0
-3.8888866666666666 5.347223333333333 1558.33 0.0 0.0 1.0
16.177766666666667 14.1333 1994.67 0.0 0.0 1.0
-22.451066666666666 9.825996666666667 1155.2233333333334 0.612796134424465 0.37205073925993254 0.6971794209890095
-9.16032 30.737899999999996 1522.6500000000003 1.1851436659354537e-28 2.5304490754910228e-28 1.0
-13.333329999999998 54.44446666666666 1466.67 0.0 0.0 1.0
16.888900000000003 73.68886666666667 1994.67 0.0 0.0 1.0
-19.804699999999997 47.08180000000001 1241.5033333333333 -0.7019235810325738 -0.7019235810325654 0.1208576550361115
5.7663866666666665 97.7478 1905.7700000000002 0.8178443631471947 0.5374317752250739 0.20566400911872076
18.133333333333333 102.48899999999999 1994.67 0.0 0.0 1.0
16.711133333333333 111.2 1994.67 0.0 0.0 1.0
-19.48933333333333 66.52863333333333 1238.92 0.0 0.0 1.0
12.63134 103.15816666666667 1924.1566666666668 -0.6392701475239475 0.7065714798918972 0.3034640378827196
-16.538566666666668 63.30563333333333 1135.49 -0.366347633624901 -0.6494321933949039 0.6663536880063916
-18.91474 73.43669999999999 1159.69 0.0 0.0 1.0
16.355533333333337 145.867 1994.67 0.0 0.0 1.0
-10.837153333333333 -96.13393333333333 1366.21 0.0 0.0 1.0
-3.2895866666666667 -98.47766666666666 1570.5999999999997 0.0 0.0 1.0
-3.0096233333333338 -97.91773333333333 1570.5999999999997 -8.588490364506799e-28 8.58941077904935e-28 1.0
-3.7095366666666667 -85.73926666666667 1570.5999999999997 -1.1451593177075824e-27 1.4314423298983914e-27 1.0
-3.9894999999999996 -81.95973333333333 1570.5999999999997 2.29020956093647e-27 3.435723404793785e-27 1.0
-3.7095333333333333 -79.16013333333335 1570.5999999999997 -3.272117482099096e-30 -2.748251473123764e-26 1.0
-3.7095333333333333 -78.74016666666667 1570.5999999999997 0.0 0.0 1.0
-3.7095333333333333 -78.74016666666667 1570.5999999999997 0.0 0.0 1.0
-3.5695533333333334 -64.88186666666667 1570.5999999999997 -9.541933963498186e-29 9.540797847666138e-29 1.0
17.6 -74.57776666666666 1994.67 0.0 0.0 1.0
-2.729656666666667 -53.823299999999996 1570.5999999999997 5.509294178291465e-26 4.4216194656460803e-26 1.0
-3.6111109999999997 -49.930566666666664 1558.33 0.0 0.0 1.0
-3.88889 -40.4861 1558.33 0.0 0.0 1.0
-2.0811800000000003 -31.02443333333333 1550.2766666666666 0.6491360252400962 -0.7573212921779127 0.07132237481650326
-11.319966666666666 -30.380366666666664 1411.3366666666668 -0.9854417781348257 0.15160488584365323 0.07694452868661714
-3.8095133333333333 -29.7002 1583.07 0.0 0.0 1.0
-4.269463333333333 -23.167066666666667 1570.5999999999997 0.0 0.0 1.0
-16.427466666666668 -13.714166666666669 1369.3500000000001 0.6978427818259878 0.6978427818259308 -0.1613409548342055
-5.249326666666667 -10.288706666666668 1570.5999999999997 -1.595504320919555e-29 -2.303337291419455e-29 1.0
16.711133333333333 26.577766666666662 1994.67 0.0 0.0 1.0
17.0667 27.111099999999997 1994.67 0.0 0.0 1.0
16.711100000000002 28.177766666666667 1994.67 0.0 0.0 1.0
5.068868666666667 51.937533333333334 1648.4800000000002 0.0 0.0 1.0
15.262066666666668 59.95806666666667 1881.76 0.0 0.0 1.0
4.054593333333334 53.25533333333333 1749.71 0.0 0.0 1.0
16.888900000000003 72.79996666666666 1994.67 0.0 0.0 1.0
16.888900000000003 73.68886666666667 1994.67 0.0 0.0 1.0
4.104416333333333 90.42113333333333 1797.0933333333332 -0.5432580710750576 -0.8145457640626087 0.20343516524796898
-9.741253333333333 82.86149999999999 1366.21 0.0 0.0 1.0
16.000033333333334 112.44433333333332 1994.67 0.0 0.0 1.0
-18.307366666666667 83.3484 1236.3733333333332 0.7128405818884188 -0.38383596310463636 0.5869652956014663
0.24023966666666663 123.88366666666666 1797.0 0.0 0.0 1.0
-10.837153333333333 -96.13393333333333 1366.21 0.0 0.0 1.0
-4.969376666666666 -104.217 1570.5999999999997 3.435314341404703e-27 6.01104351037111e-27 1.0
-6.903328999999999 -97.1404 1630.54 0.40380337288861956 -0.8697427980267116 0.2837081269975206
-4.689413333333333 -88.11896666666667 1570.5999999999997 -1.2723588434612541e-28 -3.181351630745353e-29 1.0
-3.9894999999999996 -81.95973333333333 1570.5999999999997 2.29020956093647e-27 3.435723404793785e-27 1.0
-3.7095333333333333 -79.16013333333335 1570.5999999999997 -3.272117482099338e-30 -2.7482514731237647e-26 1.0
-3.42957 -77.4803 1570.5999999999997 0.0 0.0 1.0
-3.8495199999999996 -73.2808 1570.5999999999997 1.402178658690489e-28 -1.0516256467226012e-28 1.0
-3.9894999999999996 -65.3018 1570.5999999999997 7.634031869788247e-28 -1.9085079674470621e-28 1.0
-3.7095366666666667 -43.60456666666666 1570.5999999999997 8.347151684792476e-28 1.5472348278775042e-27 1.0
-9.897529999999998 -30.701333333333338 1414.66 0.0 0.0 1.0
8.888883333333334 -32.15683333333334 1955.5600000000002 1.1547357791500384e-29 4.025572008414257e-29 1.0
-4.269463333333333 -23.167066666666667 1570.5999999999997 0.0 0.0 1.0
-16.427466666666668 -13.714166666666669 1369.3500000000001 0.6978427818260156 0.6978427818259132 -0.16134095483416175
-4.409446666666667 -21.627266666666667 1570.5999999999997 0.0 0.0 1.0
-5.0 -3.9583333333333335 1558.33 0.0 0.0 1.0
-4.583333333333333 5.76389 1558.33 0.0 0.0 1.0
-6.4623333333333335 8.452666666666667 1542.2866666666666 0.7643165705523047 -0.6436342386281113 0.03943535019212414
16.177766666666667 14.1333 1994.67 0.0 0.0 1.0
-16.7305 14.9846 1298.0600000000002 -0.094198220997051 -0.9891357231378161 0.1128592768611453
16.711100000000002 28.177766666666667 1994.67 0.0 0.0 1.0
16.711100000000002 28.177766666666667 1994.67 0.0 0.0 1.0
18.342966666666666 44.53073333333333 1949.2299999999998 -0.2570373197544954 0.7389869029001929 0.6227601252451911
20.7983 54.10999999999999 1936.57 0.0 0.0 1.0
16.8889 66.5778 1994.67 0.0 0.0 1.0
-20.81436666666667 45.6591 1238.92 0.0 0.0 1.0
16.888866666666665 80.97776666666667 1994.67 0.0 0.0 1.0
-14.340366666666666 60.663000000000004 1385.2300000000002 0.7559176221289594 0.43856877663222055 0.4860514136572561
17.4222 103.02233333333334 1994.67 0.0 0.0 1.0
16.177766666666667 124.17766666666667 1994.67 0.0 0.0 1.0
16.177766666666667 124.17766666666667 1994.67 0.0 0.0 1.0
17.066633333333332 125.24433333333333 1994.67 0.0 0.0 1.0
16.355533333333337 145.867 1994.67 0.0 0.0 1.0
-4.129486666666666 -109.396 1570.5999999999997 2.8043763970752742e-28 7.010106356855693e-29 1.0
-11.251656666666667 -81.88866666666667 1175.7 0.005675783836207597 0.9992078378846767 0.03938885867443519
-4.129486666666666 -94.97813333333333 1570.5999999999997 2.6860912663507675e-28 -2.827791401233548e-29 1.0
-4.269466666666666 -86.43919999999999 1570.5999999999997 -7.420983565361921e-26 4.7301492232702224e-26 1.0
-4.689413333333333 -83.2196 1570.5999999999997 -1.0019223738174185e-27 5.725251222637761e-28 1.0
-4.40945 -82.3797 1570.5999999999997 1.1451047804682361e-27 -1.7174526877058344e-27 1.0
-4.549433333333333 -81.5398 1570.5999999999997 0.0 0.0 1.0
-4.549433333333333 -81.5398 1570.5999999999997 0.0 0.0 1.0
-3.9894999999999996 -65.3018 1570.5999999999997 7.634031869788242e-28 -1.9085079674470604e-28 1.0
-4.269466666666666 -56.34293333333333 1570.5999999999997 3.4726116690962204e-26 8.277973925942769e-26 1.0
-9.440153333333333 -52.850966666666665 1546.25 0.0 0.0 1.0
1.9554533333333335 -41.45889999999999 1765.2833333333335 0.7059543505999378 -0.7059357872444174 0.05729850920071533
4.026003 -26.8724 1680.926666666667 -0.5440186364280156 -0.8160237668953692 0.19531752374248132
-25.343633333333333 -9.932213333333333 1142.0433333333333 0.9995093857283873 0.030590062064462544 0.006725767149832356
-5.555556666666667 -14.097233333333334 1558.33 0.0 0.0 1.0
-4.166666666666667 -9.652776666666666 1558.33 0.0 0.0 1.0
-25.451666666666668 -2.70708 1135.49 -0.9997144117447362 -0.01818083538132635 0.015509744508313031
-5.0 -3.2638866666666666 1558.33 0.0 0.0 1.0
16.1778 19.644433333333335 1994.67 0.0 0.0 1.0
16.711133333333333 26.577766666666665 1994.67 0.0 0.0 1.0
-10.262516666666667 20.813066666666668 1353.8633333333335 -6.138537596135246e-17 0.9947595362778268 0.10224218788896905
-5.925916333333333 28.3502 1511.11 0.0 0.0 1.0
-1.7497816666666663 31.006133333333327 1570.5999999999997 4.46594790956916e-26 -5.346224662419112e-26 1.0
-15.9775 37.74963333333333 1262.45 0.0 0.0 1.0
16.8889 73.68886666666667 1994.67 0.0 0.0 1.0
-20.81436666666667 45.6591 1238.92 0.0 0.0 1.0
15.288866666666665 80.26666666666667 1994.67 0.0 0.0 1.0
-15.865 58.002833333333335 1262.45 0.0 0.0 1.0
-19.48933333333333 66.52863333333333 1238.92 0.0 0.0 1.0
18.3111 139.64466666666667 1994.67 0.0 0.0 1.0
-19.1088 84.6545 1226.24 -0.6041936131468673 0.24545365534091498 0.7580914066999553
-5.249346666666667 -113.31599999999999 1570.5999999999997 1.8375931517742417e-27 1.2169136386348505e-26 1.0
-5.1093633333333335 -113.036 1570.5999999999997 -8.270398128784312e-28 -3.18050580786842e-28 1.0
-5.669293333333333 -108.416 1570.5999999999997 1.4313980180160281e-28 -1.704045259474177e-33 1.0
-4.8294 -95.39806666666668 1570.5999999999997 3.578495045039991e-29 -2.061188604842823e-26 1.0
-4.689413333333333 -88.11896666666667 1570.5999999999997 -1.2723588434612541e-28 -3.181351630745353e-29 1.0
-4.689416666666666 -82.23973333333333 1570.5999999999997 0.0 0.0 1.0
-4.549433333333333 -81.5398 1570.5999999999997 0.0 0.0 1.0
-4.689413333333333 -73.14083333333333 1570.5999999999997 -1.359873282783135e-27 -7.873106666948826e-28 1.0
-5.66929 -48.22396666666666 1570.5999999999997 -2.496722216292027e-25 1.164883453374903e-24 1.0
-5.0 -39.09720000000001 1558.33 0.0 0.0 1.0
-5.138891 -32.9861 1558.33 0.0 0.0 1.0
-6.944443333333333 -19.375 1558.33 0.0 0.0 1.0
-26.562633333333334 -15.463299999999998 1231.4033333333334 0.037494953053715134 0.940007600817752 0.33908677193360576
-5.416666666666667 -15.486133333333333 1558.33 0.0 0.0 1.0
-13.715449999999999 -13.353466666666668 1344.7333333333333 -0.6895378131239392 -0.3540880334041567 0.6317905261019923
-5.0 -3.9583333333333335 1558.33 0.0 0.0 1.0
-5.0 -3.2638866666666666 1558.33 0.0 0.0 1.0
-4.583333333333333 5.76389 1558.33 0.0 0.0 1.0
-28.91026666666667 15.8453 1135.49 0.3230630932584694 -0.2643217058390308 0.9087157276049614
15.288899999999998 30.488866666666667 1994.67 0.0 0.0 1.0
-20.116966666666666 19.7076 1312.28 0.0 0.0 1.0
-7.953213333333333 26.934033333333332 1499.75 0.0 0.0 1.0
-9.16032 30.737899999999996 1522.6500000000003 1.1851436659354537e-28 2.5304490754910228e-28 1.0
18.488899999999997 43.1111 1994.67 0.0 0.0 1.0
10.074056666666666 56.634899999999995 1899.68 0.0 0.0 1.0
17.24443333333333 61.4222 1994.67 0.0 0.0 1.0
-14.334816666666669 53.9252 1503.5366666666666 0.48788068159904757 0.7898955726633687 0.37153388110542157
14.577800000000002 88.26666666666667 1994.67 0.0 0.0 1.0
16.355566666666665 90.39999999999999 1994.67 0.0 0.0 1.0
16.533366666666666 90.75556666666667 1994.67 0.0 0.0 1.0
-15.541223333333333 64.86023333333333 1286.88 0.0 0.0 1.0
-12.018803333333333 70.67293333333333 1404.6899999999998 1.590688954565736e-28 5.965311229308846e-28 1.0
-1.6621499999999998 83.7579 1621.68 0.0 0.0 1.0
-4.038813333333333 82.37373333333333 1617.32 0.7923470993816448 -0.6095047970965414 -0.02626740218974086
16.000033333333334 112.44433333333335 1994.67 0.0 0.0 1.0
15.822233333333335 113.51100000000001 1994.67 0.0 0.0 1.0
15.822233333333335 122.22233333333332 1994.67 0.0 0.0 1.0
15.822233333333335 122.22233333333334 1994.67 0.0 0.0 1.0
16.177766666666667 124.17766666666667 1994.67 0.0 0.0 1.0
-3.561313333333333 104.09033333333333 1558.3933333333334 -0.49876957837108105 -0.8105800791608294 0.30690200872453965
-5.66929 -115.27566666666667 1570.5999999999997 -2.1354177941022085e-28 1.6776618201549867e-28 1.0
-5.66929 -103.79699999999998 1570.5999999999997 1.6487545801976007e-25 3.297116599780856e-25 1.0
-4.689413333333333 -88.11896666666667 1570.5999999999997 -1.2723588434612541e-28 -3.181351630745353e-29 1.0
-4.829396666666667 -83.2196 1570.5999999999997 -6.412578050253418e-28 1.374010115105354e-28 1.0
8.042243333333333 -97.89923333333336 1988.0866666666668 3.228947394201075e-16 0.9971194892888469 0.07584671436752624
-5.66929 -72.5809 1570.5999999999997 -9.486437537362774e-29 -6.098984282961504e-29 1.0
-20.536399999999997 -60.99616666666666 1375.63 0.0 0.0 1.0
-5.66929 -68.2415 1570.5999999999997 0.0 0.0 1.0
-4.689413333333333 -61.8023 1570.5999999999997 0.0 0.0 1.0
-11.552483333333333 -56.20590000000001 1438.4766666666667 0.7230864368451966 0.680545745709588 0.11833635471442479
-5.66929 -48.22396666666666 1570.5999999999997 -2.496722216292027e-25 1.164883453374903e-24 1.0
-28.05756666666667 -31.001433333333335 1206.4633333333334 -0.48493496025572325 -0.24246748012786165 0.8402663895469252
-4.269463333333333 -23.167066666666667 1570.5999999999997 0.0 0.0 1.0
13.511099999999999 -27.644433333333335 1994.67 0.0 0.0 1.0
-5.555556666666667 -17.708333333333332 1558.33 0.0 0.0 1.0
15.466633333333332 -19.644433333333332 1994.67 0.0 0.0 1.0
-17.593966666666667 -16.79176666666667 1411.3366666666668 -0.6894927309882198 0.19020402431972444 0.698872093481338
13.866666666666667 12.7111 1994.67 0.0 0.0 1.0
-15.134366666666665 13.97724 1470.29 0.19386946217852408 -0.6300720443564007 0.7519467072573399
15.1111 26.399999999999995 1994.67 0.0 0.0 1.0
-4.64345 23.814266666666665 1488.5600000000002 3.0261510508695286e-27 9.374245147015098e-27 1.0
-21.464466666666667 31.9182 1241.5033333333333 -0.8521972672074003 0.42616295037858 0.3035538790542178
8.189613333333334 44.5231 1786.3 -0.7769399584665804 -0.5827020553396582 0.23837494759493097
13.866666666666665 82.39999999999999 1994.67 0.0 0.0 1.0
-8.466736666666666 57.73863333333333 1318.0733333333335 0.15505382555466174 -0.982006830184123 0.10780026276682039
-15.541223333333333 64.86023333333333 1286.88 0.0 0.0 1.0
15.822233333333335 113.51100000000001 1994.67 0.0 0.0 1.0
-12.90322 89.29033333333332 1286.88 0.0 0.0 1.0
14.577766666666667 143.73333333333332 1994.67 0.0 0.0 1.0
14.577766666666667 143.73333333333332 1994.67 0.0 0.0 1.0
-5.389326666666666 -112.19599999999998 1570.5999999999997 2.848156072250897e-26 2.804846271025678e-26 1.0
-5.949256666666667 -111.776 1570.5999999999997 0.0 0.0 1.0
-5.669293333333333 -108.416 1570.5999999999997 1.4313980180160281e-28 -1.7040452594734603e-33 1.0
-5.66929 -103.79699999999998 1570.5999999999997 1.6487545801976007e-25 3.297116599780856e-25 1.0
-5.8092733333333335 -103.37700000000001 1570.5999999999997 4.0709989634508196e-27 -8.141028641434393e-27 1.0
-5.949256666666667 -100.15716666666667 1570.5999999999997 5.491486816054946e-26 -3.663462888645392e-26 1.0
-5.66929 -67.54156666666667 1570.5999999999997 0.0 0.0 1.0
-7.0833233333333325 -65.625 1558.33 0.0 0.0 1.0
-4.689413333333333 -61.8023 1570.5999999999997 0.0 0.0 1.0
-5.66929 -56.34293333333333 1570.5999999999997 -1.170641391611061e-27 6.641297250190299e-27 1.0
-10.2084 -46.90683333333334 1591.51 -0.5793660046789006 0.4594968532012846 0.6731995800062007
-5.66929 -43.46456666666666 1570.5999999999997 -7.800267130655681e-27 1.2452021834019651e-26 1.0
4.178540666666667 -35.63153333333333 1704.84 0.0 0.0 1.0
4.178540666666667 -35.63153333333333 1704.84 0.0 0.0 1.0
10.751330666666666 -43.93653333333333 1899.68 0.0 0.0 1.0
-11.2124 -28.312966666666668 1421.3933333333334 0.6401389077179581 0.7681465252892357 0.0131565387444008
-5.555556666666667 -14.097233333333334 1558.33 0.0 0.0 1.0
-25.7418 -8.375079999999999 1152.99 0.0 0.0 1.0
-6.527776666666667 3.5416666666666665 1558.33 0.0 0.0 1.0
-6.527776666666667 3.5416666666666665 1558.33 0.0 0.0 1.0
15.288866666666669 13.422199999999998 1994.67 0.0 0.0 1.0
15.1111 26.399999999999995 1994.67 0.0 0.0 1.0
2.2812300000000003 33.589 1765.1899999999998 -2.9366556452371795e-28 -7.179996220145418e-28 1.0
-16.524973333333335 26.189400000000003 1338.7 0.0 0.0 1.0
-27.40363333333333 30.4425 1175.6466666666665 0.5628658771817221 -0.6651962310918388 0.49060776435525716
8.14257 56.75953333333333 1981.5033333333333 -0.5393257532401583 -0.8359490447948191 -0.10157227179976619
9.6897 50.3704 1797.0 0.0 0.0 1.0
6.743289999999999 73.4866 1719.54 0.0 0.0 1.0
-20.389733333333336 58.8867 1257.1566666666668 -6.791600414217344e-15 -0.8419775824154309 0.5395125120976031
8.139043333333333 93.22776666666665 1807.8866666666665 0.6441009607737905 -0.7085070714889289 0.28836033357669316
3.022096666666666 137.83133333333333 1936.6933333333334 0.4461491463740107 -0.8922996588834929 0.06893662267723556
-6.08924 -112.896 1570.5999999999997 0.0 0.0 1.0
-6.229220000000001 -103.517 1570.5999999999997 -1.3741911812491024e-26 -2.0610250211724537e-26 1.0
-5.949256666666667 -100.15716666666667 1570.5999999999997 5.491486816054946e-26 -3.663462888645392e-26 1.0
-5.949256666666667 -100.15716666666667 1570.5999999999997 5.491486816054967e-26 -3.6634628886454036e-26 1.0
-6.929133333333334 -97.63776666666666 1570.5999999999997 -1.9083716473439386e-28 -1.9081217036641585e-28 1.0
-6.509186666666667 -89.51876666666665 1570.5999999999997 3.6642698551487154e-26 1.8893765331645104e-26 1.0
-5.949256666666667 -81.67976666666667 1570.5999999999997 -1.073618821931516e-28 -1.0737764686135584e-28 1.0
-4.93433 -92.97180000000002 1714.64 -0.6660023323782647 0.030272953005719395 0.7453351203204
-5.66929 -68.2415 1570.5999999999997 0.0 0.0 1.0
-6.229220000000001 -66.98163333333333 1570.5999999999997 -1.3732100158869644e-26 -2.0597714155872774e-26 1.0
14.4 -74.4 1994.67 0.0 0.0 1.0
8.235 -55.476699999999994 1930.3633333333335 0.4247382319990567 -0.8168042923058779 0.3904205198872226
-1.2475633333333334 -33.60626666666666 1749.71 0.0 0.0 1.0
-13.641523333333334 -23.626266666666666 1459.53 0.4811723425243102 0.8208212694058936 0.30777527594101045
-13.715449999999999 -13.353466666666668 1344.7333333333333 -0.6895378131239392 -0.3540880334041567 0.6317905261019923
-25.7418 -8.375079999999999 1152.99 0.0 0.0 1.0
-22.451066666666666 9.825996666666667 1155.2233333333334 0.6127961344244651 0.3720507392599324 0.6971794209890095
13.333333333333334 15.733333333333334 1994.67 0.0 0.0 1.0
-18.280933333333333 14.81483 1254.51 0.0 0.0 1.0
-16.49123333333333 17.602333333333334 1312.28 0.0 0.0 1.0
15.288899999999998 30.488866666666667 1994.67 0.0 0.0 1.0
1.52152 42.04206666666666 1797.0 0.0 0.0 1.0
5.670483333333333 39.15706666666666 1719.54 0.0 0.0 1.0
14.044433333333332 52.533366666666666 1994.67 0.0 0.0 1.0
-21.918566666666667 33.07106666666667 1238.92 0.0 0.0 1.0
13.511099999999999 65.51113333333332 1994.67 0.0 0.0 1.0
-18.666666666666668 49.587266666666665 1424.76 0.0 0.0 1.0
-14.033789999999998 48.686299999999996 1289.6666666666667 0.5184438373139592 -0.4147621013687622 0.7477889988622096
13.866666666666665 82.39999999999999 1994.67 0.0 0.0 1.0
-14.050833333333335 71.00779999999999 1401.4166666666667 -2.3075011995358617e-16 -0.9987181222288065 0.050617312569578965
-13.521133333333333 76.55713333333334 1404.6899999999998 6.921064602762689e-27 1.0322631756924603e-27 1.0
-13.521133333333333 76.55713333333334 1404.6899999999998 6.921064602762689e-27 1.0322631756924603e-27 1.0
-25.1163 71.51266666666668 1155.2466666666667 -0.9712247544360924 0.19996399863211928 0.12937107722209862
-10.453323333333332 99.2 1595.7300000000002 -2.1994812081502958e-29 -4.597764110341373e-29 1.0
-12.096906666666667 97.9114 1499.75 0.0 0.0 1.0
-12.096906666666667 97.9114 1499.75 0.0 0.0 1.0
1.910696333333333 123.032 1864.17 0.0 0.0 1.0
13.866666666666665 143.55533333333332 1994.67 0.0 0.0 1.0
-6.08924 -112.896 1570.5999999999997 0.0 0.0 1.0
-5.949256666666667 -111.776 1570.5999999999997 0.0 0.0 1.0
-6.50919 -109.956 1570.5999999999997 1.0 0.0 0.0
-6.229223333333334 -108.83600000000001 1570.5999999999997 1.5266246112940752e-26 -1.2211542962151322e-26 1.0
-15.332133333333333 -85.83253333333334 1259.8033333333333 0.7942209032004395 0.6016833666625853 0.08479553762465938
-6.08924 -94.83813333333335 1570.5999999999997 -1.2105355552309395e-26 -1.2023479159950079e-26 1.0
-6.509186666666667 -89.51876666666665 1570.5999999999997 3.6642698551487154e-26 1.8893765331645104e-26 1.0
-4.93433 -92.97180000000002 1714.64 -0.6660023323782647 0.030272953005719735 0.7453351203203998
-0.25448500000000013 -99.5188 1685.6633333333332 0.49570190156015154 -0.45063353772663417 0.7424345354747636
-6.509186666666667 -84.19946666666665 1570.5999999999997 -1.272469929841648e-28 9.160111654800941e-27 1.0
-6.666666666666667 -50.625 1558.33 0.0 0.0 1.0
-26.158766666666665 -28.292066666666667 1139.81 0.0 0.0 1.0
-26.158766666666665 -28.292066666666667 1139.81 0.0 0.0 1.0
12.799999999999999 -33.68886666666667 1994.67 0.0 0.0 1.0
-24.829333333333334 -20.4301 1284.13 0.04749891154708612 0.9974495348680271 0.0532754989971785
14.399966666666666 -22.84443333333333 1994.67 0.0 0.0 1.0
-7.777776666666667 -9.375 1558.33 0.0 0.0 1.0
-25.741799999999998 -8.375079999999999 1152.99 0.0 0.0 1.0
-6.944443333333333 -2.5694433333333335 1558.33 0.0 0.0 1.0
-7.36111 -1.0416676666666667 1558.33 0.0 0.0 1.0
-7.22222 2.8472233333333334 1558.33 0.0 0.0 1.0
-6.805553333333333 3.4027766666666666 1558.33 0.0 0.0 1.0
-4.558886666666667 20.495166666666666 1441.9433333333334 -0.4650190925641348 0.8525289868741778 0.23864528088800868
4.054581 34.23 1749.71 0.0 0.0 1.0
-21.918566666666667 33.07106666666667 1238.92 0.0 0.0 1.0
-21.918566666666667 33.07106666666667 1238.92 0.0 0.0 1.0
-20.81436666666667 45.6591 1238.92 0.0 0.0 1.0
13.688866666666668 73.15556666666667 1994.67 0.0 0.0 1.0
13.866666666666667 78.13333333333333 1994.67 0.0 0.0 1.0
13.333333333333334 81.6889 1994.67 0.0 0.0 1.0
-20.389733333333336 58.8867 1257.1566666666668 -6.791600414217344e-15 -0.8419775824154309 0.5395125120976031
12.799966666666668 117.95533333333333 1994.67 0.0 0.0 1.0
12.799966666666668 117.95533333333333 1994.67 0.0 0.0 1.0
12.977766666666666 124.889 1994.67 0.0 0.0 1.0
-9.190185 108.09833333333331 1690.4000000000003 -2.1397728469553387e-26 1.6695109709781086e-25 1.0
-6.229220000000001 -114.99566666666665 1570.5999999999997 2.587175641868288e-28 1.9388791427296265e-27 1.0
-6.789149999999999 -103.377 1570.5999999999997 5.089435373845021e-28 2.5443541558243657e-28 1.0
-10.072083333333333 -99.42323333333333 1578.9133333333332 -0.21661166808700344 0.9746322613316698 0.056314655464463695
-6.929133333333333 -97.63776666666666 1570.5999999999997 3.8167432946878773e-28 3.816243407328317e-28 1.0
-15.7078 -87.48856666666666 1366.21 0.0 0.0 1.0
-7.069116666666667 -93.43829999999998 1570.5999999999997 1.1679414361822328e-25 4.551511338453208e-26 1.0
13.51111 -121.33333333333333 1994.67 0.0 0.0 1.0
-6.229220000000001 -88.95883333333332 1570.5999999999997 -2.003977676200197e-27 5.653971896086492e-27 1.0
-6.929133333333333 -81.67976666666665 1570.5999999999997 9.540658507056749e-27 3.702192354716536e-26 1.0
-9.722233333333334 -69.93056666666666 1558.33 0.0 0.0 1.0
-6.5091833333333335 -73.00086666666668 1570.5999999999997 5.741013488567532e-27 -6.270736030384877e-27 1.0
-6.229220000000001 -66.98163333333333 1570.5999999999997 -1.3732100158869716e-26 -2.0597714155872883e-26 1.0
-7.629043333333333 -57.6028 1570.5999999999997 1.3232522288092573e-28 5.09333763443727e-30 1.0
12.90291 -59.6421 1835.6166666666668 0.8375561803738213 -0.3589578888397927 0.4118845454217648
0.9187633333333333 -55.01836666666666 1671.5333333333335 0.4295272548706557 -0.7874689411548068 0.4420395955565589
-6.509183333333333 -48.22396666666666 1570.5999999999997 -3.1150811945717733e-27 4.5906731298410445e-26 1.0
-6.317103333333333 -41.71626666666666 1542.2866666666666 -0.9604432843655087 0.05191646409947977 0.27359345436724586
-7.916656666666666 -39.791666666666664 1558.33 0.0 0.0 1.0
-16.313066666666668 -27.231800000000003 1398.1433333333334 -0.09851714665634054 0.935807244820588 0.33846591018297983
12.799999999999999 -33.68886666666667 1994.67 0.0 0.0 1.0
-7.777776666666667 -9.375 1558.33 0.0 0.0 1.0
1.6981933333333334 -8.607283333333333 1657.64 0.7024250507296125 -0.4044267185144053 0.5856945257206794
-7.77778 -4.375 1558.33 0.0 0.0 1.0
-7.22222 2.8472233333333334 1558.33 0.0 0.0 1.0
-3.61111 23.680566666666664 1558.33 0.0 0.0 1.0
-18.6988 52.143100000000004 1398.1433333333334 0.7904560842604097 0.3344256090839184 0.5131653640343923
13.333333333333334 81.6889 1994.67 0.0 0.0 1.0
14.577800000000002 88.26666666666667 1994.67 0.0 0.0 1.0
-7.7511 68.76443333333333 1595.7300000000002 -3.565516574592544e-30 9.193501365831998e-29 1.0
-5.1462 82.41716666666667 1749.71 0.0 0.0 1.0
-4.275467 92.25856666666665 1709.7399999999998 0.8047951493788285 0.4526996439576128 0.38388513893736487
-13.5884 70.6915 1385.2300000000002 0.937132935121608 0.34071634724788147 0.07546013933475738
-25.5462 67.4899 1146.46 0.894420359688899 0.4472093193756788 0.004005600769289782
-3.9589200000000004 99.71986666666668 1676.1899999999998 -2.9124094586928858e-27 1.542492579841907e-27 1.0
-15.341566666666667 94.22223333333334 1477.53 0.0 0.0 1.0
10.666656666666666 133.422 1994.67 0.0 0.0 1.0
13.155566666666667 142.8443333333333 1994.67 0.0 0.0 1.0
13.155566666666667 142.84433333333334 1994.67 0.0 0.0 1.0
-8.048993333333334 -104.497 1570.5999999999997 -6.41277001312821e-28 -5.037994270313756e-28 1.0
-7.489063333333334 -103.517 1570.5999999999997 -1.3741257365618846e-26 2.060943225247006e-26 1.0
-6.78915 -101.697 1570.5999999999997 9.813581347232031e-28 -1.2265916909563625e-27 1.0
-15.7078 -87.48856666666666 1366.21 0.0 0.0 1.0
-7.34908 -74.4007 1570.5999999999997 0.0 0.0 1.0
-8.048993333333334 -63.62203333333333 1570.5999999999997 1.1380758312599292e-26 1.0092370563223464e-26 1.0
-7.629043333333333 -57.6028 1570.5999999999997 1.3232522288092573e-28 5.093337634437271e-30 1.0
-6.509183333333333 -48.22396666666666 1570.5999999999997 -3.1150811945717726e-27 4.5906731298410445e-26 1.0
-7.349080000000001 -43.604533333333336 1570.5999999999997 1.0735485135120221e-28 0.0 -1.0
12.799999999999999 -33.68886666666666 1994.67 0.0 0.0 1.0
-7.510768333333334 -13.850143333333333 1546.25 0.0 0.0 1.0
-7.77778 -4.375 1558.33 0.0 0.0 1.0
-7.77778 -4.375 1558.33 0.0 0.0 1.0
-8.194443333333334 -0.625001 1558.33 0.0 0.0 1.0
-6.805556666666667 5.208336666666667 1558.33 0.0 0.0 1.0
12.0889 12.355566666666666 1994.67 0.0 0.0 1.0
12.0889 12.355566666666666 1994.67 0.0 0.0 1.0
-27.4036 11.60345 1189.67 -0.8409493793316525 -0.5351538375884223 0.08009064562165229
-22.529700000000002 20.852566666666664 1254.51 0.0 0.0 1.0
-22.253733333333333 25.027600000000003 1414.66 0.0 0.0 1.0
-2.8070256666666666 36.88106666666667 1749.71 0.0 0.0 1.0
12.622233333333332 59.46666666666667 1994.67 0.0 0.0 1.0
-29.714399999999998 44.7409 1139.8333333333333 0.15587516483023384 0.9364950855149656 0.31413355089112155
12.977766666666668 78.66666666666667 1994.67 0.0 0.0 1.0
-13.896733333333335 73.42723333333333 1404.6899999999998 -6.36284993351631e-28 1.0604749898474634e-28 1.0
-12.581213333333332 87.99996666666665 1534.36 0.0 0.0 1.0
-18.879500000000004 87.4651 1431.5933333333332 -0.7049762788028938 -0.675594292658862 0.21582585121341807
-16.145129999999998 91.61 1356.92 0.0 0.0 1.0
10.48889 137.511 1994.67 0.0 0.0 1.0
11.6066 144.67233333333334 1988.0866666666668 -0.5999973183222272 -0.7999839244855068 -0.005379458235084072
-7.909013333333334 -112.75600000000001 1570.5999999999997 -1.1747322400396378e-24 -4.138521370221632e-24 1.0
-6.929133333333333 -97.63776666666666 1570.5999999999997 3.8167432946878773e-28 3.816243407328317e-28 1.0
-7.069116666666666 -91.75849999999998 1570.5999999999997 -1.0992717943164595e-27 1.8550628729601374e-27 1.0
-8.468939999999998 -84.19946666666665 1570.5999999999997 -4.606857100668099e-25 7.185147328897275e-25 1.0
-6.929133333333333 -81.67976666666665 1570.5999999999997 9.540658507056749e-27 3.702192354716536e-26 1.0
-7.769030000000001 -76.36046666666667 1570.5999999999997 -2.7946447467968864e-25 6.184956707986654e-26 1.0
-6.7380466666666665 -66.59556666666667 1574.756666666667 0.4471358941465409 0.8943676259460346 -0.013268075422886551
-7.34908 -65.02186666666667 1570.5999999999997 0.0 0.0 1.0
6.997004 -66.76696666666666 1881.8700000000001 0.9013174962334493 -0.0771374440777358 0.4262353642116294
11.733333333333334 -73.6889 1994.67 0.0 0.0 1.0
-8.61111 -54.65279999999999 1558.33 0.0 0.0 1.0
