ply
format ascii 1.0
comment VCGLIB generated
element vertex 760
property float x
property float y
property float z
property float nx
property float ny
property float nz
element face 0
property list uchar int vertex_indices
end_header
-133.493 -119.005 1786.2699999999998 1.0 0.0 0.0
-133.81133333333332 -118.52733333333333 1786.2699999999998 1.771428561599292e-26 1.4171428492794613e-26 1.0
-133.33333333333334 -114.20666666666666 1780.95 0.0 0.0 1.0
-133.333 -101.984 1780.95 0.0 0.0 1.0
-133.333 -101.984 1780.95 0.0 0.0 1.0
-133.80933333333334 -101.50766666666668 1780.95 0.0 0.0 1.0
-148.30766666666668 -126.87166666666667 2301.54 0.0 0.0 1.0
-149.94866666666667 -106.76933333333334 2301.54 0.0 0.0 1.0
-149.33333333333334 -99.99986666666666 2301.54 0.0 0.0 1.0
-134.441 -73.66963333333332 1775.67 0.0 0.0 1.0
-131.63833333333335 -66.529 1679.33 -2.2688000724688436e-16 -0.9888066265215545 0.14920273237130594
-131.75566666666666 -67.29780000000001 1770.41 0.0 0.0 1.0
-133.80233333333334 -36.6764 1754.84 0.0 0.0 1.0
-148.10233333333335 -39.076933333333336 2301.54 0.0 0.0 1.0
-149.94866666666667 -33.538466666666665 2301.54 0.0 0.0 1.0
-132.86666666666667 -1.0106886666666666 1744.61 0.0 0.0 1.0
-132.713 8.294573333333332 1739.53 0.0 0.0 1.0
-131.638 21.5029 1729.4800000000002 5.0330080632408216e-29 6.380517961641948e-28 1.0
-118.331 27.338333333333335 1291.5133333333335 -1.696691547567836e-17 -0.9896048693902084 0.14381308173872234
-118.01833333333333 30.380166666666668 1288.7333333333333 -0.554495859108395 -0.8316097877299912 -0.030975848387450263
-131.2 44.419033333333324 1709.71 0.0 0.0 1.0
-150.56433333333334 62.66663333333333 2301.54 0.0 0.0 1.0
-130.75766666666667 49.166666666666664 1700.0 0.0 0.0 1.0
-131.109 49.972366666666666 1701.6133333333335 -0.6930921224140797 -0.6938545999965102 0.1954203262489063
-131.505 57.8286 1709.71 0.0 0.0 1.0
-129.697 61.439433333333334 1700.0 0.0 0.0 1.0
-132.41899999999998 64.99046666666666 1709.71 0.0 0.0 1.0
-133.694 78.31073333333335 1731.1499999999999 4.4566618596780435e-17 -0.3779339475287412 0.9258325611606791
-130.77166666666668 77.81543333333333 1690.4000000000003 0.0 0.0 1.0
-130.62133333333335 81.12993333333334 1690.4000000000003 1.3187963199647744e-26 -2.108580113690919e-26 1.0
-130.17833333333334 89.16433333333333 1685.63 0.0 0.0 1.0
-130.17833333333334 89.91550000000001 1685.63 0.0 0.0 1.0
-130.62933333333334 90.3662 1685.63 0.0 0.0 1.0
-130.77966666666666 91.7183 1685.63 0.0 0.0 1.0
-131.53566666666666 99.4006 1680.9000000000003 -2.798677298338314e-26 3.1998103665345996e-26 1.0
-122.25900000000001 88.14636666666667 1428.16 0.0 0.0 1.0
-148.51266666666666 153.33333333333334 2301.54 0.0 0.0 1.0
-149.74333333333334 166.46166666666667 2301.54 0.0 0.0 1.0
-149.12800000000001 167.48733333333334 2301.54 0.0 0.0 1.0
-133.17499999999998 -108.96866666666666 1780.95 0.0 0.0 1.0
-149.33333333333334 -123.38466666666666 2301.54 0.0 0.0 1.0
-133.49166666666667 -92.97723333333333 1775.67 0.0 0.0 1.0
-150.15366666666668 -105.94866666666667 2301.54 0.0 0.0 1.0
-133.96633333333335 -72.87833333333333 1775.67 0.0 0.0 1.0
-126.84633333333333 -43.7609 1607.1733333333334 -3.138030572676602e-17 0.9970490587356803 0.07676701423329013
-128.24066666666667 -35.013299999999994 1587.2699999999998 5.9854649919849986e-27 3.986549099280039e-27 1.0
-148.718 -45.230799999999995 2301.54 0.0 0.0 1.0
-150.564 -27.179466666666666 2301.54 0.0 0.0 1.0
-131.32366666666667 12.908233333333333 1734.49 0.0 0.0 1.0
-128.63633333333334 40.07576666666667 1700.0 0.0 0.0 1.0
-131.80933333333334 44.571400000000004 1709.71 0.0 0.0 1.0
-131.51533333333336 49.166666666666664 1700.0 0.0 0.0 1.0
-131.37433333333334 81.5819 1690.4000000000003 0.0 0.0 1.0
-130.77966666666666 91.7183 1685.63 0.0 0.0 1.0
-130.77966666666666 91.7183 1685.63 0.0 0.0 1.0
-149.74333333333334 154.564 2301.54 0.0 0.0 1.0
-149.74333333333334 154.564 2301.54 0.0 0.0 1.0
-149.74333333333334 166.46166666666667 2301.54 0.0 0.0 1.0
-131.81833333333336 123.40899999999999 1700.0 0.0 0.0 1.0
-134.28866666666667 -126.00966666666666 1786.2699999999998 1.5773528917724119e-27 1.1023322512144328e-26 1.0
-134.92566666666667 -124.577 1786.2699999999998 5.237694810748489e-28 3.1470090833554333e-27 1.0
-134.448 -118.209 1786.2699999999998 0.0 -1.0 0.0
-134.762 -109.44466666666666 1780.95 0.0 0.0 1.0
-149.33333333333334 -123.38466666666666 2301.54 0.0 0.0 1.0
-134.70866666666666 -92.21 1779.1899999999998 1.0614709033651778e-17 -0.9992740334944542 0.0380973225269769
-130.94966666666667 -77.5419 1671.51 0.0 0.0 1.0
-149.74366666666666 -99.17946666666667 2301.54 0.0 0.0 1.0
-132.884 -66.2921 1680.9000000000003 0.0 -1.0 0.0
-131.91299999999998 -62.721900000000005 1770.41 0.0 0.0 1.0
-133.17566666666667 -58.28906666666666 1765.1899999999998 -6.797323209299664e-27 -9.289832629830336e-27 1.0
-125.77433333333333 -35.9055 1570.5999999999997 0.0 1.0 0.0
-128.24066666666667 -35.013299999999994 1587.2699999999998 5.985464991985004e-27 3.986549099280041e-27 1.0
-128.24066666666667 -35.013299999999994 1587.2699999999998 5.9854649919849986e-27 3.986549099280039e-27 1.0
-150.56433333333334 -34.56406666666666 2301.54 0.0 0.0 1.0
-150.56433333333334 -34.56406666666666 2301.54 0.0 0.0 1.0
-150.564 -27.179466666666666 2301.54 0.0 0.0 1.0
-150.97433333333333 -16.102566666666664 2301.54 0.0 0.0 1.0
-148.92333333333332 -7.4871799999999995 2301.54 0.0 0.0 1.0
-113.55333333333334 -1.60518 1161.94 0.0 0.0 1.0
-132.713 8.294573333333332 1739.53 0.0 0.0 1.0
-133.79833333333332 9.999986666666667 1739.53 0.0 0.0 1.0
-133.02533333333335 21.040466666666664 1729.4800000000002 6.229819902243256e-26 6.796849994091096e-26 1.0
-133.02533333333335 21.040466666666664 1729.4800000000002 6.229819902243256e-26 6.796849994091096e-26 1.0
-118.01833333333333 30.380166666666668 1288.7333333333333 -0.5544958591083948 -0.8316097877299912 -0.030975848387450235
-131.194 54.020999999999994 1714.61 0.0 0.0 1.0
-131.194 54.020999999999994 1714.61 0.0 0.0 1.0
-131.218 67.76203333333333 1695.18 0.0 0.0 1.0
-131.82233333333332 68.81963333333333 1695.18 0.0 0.0 1.0
-131.525 77.81543333333333 1690.4000000000003 0.0 0.0 1.0
-131.22366666666667 81.12993333333334 1690.4000000000003 -2.371978297103503e-26 -3.163104264023502e-26 1.0
-131.37433333333334 81.5819 1690.4000000000003 0.0 0.0 1.0
-151.38466666666667 139.17966666666666 2301.54 0.0 0.0 1.0
-123.82233333333333 89.36366666666667 1429.3 0.44672153307788554 0.8936770130178058 -0.042205074198682725
-149.74333333333334 154.564 2301.54 0.0 0.0 1.0
-134.28866666666667 -126.00966666666666 1786.2699999999998 1.5773528917724115e-27 1.1023322512144328e-26 1.0
-133.97033333333334 -120.597 1786.2699999999998 -2.59966236012197e-26 2.1262090863665762e-26 1.0
-153.641 -143.89733333333334 2301.54 0.0 0.0 1.0
-133.80933333333334 -101.50766666666668 1780.95 0.0 0.0 1.0
-150.97433333333333 -129.53833333333333 2301.54 0.0 0.0 1.0
-151.17933333333335 -128.923 2301.54 0.0 0.0 1.0
-150.359 -100.205 2301.54 0.0 0.0 1.0
-134.43433333333334 -57.1878 1765.1899999999998 -1.2684231340217896e-24 -7.683354815945141e-25 1.0
-134.59166666666667 -56.243833333333335 1765.1899999999998 -1.1784094455485031e-26 -1.8129523769208494e-27 1.0
-150.76933333333332 -59.1795 2301.54 0.0 0.0 1.0
-133.80233333333334 -36.6764 1754.84 0.0 0.0 1.0
-150.359 -37.84616666666667 2301.54 0.0 0.0 1.0
-150.76933333333332 -33.74356666666666 2301.54 0.0 0.0 1.0
-152.0 -15.0769 2301.54 0.0 0.0 1.0
-134.266 -9.251716666666667 1744.61 0.0 0.0 1.0
-133.79833333333332 6.12403 1739.53 0.0 0.0 1.0
-116.34966666666666 17.449833333333334 1161.94 0.0 0.0 1.0
-151.795 50.564099999999996 2301.54 0.0 0.0 1.0
-131.80933333333334 44.571400000000004 1709.71 0.0 0.0 1.0
-131.51533333333333 49.166666666666664 1700.0 0.0 0.0 1.0
-131.65233333333333 57.688633333333335 1714.61 0.0 0.0 1.0
-132.419 64.99046666666666 1709.71 0.0 0.0 1.0
-132.12466666666666 69.87723333333334 1695.18 0.0 0.0 1.0
-131.525 82.0339 1690.4000000000003 0.0 0.0 1.0
-132.93033333333332 84.22443333333335 1691.993333333333 -0.36490654707207715 -0.7298669191381857 0.5780462717219679
-149.74333333333334 166.46166666666667 2301.54 0.0 0.0 1.0
-120.93033333333334 99.96993333333332 1378.82 0.4256492953972855 -0.8519903285444426 0.304852681461927
-135.403 -118.209 1786.2699999999998 0.0 1.0 0.0
-152.41033333333334 -147.58966666666666 2301.54 0.0 0.0 1.0
-134.92033333333333 -114.20666666666666 1780.95 0.0 0.0 1.0
-153.02566666666667 -140.0 2301.54 0.0 0.0 1.0
-135.39666666666668 -104.36533333333334 1780.95 0.0 0.0 1.0
-135.39666666666668 -104.36533333333334 1780.95 0.0 0.0 1.0
-151.58966666666666 -129.74333333333334 2301.54 0.0 0.0 1.0
-133.49166666666667 -92.97723333333333 1775.67 0.0 0.0 1.0
-151.38466666666667 -107.58999999999999 2301.54 0.0 0.0 1.0
-151.58966666666666 -100.41033333333333 2301.54 0.0 0.0 1.0
-134.441 -73.66963333333332 1775.67 0.0 0.0 1.0
-134.441 -73.66963333333332 1775.67 0.0 0.0 1.0
-130.519 -41.583133333333336 1578.89 0.0 0.0 1.0
-134.012 -38.12383333333333 1756.5600000000002 4.60256934663239e-17 0.7997693097494061 0.6003074638741039
-151.38466666666667 -39.692299999999996 2301.54 0.0 0.0 1.0
-150.76933333333332 -36.6154 2301.54 0.0 0.0 1.0
-150.76933333333332 -33.74356666666666 2301.54 0.0 0.0 1.0
-150.76933333333332 -22.051266666666667 2301.54 0.0 0.0 1.0
-131.851 -6.678259999999999 1611.493333333333 0.1375443776283605 -0.9628457255548082 0.23239976971516546
-131.02066666666664 -4.5528466666666665 1621.68 0.0 0.0 1.0
-133.64433333333332 -0.38872599999999996 1744.61 0.0 0.0 1.0
-134.88366666666667 2.55814 1739.53 0.0 0.0 1.0
-134.10833333333335 10.620126666666666 1739.53 0.0 0.0 1.0
-134.10833333333335 10.620126666666666 1739.53 0.0 0.0 1.0
-133.02533333333335 21.04046666666667 1729.4800000000002 2.8315582085780573e-26 2.2651811890161263e-26 1.0
-116.34966666666666 17.449833333333334 1161.94 0.0 0.0 1.0
-152.0 45.43593333333333 2301.54 0.0 0.0 1.0
-151.795 50.564099999999996 2301.54 0.0 0.0 1.0
-152.00033333333332 52.8205 2301.54 0.0 0.0 1.0
-117.20066666666666 30.905366666666666 1296.1766666666665 3.678709746876468e-15 -0.4262791522429516 0.9045916671974326
-133.486 54.4762 1709.71 0.0 0.0 1.0
-132.724 57.52383333333333 1709.71 0.0 0.0 1.0
-132.578 71.0859 1695.18 0.0 0.0 1.0
-133.78666666666666 74.25873333333334 1695.18 0.0 0.0 1.0
-131.525 77.81543333333333 1690.4000000000003 0.0 0.0 1.0
-132.71699999999998 88.55490000000002 1729.4800000000002 8.397423891885273e-28 -8.395972463346014e-27 1.0
-132.71699999999998 88.55490000000002 1729.4800000000002 8.397423891885273e-28 -8.395972463346014e-27 1.0
-131.38066666666666 91.7183 1685.63 0.0 0.0 1.0
-134.08633333333333 93.63463333333334 1690.4000000000003 -1.7572801466796973e-27 -1.361892113676744e-26 1.0
-114.21199999999999 89.7998 1367.2933333333333 -0.23231941389764083 -0.5056396572737302 0.8308767820311032
-132.43466666666666 98.80149999999999 1680.9000000000003 -2.399323879956576e-26 9.599431099603817e-26 1.0
-132.43466666666666 98.80149999999999 1680.9000000000003 -2.399323879956576e-26 9.599431099603817e-26 1.0
-131.83533333333332 102.54700000000001 1680.9000000000003 -1.142099514513797e-26 -9.135344448471966e-27 1.0
-152.20533333333333 160.51266666666666 2301.54 0.0 0.0 1.0
-131.96966666666665 120.68166666666667 1700.0 0.0 0.0 1.0
-131.96966666666665 120.68166666666667 1700.0 0.0 0.0 1.0
-133.01399999999998 -128.78266666666664 1791.62 0.0 0.0 1.0
-134.92566666666667 -124.577 1786.2699999999998 5.23769481074849e-28 3.1470090833554333e-27 1.0
-135.39666666666668 -104.36533333333334 1780.95 0.0 0.0 1.0
-151.79466666666667 -128.923 2301.54 0.0 0.0 1.0
-150.97433333333333 -106.15366666666667 2301.54 0.0 0.0 1.0
-132.886 -75.90316666666666 1671.51 0.0 0.0 1.0
-134.59166666666667 -56.243833333333335 1765.1899999999998 -1.178409445548503e-26 -1.8129523769208483e-27 1.0
-126.84633333333333 -43.76089999999999 1607.1733333333334 -4.393242801747243e-17 0.9970490587356802 0.07676701423329012
-131.239 -40.2792 1566.49 0.0 0.0 1.0
-130.16366666666667 -38.794133333333335 1546.25 0.0 0.0 1.0
-133.80233333333334 -36.6764 1754.84 0.0 0.0 1.0
-152.205 -45.64106666666667 2301.54 0.0 0.0 1.0
-152.82033333333334 -27.384599999999995 2301.54 0.0 0.0 1.0
-153.02566666666667 -16.102566666666664 2301.54 0.0 0.0 1.0
-134.266 -9.251716666666667 1744.61 0.0 0.0 1.0
-134.266 -9.251716666666667 1744.61 0.0 0.0 1.0
-134.88833333333332 -0.38872599999999996 1744.61 0.0 0.0 1.0
-134.88400000000001 4.108526666666667 1739.53 0.0 0.0 1.0
-133.79833333333332 9.999986666666667 1739.53 0.0 0.0 1.0
-120.48466666666667 37.2727 1360.0 0.0 0.0 1.0
-134.09533333333331 52.64763333333334 1709.71 0.0 0.0 1.0
-133.638 65.29523333333333 1709.71 0.0 0.0 1.0
-133.48433333333335 71.53916666666667 1695.18 0.0 0.0 1.0
-132.429 80.97926666666667 1690.4000000000003 5.273007034515711e-27 -3.1645043322872895e-26 1.0
-132.429 80.97926666666667 1690.4000000000003 5.273007034515711e-27 -3.1645043322872895e-26 1.0
-136.116 86.4928 1734.49 0.0 0.0 1.0
-154.66666666666666 131.795 2301.54 0.0 0.0 1.0
-132.58433333333332 98.35206666666666 1680.9000000000003 -1.5983038745449708e-26 1.1987728919382655e-26 1.0
-152.41033333333334 140.20533333333333 2301.54 0.0 0.0 1.0
-152.41033333333334 140.20533333333333 2301.54 0.0 0.0 1.0
-123.23433333333332 92.61473333333333 1422.506666666667 -0.09046105632124495 0.9953096749450768 0.03428481077634915
-151.795 155.38433333333333 2301.54 0.0 0.0 1.0
-152.205 159.282 2301.54 0.0 0.0 1.0
-152.205 159.282 2301.54 0.0 0.0 1.0
-120.93033333333334 99.96993333333332 1378.82 0.4256492953972856 -0.8519903285444426 0.30485268146192707
-152.82033333333334 168.51266666666666 2301.54 0.0 0.0 1.0
-136.19899999999998 -118.209 1786.2699999999998 0.0 1.0 0.0
-134.92033333333333 -114.20666666666666 1780.95 0.0 0.0 1.0
-135.71433333333331 -110.07933333333334 1780.95 0.0 0.0 1.0
-152.0 -129.33333333333334 2301.54 0.0 0.0 1.0
-152.205 -124.20533333333333 2301.54 0.0 0.0 1.0
-136.82533333333333 -92.1429 1780.95 0.0 0.0 1.0
-154.05100000000002 -111.89733333333334 2301.54 0.0 0.0 1.0
-132.29033333333334 -78.1378 1671.51 0.0 0.0 1.0
-152.61533333333333 -101.02566666666667 2301.54 0.0 0.0 1.0
-134.08466666666666 -65.1268 1685.63 0.0 0.0 1.0
-135.37833333333333 -54.1986 1765.1899999999998 0.0 0.0 1.0
-115.72833333333334 -16.31067333333333 1161.94 0.0 0.0 1.0
-152.41 -32.10256666666666 2301.54 0.0 0.0 1.0
-152.82033333333334 -27.384599999999995 2301.54 0.0 0.0 1.0
-152.61533333333333 -20.2051 2301.54 0.0 0.0 1.0
-131.02066666666664 -4.5528466666666665 1621.68 0.0 0.0 1.0
-134.884 4.108526666666667 1739.53 0.0 0.0 1.0
-132.72366666666667 45.63806666666667 1709.71 0.0 0.0 1.0
-133.94299999999998 57.828599999999994 1709.71 0.0 0.0 1.0
-134.09533333333334 64.38096666666667 1709.71 0.0 0.0 1.0
-132.43466666666666 98.80149999999999 1680.9000000000003 -2.399323879956576e-26 9.599431099603817e-26 1.0
-132.884 104.79433333333334 1680.9000000000003 -1.7990369730630696e-26 -4.8713608644645884e-27 1.0
-123.82233333333333 89.36366666666667 1429.3 0.4467215330778829 0.8936770130178069 -0.04220507419868483
-123.52033333333334 92.43453333333332 1423.6333333333334 -2.0162682499016615e-17 0.9988730800171332 0.04746124752981055
-152.205 159.282 2301.54 0.0 0.0 1.0
-133.03033333333335 124.16666666666667 1700.0 0.0 0.0 1.0
-153.23066666666668 169.53833333333333 2301.54 0.0 0.0 1.0
-154.87199999999999 -169.94833333333335 2301.54 0.0 0.0 1.0
-136.19899999999998 -118.209 1786.2699999999998 0.0 1.0 0.0
-136.79533333333333 -118.16033333333333 1795.2066666666667 -0.32865249704537636 -0.9037088693469391 0.2744044745435392
-136.984 -110.07933333333334 1780.95 0.0 0.0 1.0
-133.8083333333333 -87.43816666666667 1775.67 0.0 0.0 1.0
-132.29033333333334 -78.1378 1671.51 0.0 0.0 1.0
-133.93266666666668 -66.2921 1680.9000000000003 0.0 1.0 0.0
-136.9623333333333 -65.40433333333333 1770.41 0.0 0.0 1.0
-136.47966666666665 -54.1986 1765.1899999999998 1.1602895244849023e-25 -1.0153071107839622e-25 1.0
-152.82066666666665 -33.743566666666666 2301.54 0.0 0.0 1.0
-153.02566666666667 -16.102566666666664 2301.54 0.0 0.0 1.0
-153.436 -15.487166666666667 2301.54 0.0 0.0 1.0
-133.47733333333335 -6.397126666666668 1612.9399999999998 -1.8663128980968172e-27 7.137502004235121e-28 1.0
-131.59899999999996 -4.5528466666666665 1621.68 0.0 0.0 1.0
-135.504 3.178293333333333 1739.53 0.0 0.0 1.0
-135.814 3.48837 1739.53 0.0 0.0 1.0
-135.80633333333333 14.144933333333332 1734.49 0.0 0.0 1.0
-135.80633333333333 14.608699999999999 1734.49 0.0 0.0 1.0
-153.231 50.769200000000005 2301.54 0.0 0.0 1.0
-135.30866666666665 56.6002 1704.84 0.0 0.0 1.0
-133.694 78.31073333333335 1731.1499999999999 4.4566618596780435e-17 -0.3779339475287412 0.9258325611606791
-153.84633333333332 141.436 2301.54 0.0 0.0 1.0
-153.84633333333332 144.51266666666666 2301.54 0.0 0.0 1.0
-132.884 104.79433333333334 1680.9000000000003 -1.7990369730630696e-26 -4.8713608644645884e-27 1.0
-153.231 156.61533333333333 2301.54 0.0 0.0 1.0
-153.436 160.71766666666667 2301.54 0.0 0.0 1.0
-153.436 160.71766666666667 2301.54 0.0 0.0 1.0
-133.03033333333335 124.16666666666667 1700.0 0.0 0.0 1.0
-139.29533333333333 -129.62733333333333 1807.8499999999997 7.9760706129746585e-28 4.909522777050592e-28 1.0
-137.46033333333332 -102.30166666666666 1780.95 0.0 0.0 1.0
-152.205 -124.20533333333333 2301.54 0.0 0.0 1.0
-154.05100000000002 -111.89733333333334 2301.54 0.0 0.0 1.0
-155.07666666666668 -107.17966666666666 2301.54 0.0 0.0 1.0
-132.886 -75.90316666666666 1671.51 0.0 0.0 1.0
-153.846 -101.23066666666666 2301.54 0.0 0.0 1.0
-133.93266666666668 -66.2921 1680.9000000000003 0.0 1.0 0.0
-134.08466666666666 -65.1268 1685.63 0.0 0.0 1.0
-154.25633333333334 -38.25643333333334 2301.54 0.0 0.0 1.0
-154.25633333333334 -38.25643333333334 2301.54 0.0 0.0 1.0
-153.23066666666668 -32.71793333333333 2301.54 0.0 0.0 1.0
-153.641 -27.179466666666666 2301.54 0.0 0.0 1.0
-153.84633333333332 -17.128200000000003 2301.54 0.0 0.0 1.0
-153.436 -15.487166666666667 2301.54 0.0 0.0 1.0
-132.1773333333333 -4.408313333333333 1621.68 0.0 0.0 1.0
-134.88833333333332 -0.38872599999999996 1744.61 0.0 0.0 1.0
-135.814 3.48837 1739.53 0.0 0.0 1.0
-116.34966666666666 17.44983333333333 1161.94 0.0 0.0 1.0
-154.05133333333333 44.000033333333334 2301.54 0.0 0.0 1.0
-134.24766666666667 58.895266666666664 1709.71 0.0 0.0 1.0
-135.77133333333333 59.35240000000001 1709.71 0.0 0.0 1.0
-134.857 63.923833333333334 1709.71 0.0 0.0 1.0
-134.70466666666664 65.14286666666666 1709.71 0.0 0.0 1.0
-133.93766666666667 70.93483333333333 1695.18 0.0 0.0 1.0
-134.04099999999997 79.24583333333334 1698.3933333333334 -3.915030231393688e-15 -0.7456049141151446 0.666388259235821
-133.63400000000001 91.7183 1685.63 0.0 0.0 1.0
-154.66666666666666 131.795 2301.54 0.0 0.0 1.0
-154.25633333333334 141.84633333333332 2301.54 0.0 0.0 1.0
-153.84633333333332 159.69233333333332 2301.54 0.0 0.0 1.0
-153.436 167.282 2301.54 0.0 0.0 1.0
-137.46033333333332 -102.30166666666666 1780.95 0.0 0.0 1.0
-137.46033333333332 -102.30166666666666 1780.95 0.0 0.0 1.0
-155.077 -100.41019999999999 2301.54 0.0 0.0 1.0
-136.815 -72.24529999999999 1775.67 0.0 0.0 1.0
-134.23233333333334 -66.44193333333334 1680.9000000000003 6.411028254393752e-26 -3.20194848300653e-26 1.0
-134.23233333333334 -66.44193333333334 1680.9000000000003 6.411028254393752e-26 -3.20194848300653e-26 1.0
-137.12 -66.19326666666666 1770.41 0.0 0.0 1.0
-137.59366666666665 -64.29979999999999 1770.41 0.0 0.0 1.0
-137.59366666666665 -64.29979999999999 1770.41 0.0 0.0 1.0
-137.59366666666665 -63.51083333333333 1770.41 0.0 0.0 1.0
-154.66666666666666 -60.6154 2301.54 0.0 0.0 1.0
-130.519 -41.583133333333336 1578.89 0.0 0.0 1.0
-130.16366666666667 -38.794133333333335 1546.25 0.0 0.0 1.0
-154.25666666666666 -26.7692 2301.54 0.0 0.0 1.0
-154.462 -26.153833333333335 2301.54 0.0 0.0 1.0
-154.462 -26.153833333333335 2301.54 0.0 0.0 1.0
-153.84633333333332 -17.128200000000003 2301.54 0.0 0.0 1.0
-135.814 3.48837 1739.53 0.0 0.0 1.0
-136.589 7.364339999999999 1739.53 0.0 0.0 1.0
-135.659 8.44961 1739.53 0.0 0.0 1.0
-137.05433333333335 11.085266666666667 1739.53 0.0 0.0 1.0
-135.49166666666665 22.273600000000002 1729.4800000000002 -7.83395155322005e-27 -1.5916549721707827e-26 1.0
-155.69233333333332 62.666666666666664 2301.54 0.0 0.0 1.0
-134.99533333333332 71.3881 1695.18 0.0 0.0 1.0
-136.24 78.12103333333333 1687.22 -6.735923009760151e-17 -0.9733604034367116 0.22928045058731455
-134.04099999999997 79.24583333333334 1698.3933333333334 -3.915030231393688e-15 -0.7456049141151446 0.666388259235821
-135.74366666666666 83.54050000000001 1690.4000000000003 -3.7956708821477965e-27 2.3716108509205083e-28 1.0
-133.63400000000001 91.7183 1685.63 0.0 0.0 1.0
-135.44233333333332 93.63463333333334 1690.4000000000003 1.757280146679623e-27 -1.405824117343729e-26 1.0
-154.46166666666667 140.61533333333333 2301.54 0.0 0.0 1.0
-153.84633333333332 144.51266666666666 2301.54 0.0 0.0 1.0
-155.48733333333334 150.87166666666667 2301.54 0.0 0.0 1.0
-154.66666666666666 158.46166666666667 2301.54 0.0 0.0 1.0
-155.282 166.46166666666667 2301.54 0.0 0.0 1.0
-154.87199999999999 -169.94833333333335 2301.54 0.0 0.0 1.0
-137.63199999999998 -123.62166666666667 1786.2699999999998 1.1276702842024913e-26 1.3872872734302187e-26 1.0
-154.66666666666666 -149.23066666666668 2301.54 0.0 0.0 1.0
-155.69233333333332 -144.10266666666666 2301.54 0.0 0.0 1.0
-155.69233333333332 -144.10266666666666 2301.54 0.0 0.0 1.0
-136.984 -110.07933333333334 1780.95 0.0 0.0 1.0
-155.077 -100.41019999999999 2301.54 0.0 0.0 1.0
-136.815 -72.24529999999999 1775.67 0.0 0.0 1.0
-134.08466666666666 -65.1268 1685.63 0.0 0.0 1.0
-137.909 -66.66663333333334 1770.41 0.0 0.0 1.0
-137.42366666666666 -55.142566666666674 1765.1899999999998 2.502842517297155e-25 -2.0676417420613304e-25 1.0
-130.519 -41.583133333333336 1578.89 0.0 0.0 1.0
-132.02533333333335 -40.327 1630.5199999999998 0.0 -1.0 0.0
-154.05133333333333 -44.82053333333334 2301.54 0.0 0.0 1.0
-154.05133333333333 -44.82053333333334 2301.54 0.0 0.0 1.0
-154.25633333333334 -38.25643333333334 2301.54 0.0 0.0 1.0
-136.59866666666667 -8.16327 1744.61 0.0 0.0 1.0
-133.04466666666667 -4.408313333333333 1621.68 0.0 0.0 1.0
-137.05433333333335 11.085266666666667 1739.53 0.0 0.0 1.0
-137.04333333333332 12.599066666666666 1734.49 0.0 0.0 1.0
-154.66666666666666 49.3333 2301.54 0.0 0.0 1.0
-155.69233333333332 62.666666666666664 2301.54 0.0 0.0 1.0
-136.381 52.03810000000001 1709.71 0.0 0.0 1.0
-135.30866666666668 56.6002 1704.84 0.0 0.0 1.0
-135.619 63.61906666666667 1709.71 0.0 0.0 1.0
-135.593 79.32203333333332 1690.4000000000003 -1.0546791798665515e-26 2.1093583597331038e-26 1.0
-135.593 80.97926666666667 1690.4000000000003 -1.894085656856348e-26 -1.171666985067769e-26 1.0
-136.11599999999999 86.4928 1734.49 0.0 0.0 1.0
-135.44233333333332 93.63463333333334 1690.4000000000003 1.757280146679623e-27 -1.405824117343729e-26 1.0
-154.05133333333333 160.30766666666668 2301.54 0.0 0.0 1.0
-154.87166666666667 169.53833333333333 2301.54 0.0 0.0 1.0
-138.587 -122.348 1786.2699999999998 2.6279570018862485e-25 3.5473135472529254e-26 1.0
-139.383 -120.91533333333332 1786.2699999999998 3.541003194824378e-27 3.5428571231986275e-27 1.0
-138.42766666666668 -117.89033333333333 1786.2699999999998 -1.417142849279513e-26 -7.07830241141163e-26 1.0
-155.692 -113.74366666666667 2301.54 0.0 0.0 1.0
-155.692 -112.51266666666668 2301.54 0.0 0.0 1.0
-155.07666666666668 -107.17966666666666 2301.54 0.0 0.0 1.0
-156.10233333333335 -106.56400000000001 2301.54 0.0 0.0 1.0
-154.87166666666667 -101.23066666666666 2301.54 0.0 0.0 1.0
-134.68166666666667 -66.59176666666667 1680.9000000000003 0.0 0.0 1.0
-137.59366666666665 -64.29979999999999 1770.41 0.0 0.0 1.0
-157.12800000000001 -79.6923 2301.54 0.0 0.0 1.0
-133.94433333333333 -34.66856666666666 1584.47 2.033039154921285e-17 -0.9841792381724292 0.1771756957100402
-154.66666666666666 -27.384599999999995 2301.54 0.0 0.0 1.0
-137.364 3.3333366666666664 1739.53 0.0 0.0 1.0
-136.899 3.4883733333333335 1739.53 0.0 0.0 1.0
-137.054 6.434106666666666 1739.53 0.0 0.0 1.0
-137.04333333333335 12.599066666666667 1734.49 0.0 0.0 1.0
-137.19766666666666 13.990333333333332 1734.49 0.0 0.0 1.0
-157.94866666666667 23.897433333333336 2301.54 0.0 0.0 1.0
-137.34133333333332 22.581866666666667 1729.4800000000002 -3.777860860463802e-27 2.2662917791479277e-26 1.0
-156.923 46.461533333333335 2301.54 0.0 0.0 1.0
-136.68566666666666 52.647600000000004 1709.71 0.0 0.0 1.0
-135.30866666666665 56.6002 1704.84 0.0 0.0 1.0
-136.36366666666666 60.53033333333334 1700.0 0.0 0.0 1.0
-135.619 63.61906666666667 1709.71 0.0 0.0 1.0
-137.715 66.8555 1695.18 0.0 0.0 1.0
-135.44866666666667 72.5968 1695.18 0.0 0.0 1.0
-136.20399999999998 73.50333333333333 1695.18 0.0 0.0 1.0
-135.593 79.32203333333332 1690.4000000000003 -1.0546791798665516e-26 2.109358359733104e-26 1.0
-155.282 140.82033333333334 2301.54 0.0 0.0 1.0
-155.282 140.82033333333334 2301.54 0.0 0.0 1.0
-156.10266666666666 152.10233333333335 2301.54 0.0 0.0 1.0
-156.10266666666666 154.359 2301.54 0.0 0.0 1.0
-155.89733333333334 156.20533333333333 2301.54 0.0 0.0 1.0
-155.282 157.231 2301.54 0.0 0.0 1.0
-154.87199999999999 -169.94833333333335 2301.54 0.0 0.0 1.0
-139.29533333333333 -129.62733333333333 1807.8499999999997 7.97607061297466e-28 4.909522777050592e-28 1.0
-139.29533333333333 -129.62733333333335 1807.8499999999997 -7.976070612974658e-28 -4.909522777050591e-28 1.0
-138.73033333333333 -102.14299999999999 1780.95 0.0 0.0 1.0
-156.30766666666668 -103.282 2301.54 0.0 0.0 1.0
-156.10266666666666 -97.74360000000001 2301.54 0.0 0.0 1.0
-157.53833333333333 -95.6923 2301.54 0.0 0.0 1.0
-137.909 -66.66663333333334 1770.41 0.0 0.0 1.0
-138.68233333333333 -55.771866666666675 1765.1899999999998 -4.351085716817745e-28 -8.267062861954127e-27 1.0
-133.47299999999998 -39.301899999999996 1566.49 0.0 0.0 1.0
-139.90233333333333 -36.52 1754.84 0.0 0.0 1.0
-131.43966666666668 -31.952700000000004 1770.41 0.0 0.0 1.0
-156.718 -32.3077 2301.54 0.0 0.0 1.0
-136.82366666666667 -10.6806 1566.49 0.0 0.0 1.0
-137.67433333333335 2.8682199999999995 1739.53 0.0 0.0 1.0
-137.519 4.88372 1739.53 0.0 0.0 1.0
-137.519 5.6589133333333335 1739.53 0.0 0.0 1.0
-137.04333333333332 12.599066666666666 1734.49 0.0 0.0 1.0
-137.19766666666666 13.990333333333332 1734.49 0.0 0.0 1.0
-140.22966666666667 44.52106666666666 1719.54 0.0 0.0 1.0
-137.75233333333333 55.69526666666667 1709.71 0.0 0.0 1.0
-136.36366666666666 60.53033333333334 1700.0 0.0 0.0 1.0
-135.593 79.32203333333332 1690.4000000000003 -1.0546791798665515e-26 2.1093583597331038e-26 1.0
-136.11599999999999 86.4928 1734.49 0.0 0.0 1.0
-135.74366666666666 83.54050000000001 1690.4000000000003 -3.7956708821477965e-27 2.3716108509205114e-28 1.0
-135.43066666666667 98.80149999999999 1680.9000000000003 1.599050761273551e-27 7.35933607321462e-26 1.0
-155.48733333333334 150.87166666666667 2301.54 0.0 0.0 1.0
-156.10266666666666 154.359 2301.54 0.0 0.0 1.0
-155.89733333333334 155.17966666666666 2301.54 0.0 0.0 1.0
-141.11433333333332 -131.55 1818.84 0.0 0.0 1.0
-141.11433333333332 -131.55 1818.84 0.0 0.0 1.0
-139.70133333333334 -117.89033333333333 1786.2699999999998 0.0 0.0 1.0
-156.718 -144.308 2301.54 0.0 0.0 1.0
-158.564 -138.76933333333332 2301.54 0.0 0.0 1.0
-138.73033333333333 -102.14299999999999 1780.95 0.0 0.0 1.0
-156.30766666666668 -104.923 2301.54 0.0 0.0 1.0
-140.413 -59.075700000000005 1765.1899999999998 -6.0537070800207854e-27 -1.1149404634033833e-26 1.0
-131.165 -34.41653333333333 1585.8700000000001 -1.3554181023035119e-17 -0.9841792381724292 0.1771756957100403
-156.718 -32.3077 2301.54 0.0 0.0 1.0
-157.33333333333334 -31.6923 2301.54 0.0 0.0 1.0
-157.74333333333334 -17.743566666666666 2301.54 0.0 0.0 1.0
-138.309 -8.62974 1744.61 0.0 0.0 1.0
-134.49 -4.263776666666667 1621.68 0.0 0.0 1.0
-138.13966666666667 2.71318 1739.53 0.0 0.0 1.0
-137.05433333333335 11.085266666666667 1739.53 0.0 0.0 1.0
-156.923 46.461533333333335 2301.54 0.0 0.0 1.0
-136.381 52.03810000000001 1709.71 0.0 0.0 1.0
-137.57566666666665 61.1364 1700.0 0.0 0.0 1.0
-137.75233333333333 65.1429 1709.71 0.0 0.0 1.0
-138.333 69.4697 1700.0 0.0 0.0 1.0
-135.44233333333332 82.3352 1690.4000000000003 -5.060909087122191e-27 2.2933153248569513e-27 1.0
-135.44233333333332 93.63463333333334 1690.4000000000003 1.757280146679623e-27 -1.405824117343729e-26 1.0
-156.30766666666668 160.30766666666668 2301.54 0.0 0.0 1.0
-156.30766666666668 160.30766666666668 2301.54 0.0 0.0 1.0
-156.51266666666666 168.513 2301.54 0.0 0.0 1.0
-141.27666666666667 -130.57766666666666 1818.84 0.0 0.0 1.0
-156.51266666666666 -147.58966666666666 2301.54 0.0 0.0 1.0
-157.74333333333334 -126.46166666666666 2301.54 0.0 0.0 1.0
-157.74333333333334 -126.46166666666666 2301.54 0.0 0.0 1.0
-138.82899999999998 -92.52653333333335 1779.1899999999998 -1.995756800495839e-16 -0.9770581357441439 0.2129727667477177
-156.30733333333333 -113.33333333333333 2301.54 0.0 0.0 1.0
-157.53833333333333 -96.71796666666667 2301.54 0.0 0.0 1.0
-157.12800000000001 -79.6923 2301.54 0.0 0.0 1.0
-139.62633333333335 -53.72663333333333 1765.1899999999998 -4.7701793144710965e-25 7.091250052055333e-26 1.0
-139.78366666666668 -52.3107 1765.1899999999998 -2.7799883638924126e-26 -9.670103734044382e-27 1.0
-140.413 -49.6362 1765.1899999999998 -3.6259047640149724e-27 2.1795334851807157e-41 1.0
-133.75233333333333 -40.279199999999996 1566.49 0.0 0.0 1.0
-130.16366666666667 -38.794133333333335 1546.25 0.0 0.0 1.0
-132.02533333333335 -40.327 1630.5199999999998 0.0 -1.0 0.0
-119.24933333333333 -16.31067333333333 1161.94 0.0 0.0 1.0
-157.94833333333335 -21.230800000000002 2301.54 0.0 0.0 1.0
-157.538 -20.820533333333334 2301.54 0.0 0.0 1.0
-157.94833333333335 -20.615399999999998 2301.54 0.0 0.0 1.0
-157.74333333333334 -17.743566666666666 2301.54 0.0 0.0 1.0
-133.47733333333335 -6.397126666666668 1612.9399999999998 -1.8663128980968172e-27 7.137502004235123e-28 1.0
-136.36033333333333 -5.549553333333333 1617.3 0.0 0.0 1.0
-139.7086666666667 0.6997079999999999 1744.61 0.0 0.0 1.0
-138.605 2.71318 1739.53 0.0 0.0 1.0
-139.07 3.4883733333333335 1739.53 0.0 0.0 1.0
-139.345 20.1156 1729.4800000000002 0.0 0.0 1.0
-124.53933333333333 18.329800000000002 1281.37 0.0 0.0 1.0
-138.2516666666667 29.4332 1724.5 0.0 0.0 1.0
-138.559 29.7406 1724.5 0.0 0.0 1.0
-140.22966666666667 44.8276 1719.54 0.0 0.0 1.0
-157.33333333333334 62.8718 2301.54 0.0 0.0 1.0
-137.75233333333333 55.69526666666667 1709.71 0.0 0.0 1.0
-137.6 59.199999999999996 1709.71 0.0 0.0 1.0
-137.75233333333333 65.1429 1709.71 0.0 0.0 1.0
-135.90166666666667 71.38810000000001 1695.18 0.0 0.0 1.0
-137.11033333333333 73.9566 1695.18 0.0 0.0 1.0
-137.34133333333332 88.40076666666668 1729.4800000000002 8.97454394279838e-27 -4.818002330292427e-26 1.0
-136.338 91.86853333333333 1685.63 0.0 0.0 1.0
-157.12800000000001 141.02566666666667 2301.54 0.0 0.0 1.0
-157.12800000000001 142.66666666666666 2301.54 0.0 0.0 1.0
-138.788 120.07566666666666 1700.0 0.0 0.0 1.0
-157.94866666666667 167.28233333333333 2301.54 0.0 0.0 1.0
-141.11433333333332 -131.54999999999998 1818.84 0.0 0.0 1.0
-140.02 -119.48266666666666 1786.2699999999998 2.7526037063467736e-27 3.1470090833554935e-27 1.0
-140.33833333333334 -118.52733333333333 1786.2699999999998 0.0 0.0 1.0
-157.94866666666667 -144.10266666666666 2301.54 0.0 0.0 1.0
-158.564 -138.76933333333332 2301.54 0.0 0.0 1.0
-158.564 -127.48733333333332 2301.54 0.0 0.0 1.0
-138.87233333333333 -92.97726666666667 1775.67 0.0 0.0 1.0
-135.4366666666667 -62.72303333333334 1685.63 0.0 0.0 1.0
-157.12800000000001 -79.6923 2301.54 0.0 0.0 1.0
-139.941 -55.457233333333335 1765.1899999999998 0.0 0.0 1.0
-159.58966666666666 -39.48716666666667 2301.54 0.0 0.0 1.0
-157.33333333333334 -31.6923 2301.54 0.0 0.0 1.0
-158.359 -30.2564 2301.54 0.0 0.0 1.0
-135.63366666666664 -6.397126666666668 1612.9399999999998 2.2379398431203517e-27 5.1836029039218084e-27 1.0
-139.7086666666667 0.6997079999999999 1744.61 0.0 0.0 1.0
-138.605 2.0930233333333335 1739.53 0.0 0.0 1.0
-139.07000000000002 3.0232566666666667 1739.53 0.0 0.0 1.0
-138.44966666666664 5.03876 1739.53 0.0 0.0 1.0
-137.81633333333335 14.2995 1734.49 0.0 0.0 1.0
-138.71266666666668 29.2795 1724.5 0.0 0.0 1.0
-156.923 46.461533333333335 2301.54 0.0 0.0 1.0
-158.97433333333333 53.02563333333333 2301.54 0.0 0.0 1.0
-137.143 52.647600000000004 1709.71 0.0 0.0 1.0
-138.20933333333335 64.22856666666667 1709.71 0.0 0.0 1.0
-159.38466666666667 130.97433333333333 2301.54 0.0 0.0 1.0
-157.74333333333334 142.25633333333334 2301.54 0.0 0.0 1.0
-159.38466666666667 148.205 2301.54 0.0 0.0 1.0
-160.0 -157.02566666666667 2301.54 0.0 0.0 1.0
-140.55833333333337 -117.84833333333334 1788.0533333333333 0.44185924588272546 -0.8837184917654524 0.15427907874933516
-157.94866666666667 -144.10266666666666 2301.54 0.0 0.0 1.0
-158.769 -123.795 2301.54 0.0 0.0 1.0
-160.0 -109.02566666666667 2301.54 0.0 0.0 1.0
-159.17933333333335 -96.51283333333333 2301.54 0.0 0.0 1.0
-140.413 -50.73746666666667 1765.1899999999998 -7.132090010389663e-26 -3.868519619883083e-26 1.0
-132.20766666666665 -41.58313333333333 1578.89 0.0 0.0 1.0
-154.66666666666666 -60.6154 2301.54 0.0 0.0 1.0
-129.06666666666666 -34.7733 1595.7300000000002 0.0 -1.0 0.0
-158.76933333333332 -34.35896666666667 2301.54 0.0 0.0 1.0
-158.76933333333332 -26.5641 2301.54 0.0 0.0 1.0
-157.94833333333335 -21.2308 2301.54 0.0 0.0 1.0
-157.74333333333334 -17.743566666666666 2301.54 0.0 0.0 1.0
-140.01933333333332 -8.78523 1744.61 0.0 0.0 1.0
-139.07000000000002 3.4883733333333335 1739.53 0.0 0.0 1.0
-159.17966666666666 24.102566666666664 2301.54 0.0 0.0 1.0
-137.34133333333332 22.581866666666667 1729.4800000000002 -3.777860860463806e-27 2.2662917791479303e-26 1.0
-159.79466666666667 43.3846 2301.54 0.0 0.0 1.0
-159.58966666666666 50.76923333333334 2301.54 0.0 0.0 1.0
-137.75233333333335 65.1429 1709.71 0.0 0.0 1.0
-136.338 91.86853333333333 1685.63 0.0 0.0 1.0
-137.22833333333332 98.35206666666666 1680.9000000000003 -1.0875568308529976e-26 1.7915748636312917e-26 1.0
-157.33333333333334 157.436 2301.54 0.0 0.0 1.0
-160.41033333333334 -155.58966666666666 2301.54 0.0 0.0 1.0
-140.65666666666667 -116.45766666666667 1786.2699999999998 0.0 0.0 1.0
-142.67066666666668 -93.29379999999999 1775.67 0.0 0.0 1.0
-138.87233333333333 -71.61226666666666 1775.67 0.0 0.0 1.0
-135.826 -66.38003333333334 1679.33 -0.4206129108133687 0.8412258216267382 0.33974092524381627
-142.16966666666667 -65.56213333333334 1770.41 0.0 0.0 1.0
-141.04233333333332 -58.28906666666666 1765.1899999999998 1.6314804642796324e-25 -3.988187960351694e-26 1.0
-141.357 -57.34513333333333 1765.1899999999998 -1.2084812885394902e-26 -7.250785261147568e-27 1.0
-139.90233333333333 -36.52 1754.84 0.0 0.0 1.0
-134.236 -32.93006666666667 1517.5 0.0 -0.5660645200472619 0.8243609398459288
-132.12699999999998 -29.815700000000003 1503.5199999999998 1.4495936636125824e-25 4.9985988400432966e-26 1.0
-158.564 -22.256433333333334 2301.54 0.0 0.0 1.0
-140.44433333333333 16.927533333333333 1734.49 0.0 0.0 1.0
-159.17966666666666 24.102566666666664 2301.54 0.0 0.0 1.0
-159.17966666666666 24.102566666666664 2301.54 0.0 0.0 1.0
-124.05133333333333 18.658866666666665 1280.4566666666667 -0.1931826683105064 0.9659133415525339 0.1723132997631078
-139.231 28.845299999999998 1726.1599999999999 0.6819007462987805 0.6817528606457085 0.2649988852779559
-138.71266666666665 29.5869 1724.5 0.0 0.0 1.0
-159.58966666666666 42.564099999999996 2301.54 0.0 0.0 1.0
-138.66666666666666 55.847633333333334 1709.71 0.0 0.0 1.0
-138.514 64.22856666666667 1709.71 0.0 0.0 1.0
-137.715 66.8555 1695.18 0.0 0.0 1.0
-138.333 69.4697 1700.0 0.0 0.0 1.0
-137.11033333333333 73.9566 1695.18 0.0 0.0 1.0
-139.94366666666667 88.41316666666667 1685.63 0.0 0.0 1.0
-159.38466666666667 148.205 2301.54 0.0 0.0 1.0
-157.74366666666666 160.30766666666668 2301.54 0.0 0.0 1.0
-158.97433333333333 167.48733333333334 2301.54 0.0 0.0 1.0
-138.93933333333334 122.803 1700.0 0.0 0.0 1.0
-160.41033333333334 -155.58966666666666 2301.54 0.0 0.0 1.0
-160.0 -128.51266666666666 2301.54 0.0 0.0 1.0
-160.41033333333334 -123.17966666666666 2301.54 0.0 0.0 1.0
-140.92999999999998 -87.5964 1775.67 0.0 0.0 1.0
-137.50466666666668 -79.3296 1671.51 0.0 0.0 1.0
-160.61533333333333 -106.769 2301.54 0.0 0.0 1.0
-160.0 -104.51266666666668 2301.54 0.0 0.0 1.0
-160.61533333333333 -100.6152 2301.54 0.0 0.0 1.0
-162.25633333333334 -89.74360000000001 2301.54 0.0 0.0 1.0
-141.67166666666665 -59.075700000000005 1765.1899999999998 3.104225640088792e-26 -4.23601073577534e-26 1.0
-141.19966666666667 -54.6706 1765.1899999999998 -4.0638420058649405e-25 -6.67683024960622e-25 1.0
-141.51433333333333 -48.8496 1765.1899999999998 0.0 1.0 0.0
-139.90233333333333 -36.52 1754.84 0.0 0.0 1.0
-132.12699999999998 -29.815700000000003 1503.5199999999998 1.4495936636125824e-25 4.9985988400432966e-26 1.0
-132.12699999999998 -29.815700000000003 1503.5199999999998 1.4495936636125824e-25 4.9985988400432966e-26 1.0
-159.58966666666666 -39.48716666666667 2301.54 0.0 0.0 1.0
-159.58966666666666 -30.051266666666667 2301.54 0.0 0.0 1.0
-136.80233333333334 -4.119243333333333 1621.68 0.0 0.0 1.0
-141.085 7.364339999999999 1739.53 0.0 0.0 1.0
-140.62 11.085266666666667 1739.53 0.0 0.0 1.0
-140.775 11.395333333333333 1739.53 0.0 0.0 1.0
-140.44433333333333 16.927533333333333 1734.49 0.0 0.0 1.0
-160.41 43.79486666666666 2301.54 0.0 0.0 1.0
-159.58966666666666 50.76923333333334 2301.54 0.0 0.0 1.0
-159.58966666666666 50.76923333333334 2301.54 0.0 0.0 1.0
-160.0 62.46156666666667 2301.54 0.0 0.0 1.0
-139.581 56.1524 1709.71 0.0 0.0 1.0
-137.715 66.8555 1695.18 0.0 0.0 1.0
-137.44533333333334 77.66903333333333 1687.22 8.923867183448727e-17 0.9988152324440569 0.04866345073794523
-138.62966666666668 87.55926666666666 1731.1499999999999 -0.4098877328184009 0.8199527527184765 0.399586698720546
-160.61533333333333 129.12800000000001 2301.54 0.0 0.0 1.0
-160.0 131.38466666666667 2301.54 0.0 0.0 1.0
-139.17600000000002 97.60300000000001 1680.9000000000003 8.952443424852734e-27 -2.0563685196068828e-26 1.0
-159.38433333333333 139.17933333333335 2301.54 0.0 0.0 1.0
-138.788 120.07566666666666 1700.0 0.0 0.0 1.0
-138.93933333333334 122.803 1700.0 0.0 0.0 1.0
-161.02566666666667 169.538 2301.54 0.0 0.0 1.0
-161.436 -138.76933333333332 2301.54 0.0 0.0 1.0
-161.846 -117.23066666666666 2301.54 0.0 0.0 1.0
-160.82033333333334 -99.5896 2301.54 0.0 0.0 1.0
-161.23066666666668 -98.97433333333333 2301.54 0.0 0.0 1.0
-134.236 -32.93006666666667 1517.5 -7.778875353758708e-17 -0.566064520047262 0.8243609398459287
-161.23066666666668 -42.769200000000005 2301.54 0.0 0.0 1.0
-160.41 -38.666666666666664 2301.54 0.0 0.0 1.0
-160.82033333333334 -36.8205 2301.54 0.0 0.0 1.0
-161.02566666666667 -30.666633333333333 2301.54 0.0 0.0 1.0
-136.36033333333333 -5.549553333333333 1617.3 0.0 0.0 1.0
-136.80233333333334 -4.119243333333333 1621.68 0.0 0.0 1.0
-139.7086666666667 0.6997079999999999 1744.61 0.0 0.0 1.0
-141.395 6.744186666666667 1739.53 0.0 0.0 1.0
-140.92999999999998 10.9302 1739.53 0.0 0.0 1.0
-140.42399999999998 19.190766666666665 1729.4800000000002 -2.6164553281915516e-25 -1.175506855170389e-24 1.0
-124.53933333333333 18.329800000000002 1281.37 0.0 0.0 1.0
-162.05133333333333 38.25643333333333 2301.54 0.0 0.0 1.0
-160.0 42.76923333333334 2301.54 0.0 0.0 1.0
-160.41 43.79486666666666 2301.54 0.0 0.0 1.0
-159.38433333333333 63.89743333333334 2301.54 0.0 0.0 1.0
-140.66866666666667 53.56256666666667 1714.61 0.0 0.0 1.0
-140.8 52.34286666666667 1709.71 0.0 0.0 1.0
-138.78766666666664 61.439433333333334 1700.0 0.0 0.0 1.0
-139.84833333333333 69.4697 1700.0 0.0 0.0 1.0
-162.66666666666666 98.7692 2301.54 0.0 0.0 1.0
-139.81166666666667 77.81543333333333 1690.4000000000003 4.3938484030397665e-28 8.787696806079397e-28 1.0
-139.51033333333334 82.0339 1690.4000000000003 0.0 0.0 1.0
-139.81166666666667 82.63656666666667 1690.4000000000003 0.0 0.0 1.0
-140.83066666666667 85.81233333333334 1693.5866666666668 5.461452304910766e-17 -0.9482977214469527 0.31738215371775025
-138.90766666666667 93.48396666666667 1690.4000000000003 -6.326208528046811e-28 -4.8079184813154246e-26 1.0
-160.61533333333333 129.12800000000001 2301.54 0.0 0.0 1.0
-159.38433333333333 139.17933333333335 2301.54 0.0 0.0 1.0
-160.41033333333334 148.82066666666665 2301.54 0.0 0.0 1.0
-139.602 120.49366666666667 1701.6133333333335 0.42920817408130113 -0.8593617406165026 0.2779887444958345
-161.02566666666667 169.538 2301.54 0.0 0.0 1.0
-157.53866666666667 -169.94833333333335 2301.54 0.0 0.0 1.0
-162.87199999999999 -146.564 2301.54 0.0 0.0 1.0
-141.3323333333333 -108.75833333333333 1782.7233333333334 0.09732807984513449 -0.9736897399633022 0.2060474099906525
-142.50466666666668 -110.29933333333334 1784.4966666666667 -0.9645537445501313 -0.2630768016635574 0.0206559991477719
-161.436 -138.76933333333332 2301.54 0.0 0.0 1.0
-161.641 -110.05133333333333 2301.54 0.0 0.0 1.0
-160.61533333333333 -100.6152 2301.54 0.0 0.0 1.0
-161.436 -97.94870000000002 2301.54 0.0 0.0 1.0
-142.95866666666666 -67.29780000000001 1770.41 0.0 0.0 1.0
-142.80100000000002 -66.50886666666668 1770.41 0.0 0.0 1.0
-142.14366666666666 -56.5585 1765.1899999999998 0.0 0.0 1.0
-142.45833333333334 -53.88396666666666 1765.1899999999998 9.427352386440717e-26 1.5953980961668885e-25 1.0
-161.23066666666668 -42.769200000000005 2301.54 0.0 0.0 1.0
-161.02566666666667 -35.17946666666666 2301.54 0.0 0.0 1.0
-136.80233333333334 -4.119243333333333 1621.68 0.0 0.0 1.0
-142.50733333333335 -0.8551973333333333 1744.61 0.0 0.0 1.0
-141.705 6.124033333333333 1739.53 0.0 0.0 1.0
-140.775 11.395333333333333 1739.53 0.0 0.0 1.0
-141.37166666666667 14.608699999999999 1734.49 0.0 0.0 1.0
-140.90800000000002 16.0 1734.49 0.0 0.0 1.0
-141.12733333333333 55.24356666666667 1714.61 0.0 0.0 1.0
-140.8 56.7619 1709.71 0.0 0.0 1.0
-140.343 59.199999999999996 1709.71 0.0 0.0 1.0
-139.88566666666665 61.4857 1709.71 0.0 0.0 1.0
-138.78766666666664 61.439433333333334 1700.0 0.0 0.0 1.0
-140.303 68.56063333333333 1700.0 0.0 0.0 1.0
-161.23066666666668 129.53833333333333 2301.54 0.0 0.0 1.0
-162.87199999999999 143.28233333333333 2301.54 0.0 0.0 1.0
-161.23066666666668 150.66666666666666 2301.54 0.0 0.0 1.0
-162.05133333333333 153.94866666666667 2301.54 0.0 0.0 1.0
-140.15166666666667 120.07566666666666 1700.0 0.0 0.0 1.0
-157.49666666666667 -151.563 2080.193333333333 1.3816104472871682e-17 -0.9877662837169816 0.15594155556471603
-160.41033333333334 -155.58966666666666 2301.54 0.0 0.0 1.0
-161.436 -129.12800000000001 2301.54 0.0 0.0 1.0
-162.46166666666667 -125.231 2301.54 0.0 0.0 1.0
-161.846 -117.23066666666666 2301.54 0.0 0.0 1.0
-161.84633333333332 -111.48733333333332 2301.54 0.0 0.0 1.0
-162.25633333333334 -109.02566666666667 2301.54 0.0 0.0 1.0
-155.5 -96.91666666666667 1870.0 0.0 0.0 1.0
-142.95866666666666 -66.82443333333333 1770.41 0.0 0.0 1.0
-142.80100000000002 -66.50886666666666 1770.41 0.0 0.0 1.0
-141.67166666666665 -59.07569999999999 1765.1899999999998 1.4491940251861637e-27 2.902690856817732e-27 1.0
-134.72966666666665 -39.301899999999996 1566.49 0.0 0.0 1.0
-161.23066666666668 -42.76919999999999 2301.54 0.0 0.0 1.0
-161.641 -31.28203333333333 2301.54 0.0 0.0 1.0
-142.97400000000002 -8.785229999999999 1744.61 0.0 0.0 1.0
-141.705 6.124033333333333 1739.53 0.0 0.0 1.0
-141.395 6.744186666666667 1739.53 0.0 0.0 1.0
-141.681 13.372 1734.49 0.0 0.0 1.0
-126.024 18.1014 1281.37 0.0 0.0 1.0
-141.94066666666666 30.048000000000002 1724.5 0.0 0.0 1.0
-141.56166666666667 52.95236666666667 1709.71 0.0 0.0 1.0
-140.79999999999998 56.7619 1709.71 0.0 0.0 1.0
-140.565 77.2128 1690.4000000000003 0.0 0.0 1.0
-140.565 79.774 1690.4000000000003 0.0 0.0 1.0
-139.81166666666667 80.82860000000001 1690.4000000000003 3.954208386329195e-27 -1.9771588712307228e-27 1.0
-139.94366666666667 88.41316666666667 1685.63 0.0 0.0 1.0
-162.05133333333333 129.74333333333334 2301.54 0.0 0.0 1.0
-162.25633333333334 153.12833333333333 2301.54 0.0 0.0 1.0
-162.25666666666666 -139.58966666666666 2301.54 0.0 0.0 1.0
-163.077 -136.51266666666666 2301.54 0.0 0.0 1.0
-144.44466666666668 -102.61899999999999 1780.95 0.0 0.0 1.0
-161.436 -129.12800000000001 2301.54 0.0 0.0 1.0
-161.84633333333332 -123.17966666666666 2301.54 0.0 0.0 1.0
-161.84633333333332 -111.48733333333332 2301.54 0.0 0.0 1.0
-161.84633333333332 -98.56406666666668 2301.54 0.0 0.0 1.0
-162.05166666666665 -97.94869999999999 2301.54 0.0 0.0 1.0
-143.11666666666665 -66.66663333333334 1770.41 0.0 0.0 1.0
-143.08766666666665 -55.9292 1765.1899999999998 3.480868573454279e-25 5.221302860181498e-25 1.0
-138.74666666666667 -34.5275 1584.47 -0.09860463482782462 -0.9860463482782429 0.1341257806598468
-134.271 -29.815700000000003 1503.5199999999998 1.2496497100106604e-25 -2.0994115128179036e-25 1.0
-161.641 -31.28203333333333 2301.54 0.0 0.0 1.0
-162.87199999999999 -17.7436 2301.54 0.0 0.0 1.0
-162.87199999999999 -17.7436 2301.54 0.0 0.0 1.0
-162.87199999999999 -16.30773333333333 2301.54 0.0 0.0 1.0
-137.215 -6.25337 1612.9399999999998 0.0 -1.0 0.0
-138.09033333333335 -5.693696666666667 1617.3 0.0 0.0 1.0
-119.66333333333334 -1.60518 1161.94 0.0 0.0 1.0
-143.101 1.6279066666666668 1739.53 0.0 0.0 1.0
-143.101 1.6279066666666668 1739.53 0.0 0.0 1.0
-142.60866666666666 12.599066666666667 1734.49 0.0 0.0 1.0
-141.94066666666666 30.048000000000002 1724.5 0.0 0.0 1.0
-162.46166666666667 44.410266666666665 2301.54 0.0 0.0 1.0
-162.25666666666666 62.25643333333334 2301.54 0.0 0.0 1.0
-141.12733333333333 55.24356666666667 1714.61 0.0 0.0 1.0
-141.12733333333333 55.24356666666667 1714.61 0.0 0.0 1.0
-140.79999999999998 56.7619 1709.71 0.0 0.0 1.0
-142.248 59.8655 1724.5 0.0 0.0 1.0
-163.48733333333334 82.97433333333333 2301.54 0.0 0.0 1.0
-162.66666666666666 98.7692 2301.54 0.0 0.0 1.0
-140.86633333333333 84.44446666666667 1690.4000000000003 0.0 0.0 1.0
-140.908 87.5749 1734.49 0.0 0.0 1.0
-162.46166666666667 159.69233333333332 2301.54 0.0 0.0 1.0
-162.05133333333333 169.538 2301.54 0.0 0.0 1.0
-156.59433333333334 -144.81466666666668 2065.83 0.1098305140108775 0.7698102452087432 0.6287522918954341
-147.104 -118.93166666666667 1831.8400000000001 0.8721478948954469 1.2839491797546968e-15 0.48924232178894805
-147.104 -118.93166666666667 1831.8400000000001 0.8721478948954469 1.2839491797546968e-15 0.48924232178894805
-163.48733333333334 -149.43566666666666 2301.54 0.0 0.0 1.0
-163.48733333333334 -149.43566666666666 2301.54 0.0 0.0 1.0
-163.48733333333334 -140.0 2301.54 0.0 0.0 1.0
-163.282 -126.25666666666666 2301.54 0.0 0.0 1.0
-163.69233333333332 -123.17966666666666 2301.54 0.0 0.0 1.0
-162.87166666666667 -117.641 2301.54 0.0 0.0 1.0
-162.66666666666666 -103.07666666666667 2301.54 0.0 0.0 1.0
-162.66666666666666 -89.1282 2301.54 0.0 0.0 1.0
-143.08766666666665 -55.9292 1765.1899999999998 3.4808685734542635e-25 5.221302860181473e-25 1.0
-144.189 -53.254633333333324 1765.1899999999998 1.4503619056060653e-26 3.2633142876135194e-26 1.0
-143.245 -49.6362 1765.1899999999998 0.0 0.0 1.0
-135.009 -40.279199999999996 1566.49 0.0 0.0 1.0
-135.11966666666663 -38.148 1542.2866666666666 0.07016171432055938 0.9820943228232145 0.1748372812703632
-137.25033333333332 -34.911433333333335 1551.61 4.3450130848663565e-16 -0.8197441215808884 0.5727299321089981
-134.271 -29.815700000000003 1503.5199999999998 1.2496497100106613e-25 -2.0994115128179054e-25 1.0
-162.66666666666666 -36.205133333333336 2301.54 0.0 0.0 1.0
-163.28233333333333 -18.564066666666665 2301.54 0.0 0.0 1.0
-142.97400000000002 -8.785229999999999 1744.61 0.0 0.0 1.0
-119.66333333333334 -1.60518 1161.94 0.0 0.0 1.0
-142.01533333333336 6.744186666666667 1739.53 0.0 0.0 1.0
-143.256 10.4651 1739.53 0.0 0.0 1.0
-142.48066666666668 11.550366666666667 1739.53 0.0 0.0 1.0
-142.42766666666668 19.6532 1729.4800000000002 9.69341789052318e-20 3.877157542359524e-19 1.0
-163.89766666666665 45.846133333333334 2301.54 0.0 0.0 1.0
-141.25699999999998 52.19046666666666 1709.71 0.0 0.0 1.0
-142.40166666666664 60.63399999999999 1724.5 0.0 0.0 1.0
