ply
format ascii 1.0
comment VCGLIB generated
element vertex 660
property float x
property float y
property float z
property float nx
property float ny
property float nz
element face 0
property list uchar int vertex_indices
end_header
-106.66699999999999 15.050533333333334 2266.67 0.0 0.0 1.0
-106.66699999999999 15.050533333333334 2266.67 0.0 0.0 1.0
-106.46499999999999 16.464666666666666 2266.67 0.0 0.0 1.0
-100.1173 16.4906 1899.72 0.3008100782568881 0.9358236954860122 0.18370440328415827
-106.06099999999999 20.505033333333333 2266.67 0.0 0.0 1.0
-106.36466666666666 26.264166666666664 2258.11 0.0 0.0 1.0
-106.466 34.787 2249.62 0.0 0.0 1.0
-106.466 34.787 2249.62 0.0 0.0 1.0
-106.466 34.787 2249.62 0.0 0.0 1.0
-98.66163333333333 24.4944 1539.6233333333332 -0.8057050560135719 -0.5371367040090446 0.24964679833810624
-107.16633333333334 43.44566666666666 2241.2 0.0 0.0 1.0
-105.89933333333333 53.429233333333336 2152.52 0.0 0.0 1.0
-98.6324 48.632466666666666 1917.95 0.0 0.0 1.0
-98.6324 48.632466666666666 1917.95 0.0 0.0 1.0
-100.0385 44.85773333333333 1703.2266666666667 0.8846749659630769 -0.4424830366120079 0.1468297207953654
-93.44606666666668 47.137 1539.6233333333332 -0.7063728634621349 0.7063728634621351 0.04554948439453519
-104.65933333333332 63.3692 2144.8 0.0 0.0 1.0
-106.47500000000001 68.96883333333334 2152.52 0.0 0.0 1.0
-106.47500000000001 68.96883333333334 2152.52 0.0 0.0 1.0
-97.34156666666667 54.41396666666666 1370.3866666666665 -0.7319462384840787 0.6404982516032639 0.23241491703883832
-106.19200000000001 88.7307 2129.54 0.0 0.0 1.0
-108.75366666666666 129.275 2601.74 0.0 0.0 1.0
-108.8 -115.73333333333333 2393.6 0.0 0.0 1.0
-108.8 -115.73333333333333 2393.6 0.0 0.0 1.0
-109.01333333333332 -114.88 2393.6 0.0 0.0 1.0
-104.06366666666666 -77.2113 1788.0533333333333 -0.8762241638234087 -0.4818581617391141 0.006627721883865199
-108.26033333333334 -99.97323333333334 2384.06 0.0 0.0 1.0
-113.78233333333333 -91.75476666666668 2094.7566666666667 -0.49806692692757615 -2.2824417590821037e-15 0.8671385911726686
-105.3463 -65.9036 1831.9066666666668 0.7862773128552399 0.29624267585892483 0.5422252892378656
-108.89766666666667 -91.47413333333333 2384.06 0.0 0.0 1.0
-108.89766666666667 -91.47413333333333 2384.06 0.0 0.0 1.0
-108.685 -78.08763333333333 2384.06 0.0 0.0 1.0
-99.96796666666667 -45.648666666666664 1473.9166666666667 0.1592418405232914 -0.987235922654954 0.0026961539972122097
-101.43166666666667 -36.39716666666667 1405.7933333333333 0.19867575822573202 -0.39735151645147676 0.8959016215339395
-109.11 -51.10223333333334 2384.06 0.0 0.0 1.0
-109.11 -51.10223333333334 2384.06 0.0 0.0 1.0
-106.66633333333333 -45.05376666666667 2412.9 0.0 0.0 1.0
-105.70106666666668 -39.203966666666666 2507.2766666666666 0.035676175863778636 -0.570893427872163 0.8202486845390903
-106.76866666666666 -22.57983333333333 2292.72 0.0 0.0 1.0
-107.586 -20.332066666666666 2292.72 0.0 0.0 1.0
-108.199 -19.514666666666667 2292.72 0.0 0.0 1.0
-107.68466666666666 -5.801523333333333 2283.97 0.0 0.0 1.0
-108.09166666666665 -3.969466666666666 2283.97 0.0 0.0 1.0
-96.77456666666666 -0.069308 1666.8866666666665 -0.17833116560546394 0.9811415479123228 -0.07456043410555005
-104.05533333333334 4.589903333333333 2286.8866666666668 0.8804755292012606 0.1758972934741487 0.4402533186998474
-110.60866666666668 11.710146666666667 2601.74 0.0 0.0 1.0
-102.05123333333334 7.371783333333333 1438.46 0.0 0.0 1.0
-97.73479999999999 16.4383 1530.4399999999998 0.9283752999806226 0.23765168421674113 0.28572885639157175
-91.99696666666667 15.838666666666668 1684.0666666666668 -0.24471596433847004 -0.8390394978310323 0.48592881976411106
-107.97466666666666 23.044033333333335 2258.11 0.0 0.0 1.0
-107.371 25.257899999999996 2258.11 0.0 0.0 1.0
-106.36466666666666 27.0692 2258.11 0.0 0.0 1.0
-98.66163333333333 24.4944 1539.6233333333332 -0.8057050560135719 -0.5371367040090446 0.24964679833810624
-107.06766666666668 38.9975 2249.62 0.0 0.0 1.0
-98.88619999999999 32.9622 1765.2 0.06388635412527148 -0.9580980328207265 0.2792251658816491
-100.1764 30.815766666666665 1768.67 -0.9346298724027657 -0.34435646381164153 0.08880105541901584
-104.72066666666667 51.06483333333333 2149.9466666666667 0.9372533761251107 -0.1872747997608995 0.29408206051474256
-100.0385 44.85773333333333 1703.2266666666667 0.8846749659630772 -0.4424830366120076 0.14682972079536552
-105.89933333333333 62.06236666666666 2152.52 0.0 0.0 1.0
-104.65933333333332 63.3692 2144.8 0.0 0.0 1.0
-101.46953333333333 66.53886666666666 1911.82 0.0 0.0 1.0
-101.46953333333333 66.53886666666666 1911.82 0.0 0.0 1.0
-94.03923333333334 53.94646666666667 1311.3266666666668 0.013183982741858037 -0.5010026415194367 0.8653453274789257
-106.19200000000001 88.7307 2129.54 0.0 0.0 1.0
-104.74799999999999 100.24 2152.52 0.0 0.0 1.0
-108.37333333333333 -117.44 2393.6 0.0 0.0 1.0
-109.22666666666667 -114.02666666666666 2393.6 0.0 0.0 1.0
-109.86666666666667 -113.59999999999998 2393.6 0.0 0.0 1.0
-101.86033333333334 -73.7209 1739.53 0.0 0.0 1.0
-102.12866666666666 -70.48443333333334 1736.17 0.7062248848747545 -0.7065294234193136 0.04541570021932625
-108.89766666666667 -91.47413333333333 2384.06 0.0 0.0 1.0
-96.596 -56.99613333333334 1513.6633333333332 0.7850343897371543 0.3925171948685812 0.47921942642438226
-108.91566666666667 -75.93036666666666 2403.21 0.0 0.0 1.0
-101.23193333333332 -44.909600000000005 1479.9800000000002 -0.26362419838032186 -0.906671063886732 0.3293172694208948
-108.89799999999998 -71.2882 2384.06 0.0 0.0 1.0
-108.89799999999998 -71.2882 2384.06 0.0 0.0 1.0
-97.22103333333332 -50.26669999999999 1877.8766666666668 0.21351817218482072 -0.9028866128891997 0.3731028737658309
-109.85866666666668 -37.3745 2310.42 0.0 0.0 1.0
-105.473 -26.494933333333336 2056.3766666666666 0.31738663450632104 0.792925648428913 0.5201294457155248
-108.60766666666666 -29.731800000000003 2292.72 0.0 0.0 1.0
-108.60766666666666 -29.731800000000003 2292.72 0.0 0.0 1.0
-94.56826666666666 -23.692633333333333 1666.86 0.6114945033364039 0.6582624340687155 0.4390501569106823
-108.812 -26.053633333333334 2292.72 0.0 0.0 1.0
-108.199 -19.923366666666666 2292.72 0.0 0.0 1.0
-108.199 -18.288633333333333 2292.72 0.0 0.0 1.0
-116.471 -10.670992666666669 2235.6266666666666 0.3654798388253563 0.3045596878388662 0.8795839266128526
-99.1506 -14.7233 2310.42 0.0 0.0 1.0
-103.40913333333333 -9.415733333333334 2137.1600000000003 0.17632086486160756 -0.8830705455930233 0.4348532673448539
-108.49900000000001 -9.465636666666667 2283.97 0.0 0.0 1.0
-108.49900000000001 -9.465636666666667 2283.97 0.0 0.0 1.0
-107.68466666666666 -5.801523333333333 2283.97 0.0 0.0 1.0
-108.09166666666665 -3.969466666666667 2283.97 0.0 0.0 1.0
-107.98500000000001 2.737643333333333 2275.29 0.0 0.0 1.0
-94.50353333333334 3.2401433333333336 1611.5 -0.4491941401348038 -0.6288680364320797 0.6346255724619162
-106.56533333333333 4.765523333333333 2275.29 0.0 0.0 1.0
-111.30433333333333 19.362333333333336 2601.74 0.0 0.0 1.0
-104.49333333333334 39.5559 1977.1000000000001 0.8785501956104 0.39385164024327474 0.270241446248739
-106.11680000000001 45.49703333333334 2403.2366666666667 0.5534395119721423 0.7919695036056109 0.25785463336290754
-107.76566666666668 42.446933333333334 2241.2 0.0 0.0 1.0
-107.56599999999999 42.846433333333344 2241.2 0.0 0.0 1.0
-107.56599999999999 42.84643333333333 2241.2 0.0 0.0 1.0
-108.964 46.841433333333335 2241.2 0.0 0.0 1.0
-115.47833333333334 53.2174 2601.74 0.0 0.0 1.0
-108.06 51.04476666666667 2232.84 0.0 0.0 1.0
-101.18966666666665 41.227133333333335 1722.8466666666666 0.9999243834150757 2.0423273765003258e-15 0.012297457134741101
-101.18966666666665 41.227133333333335 1722.8466666666666 0.9999243834150756 3.5009274062126866e-15 0.012297457134741759
-101.16933333333333 42.2613 1721.1933333333334 0.999924383415076 -8.651403298587423e-16 0.012297457134739958
-101.16933333333333 42.2613 1721.1933333333334 0.999924383415076 -8.651403298587423e-16 0.012297457134739958
-105.89933333333333 57.074333333333335 2152.52 0.0 0.0 1.0
-92.11466666666666 43.951166666666666 1415.8066666666666 -0.5714272159798889 0.6796010986188263 0.4600144384620528
-106.57099999999998 72.73596666666667 2144.8 0.0 0.0 1.0
-104.65966666666667 78.0884 2144.8 0.0 0.0 1.0
-92.92559999999999 53.04816666666667 1450.0900000000001 0.14004962069242263 0.8052898268229628 0.5761027673595669
-104.65966666666667 78.0884 2144.8 0.0 0.0 1.0
-112.0 105.62333333333333 2601.74 0.0 0.0 1.0
-106.38 84.97013333333334 2144.8 0.0 0.0 1.0
-105.61533333333334 89.17563333333334 2144.8 0.0 0.0 1.0
-107.718 96.43966666666665 2144.8 0.0 0.0 1.0
-104.64666666666666 104.54556666666666 2266.67 0.0 0.0 1.0
-97.16783333333335 -74.37113333333333 1578.89 0.0 0.0 1.0
-109.96 -108.68533333333333 2384.06 0.0 0.0 1.0
-109.96 -108.68533333333333 2384.06 0.0 0.0 1.0
-110.17266666666666 -108.04766666666667 2384.06 0.0 0.0 1.0
-101.86033333333332 -73.7209 1739.53 0.0 0.0 1.0
-102.12866666666666 -70.48443333333334 1736.17 0.7062248848747535 -0.7065294234193148 0.04541570021932557
-109.97033333333333 -76.73176666666667 1932.4033333333334 0.7749421971863804 -0.6273208814814786 -0.07702663615429443
-110.38499999999999 -84.88709999999999 2384.06 0.0 0.0 1.0
-110.38499999999999 -83.82466666666666 2384.06 0.0 0.0 1.0
-109.74766666666666 -79.15006666666666 2384.06 0.0 0.0 1.0
-110.415 -73.78846666666666 2403.21 0.0 0.0 1.0
-110.415 -73.78846666666666 2403.21 0.0 0.0 1.0
-101.43166666666667 -36.39716666666667 1405.7933333333333 0.19867575822573202 -0.39735151645147676 0.8959016215339395
-99.42356666666666 -41.289633333333335 1482.4133333333332 0.7604706993389659 0.030423436421388506 0.6486591785855016
-99.1521 -33.4497 1492.2699999999998 0.0 0.0 1.0
-109.11 -51.10223333333334 2384.06 0.0 0.0 1.0
-108.48733333333332 -43.15926666666667 2403.21 0.0 0.0 1.0
-109.01333333333334 -42.346666666666664 2393.6 0.0 0.0 1.0
-109.85866666666668 -37.3745 2310.42 0.0 0.0 1.0
-109.53833333333334 -31.282033333333334 2301.54 0.0 0.0 1.0
-108.812 -25.4406 2292.72 0.0 0.0 1.0
-109.425 -23.601533333333336 2292.72 0.0 0.0 1.0
-108.199 -19.514666666666667 2292.72 0.0 0.0 1.0
-108.60766666666666 -18.288633333333333 2292.72 0.0 0.0 1.0
-110.145 -9.85506 2601.74 0.0 0.0 1.0
-108.70233333333333 -3.969466666666667 2283.97 0.0 0.0 1.0
-101.10396666666666 3.1080496666666666 1479.9733333333334 -0.19273013882243598 -0.6745825004007451 0.712596339972753
-97.87126666666666 5.044174 1591.4966666666667 0.04398579336305455 -0.6553206898060716 0.7540689912032699
-98.61476666666665 5.877420000000001 1548.9399999999998 0.24881956019517074 -0.9336960513816615 0.25748885431912527
-93.71463333333334 11.951033333333333 1465.4733333333334 0.25209320739952756 -0.96633229641342 0.051486966228209065
-107.97466666666666 23.044033333333335 2258.11 0.0 0.0 1.0
-107.97466666666666 23.044033333333335 2258.11 0.0 0.0 1.0
-98.69493333333334 22.7457 1542.2733333333333 0.9700991162283557 -0.24251028208174463 -0.009821801138077823
-99.82856666666667 23.454166666666666 1534.3633333333335 -0.43868105845916805 -0.8781497612985965 0.19081909149862847
-98.66163333333333 24.4944 1539.6233333333332 -0.8057050560135719 -0.5371367040090446 0.24964679833810624
-107.76566666666668 42.446933333333334 2241.2 0.0 0.0 1.0
-115.47833333333334 53.2174 2601.74 0.0 0.0 1.0
-108.45800000000001 51.8408 2232.84 0.0 0.0 1.0
-105.99733333333334 62.60456666666667 2144.8 0.0 0.0 1.0
-106.57099999999998 72.73596666666667 2144.8 0.0 0.0 1.0
-103.36966666666666 66.09623333333333 1913.8633333333335 0.9842783652432483 6.50549735568078e-15 0.17662417647105486
-97.12143333333331 38.276 1352.83 -0.08479698000404359 0.25440655783697774 0.9633726047131164
-98.06036666666667 56.36343333333334 1489.8 0.9628492236619427 -1.8917688276165757e-14 0.2700395757913911
-98.06036666666667 56.36343333333334 1489.8 0.9628492236619427 -1.8557896934344412e-14 0.2700395757913911
-105.90466666666667 101.61913333333332 2137.14 0.0 0.0 1.0
-97.58703333333334 73.37366666666667 1517.5100000000002 0.14137623449980544 0.9896685449017926 -0.023852286067057863
-107.38733333333334 -112.12366666666667 2310.42 0.0 0.0 1.0
-110.29333333333334 -114.02666666666666 2393.6 0.0 0.0 1.0
-110.29333333333334 -113.59999999999998 2393.6 0.0 0.0 1.0
-108.41266666666665 -78.0337 1695.1933333333334 0.5260809021792688 -0.5830596315817076 0.6190963982951684
-110.17266666666666 -108.04766666666667 2384.06 0.0 0.0 1.0
-109.51400000000001 -82.65473333333334 1860.3166666666668 0.16667685808257823 0.8750618907686174 0.45440676965046667
-101.86033333333332 -73.7209 1739.53 0.0 0.0 1.0
-106.66633333333334 -84.04373333333332 2452.46 0.0 0.0 1.0
-110.38533333333334 -89.77426666666668 2384.06 0.0 0.0 1.0
-111.02266666666667 -80.21249999999999 2384.06 0.0 0.0 1.0
-109.48866666666667 -69.2433 2235.6266666666666 -0.9755984485524616 -0.21679158556756223 0.03477176453866503
-110.415 -73.78846666666666 2403.21 0.0 0.0 1.0
-110.598 -68.5259 2384.06 0.0 0.0 1.0
-99.5511 -33.3167 1492.2699999999998 1.2350679764504124e-11 -1.235067976450423e-11 1.0
-110.193 -42.64463333333333 2472.73 0.0 0.0 1.0
-110.193 -42.64463333333333 2472.73 0.0 0.0 1.0
-109.53833333333334 -31.282033333333334 2301.54 0.0 0.0 1.0
-109.425 -29.323133333333335 2292.72 0.0 0.0 1.0
-109.22066666666666 -26.053633333333334 2292.72 0.0 0.0 1.0
-109.425 -25.236266666666666 2292.72 0.0 0.0 1.0
-109.92366666666668 -14.758233333333335 2283.97 0.0 0.0 1.0
-112.27166666666666 -15.5722 2586.7866666666664 -0.9938750857583786 -4.2095857687993515e-14 0.11050933855912572
-112.27166666666666 -15.5722 2586.7866666666664 -0.9938750857583786 -4.2095857687993515e-14 0.11050933855912572
-108.49900000000001 -9.465636666666667 2283.97 0.0 0.0 1.0
-109.313 -4.580153333333333 2283.97 0.0 0.0 1.0
-96.06013333333334 6.1889433333333335 1527.8466666666666 -0.840503396743344 0.18122960911100006 0.5105975605546654
-99.07366666666667 8.19929 1573.36 -0.6349852742588399 0.6349098692862682 0.4400944891240058
-99.14206666666666 18.151833333333332 1481.1899999999998 -8.471117517476216e-30 -2.4729597646566065e-29 1.0
-108.47133333333333 37.7945 2249.62 0.0 0.0 1.0
-108.657 50.84576666666667 2232.84 0.0 0.0 1.0
-109.254 56.01990000000001 2232.84 0.0 0.0 1.0
-121.426 68.32526666666666 2539.2466666666664 0.1346046584891572 -0.590594059941965 0.795663397596172
-95.85033333333332 39.45636666666666 1368.3133333333335 -0.5955364444129868 -0.752058758965858 0.28238974209179596
-97.74533333333333 45.961166666666664 1373.5333333333335 -0.8444886435186653 -0.5067054312883671 0.17346047639411846
-99.48173333333334 64.8673 1656.0933333333332 -0.22797127499823988 0.5388471466597039 0.8109703140759053
-107.718 96.43966666666665 2144.8 0.0 0.0 1.0
-111.69633333333336 102.20626666666665 2129.54 0.0 0.0 1.0
-103.72903333333333 105.23200000000001 2255.3033333333333 0.41637092978807605 0.9085080268028554 -0.035332903393228296
-107.48666666666668 -112.71733333333334 2301.56 -0.39855455142938 -0.9167206509498412 0.02788400360467144
-107.38733333333334 -112.12366666666667 2310.42 0.0 0.0 1.0
-101.41933333333333 -75.39983333333333 1612.9399999999998 6.957702139384054e-26 -3.4772375024055887e-26 1.0
-111.44733333333333 -110.38533333333334 2384.06 0.0 0.0 1.0
-112.557 -107.84499999999998 2403.21 0.0 0.0 1.0
-105.08133333333335 -65.76623333333333 1726.1599999999999 0.6728857820964684 0.22424661718100017 0.7049384220875622
-111.02266666666667 -88.49936666666667 2384.06 0.0 0.0 1.0
-111.235 -87.43693333333334 2384.06 0.0 0.0 1.0
-110.81 -86.16203333333334 2384.06 0.0 0.0 1.0
-117.55799999999999 -87.5 2340.556666666667 0.5085459287124311 -0.20718537836432377 0.8357363563840231
-111.235 -82.54976666666667 2384.06 0.0 0.0 1.0
-110.846 -70.94526666666665 2232.84 0.0 0.0 1.0
-99.5511 -33.3167 1492.2699999999998 1.2350679764504124e-11 -1.235067976450423e-11 1.0
-114.55066666666666 -55.53626666666667 2601.74 0.0 0.0 1.0
-109.01333333333332 -42.34666666666667 2393.6 0.0 0.0 1.0
-109.94866666666667 -32.307700000000004 2301.54 0.0 0.0 1.0
-114.78266666666667 -38.6087 2601.74 0.0 0.0 1.0
-110.15366666666667 -31.487166666666667 2301.54 0.0 0.0 1.0
-110.038 -25.236266666666666 2292.72 0.0 0.0 1.0
-109.62933333333332 -22.57983333333333 2292.72 0.0 0.0 1.0
-110.038 -21.55813333333333 2292.72 0.0 0.0 1.0
-110.651 -20.332066666666666 2292.72 0.0 0.0 1.0
-110.53433333333334 -15.776066666666665 2283.97 0.0 0.0 1.0
-109.92366666666668 -14.758233333333335 2283.97 0.0 0.0 1.0
-109.313 -3.358776666666666 2283.97 0.0 0.0 1.0
-109.60733333333333 2.737643333333333 2275.29 0.0 0.0 1.0
-99.07366666666667 8.19929 1573.36 -0.6349852742588188 0.6349098692862715 0.44009448912403165
-110.101 11.616166666666667 2266.67 0.0 0.0 1.0
-114.319 19.8261 2601.74 0.0 0.0 1.0
-95.4688 12.746810000000002 1562.43 0.5032407487261098 0.8627273879804553 0.04949952373513649
-109.78633333333333 25.25786666666667 2258.11 0.0 0.0 1.0
-109.78633333333333 25.25786666666667 2258.11 0.0 0.0 1.0
-108.27066666666667 36.591499999999996 2249.62 0.0 0.0 1.0
-108.96366666666667 43.24593333333333 2241.2 0.0 0.0 1.0
-109.363 44.24466666666667 2241.2 0.0 0.0 1.0
-109.56299999999999 45.2434 2241.2 0.0 0.0 1.0
-108.964 46.841433333333335 2241.2 0.0 0.0 1.0
-110.53266666666667 55.81166666666667 2224.54 0.0 0.0 1.0
-109.45300000000002 57.014900000000004 2232.84 0.0 0.0 1.0
-109.45300000000002 57.014900000000004 2232.84 0.0 0.0 1.0
-108.88066666666667 61.51626666666667 2160.29 0.0 0.0 1.0
-95.8967 58.49386666666667 1877.8266666666666 -0.418309299097498 0.8665054930051936 0.27237026431015965
-107.11099999999999 70.35913333333333 2142.246666666667 -1.3226961725879937e-16 -0.9838003791163701 0.17926743722853372
-106.818 70.75936666666666 2033.07 -0.8158054917518683 -0.5778820023955138 0.022666956894202096
-105.899 76.259 2152.52 0.0 0.0 1.0
-113.14666666666666 78.122 2227.306666666667 -0.8308418213467644 0.5540807932092903 -0.051926317968395
-106.19200000000001 88.7307 2129.54 0.0 0.0 1.0
-113.15933333333334 107.47833333333334 2601.74 0.0 0.0 1.0
-108.74233333333332 98.44319999999999 2122.0066666666667 -0.00022154852405123154 -0.981096842662336 0.19351727631983404
-105.93523333333333 105.247 2221.7933333333335 -0.21630894653487792 -0.9734629988593352 0.07470093373419891
-101.41933333333334 -75.39983333333333 1612.9399999999998 -3.478851069692027e-26 1.738618751202795e-26 1.0
-101.41933333333333 -75.39983333333333 1612.9399999999998 6.957702139384054e-26 -3.477237502405589e-26 1.0
-112.557 -107.84499999999998 2403.21 0.0 0.0 1.0
-104.06366666666666 -77.2113 1788.0533333333333 -0.8762241638234085 -0.481858161739114 0.006627721883865207
-102.48066666666666 -72.79066666666667 1739.53 0.0 0.0 1.0
-112.51 -94.2364 2384.06 0.0 0.0 1.0
-105.08133333333335 -65.76623333333333 1726.1599999999999 0.6728857820964685 0.22424661718100108 0.7049384220875617
-112.12866666666667 -78.71483333333333 2403.21 0.0 0.0 1.0
-111.70033333333333 -73.5743 2403.21 0.0 0.0 1.0
-111.70033333333333 -73.5743 2403.21 0.0 0.0 1.0
-112.645 -73.12776666666666 2409.67 0.9780318471941678 -0.1955578589621929 0.07218607671903975
-112.08533333333334 -66.82603333333333 2384.06 0.0 0.0 1.0
-97.95713333333333 -35.23503333333333 1379.8633333333335 0.6436516555192391 -0.579296965500144 0.5001275558391758
-108.83633333333334 -58.5745 2278.183333333333 -0.43007388287853726 -0.8600346591111314 0.27454842995977613
-99.25166666666667 -36.96053333333333 1499.756666666667 0.5517396423162223 -0.8274495302971886 0.10445401815023302
-99.5511 -33.3167 1492.2699999999998 1.2350679764504124e-11 -1.235067976450423e-11 1.0
-109.74766666666666 -48.76493333333334 2384.06 0.0 0.0 1.0
-115.71033333333332 -39.536233333333335 2601.74 0.0 0.0 1.0
-110.15366666666667 -31.487166666666667 2301.54 0.0 0.0 1.0
-110.651 -29.52746666666667 2292.72 0.0 0.0 1.0
-110.038 -25.236266666666666 2292.72 0.0 0.0 1.0
-104.84033333333333 -26.0245 2049.3333333333335 -0.8853868770196526 -0.4590889764470293 0.07298896975711604
-110.651 -20.332066666666666 2292.72 0.0 0.0 1.0
-116.27866666666667 -11.548766666666666 2380.933333333333 -0.3771053934573606 -0.7961429163098893 0.4732314222819039
-110.53433333333334 -15.776066666666665 2283.97 0.0 0.0 1.0
-110.621 -6.59062 2275.29 0.0 0.0 1.0
-110.621 -6.59062 2275.29 0.0 0.0 1.0
-109.51633333333332 -4.376589999999999 2283.97 0.0 0.0 1.0
-111.11099999999999 6.36364 2266.67 0.0 0.0 1.0
-110.101 11.616166666666665 2266.67 0.0 0.0 1.0
-110.101 11.616166666666667 2266.67 0.0 0.0 1.0
-109.98766666666666 24.6541 2258.11 0.0 0.0 1.0
-109.78633333333333 25.25786666666667 2258.11 0.0 0.0 1.0
-100.9602 26.957466666666665 1621.6899999999998 -0.06987797482419263 -0.9796787262726145 0.18800707945004902
-109.56299999999999 46.24216666666667 2241.2 0.0 0.0 1.0
-110.24900000000001 52.2388 2232.84 0.0 0.0 1.0
-110.24900000000001 52.2388 2232.84 0.0 0.0 1.0
-109.45300000000002 57.014900000000004 2232.84 0.0 0.0 1.0
-108.88066666666667 61.51626666666667 2160.29 0.0 0.0 1.0
-101.86696666666666 62.379533333333335 1947.0933333333332 -0.6931405381806777 0.693132689411109 0.19779602928351106
-103.82 64.4545 2040.0033333333333 0.09947317596616778 -0.9947317596616593 0.02477526152481061
-98.39866666666667 50.049233333333326 1464.2766666666666 -0.5852203425399122 -0.19500695747964109 0.7870765129337817
-107.242 74.91606666666667 2152.52 0.0 0.0 1.0
-105.09643333333332 74.30216666666666 1996.8933333333334 0.5731084734623192 0.6183538048453128 0.5377594719565756
-103.92066666666666 79.34536666666666 2097.2033333333334 -0.7702645549508556 -2.2402153951768803e-15 0.6377244823482633
-109.35266666666666 86.61869999999999 2152.52 0.0 0.0 1.0
-111.07933333333334 96.40286666666667 2152.52 0.0 0.0 1.0
-106.2016 105.324 2194.646666666667 0.2800726237562962 0.9523231050961333 0.12099598721578637
-97.26153333333333 71.97796666666666 1525.2366666666667 -0.6729971607529736 -0.6729971607529581 0.30683813849796016
-110.33833333333332 105.99066666666666 2168.12 0.0 0.0 1.0
-113.14733333333334 -115.91000000000001 2384.06 0.0 0.0 1.0
-112.51 -94.2364 2384.06 0.0 0.0 1.0
-102.08983333333333 -45.74176666666667 1377.756666666667 -0.636969263840714 0.17051100952500903 0.7517952863333085
-111.44766666666668 -81.69986666666667 2384.06 0.0 0.0 1.0
-109.48866666666667 -69.24329999999999 2235.6266666666666 -0.9755984485524616 -0.21679158556756206 0.034771764538665186
-94.06586666666668 -40.35923333333333 1435.0266666666666 0.0855245772814969 0.912299219801943 0.40049429487770166
-98.78496666666666 -40.82633333333334 1550.2666666666667 -0.5672219056482332 0.8036693866689378 0.17993006053453112
-98.87363333333333 -41.92850000000001 1544.9366666666667 0.2906509741115172 0.9308610301537799 0.22140405097709906
-100.11703333333334 -32.17223333333333 1494.756666666667 0.9750665604688941 4.678769267281187e-16 0.22191260138928678
-99.98403333333334 -32.039233333333335 1494.756666666667 0.9483344067059142 -3.891510031781025e-16 0.31727252175021636
-112.04533333333335 -42.83306666666666 2445.7866666666664 0.3959240771871668 -0.9049569468508596 0.15587510849991648
-114.78266666666667 -38.6087 2601.74 0.0 0.0 1.0
-112.08133333333332 -26.462333333333333 2292.72 0.0 0.0 1.0
-110.651 -20.332066666666666 2292.72 0.0 0.0 1.0
-109.972 -16.524833333333333 2489.9166666666665 0.05132873126461183 -0.9752381626326415 0.2151183104518871
-110.53433333333334 -15.776066666666665 2283.97 0.0 0.0 1.0
-111.02666666666666 -6.185043333333333 2275.29 0.0 0.0 1.0
-111.63533333333334 3.7515833333333326 2275.29 0.0 0.0 1.0
-111.63533333333334 3.7515833333333326 2275.29 0.0 0.0 1.0
-111.11099999999999 6.36364 2266.67 0.0 0.0 1.0
-110.303 12.222233333333334 2266.67 0.0 0.0 1.0
-103.5028 21.336533333333335 1938.6666666666667 0.6945023334957289 -0.6945172363396731 0.18791571833162357
-108.88066666666667 61.51626666666667 2160.29 0.0 0.0 1.0
-109.92833333333333 84.5084 2152.52 0.0 0.0 1.0
-113.15933333333334 107.47833333333334 2601.74 0.0 0.0 1.0
-107.718 96.43966666666667 2144.8 0.0 0.0 1.0
-99.98563333333334 62.280966666666664 1410.22 0.9644576396996073 -0.12858865892152152 0.230838510699206
-106.85700000000001 97.4285 2137.14 0.0 0.0 1.0
-107.29533333333332 102.94596666666666 2219.0466666666666 -0.7494192952630935 -0.6494219697620233 0.12892565717413254
-105.79506666666667 106.76466666666666 2176.02 -0.15994289534047107 -0.9862913491446378 0.040591191563661935
-110.50666666666666 -118.29333333333334 2393.6 0.0 0.0 1.0
-113.35966666666667 -114.63499999999999 2384.06 0.0 0.0 1.0
-113.35966666666667 -114.63499999999999 2384.06 0.0 0.0 1.0
-112.50966666666666 -110.59766666666667 2384.06 0.0 0.0 1.0
-107.12966666666667 -79.99713333333334 1654.5666666666666 -0.3643328802766232 -0.36435348850561267 0.8570344729140889
-112.50966666666666 -110.59766666666667 2384.06 0.0 0.0 1.0
-109.488 -82.96513333333333 2017.11 0.5985560315081988 0.7990235189323319 0.057376766536200156
-112.51 -94.2364 2384.06 0.0 0.0 1.0
-103.2359 -69.28063333333334 1862.2433333333336 0.5153608754882075 -0.25768043774410343 0.8173150922502506
-111.87233333333334 -86.58699999999999 2384.06 0.0 0.0 1.0
-113.28733333333332 -74.19873333333332 2409.67 -0.9789662867135802 0.19574470051778237 0.05752409666764195
-112.772 -68.54780000000001 2517.8233333333333 -0.4781857989165974 -0.8500870112962639 0.2206590468117742
-99.25166666666667 -36.96053333333333 1499.756666666667 0.5517396423162213 -0.8274495302971893 0.10445401815023228
-113.18966666666667 -53.828 2283.9933333333333 0.6969319744023257 0.6969890975684567 -0.16879579653055424
-100.42386666666665 -24.6538 1414.6733333333334 -0.6828456306928292 0.6829356802287332 0.2594623312048013
-111.71199999999999 -37.992266666666666 2310.42 0.0 0.0 1.0
-112.28566666666666 -30.14046666666667 2292.72 0.0 0.0 1.0
-112.69433333333332 -22.9885 2292.72 0.0 0.0 1.0
-117.37433333333333 -18.91633333333333 2510.7833333333333 0.4429472790969322 0.6355360418805497 0.6323698659893816
-111.02666666666669 -6.185043333333334 2275.29 0.0 0.0 1.0
-111.13766666666668 -12.902266666666668 2393.7000000000003 -0.9570976610626629 -0.27348892941491826 0.0957490087461059
-112.44600000000001 -4.157163333333333 2275.29 0.0 0.0 1.0
-99.8969 5.264561333333333 1815.1666666666667 0.20109068902955782 -0.5170865512192205 0.8319759812241156
-95.473 11.171520000000001 1483.6366666666665 -0.3632550375695571 0.8072096961898876 0.46525077545058313
-112.62333333333333 6.971056666666666 2331.433333333333 0.6269825266016085 -0.4876559358873571 0.6075233324985052
-109.697 15.858600000000001 2266.67 0.0 0.0 1.0
-117.10166666666667 22.6087 2601.74 0.0 0.0 1.0
-103.5028 21.336533333333335 1938.6666666666667 0.694502333495729 -0.6945172363396732 0.18791571833162335
-111.59733333333334 25.0566 2258.11 0.0 0.0 1.0
-110.99366666666667 25.25786666666667 2258.11 0.0 0.0 1.0
-111.161 40.649166666666666 2241.2 0.0 0.0 1.0
-111.161 40.649166666666666 2241.2 0.0 0.0 1.0
-111.161 41.6479 2241.2 0.0 0.0 1.0
-111.36066666666666 42.846399999999996 2241.2 0.0 0.0 1.0
-110.24900000000001 52.238800000000005 2232.84 0.0 0.0 1.0
-110.53266666666667 55.81166666666667 2224.54 0.0 0.0 1.0
-96.68703333333333 35.37863333333333 1356.9333333333332 0.3065952043216416 -0.9198420813698107 0.24472418357862658
-111.524 61.95783333333333 2224.54 0.0 0.0 1.0
-111.72233333333334 64.73356666666666 2224.54 0.0 0.0 1.0
-114.087 90.55073333333333 2601.74 0.0 0.0 1.0
-98.39866666666667 50.049233333333326 1464.2766666666666 -0.5852203425399122 -0.19500695747964117 0.7870765129337817
-104.94833333333334 67.30156666666666 1676.1899999999998 -1.0251327610650958e-27 -2.7631229412458015e-27 1.0
-109.35266666666666 86.61869999999999 2152.52 0.0 0.0 1.0
-106.78699999999999 80.1571 1698.3999999999999 -0.7268086577904693 0.6863997142004228 0.024588763824034084
-110.33833333333332 105.99066666666666 2168.12 0.0 0.0 1.0
-100.63849999999998 -102.17543333333333 2202.726666666667 0.6196701610034783 -0.3567833556325041 0.6990812032271598
-113.35966666666667 -114.63499999999999 2384.06 0.0 0.0 1.0
-113.315 -110.028 2380.9066666666663 -0.9985837971375172 4.765675416997123e-16 0.05320150462550734
-114.27066666666667 -107.41666666666667 2403.21 0.0 0.0 1.0
-99.89256666666667 -55.9712 1361.04 -0.4243409280507742 -0.424457377262627 0.7998566819551736
-114.48433333333332 -75.93036666666666 2403.21 0.0 0.0 1.0
-114.69866666666667 -75.28779999999999 2403.21 0.0 0.0 1.0
-113.99766666666666 -65.7636 2384.06 0.0 0.0 1.0
-112.62 -38.50306666666667 2316.3933333333334 0.9965702607793764 1.1507346589621081e-15 0.08275092343971571
-112.62 -38.50306666666667 2316.3933333333334 0.9965702607793764 5.782640125914768e-16 0.08275092343971571
-115.71033333333334 -39.536233333333335 2601.74 0.0 0.0 1.0
-112.28566666666666 -30.14046666666667 2292.72 0.0 0.0 1.0
-112.28566666666666 -30.14046666666667 2292.72 0.0 0.0 1.0
-112.08133333333332 -26.462333333333333 2292.72 0.0 0.0 1.0
-112.69433333333332 -25.8493 2292.72 0.0 0.0 1.0
-99.3635 -19.140866666666668 1633.4866666666667 -0.5644908592106004 -0.5312520040374156 0.6317605385538954
-110.358 -14.698033333333333 2129.556666666667 -0.7055314599493112 0.7062445063267935 -0.058686082719987716
-113.05433333333333 -11.051966666666667 2275.29 0.0 0.0 1.0
-107.83233333333334 7.468636666666666 2068.21 0.2700550393448529 -0.8641683212675283 0.424597913610173
-111.919 6.16162 2266.67 0.0 0.0 1.0
-116.17399999999999 19.130433333333333 2601.74 0.0 0.0 1.0
-111.59733333333334 25.0566 2258.11 0.0 0.0 1.0
-100.10276666666668 23.865466666666666 1534.3633333333335 -0.30168894578060346 -0.9069975582134049 0.29383534400869715
-112.35966666666667 44.24466666666666 2241.2 0.0 0.0 1.0
-108.33886666666666 50.25303333333334 1974.92 0.0 0.0 1.0
-111.72233333333334 56.00993333333333 2224.54 0.0 0.0 1.0
-111.92066666666666 57.199533333333335 2224.54 0.0 0.0 1.0
-111.524 62.7509 2224.54 0.0 0.0 1.0
-97.13246666666664 50.5068 1779.1899999999998 0.4916590021739149 0.3277692264994866 0.8067457838385513
-117.10166666666667 91.94203333333333 2601.74 0.0 0.0 1.0
-95.23823333333333 65.29523333333333 1709.71 0.0 0.0 1.0
-106.64533333333334 66.21940000000001 1737.8733333333332 -0.14004540315789304 -0.9765700807090408 0.1633957236841919
-109.35266666666666 80.86333333333333 2152.52 0.0 0.0 1.0
-118.02933333333333 99.59436666666666 2601.74 0.0 0.0 1.0
-100.09496666666666 60.34376666666666 1409.1066666666666 0.9377486415140381 -0.12502761682236907 0.3240302152119379
-110.13900000000001 96.83743333333332 2087.4500000000003 1.6648264096033894e-16 -0.9989256103573219 0.046342474817949
-111.92333333333333 104.65933333333332 2144.8 0.0 0.0 1.0
-113.57233333333333 -101.24833333333333 2384.06 0.0 0.0 1.0
-102.7629 -51.15946666666667 1365.18 0.5902102674578613 0.5903722351492778 0.5505565040503706
-104.67566666666669 -66.18573333333335 1741.2233333333334 0.9574516104772562 0.28153574654537455 -0.06343529783682454
-102.66553333333333 -82.50793333333334 2082.6733333333336 0.7468930332535567 0.6244415732378281 0.22852465619614776
-114.27066666666667 -78.92903333333334 2403.21 0.0 0.0 1.0
-114.913 -74.21683333333333 2403.21 0.0 0.0 1.0
-99.42356666666666 -41.289633333333335 1482.4133333333332 0.7604706993389659 0.030423436421388526 0.6486591785855016
-102.09966666666666 -39.514466666666664 1835.5933333333332 0.40527764871573385 -0.9118981729759332 0.06474372227946967
-103.9705 -37.6815 1843.1466666666668 -0.7797907554594212 0.623910935795201 -0.05158993986410161
-100.42386666666665 -24.6538 1414.6733333333334 -0.6828456306928292 0.682935680228733 0.2594623312048014
-113.716 -33.40996666666666 2292.72 0.0 0.0 1.0
-113.30733333333332 -29.11876666666667 2292.72 0.0 0.0 1.0
-112.89866666666666 -24.82756666666667 2292.72 0.0 0.0 1.0
-113.30733333333332 -23.192833333333336 2292.72 0.0 0.0 1.0
-113.30733333333332 -23.19283333333333 2292.72 0.0 0.0 1.0
-113.05433333333333 -11.051966666666667 2275.29 0.0 0.0 1.0
-114.06833333333334 0.101394 2275.29 0.0 0.0 1.0
-112.24366666666667 2.332064 2275.29 0.0 0.0 1.0
-117.89066666666668 8.489096666666667 2094.7566666666667 -0.4294832426538067 0.21470131684847246 0.8771815597828668
-112.92900000000002 6.16162 2266.67 0.0 0.0 1.0
-116.17399999999999 19.130433333333333 2601.74 0.0 0.0 1.0
-112.35966666666667 44.24466666666666 2241.2 0.0 0.0 1.0
-111.92066666666666 61.561299999999996 2224.54 0.0 0.0 1.0
-112.31733333333334 64.73356666666668 2224.54 0.0 0.0 1.0
-112.31733333333334 64.73356666666666 2224.54 0.0 0.0 1.0
-102.64836666666667 78.8128 2049.32 0.0 0.0 1.0
-104.45533333333333 66.2833 1673.0766666666666 -0.1626697314571819 -0.9759458007326219 0.14514941439774967
-100.78733333333332 60.78936666666667 1413.5466666666669 -0.964964991810141 -0.0876650564565067 0.24730022737015794
-101.2297 59.22326666666667 1452.43 0.0 0.0 1.0
-102.49466666666666 65.00406666666667 1425.8933333333334 5.93144888527158e-17 -0.998962473330385 0.04554093628417857
-112.14866666666667 96.91053333333333 2085.02 0.0 0.0 1.0
-104.473 82.7213 1695.216666666667 -0.1515905466236883 0.9877843569334305 -0.036088368928791685
-116.04166666666667 -116.56266666666666 2337.5 0.0 0.0 1.0
-109.488 -82.96513333333333 2017.11 0.5985560315081982 0.7990235189323321 0.05737676653620019
-106.199 -64.2617 1739.5433333333333 -0.7778217916021817 0.6230373626048897 0.082569396916265
-110.28466666666667 -73.0244 2235.6266666666666 -0.852945296979832 0.5117586060169443 0.1028953328755981
-115.127 -77.00133333333332 2403.21 0.0 0.0 1.0
-98.71063333333335 -44.06773333333333 1509.8466666666666 0.5693177600333604 -0.5693177600333615 0.5930890120556886
-97.95713333333333 -35.23503333333333 1379.8633333333335 0.6436516555192391 -0.579296965500144 0.5001275558391758
-109.57933333333334 -50.53946666666667 2227.306666666667 -0.44726347255688215 0.33546992834816974 0.8291051280087665
-115.276 -48.818900000000006 2355.91 0.0 0.0 1.0
-98.45333333333333 -45.111766666666675 1817.0033333333333 9.215356654567298e-15 0.33176293594250755 0.9433627904124731
-111.71199999999999 -37.992266666666666 2310.42 0.0 0.0 1.0
-113.92033333333332 -30.95786666666667 2292.72 0.0 0.0 1.0
-113.92033333333332 -30.95786666666667 2292.72 0.0 0.0 1.0
-112.89866666666666 -26.462333333333333 2292.72 0.0 0.0 1.0
-113.51166666666666 -22.784166666666664 2292.72 0.0 0.0 1.0
-113.92033333333332 -22.57983333333333 2292.72 0.0 0.0 1.0
-114.402 -16.590333333333334 2283.97 0.0 0.0 1.0
-115.69099999999999 -15.716100000000003 2275.29 0.0 0.0 1.0
-113.79133333333334 -15.979633333333334 2283.97 0.0 0.0 1.0
-113.53500000000001 7.373740000000001 2266.67 0.0 0.0 1.0
-112.80666666666667 18.6025 2056.36 0.0 0.0 1.0
-101.04356666666666 9.763613333333334 1431.5933333333335 -0.7115334751308674 0.6469163714271253 0.2742614120647542
-117.10166666666667 22.6087 2601.74 0.0 0.0 1.0
-113.68433333333333 29.5739 2249.62 0.0 0.0 1.0
-113.48366666666668 32.380966666666666 2249.62 0.0 0.0 1.0
-110.47633333333333 38.1955 2249.62 0.0 0.0 1.0
-112.75933333333334 44.044933333333326 2241.2 0.0 0.0 1.0
-112.75933333333334 44.044933333333326 2241.2 0.0 0.0 1.0
-113.234 51.2438 2232.84 0.0 0.0 1.0
-113.43299999999999 51.8408 2232.84 0.0 0.0 1.0
-112.91199999999999 56.803 2224.54 0.0 0.0 1.0
-112.714 61.363033333333334 2224.54 0.0 0.0 1.0
-112.31733333333334 64.73356666666666 2224.54 0.0 0.0 1.0
-112.15533333333333 73.12463333333334 2173.3733333333334 0.887222368352921 -0.4437636802865191 0.1261358995401298
-112.15533333333333 73.12463333333334 2173.3733333333334 0.8872223683529211 -0.443763680286519 0.1261358995401298
-103.21966666666667 64.84013333333333 1659.17 0.9473455240071047 -0.296078032800215 0.12196006164666784
-118.493 98.43486666666666 2601.74 0.0 0.0 1.0
-118.493 98.43486666666666 2601.74 0.0 0.0 1.0
-113.09033333333332 85.7421 2183.94 0.0 0.0 1.0
-112.61399999999999 95.82733333333333 2152.52 0.0 0.0 1.0
-101.70533333333333 63.02996666666667 1415.7766666666666 0.7433259838823277 0.06752961495566243 0.6655120079978344
-111.31633333333333 98.96159999999999 2116.99 -0.6835843948957849 -0.5982062470975524 0.4181646338326874
-112.14866666666667 96.91053333333333 2085.02 0.0 0.0 1.0
-110.33833333333332 105.99066666666666 2168.12 0.0 0.0 1.0
-111.92333333333333 104.65933333333332 2144.8 0.0 0.0 1.0
-107.99333333333334 -71.01373333333333 1784.4966666666667 0.5900343691202177 0.7867262185184627 0.18144227829408108
-107.32799999999999 -70.9448 1782.7233333333334 -0.6977442537891066 -0.6974512070634508 -0.1634465358152885
-98.0775 -57.10556666666667 1502.2633333333333 0.44711074720819205 -0.8942771034766998 0.018985308221260558
-106.86933333333333 -59.0936 1693.5866666666668 0.6971358306002027 0.6971358306002031 0.16734176820725413
-116.09966666666668 -78.71913333333333 2396.8033333333333 -0.8844024975826693 -0.4422012487913361 0.14929928947225288
-115.34133333333334 -78.07226666666666 2403.21 0.0 0.0 1.0
-116.41266666666667 -74.85943333333334 2403.21 0.0 0.0 1.0
-104.37433333333333 -52.63333333333333 1590.0900000000001 -0.9963780770795023 7.322856160582477e-16 0.08503368459236199
-115.276 -48.818900000000006 2355.91 0.0 0.0 1.0
-112.04533333333335 -42.83306666666666 2445.7866666666664 0.3959240771871668 -0.9049569468508596 0.15587510849991648
-100.86053333333332 -23.82133333333333 1410.2333333333333 -0.9717348745182951 0.1616935693914826 0.17200733490858777
-116.87 -40.463766666666665 2601.74 0.0 0.0 1.0
-114.53366666666666 -35.65773333333333 2292.72 0.0 0.0 1.0
-114.53366666666666 -35.65773333333333 2292.72 0.0 0.0 1.0
-114.12466666666666 -30.34483333333333 2292.72 0.0 0.0 1.0
-114.329 -29.731800000000003 2292.72 0.0 0.0 1.0
-114.329 -29.731800000000003 2292.72 0.0 0.0 1.0
-113.92033333333332 -24.010233333333332 2292.72 0.0 0.0 1.0
-114.12466666666666 -22.784166666666664 2292.72 0.0 0.0 1.0
-114.12466666666666 -22.57983333333333 2292.72 0.0 0.0 1.0
-114.402 -15.776066666666667 2283.97 0.0 0.0 1.0
-114.67666666666666 -10.038020000000001 2275.29 0.0 0.0 1.0
-114.67666666666666 -10.038020000000001 2275.29 0.0 0.0 1.0
-114.06833333333333 -3.751586666666667 2275.29 0.0 0.0 1.0
-114.06833333333334 0.101394 2275.29 0.0 0.0 1.0
-116.13900000000001 6.203476666666667 2017.08 0.590871385833104 0.7386063698602874 0.32454835665194137
-113.73700000000001 6.16162 2266.67 0.0 0.0 1.0
-114.34333333333332 10.404046666666666 2266.67 0.0 0.0 1.0
-114.54533333333332 11.212133333333332 2266.67 0.0 0.0 1.0
-118.19200000000001 10.896423333333333 2089.8799999999997 0.5492042622955559 -0.274550591555203 0.7893013689035908
-115.019 19.018866666666664 2258.11 0.0 0.0 1.0
-113.68433333333333 28.1704 2249.62 0.0 0.0 1.0
-113.28333333333335 30.977433333333334 2249.62 0.0 0.0 1.0
-114.28566666666666 33.183 2249.62 0.0 0.0 1.0
-115.156 37.45316666666667 2241.2 0.0 0.0 1.0
-101.86886666666668 27.7295 1624.62 0.5100293575479657 8.01489167551451e-15 0.8601569940651587
-101.86886666666668 27.7295 1624.62 0.5100293575479657 8.01489167551451e-15 0.8601569940651587
-116.52433333333333 51.155699999999996 2328.4266666666667 0.9814853160243439 0.19148151751079795 0.00462632471358727
-113.632 47.8607 2232.84 0.0 0.0 1.0
-113.632 47.8607 2232.84 0.0 0.0 1.0
-113.433 51.8408 2232.84 0.0 0.0 1.0
-113.30866666666667 61.36303333333334 2224.54 0.0 0.0 1.0
-113.30866666666667 61.95783333333333 2224.54 0.0 0.0 1.0
-113.50699999999999 71.27636666666666 2224.54 0.0 0.0 1.0
-113.50699999999999 71.87116666666667 2224.54 0.0 0.0 1.0
-112.15533333333333 73.12463333333334 2173.3733333333334 0.8872223683529211 -0.443763680286519 0.1261358995401298
-114.13366666666666 83.10303333333333 2176.0 0.0 0.0 1.0
-118.02933333333333 99.59436666666666 2601.74 0.0 0.0 1.0
-114.06333333333333 82.0438 2183.94 0.0 0.0 1.0
-105.46833333333332 68.2397 1680.9000000000003 -4.48700668096768e-25 1.6008317743850495e-25 1.0
-100.50363333333333 58.93193333333334 1411.3266666666666 0.6932394192497673 -0.6934818354349528 0.1962193963909135
-100.32753333333334 82.10836666666667 1688.8133333333335 -0.06429054628194998 -0.9964820704721852 0.05376066300033141
-114.42233333333333 -115.06 2384.06 0.0 0.0 1.0
-112.39233333333334 -100.48393333333333 2244.0066666666667 0.2378088537888337 -0.4754193682500666 0.8470084848172116
-117.41933333333333 -112.36566666666668 2412.9 0.0 0.0 1.0
-99.89256666666667 -55.9712 1361.04 -0.4243409280507742 -0.424457377262627 0.7998566819551736
-117.26933333333334 -107.20233333333333 2403.21 0.0 0.0 1.0
-109.488 -82.96513333333334 2017.11 0.5985560315081985 0.7990235189323319 0.05737676653620013
-117.11033333333334 -98.04826666666666 2275.29 0.0 0.0 1.0
-116.51266666666668 -86.25639999999999 2301.54 0.0 0.0 1.0
-119.99433333333333 -83.89863333333334 2362.1166666666663 -0.36270647244946425 0.7255276528282301 0.5848535199730146
-116.62666666666667 -75.28779999999999 2403.21 0.0 0.0 1.0
-116.41266666666667 -74.85943333333334 2403.21 0.0 0.0 1.0
-115.91000000000001 -66.18856666666667 2384.06 0.0 0.0 1.0
-100.79863333333333 -38.394666666666666 1535.6733333333332 -0.532884816188004 -0.7988401266437839 0.27908461931826456
-115.27600000000001 -48.818900000000006 2355.91 0.0 0.0 1.0
-107.33466666666668 -29.057 2044.6533333333334 0.3960409112407498 -0.46204470790574204 0.7935151444804907
-114.94266666666665 -35.8621 2292.72 0.0 0.0 1.0
-118.06633333333332 -23.3079 2283.97 0.0 0.0 1.0
-114.53366666666666 -22.784166666666664 2292.72 0.0 0.0 1.0
-114.32933333333334 -21.558133333333334 2292.72 0.0 0.0 1.0
-98.77983333333334 -17.85466666666667 1571.99 -0.5364542885283283 -0.7599822174438741 0.3669384491827712
-114.54533333333332 6.36364 2266.67 0.0 0.0 1.0
-114.74733333333334 6.9697 2266.67 0.0 0.0 1.0
-107.83233333333334 7.468636666666666 2068.21 0.27005503934485287 -0.8641683212675282 0.42459791361017307
-111.62913333333334 12.309316666666668 1959.8333333333333 0.11418502430364814 0.4893399581897554 0.8645855570986736
-113.81133333333334 24.45283333333333 2258.11 0.0 0.0 1.0
-113.68433333333333 28.1704 2249.62 0.0 0.0 1.0
-113.632 47.8607 2232.84 0.0 0.0 1.0
-113.433 51.8408 2232.84 0.0 0.0 1.0
-114.428 54.6269 2232.84 0.0 0.0 1.0
-114.10133333333334 59.57873333333333 2224.54 0.0 0.0 1.0
-114.10133333333334 59.57873333333333 2224.54 0.0 0.0 1.0
-113.30866666666667 61.36303333333334 2224.54 0.0 0.0 1.0
-113.705 71.27636666666666 2224.54 0.0 0.0 1.0
-113.50699999999999 71.87116666666667 2224.54 0.0 0.0 1.0
-117.10799999999999 80.39576666666666 2202.7066666666665 0.8712328896711602 0.38119968121230463 0.30925726345370946
-114.13366666666666 83.10303333333333 2176.0 0.0 0.0 1.0
-105.46833333333332 68.2397 1680.9000000000003 -4.48700668096768e-25 1.6008317743850495e-25 1.0
-105.46833333333332 68.2397 1680.9000000000003 -4.487006680967667e-25 1.6008317743850444e-25 1.0
-104.94833333333334 67.30156666666666 1676.1899999999998 -1.0251327610650964e-27 -2.7631229412458025e-27 1.0
-112.61399999999999 95.82733333333333 2152.52 0.0 0.0 1.0
-112.96233333333333 100.92036666666667 2162.9 -0.9846631201009285 0.14063311079852092 0.10325147969998058
-117.41933333333333 -112.36566666666668 2412.9 0.0 0.0 1.0
-117.26933333333334 -107.20233333333333 2403.21 0.0 0.0 1.0
-117.48333333333335 -106.55966666666666 2403.21 0.0 0.0 1.0
-116.51266666666668 -86.25639999999999 2301.54 0.0 0.0 1.0
-104.37433333333333 -52.63333333333333 1590.0900000000001 -0.9963780770795024 7.322856160582477e-16 0.08503368459236188
-104.37433333333333 -52.63333333333333 1590.0900000000001 -0.9963780770795023 7.322856160582477e-16 0.08503368459236199
-122.44433333333332 -75.22223333333334 2493.33 0.0 0.0 1.0
-118.03433333333334 -78.30013333333333 2384.06 0.0 0.0 1.0
-116.84100000000001 -75.07363333333332 2403.21 0.0 0.0 1.0
-119.832 -59.395399999999995 2539.2166666666667 0.9973422983656003 0.06650380945352616 0.02975875029282326
-120.58733333333333 -61.21696666666667 2422.6966666666667 -0.393890103909159 -0.9190580109466225 0.013526217404361428
-112.772 -68.5478 2517.8233333333333 -0.47818579891659774 -0.8500870112962639 0.22065904681177392
-100.86053333333332 -23.82133333333333 1410.2333333333333 -0.9717348745182948 0.16169356939148477 0.17200733490858808
-114.94266666666665 -35.8621 2292.72 0.0 0.0 1.0
-115.14699999999999 -35.0447 2292.72 0.0 0.0 1.0
-115.35133333333333 -29.323133333333335 2292.72 0.0 0.0 1.0
-122.89866666666666 -29.565233333333328 2601.74 0.0 0.0 1.0
-98.88923333333334 -13.950433333333335 1605.7266666666667 -0.2320405981794619 -0.5568866166262477 0.7975176844553907
-114.402 -16.590333333333334 2283.97 0.0 0.0 1.0
-115.08233333333334 0.101394 2275.29 0.0 0.0 1.0
-114.74733333333334 6.9697 2266.67 0.0 0.0 1.0
-114.54533333333335 9.191933333333333 2266.67 0.0 0.0 1.0
-113.81133333333334 24.45283333333333 2258.11 0.0 0.0 1.0
-114.95666666666666 42.446933333333334 2241.2 0.0 0.0 1.0
-114.95666666666666 42.446933333333334 2241.2 0.0 0.0 1.0
-114.428 54.02986666666666 2232.84 0.0 0.0 1.0
-114.428 54.02986666666666 2232.84 0.0 0.0 1.0
-114.428 54.6269 2232.84 0.0 0.0 1.0
-113.705 57.79433333333333 2224.54 0.0 0.0 1.0
-114.10133333333334 59.57873333333333 2224.54 0.0 0.0 1.0
-114.89466666666668 66.71623333333334 2224.54 0.0 0.0 1.0
-114.89466666666668 66.71623333333334 2224.54 0.0 0.0 1.0
-114.69633333333333 74.05203333333333 2224.54 0.0 0.0 1.0
-116.14799999999998 78.91356666666667 2216.3 0.0 0.0 1.0
-98.33366666666666 51.02446666666666 1371.4366666666665 -0.5797060336143277 0.5072786516982922 0.6376592225650833
-107.29066666666667 66.51073333333333 1749.71 0.0 0.0 1.0
-107.29066666666667 66.51073333333333 1749.71 0.0 0.0 1.0
-109.24333333333334 74.19426666666666 2037.72 0.8239949195108731 0.5665771671617763 -0.004763010729178806
-107.67633333333333 67.5625 1744.6166666666666 -0.23911881325437734 -0.9530062574887758 0.18601415627595427
-104.94833333333334 67.30156666666666 1676.1899999999998 -1.0251327610650964e-27 -2.7631229412458025e-27 1.0
-112.61399999999999 95.82733333333333 2152.52 0.0 0.0 1.0
-112.99833333333333 96.87116666666667 2080.193333333333 1.137457915669751e-16 0.9995398990009039 0.03033134196277729
-114.54333333333334 102.586 2129.54 0.0 0.0 1.0
-117.29166666666667 -116.56266666666666 2337.5 0.0 0.0 1.0
-117.29166666666667 -116.56266666666666 2337.5 0.0 0.0 1.0
-117.29166666666667 -115.52066666666667 2337.5 0.0 0.0 1.0
-118.06466666666665 -112.15033333333334 2412.9 0.0 0.0 1.0
-117.48366666666668 -108.05900000000001 2403.21 0.0 0.0 1.0
-118.06466666666665 -110.645 2412.9 0.0 0.0 1.0
-117.48333333333335 -106.55966666666666 2403.21 0.0 0.0 1.0
-117.822 -101.88600000000001 2384.06 0.0 0.0 1.0
-110.123 -66.8653 1665.3166666666666 -0.7257604164040056 0.5004739412206479 0.47201446179132667
-106.86933333333336 -59.0936 1693.5866666666668 0.697135830600203 0.6971358306002028 0.16734176820725438
-117.28233333333334 -77.87093333333333 2390.42 -0.8927536119180796 -0.44637680595904144 0.06114520021250206
-117.39733333333334 -67.25096666666667 2384.06 0.0 0.0 1.0
-119.20966666666668 -59.23896666666667 2352.83 -0.8982037666921489 -0.11228995267565253 0.424995247065347
-121.94200000000001 -61.80083333333334 2489.883333333333 -0.7741106911880232 -0.6193721577411154 0.13088455983619887
-110.61523333333334 -46.31386666666666 1866.1133333333335 0.42359394549760976 0.27752454147037753 0.8622924667532615
-103.562 -28.924866666666663 1321.9433333333334 -0.22299497701917234 0.9365536492362402 0.27044500795263404
-116.06733333333334 -48.7551 2352.83 -3.8709365461679674e-16 0.9997855282006383 0.020709843084156805
-116.37333333333333 -29.11876666666667 2292.72 0.0 0.0 1.0
-117.11066666666666 -15.107733333333334 2275.29 0.0 0.0 1.0
-116.50200000000001 -10.2408 2275.29 0.0 0.0 1.0
-115.89366666666666 0.709758 2275.29 0.0 0.0 1.0
-116.705 4.15716 2275.29 0.0 0.0 1.0
-115.35366666666668 11.616166666666667 2266.67 0.0 0.0 1.0
-115.824 18.616366666666664 2258.11 0.0 0.0 1.0
-115.824 18.616366666666664 2258.11 0.0 0.0 1.0
-116.593 20.568099999999998 1883.74 -0.05508628067024301 -0.9089263681294962 0.41330177715664707
-112.75066666666667 39.24073333333333 2173.3733333333334 0.7207488403079758 0.450506737389214 0.5268441788248529
-114.95666666666666 42.446933333333334 2241.2 0.0 0.0 1.0
-115.224 51.442800000000005 2232.84 0.0 0.0 1.0
-115.093 60.96653333333334 2224.54 0.0 0.0 1.0
-115.35833333333333 69.037 2216.3 0.0 0.0 1.0
-114.06333333333333 82.04379999999999 2183.94 0.0 0.0 1.0
