ply
format ascii 1.0
comment VCGLIB generated
element vertex 773
property float x
property float y
property float z
property float nx
property float ny
property float nz
element face 0
property list uchar int vertex_indices
end_header
-115.62 83.60093333333333 2183.94 0.0 0.0 1.0
-115.231 102.87133333333333 2183.94 0.0 0.0 1.0
-115.231 102.87133333333334 2183.94 0.0 0.0 1.0
-108.29 88.3478 1734.49 0.0 0.0 1.0
-107.981 99.9421 1734.49 0.0 0.0 1.0
-115.62 133.62533333333332 2183.94 0.0 0.0 1.0
-116.59333333333335 160.48666666666668 2183.94 0.0 0.0 1.0
-115.81466666666667 -161.26533333333336 2183.94 0.0 0.0 1.0
-115.81466666666667 -161.26533333333336 2183.94 0.0 0.0 1.0
-111.195 -128.553 1881.76 0.0 0.0 1.0
-115.62 -134.98799999999997 2183.94 0.0 0.0 1.0
-112.60166666666667 -114.44100000000002 1875.86 0.0 0.0 1.0
-117.372 -112.993 2183.94 0.0 0.0 1.0
-117.17733333333332 -110.657 2183.94 0.0 0.0 1.0
-116.39866666666667 -106.18 2183.94 0.0 0.0 1.0
-116.39866666666667 -88.46716666666667 2183.94 0.0 0.0 1.0
-110.476 -66.54509999999999 1818.84 0.0 0.0 1.0
-115.42566666666666 -66.8613 2183.94 0.0 0.0 1.0
-114.258 -59.659333333333336 2183.94 0.0 0.0 1.0
-111.31366666666668 -42.504933333333334 1756.5600000000002 2.016137521569153e-16 0.9997071773353517 0.024198338459144993
-115.231 -33.77126666666667 2183.94 0.0 0.0 1.0
-115.231 -31.8248 2183.94 0.0 0.0 1.0
-115.62033333333333 -26.569333333333333 2183.94 0.0 0.0 1.0
-113.199 -14.173333333333334 1817.0033333333333 -0.21442929867688199 0.750441919185839 0.6251855738879578
-111.03033333333333 -8.646466666666667 1813.33 0.0 0.0 1.0
-110.78833333333334 -5.29968 1887.7 0.0 0.0 1.0
-112.43799999999999 -5.126410000000001 1885.72 4.873723517710065e-17 0.9961928436624939 0.08717693637444394
-103.06213333333334 -10.390763333333334 1951.3799999999999 -0.7280342005754096 -0.6068333669442758 0.3189348954811911
-116.39866666666666 3.6009733333333336 2183.94 0.0 0.0 1.0
-116.39866666666666 3.6009733333333336 2183.94 0.0 0.0 1.0
-115.815 16.058366666666668 2183.94 0.0 0.0 1.0
-116.20400000000001 22.871033333333333 2183.94 0.0 0.0 1.0
-109.31766666666668 36.25733333333333 1749.71 0.0 0.0 1.0
-110.964 38.11416666666667 1763.46 0.435878251448162 -0.8716087412957655 0.22429523403608959
-115.81466666666667 52.457433333333334 2183.94 0.0 0.0 1.0
-115.81466666666665 52.457433333333334 2183.94 0.0 0.0 1.0
-116.39866666666666 58.49146666666667 2183.94 0.0 0.0 1.0
-114.64699999999999 69.58636666666666 2183.94 0.0 0.0 1.0
-114.64699999999999 69.58636666666666 2183.94 0.0 0.0 1.0
-116.204 85.35276666666668 2183.94 0.0 0.0 1.0
-117.56666666666666 90.02433333333333 2183.94 0.0 0.0 1.0
-109.71666666666665 78.9052 1754.84 0.0 0.0 1.0
-116.78800000000001 108.12633333333333 2183.94 0.0 0.0 1.0
-108.29 88.3478 1734.49 0.0 0.0 1.0
-108.59933333333333 88.81156666666668 1734.49 0.0 0.0 1.0
-108.754 96.69566666666667 1734.49 0.0 0.0 1.0
-108.754 96.69566666666667 1734.49 0.0 0.0 1.0
-108.754 96.69566666666667 1734.49 0.0 0.0 1.0
-108.75366666666667 99.63293333333333 1734.49 0.0 0.0 1.0
-129.476 49.126133333333335 1463.4533333333336 0.8565148750329575 -0.40650345714675723 0.3180207668926852
-111.44533333333334 103.19833333333332 1729.4800000000002 -1.9448126868202005e-26 2.5931281011736154e-26 1.0
-116.39866666666667 136.15566666666666 2183.94 0.0 0.0 1.0
-109.372 110.91766666666666 1734.49 0.0 0.0 1.0
-108.90833333333332 113.70033333333333 1734.49 0.0 0.0 1.0
-114.45266666666664 146.08233333333334 2183.94 0.0 0.0 1.0
-117.17733333333332 -159.708 2183.94 0.0 0.0 1.0
-119.70799999999998 -153.09033333333332 2183.94 0.0 0.0 1.0
-112.53666666666668 -132.07533333333333 1881.76 0.0 0.0 1.0
-111.195 -128.553 1881.76 0.0 0.0 1.0
-116.98266666666667 -124.08800000000001 2183.94 0.0 0.0 1.0
-117.56666666666666 -117.46933333333334 2183.94 0.0 0.0 1.0
-116.20433333333334 -85.35276666666665 2183.94 0.0 0.0 1.0
-111.19166666666666 -56.32323333333333 1813.33 0.0 0.0 1.0
-115.42566666666666 -66.8613 2183.94 0.0 0.0 1.0
-110.49133333333333 -43.893033333333335 1800.6066666666666 -5.091275819659993e-16 0.9347835805883509 0.3552177606235676
-110.30033333333334 -42.88746666666666 1798.8033333333333 0.9998585619980581 3.027027801225155e-15 0.016818323316421066
-110.30033333333334 -42.88746666666666 1798.8033333333333 0.9998585619980581 3.027027801225155e-15 0.016818323316421066
-115.62033333333333 -26.569333333333333 2183.94 0.0 0.0 1.0
-115.62 -19.3674 2183.94 0.0 0.0 1.0
-111.03033333333333 -8.646466666666667 1813.33 0.0 0.0 1.0
-116.39866666666666 3.6009733333333336 2183.94 0.0 0.0 1.0
-110.45299999999999 28.277966666666668 1807.8499999999997 1.248700004628561e-27 -1.7288087370607124e-27 1.0
-116.39866666666667 37.08026666666667 2183.94 0.0 0.0 1.0
-110.81133333333334 36.3636 1754.84 0.0 0.0 1.0
-108.99066666666666 37.84623333333334 1758.28 -0.439433316608828 0.8787732460501665 -0.1861610654262031
-118.15066666666667 61.21653333333333 2183.94 0.0 0.0 1.0
-116.39866666666666 88.2725 2183.94 0.0 0.0 1.0
-109.71666666666665 78.9052 1754.84 0.0 0.0 1.0
-108.11033333333334 83.95060000000001 1704.84 0.0 0.0 1.0
-112.65333333333335 92.5947 1744.61 0.0 0.0 1.0
-117.956 116.69066666666667 2183.94 0.0 0.0 1.0
-108.90833333333335 95.92273333333333 1734.49 0.0 0.0 1.0
-109.21733333333333 98.70533333333333 1734.49 0.0 0.0 1.0
-109.372 110.91766666666666 1734.49 0.0 0.0 1.0
-109.74933333333333 115.52966666666667 1729.4800000000002 4.539846349386777e-26 -6.806498152502411e-26 1.0
-117.17733333333332 160.09733333333335 2183.94 0.0 0.0 1.0
-112.53666666666665 -133.24933333333334 1881.76 0.0 0.0 1.0
-111.86566666666666 -107.75699999999999 1881.76 0.0 0.0 1.0
-117.17733333333332 -110.657 2183.94 0.0 0.0 1.0
-116.39866666666667 -88.46716666666667 2183.94 0.0 0.0 1.0
-116.20433333333334 -85.35276666666665 2183.94 0.0 0.0 1.0
-109.66566666666667 -69.62509999999999 1818.84 0.0 0.0 1.0
-111.19166666666666 -56.32323333333333 1813.33 0.0 0.0 1.0
-109.64766666666667 -46.485366666666664 1807.8499999999997 -3.4561872660276164e-27 2.7655217925102847e-26 1.0
-110.49133333333333 -43.893033333333335 1800.6066666666666 -5.091275819659993e-16 0.9347835805883509 0.3552177606235676
-117.56666666666666 -48.95376666666667 2183.94 0.0 0.0 1.0
-117.56666666666666 -48.95376666666667 2183.94 0.0 0.0 1.0
-111.70733333333332 -40.0813 1824.39 0.0 0.0 1.0
-109.28399999999999 -23.6401 1835.58 0.0 0.0 1.0
-117.56666666666666 7.1046233333333335 2183.94 0.0 0.0 1.0
-117.56666666666666 7.1046233333333335 2183.94 0.0 0.0 1.0
-117.76133333333333 12.165466666666665 2183.94 0.0 0.0 1.0
-111.71166666666666 12.572600000000001 1797.0 0.0 0.0 1.0
-117.17733333333332 15.474433333333332 2183.94 0.0 0.0 1.0
-116.204 22.871033333333333 2183.94 0.0 0.0 1.0
-110.522 21.9277 1802.41 0.0 0.0 1.0
-112.06466666666665 24.410866666666664 1807.8499999999997 1.4165437732893177e-27 -9.15188956810551e-28 1.0
-117.956 34.939166666666665 2183.94 0.0 0.0 1.0
-117.76133333333333 36.301700000000004 2183.94 0.0 0.0 1.0
-109.62966666666667 33.60626666666667 1749.71 0.0 0.0 1.0
-110.86066666666666 48.82296666666667 1775.67 0.0 0.0 1.0
-111.58733333333333 61.50796666666667 1780.95 0.0 0.0 1.0
-109.91866666666668 64.3315 1766.93 -0.6681170780580337 0.6681524674895701 0.32740166492367473
-110.529 70.21353333333333 1756.5600000000002 1.1699741772000258e-15 0.8920357760302721 0.45196479318866234
-107.60233333333333 76.95906666666667 1749.71 0.0 0.0 1.0
-108.11033333333334 83.95060000000001 1704.84 0.0 0.0 1.0
-110.212 89.47976666666666 1729.4800000000002 -1.8136337143602932e-27 8.462146496959847e-27 1.0
-109.063 97.15943333333333 1734.49 0.0 0.0 1.0
-108.90833333333335 100.56043333333334 1734.49 0.0 0.0 1.0
-117.56666666666666 137.518 2183.94 0.0 0.0 1.0
-109.90333333333335 114.759 1729.4800000000002 2.2658017630574487e-26 -1.3069921675931328e-30 1.0
-109.74933333333333 115.52966666666667 1729.4800000000002 4.5398463493867667e-26 -6.8064981525024e-26 1.0
-110.04833333333333 124.14433333333334 1737.8500000000001 -0.6934998549138697 0.6949912524513273 -0.18985549834170554
-117.372 159.51333333333332 2183.94 0.0 0.0 1.0
-117.17733333333332 160.09733333333335 2183.94 0.0 0.0 1.0
-117.17733333333332 160.09733333333335 2183.94 0.0 0.0 1.0
-112.872 -134.75900000000001 1881.76 0.0 0.0 1.0
-118.34533333333333 -142.38466666666667 2183.94 0.0 0.0 1.0
-113.27066666666667 -108.92366666666665 1875.86 0.0 0.0 1.0
-111.86566666666666 -107.757 1881.76 0.0 0.0 1.0
-117.56666666666666 -117.46933333333332 2183.94 0.0 0.0 1.0
-117.56666666666666 -117.46933333333334 2183.94 0.0 0.0 1.0
-117.17733333333332 -110.657 2183.94 0.0 0.0 1.0
-116.788 -107.93166666666667 2183.94 0.0 0.0 1.0
-117.76133333333333 -91.38686666666666 2183.94 0.0 0.0 1.0
-109.10566666666666 -54.06503333333333 1824.39 0.0 0.0 1.0
-112.03233333333333 -41.5447 1824.39 0.0 0.0 1.0
-117.56666666666666 -48.95376666666667 2183.94 0.0 0.0 1.0
-111.70733333333332 -40.0813 1824.39 0.0 0.0 1.0
-110.75666666666666 -28.057299999999998 1835.58 0.0 0.0 1.0
-118.73466666666667 -11.386833333333334 2183.94 0.0 0.0 1.0
-117.56666666666666 7.1046233333333335 2183.94 0.0 0.0 1.0
-111.09766666666667 8.620343333333333 1807.8499999999997 5.403253642376231e-29 -1.3234414908004722e-27 1.0
-117.17733333333332 15.474433333333332 2183.94 0.0 0.0 1.0
-112.289 18.8755 1802.41 0.0 0.0 1.0
-111.64633333333335 21.60643333333333 1802.41 0.0 0.0 1.0
-110.40933333333334 35.7895 1749.71 0.0 0.0 1.0
-110.86066666666666 48.82296666666667 1775.67 0.0 0.0 1.0
-112.06333333333333 54.68253333333333 1780.95 0.0 0.0 1.0
-111.15633333333334 70.84096666666666 1756.5600000000002 -2.4807175261338746e-15 0.9900845045528608 0.14047303600448055
-109.71666666666665 78.9052 1754.84 0.0 0.0 1.0
-109.202 83.574 1706.4633333333334 0.960471881857489 -0.24019698262971165 0.14070953662320093
-110.21199999999999 89.47976666666666 1729.4800000000002 -1.2684466723935064e-26 1.390304764004073e-26 1.0
-109.99033333333334 110.76333333333332 1734.49 0.0 0.0 1.0
-109.68133333333333 112.77266666666667 1734.49 0.0 0.0 1.0
-110.04833333333333 124.14433333333334 1737.8500000000001 -0.6934998549138697 0.6949912524513273 -0.18985549834170554
-110.04833333333333 124.14433333333334 1737.8500000000001 -0.6934998549138695 0.6949912524513272 -0.18985549834170537
-119.12400000000001 -161.07066666666665 2183.94 0.0 0.0 1.0
-119.12400000000001 -161.07066666666665 2183.94 0.0 0.0 1.0
-112.03366666666666 -128.553 1881.76 0.0 0.0 1.0
-114.10666666666667 -115.10966666666667 1875.86 0.0 0.0 1.0
-118.73466666666667 -124.08800000000001 2183.94 0.0 0.0 1.0
-117.56666666666666 -114.74466666666666 2183.94 0.0 0.0 1.0
-112.09733333333334 -67.0314 1818.84 0.0 0.0 1.0
-112.16166666666668 -56.64646666666667 1813.33 0.0 0.0 1.0
-111.31366666666668 -42.504933333333334 1756.5600000000002 2.0449394861629976e-16 0.9997071773353517 0.02419833845914499
-111.70733333333332 -40.0813 1824.39 0.0 0.0 1.0
-110.75666666666666 -28.057299999999998 1835.58 0.0 0.0 1.0
-119.31866666666667 -24.233566666666665 2183.94 0.0 0.0 1.0
-118.73466666666667 -11.386833333333334 2183.94 0.0 0.0 1.0
-109.24399999999999 -8.285943333333334 1843.1233333333337 3.221024807840428e-15 -0.369577754554074 0.9291998080815388
-117.76133333333333 9.829703333333333 2183.94 0.0 0.0 1.0
-113.031 9.909356666666666 1807.8499999999997 -1.215411614616582e-27 3.9176745679454335e-28 1.0
-110.81133333333334 36.3636 1754.84 0.0 0.0 1.0
-110.86066666666666 48.82296666666667 1775.67 0.0 0.0 1.0
-112.62733333333334 69.72546666666668 1760.0 0.0 0.0 1.0
-111.96966666666667 79.91876666666666 1766.93 0.9046497450089678 1.413304953236284e-14 0.4261558856277939
-112.601 81.1811 1766.93 0.768004162465994 3.166463869068001e-17 0.6404448504242243
-111.13600000000001 80.2235 1671.51 0.0 0.0 1.0
-117.956 116.69066666666667 2183.94 0.0 0.0 1.0
-117.956 116.69066666666667 2183.94 0.0 0.0 1.0
-117.76133333333333 129.73233333333334 2183.94 0.0 0.0 1.0
-109.73733333333332 105.86466666666666 1737.8500000000001 1.4282802233842276e-16 0.8636297042078392 0.5041267043213243
-109.99033333333334 110.76333333333332 1734.49 0.0 0.0 1.0
-109.90333333333335 114.759 1729.4800000000002 2.2658017630574487e-26 -1.3069921675931328e-30 1.0
-117.76133333333333 160.48666666666668 2183.94 0.0 0.0 1.0
-112.872 -134.75900000000001 1881.76 0.0 0.0 1.0
-113.71066666666667 -130.73366666666666 1881.76 0.0 0.0 1.0
-114.38166666666666 -122.68366666666668 1881.76 0.0 0.0 1.0
-113.93966666666665 -113.77233333333334 1875.86 0.0 0.0 1.0
-113.27066666666667 -108.92366666666665 1875.86 0.0 0.0 1.0
-113.27066666666667 -108.92366666666665 1875.86 0.0 0.0 1.0
-114.10666666666667 -106.75033333333333 1875.86 0.0 0.0 1.0
-113.76133333333333 -84.0775 1829.97 0.0 0.0 1.0
-120.29199999999999 -94.11189999999999 2183.94 0.0 0.0 1.0
-112.52033333333334 -42.0325 1824.39 0.0 0.0 1.0
-115.002 -15.903799999999999 1793.4133333333332 -1.1310276500737726e-17 -0.9967872342375668 0.08009500397042553
-112.64633333333335 -10.909083333333333 1813.33 0.0 0.0 1.0
-120.68133333333333 1.6545036666666668 2183.94 0.0 0.0 1.0
-112.771 20.642566666666664 1802.41 0.0 0.0 1.0
-117.956 34.939166666666665 2183.94 0.0 0.0 1.0
-110.847 33.106366666666666 1748.01 -0.8497602889701144 -0.5096672731810331 0.13470976927319686
-111.18900000000001 35.321666666666665 1749.71 0.0 0.0 1.0
-112.06333333333333 54.68253333333333 1780.95 0.0 0.0 1.0
-111.58733333333333 61.50796666666667 1780.95 0.0 0.0 1.0
-120.68133333333333 97.03163333333333 2183.94 0.0 0.0 1.0
-119.31866666666666 108.51566666666666 2183.94 0.0 0.0 1.0
-110.21199999999999 89.47976666666666 1729.4800000000002 -1.2684466723935064e-26 1.3903047640040726e-26 1.0
-111.38133333333333 93.29466666666667 1734.49 0.0 0.0 1.0
-111.22666666666667 96.85023333333334 1734.49 0.0 0.0 1.0
-111.22666666666667 96.85023333333334 1734.49 0.0 0.0 1.0
-120.29199999999999 121.168 2183.94 0.0 0.0 1.0
-111.38166666666666 109.21733333333333 1734.49 0.0 0.0 1.0
-119.31866666666666 138.102 2183.94 0.0 0.0 1.0
-110.98266666666666 117.53366666666666 1729.4800000000002 -1.430174842575557e-25 -1.2116442658811055e-25 1.0
-118.92933333333333 158.15066666666667 2183.94 0.0 0.0 1.0
-114.38166666666666 -122.68366666666668 1881.76 0.0 0.0 1.0
-113.93966666666667 -113.77233333333334 1875.86 0.0 0.0 1.0
-113.93966666666667 -113.77233333333334 1875.86 0.0 0.0 1.0
-111.96733333333334 -78.369 1829.97 0.0 0.0 1.0
-111.96733333333334 -78.369 1829.97 0.0 0.0 1.0
-113.00833333333334 -41.5447 1824.39 0.0 0.0 1.0
-113.00833333333333 -39.9187 1824.39 0.0 0.0 1.0
-118.34533333333333 -40.389266666666664 2183.94 0.0 0.0 1.0
-120.48666666666668 -36.69096666666667 2183.94 0.0 0.0 1.0
-119.70800000000001 -10.413613333333332 2183.94 0.0 0.0 1.0
-112.87 8.9426 1807.8499999999997 2.2017223503882617e-12 3.3022305285258877e-12 1.0
-120.48666666666666 21.5085 2183.94 0.0 0.0 1.0
-112.44966666666666 21.1245 1802.41 0.0 0.0 1.0
-111.18900000000001 35.321666666666665 1749.71 0.0 0.0 1.0
-110.81133333333334 36.3636 1754.84 0.0 0.0 1.0
-112.00266666666668 38.698766666666664 1768.67 0.7695117276851894 -0.3497982100268572 0.5343153686887189
-111.49366666666667 48.031666666666666 1775.67 0.0 0.0 1.0
-115.76633333333332 56.10286666666667 1775.67 0.0 0.0 1.0
-120.29199999999999 74.06330000000001 2183.94 0.0 0.0 1.0
-111.58733333333333 61.50796666666667 1780.95 0.0 0.0 1.0
-109.91866666666668 64.3315 1766.93 -0.6681170780580338 0.6681524674895702 0.32740166492367484
-113.927 64.87950000000001 1795.2066666666667 0.19031718389455468 -0.9515364067031449 0.2415736662654146
-121.26533333333333 91.77613333333333 2183.94 0.0 0.0 1.0
-111.536 97.00483333333334 1734.49 0.0 0.0 1.0
-119.51333333333332 130.511 2183.94 0.0 0.0 1.0
-119.90266666666668 -160.876 2183.94 0.0 0.0 1.0
-121.26533333333333 -145.10933333333332 2183.94 0.0 0.0 1.0
-121.26533333333333 -138.49133333333336 2183.94 0.0 0.0 1.0
-120.48666666666668 -137.12866666666665 2183.94 0.0 0.0 1.0
-114.10666666666667 -113.27066666666667 1875.86 0.0 0.0 1.0
-114.66666666666667 -97.08333333333333 1870.0 0.0 0.0 1.0
-115.0 -96.08333333333333 1870.0 0.0 0.0 1.0
-113.92433333333332 -85.2192 1829.97 0.0 0.0 1.0
-121.46 -100.53533333333333 2183.94 0.0 0.0 1.0
-120.29199999999999 -94.11189999999999 2183.94 0.0 0.0 1.0
-115.28466666666667 -75.2033 1824.39 0.0 0.0 1.0
-114.101 -61.17170000000001 1813.33 0.0 0.0 1.0
-123.21199999999999 -74.45256666666667 2183.94 0.0 0.0 1.0
-112.16166666666668 -56.64646666666667 1813.33 0.0 0.0 1.0
-114.367 -50.82070000000001 1818.84 0.0 0.0 1.0
-121.65466666666667 -59.65936666666667 2183.94 0.0 0.0 1.0
-118.54 -49.5377 2183.94 0.0 0.0 1.0
-113.82133333333333 -39.9187 1824.39 0.0 0.0 1.0
-111.93233333333332 -25.501366666666666 1828.11 0.29300951278449866 0.8789387132422797 0.37631391654016266
-112.43799999999999 -5.12641 1885.72 -1.3402739673702678e-16 0.996192843662494 0.08717693637444379
-120.87600000000002 22.2871 2183.94 0.0 0.0 1.0
-112.771 20.642566666666667 1802.41 0.0 0.0 1.0
-122.044 29.878366666666665 2183.94 0.0 0.0 1.0
-113.03099999999999 27.3112 1807.8499999999997 0.0 1.0 0.0
-120.09733333333334 37.274966666666664 2183.94 0.0 0.0 1.0
-122.23866666666667 53.236 2183.94 0.0 0.0 1.0
-120.29199999999999 74.06330000000001 2183.94 0.0 0.0 1.0
-120.09733333333334 117.85866666666665 2183.94 0.0 0.0 1.0
-112.15466666666667 97.00483333333334 1734.49 0.0 0.0 1.0
-120.48666666666668 133.236 2183.94 0.0 0.0 1.0
-111.90766666666666 111.522 1729.4800000000002 -7.744215204353051e-28 2.836377928151832e-28 1.0
-119.31866666666667 145.304 2183.94 0.0 0.0 1.0
-120.68133333333333 156.20433333333332 2183.94 0.0 0.0 1.0
-121.65466666666667 159.124 2183.94 0.0 0.0 1.0
-119.90266666666668 -161.46 2183.94 0.0 0.0 1.0
-121.46 -153.09033333333332 2183.94 0.0 0.0 1.0
-114.38166666666666 -122.68366666666668 1881.76 0.0 0.0 1.0
-121.65466666666667 -136.54466666666667 2183.94 0.0 0.0 1.0
-115.44433333333332 -114.60833333333335 1875.86 0.0 0.0 1.0
-115.11 -114.10700000000001 1875.86 0.0 0.0 1.0
-121.26533333333333 -124.47733333333333 2183.94 0.0 0.0 1.0
-114.10666666666667 -106.75033333333333 1875.86 0.0 0.0 1.0
-115.94566666666667 -101.233 1875.86 0.0 0.0 1.0
-114.66666666666667 -97.08333333333333 1870.0 0.0 0.0 1.0
-121.26533333333333 -92.16546666666666 2183.94 0.0 0.0 1.0
-114.529 -67.51769999999999 1818.84 0.0 0.0 1.0
-121.84933333333333 -62.77376666666667 2183.94 0.0 0.0 1.0
-114.367 -50.82070000000001 1818.84 0.0 0.0 1.0
-120.48666666666668 -36.69096666666667 2183.94 0.0 0.0 1.0
-121.46 -36.107033333333334 2183.94 0.0 0.0 1.0
-115.48133333333332 -23.522033333333336 1826.25 0.2929327097413255 0.8789582673733514 0.37632803746152155
-122.044 -12.944033333333332 2183.94 0.0 0.0 1.0
-120.87600000000002 -10.21898 2183.94 0.0 0.0 1.0
-121.65466666666667 2.8223866666666666 2183.94 0.0 0.0 1.0
-121.07066666666667 6.909976666666666 2183.94 0.0 0.0 1.0
-121.07066666666667 6.909976666666666 2183.94 0.0 0.0 1.0
-121.07066666666667 18.394166666666667 2183.94 0.0 0.0 1.0
-121.26533333333333 22.871033333333333 2183.94 0.0 0.0 1.0
-120.09733333333334 37.274966666666664 2183.94 0.0 0.0 1.0
-116.73733333333332 37.62336666666667 1807.8499999999997 5.850108400356403e-28 1.9635721390658765e-28 1.0
-121.46 44.4769 2183.94 0.0 0.0 1.0
-112.06333333333333 54.68253333333333 1780.95 0.0 0.0 1.0
-120.48666666666668 73.2847 2183.94 0.0 0.0 1.0
-120.29199999999999 74.06330000000001 2183.94 0.0 0.0 1.0
-122.23866666666667 83.99026666666667 2183.94 0.0 0.0 1.0
-112.62733333333334 69.72546666666666 1760.0 0.0 0.0 1.0
-120.68133333333333 97.03163333333333 2183.94 0.0 0.0 1.0
-113.44900000000001 101.96533333333333 1729.4800000000002 6.718424650330189e-27 -7.839776709848156e-27 1.0
-112.30900000000001 108.908 1734.49 0.0 0.0 1.0
-112.83266666666667 118.61266666666667 1729.4800000000002 0.0 0.0 1.0
-121.46 -153.09033333333332 2183.94 0.0 0.0 1.0
-115.55566666666668 -130.063 1881.76 0.0 0.0 1.0
-115.22000000000001 -126.37333333333333 1881.76 0.0 0.0 1.0
-122.23866666666667 -143.9416666666667 2183.94 0.0 0.0 1.0
-115.94566666666667 -101.233 1875.86 0.0 0.0 1.0
-121.46 -100.53533333333333 2183.94 0.0 0.0 1.0
-114.414 -83.5882 1829.97 0.0 0.0 1.0
-121.07066666666667 -93.33333333333333 2183.94 0.0 0.0 1.0
-121.26533333333333 -92.16546666666666 2183.94 0.0 0.0 1.0
-118.54 -84.5742 2183.94 0.0 0.0 1.0
-114.69133333333333 -67.8419 1818.84 0.0 0.0 1.0
-114.909 -59.55553333333334 1813.33 0.0 0.0 1.0
-114.909 -59.55553333333334 1813.33 0.0 0.0 1.0
-115.12566666666667 -58.89223333333333 1807.8499999999997 -2.073069015554589e-26 5.181922148263946e-26 1.0
-114.69133333333333 -49.68593333333333 1818.84 0.0 0.0 1.0
-111.42 -46.32423333333333 1807.8499999999997 -5.728934131971233e-29 1.0284843817929016e-26 1.0
-113.82133333333333 -39.9187 1824.39 0.0 0.0 1.0
-122.43333333333334 -26.18003333333333 2183.94 0.0 0.0 1.0
-121.46 -10.413646666666667 2183.94 0.0 0.0 1.0
-121.07066666666667 6.909976666666666 2183.94 0.0 0.0 1.0
-121.07066666666667 10.802933333333334 2183.94 0.0 0.0 1.0
-114.48133333333334 9.748223333333334 1807.8499999999997 -5.594218329166796e-27 -1.2017953900066359e-26 1.0
-122.044 15.669133333333335 2183.94 0.0 0.0 1.0
-120.87600000000002 22.2871 2183.94 0.0 0.0 1.0
-121.26533333333333 22.871033333333333 2183.94 0.0 0.0 1.0
-113.253 20.160633333333333 1802.41 0.0 0.0 1.0
-122.23866666666667 41.75183333333334 2183.94 0.0 0.0 1.0
-121.65466666666667 43.309000000000005 2183.94 0.0 0.0 1.0
-121.46 62.57906666666667 2183.94 0.0 0.0 1.0
-121.46 62.57906666666667 2183.94 0.0 0.0 1.0
-121.46 62.57906666666667 2183.94 0.0 0.0 1.0
-111.28066666666666 69.3646 1754.84 0.0 0.0 1.0
-122.23866666666667 93.91726666666666 2183.94 0.0 0.0 1.0
-114.556 78.65873333333333 1770.41 0.0 0.0 1.0
-111.13600000000001 80.2235 1671.51 0.0 0.0 1.0
-114.66666666666667 85.098 1760.0 0.0 0.0 1.0
-112.65333333333335 92.5947 1744.61 0.0 0.0 1.0
-120.09733333333334 117.85866666666665 2183.94 0.0 0.0 1.0
-120.29199999999999 121.168 2183.94 0.0 0.0 1.0
-112.15466666666667 97.00483333333334 1734.49 0.0 0.0 1.0
-113.14066666666668 99.9615 1729.4800000000002 4.6893637449643845e-26 1.676764603060233e-27 1.0
-121.26533333333333 137.518 2183.94 0.0 0.0 1.0
-122.044 144.91500000000002 2183.94 0.0 0.0 1.0
-121.46 -153.09033333333332 2183.94 0.0 0.0 1.0
-121.26533333333333 -145.10933333333335 2183.94 0.0 0.0 1.0
-115.44433333333335 -114.60833333333333 1875.86 0.0 0.0 1.0
-116.5 -94.91666666666667 1870.0 0.0 0.0 1.0
-121.46 -107.54233333333333 2183.94 0.0 0.0 1.0
-114.903 -85.2192 1829.97 0.0 0.0 1.0
-116.26033333333334 -72.76423333333334 1824.39 0.0 0.0 1.0
-115.01533333333333 -67.3556 1818.84 0.0 0.0 1.0
-113.32900000000001 -49.7483 1815.1666666666667 1.551230120535104e-16 0.9599289448266431 0.28024350283995364
-122.628 -58.6861 2183.94 0.0 0.0 1.0
-111.31366666666668 -42.504933333333334 1756.5600000000002 2.016137521569153e-16 0.9997071773353517 0.024198338459144993
-114.343 -26.12366666666667 1826.25 -0.9792396370458017 0.15071164326369182 0.13555712383775392
-114.38799999999999 -12.996166666666667 1811.5033333333333 -0.8003645580287968 0.5716384362125602 0.18068224178326953
-121.46 -10.413646666666667 2183.94 0.0 0.0 1.0
-123.79599999999999 -5.352796666666666 2183.94 0.0 0.0 1.0
-122.044 1.8491506666666666 2183.94 0.0 0.0 1.0
-121.65466666666667 2.8223866666666666 2183.94 0.0 0.0 1.0
-122.044 15.669133333333335 2183.94 0.0 0.0 1.0
-114.15933333333334 22.9607 1807.8499999999997 0.0 -1.0 0.0
-122.044 29.878366666666665 2183.94 0.0 0.0 1.0
-113.11733333333332 32.40003333333333 1795.2066666666667 -1.7967075600130295e-16 -0.9998371687234412 0.018045388305399743
-121.46 44.4769 2183.94 0.0 0.0 1.0
-113.353 37.36476666666667 1765.1899999999998 2.4281655490899e-24 -4.855678604974951e-24 1.0
-122.82266666666668 78.15083333333334 2183.94 0.0 0.0 1.0
-122.82266666666668 86.13136666666666 2183.94 0.0 0.0 1.0
-112.62733333333334 69.72546666666666 1760.0 0.0 0.0 1.0
-122.23866666666667 93.91726666666666 2183.94 0.0 0.0 1.0
-111.13600000000001 80.2235 1671.51 0.0 0.0 1.0
-114.66666666666667 85.098 1760.0 0.0 0.0 1.0
-110.20633333333335 84.02203333333334 1703.2266666666667 -0.7522630423838305 0.18812764468960566 0.6314335312342582
-113.14066666666668 99.9615 1729.4800000000002 4.6893637449643857e-26 1.6767646030602374e-27 1.0
-113.449 101.96533333333333 1729.4800000000002 -3.359212325165093e-27 3.919888354924076e-27 1.0
-113.70033333333333 109.52633333333334 1734.49 0.0 0.0 1.0
-113.96733333333333 113.35266666666666 1724.5 0.0 0.0 1.0
-114.72866666666668 119.30233333333332 1739.53 0.0 0.0 1.0
-121.65466666666667 159.124 2183.94 0.0 0.0 1.0
-117.283 -120.96166666666666 1875.86 0.0 0.0 1.0
-117.283 -120.96166666666666 1875.86 0.0 0.0 1.0
-116.5 -94.91666666666667 1870.0 0.0 0.0 1.0
-123.01733333333333 -102.09266666666667 2183.94 0.0 0.0 1.0
-116.045 -83.7513 1829.97 0.0 0.0 1.0
-123.01733333333333 -95.08513333333333 2183.94 0.0 0.0 1.0
-115.28466666666667 -75.20330000000001 1824.39 0.0 0.0 1.0
-123.60133333333333 -89.24576666666667 2183.94 0.0 0.0 1.0
-115.17766666666667 -67.6798 1818.84 0.0 0.0 1.0
-115.33966666666667 -67.3556 1818.84 0.0 0.0 1.0
-115.12566666666667 -58.89223333333333 1807.8499999999997 -2.0730690155545897e-26 5.181922148263947e-26 1.0
-114.367 -50.82070000000001 1818.84 0.0 0.0 1.0
-122.628 -58.6861 2183.94 0.0 0.0 1.0
-122.82266666666668 -56.544999999999995 2183.94 0.0 0.0 1.0
-122.82266666666668 -55.76643333333333 2183.94 0.0 0.0 1.0
-122.044 -36.30166666666667 2183.94 0.0 0.0 1.0
-122.044 -36.107033333333334 2183.94 0.0 0.0 1.0
-123.01733333333333 -24.233566666666665 2183.94 0.0 0.0 1.0
-123.01733333333334 -18.394166666666667 2183.94 0.0 0.0 1.0
-115.735 -12.798733333333333 1806.0366666666669 -3.5609052558685845e-15 0.8802163906973661 0.4745725503521055
-122.044 15.669133333333333 2183.94 0.0 0.0 1.0
-114.48133333333332 25.861033333333335 1807.8499999999997 3.359365746922424e-27 -2.4569544577245774e-28 1.0
-115.11733333333332 36.1413 1766.9300000000003 -0.44046576837323964 0.8809937538194867 0.17274233014064974
-122.23866666666667 51.873466666666666 2183.94 0.0 0.0 1.0
-122.23866666666667 53.236 2183.94 0.0 0.0 1.0
-115.503 49.309666666666665 1770.41 0.0 0.0 1.0
-122.628 76.7883 2183.94 0.0 0.0 1.0
-122.82266666666668 86.13136666666666 2183.94 0.0 0.0 1.0
-123.01733333333334 91.1922 2183.94 0.0 0.0 1.0
-114.556 78.65873333333333 1770.41 0.0 0.0 1.0
-114.28500000000001 85.8713 1756.5600000000002 -0.9898405118780007 0.09894185849761095 0.10210910675417872
-124.18533333333333 110.46233333333333 2183.94 0.0 0.0 1.0
-113.23666666666668 93.29466666666667 1734.49 0.0 0.0 1.0
-113.85533333333335 95.9227 1734.49 0.0 0.0 1.0
-123.01733333333334 158.92933333333335 2183.94 0.0 0.0 1.0
-117.40033333333334 -129.05666666666667 1881.76 0.0 0.0 1.0
-123.21199999999999 -143.74733333333333 2183.94 0.0 0.0 1.0
-123.79599999999999 -138.88066666666668 2183.94 0.0 0.0 1.0
-117.952 -113.10333333333334 1875.86 0.0 0.0 1.0
-117.45066666666666 -102.57066666666667 1875.86 0.0 0.0 1.0
-116.5 -94.91666666666667 1870.0 0.0 0.0 1.0
-115.12566666666667 -58.89223333333333 1807.8499999999997 -2.0730690155545897e-26 5.181922148263947e-26 1.0
-115.87866666666666 -58.58583333333333 1813.33 0.0 0.0 1.0
-122.628 -57.518233333333335 2183.94 0.0 0.0 1.0
-122.82266666666668 -55.76643333333333 2183.94 0.0 0.0 1.0
-123.99066666666666 -28.710466666666665 2183.94 0.0 0.0 1.0
-115.64433333333334 -13.951933333333335 1809.6766666666665 2.037517483390741e-16 0.9954146185269648 0.09565425878034631
-123.79599999999999 -1.0705593333333334 2183.94 0.0 0.0 1.0
-122.82266666666668 0.48662066666666665 2183.94 0.0 0.0 1.0
-122.044 9.82969 2183.94 0.0 0.0 1.0
-114.37766666666666 20.8032 1802.41 0.0 0.0 1.0
-122.82233333333333 34.939166666666665 2183.94 0.0 0.0 1.0
-114.65866666666666 51.988166666666665 1775.67 0.0 0.0 1.0
-123.40666666666668 76.399 2183.94 0.0 0.0 1.0
-123.60133333333333 90.80290000000001 2183.94 0.0 0.0 1.0
-123.01733333333334 93.91726666666666 2183.94 0.0 0.0 1.0
-115.97233333333334 84.69206666666666 1754.84 0.0 0.0 1.0
-113.70066666666668 96.85023333333334 1734.49 0.0 0.0 1.0
-123.21199999999999 136.15566666666666 2183.94 0.0 0.0 1.0
-114.52833333333332 110.443 1729.4800000000002 -6.29852454274753e-28 2.3337948711816607e-26 1.0
-113.96733333333333 113.35266666666666 1724.5 0.0 0.0 1.0
-114.73566666666666 114.73566666666666 1724.5 0.0 0.0 1.0
-116.074 118.25100000000002 1744.61 0.0 0.0 1.0
-124.769 -156.00933333333333 2183.94 0.0 0.0 1.0
-123.212 -155.03633333333335 2183.94 0.0 0.0 1.0
-124.38 -138.29666666666665 2183.94 0.0 0.0 1.0
-123.01733333333334 -130.31633333333332 2183.94 0.0 0.0 1.0
-117.95233333333333 -102.90500000000002 1875.86 0.0 0.0 1.0
-117.45066666666666 -102.57066666666667 1875.86 0.0 0.0 1.0
-116.91033333333333 -76.1789 1824.39 0.0 0.0 1.0
-116.58533333333334 -75.36590000000001 1824.39 0.0 0.0 1.0
-123.60133333333333 -89.24576666666667 2183.94 0.0 0.0 1.0
-117.073 -53.73983333333334 1824.39 0.0 0.0 1.0
-117.073 -53.73983333333334 1824.39 0.0 0.0 1.0
-123.99066666666666 -28.710466666666665 2183.94 0.0 0.0 1.0
-115.002 -15.903799999999999 1793.4133333333332 -1.1310276500737726e-17 -0.9967872342375668 0.08009500397042553
-115.64433333333334 -13.951933333333335 1809.6766666666665 2.037517483390741e-16 0.9954146185269648 0.09565425878034631
-122.044 -12.944033333333332 2183.94 0.0 0.0 1.0
-113.13133333333333 -8.646466666666667 1813.33 0.0 0.0 1.0
-123.60133333333333 3.990266666666667 2183.94 0.0 0.0 1.0
-116.89833333333333 10.876100000000001 1807.8499999999997 3.733111161081448e-27 3.593462178244364e-27 1.0
-114.47133333333333 14.190833333333336 1798.8033333333333 -0.3884284369237826 -0.8544972898527272 0.34490249495080644
-124.18533333333333 22.48176666666667 2183.94 0.0 0.0 1.0
-124.38 29.683733333333333 2183.94 0.0 0.0 1.0
-116.88066666666667 33.44993333333333 1791.6299999999999 -0.7445637020429656 -0.6381300222732902 0.1959973680271348
-122.044 40.0 2183.94 0.0 0.0 1.0
-123.01733333333334 52.262766666666664 2183.94 0.0 0.0 1.0
-115.503 49.309666666666665 1770.41 0.0 0.0 1.0
-112.85700000000001 58.80953333333333 1780.95 0.0 0.0 1.0
-124.57433333333331 79.70803333333333 2183.94 0.0 0.0 1.0
-123.99066666666666 83.40633333333334 2183.94 0.0 0.0 1.0
-122.82266666666668 86.13136666666666 2183.94 0.0 0.0 1.0
-114.556 78.65873333333333 1770.41 0.0 0.0 1.0
-114.16433333333333 94.3768 1734.49 0.0 0.0 1.0
-114.528 101.503 1729.4800000000002 0.0 1.0 0.0
-113.96733333333333 113.35266666666666 1724.5 0.0 0.0 1.0
-115.65899999999999 119.30233333333332 1739.53 0.0 0.0 1.0
-124.18533333333333 -139.07533333333333 2183.94 0.0 0.0 1.0
-118.45366666666666 -113.43766666666666 1875.86 0.0 0.0 1.0
-123.21199999999999 -123.30933333333333 2183.94 0.0 0.0 1.0
-119.28933333333333 -106.24866666666667 1875.86 0.0 0.0 1.0
-124.769 -120.77866666666667 2183.94 0.0 0.0 1.0
-117.28333333333335 -99.56123333333333 1875.86 0.0 0.0 1.0
-119.0 -96.75 1870.0 0.0 0.0 1.0
-123.79599999999999 -106.56933333333332 2183.94 0.0 0.0 1.0
-124.769 -89.44040000000001 2183.94 0.0 0.0 1.0
-116.79833333333333 -67.51769999999999 1818.84 0.0 0.0 1.0
-124.96366666666665 -74.45256666666667 2183.94 0.0 0.0 1.0
-117.65633333333334 -56.808033333333334 1813.33 0.0 0.0 1.0
-122.628 -62.579100000000004 2183.94 0.0 0.0 1.0
-115.122 -38.7805 1824.39 0.0 0.0 1.0
-118.05966666666666 -15.953066666666667 1817.0033333333333 -2.5504354972775467e-17 0.9121938975879393 0.40975882321595464
-124.96366666666665 -6.909976666666666 2183.94 0.0 0.0 1.0
-116.89833333333333 10.876100000000001 1807.8499999999997 3.733111161081447e-27 3.593462178244364e-27 1.0
-114.699 19.036133333333336 1802.41 0.0 0.0 1.0
-124.18533333333333 22.48176666666667 2183.94 0.0 0.0 1.0
-124.18533333333333 22.48176666666667 2183.94 0.0 0.0 1.0
-115.60933333333332 24.410866666666664 1807.8499999999997 3.555155376592795e-27 -5.231473645006252e-28 1.0
-124.38 29.683733333333333 2183.94 0.0 0.0 1.0
-124.185 64.13626666666666 2183.94 0.0 0.0 1.0
-123.21199999999999 71.92216666666667 2183.94 0.0 0.0 1.0
-123.99066666666666 73.09003333333334 2183.94 0.0 0.0 1.0
-124.37966666666667 76.7883 2183.94 0.0 0.0 1.0
-125.35266666666666 81.4599 2183.94 0.0 0.0 1.0
-118.40633333333334 71.79266666666668 1788.0533333333333 0.7432484175434362 0.6688333190824687 0.015613491099256936
-124.18533333333333 94.89050000000002 2183.94 0.0 0.0 1.0
-115.91866666666665 92.5947 1744.61 0.0 0.0 1.0
-114.21999999999998 105.048 1729.4800000000002 -9.595944964796862e-27 -6.607663027940434e-27 1.0
-114.83666666666666 107.66833333333334 1729.4800000000002 -5.284905867679919e-26 9.438935384985081e-27 1.0
-115.246 109.52633333333334 1734.49 0.0 0.0 1.0
-114.88933333333334 112.123 1724.5 0.0 0.0 1.0
-114.88933333333334 112.123 1724.5 0.0 0.0 1.0
-123.79566666666665 143.55266666666668 2183.94 0.0 0.0 1.0
-115.81400000000001 116.66633333333334 1739.53 0.0 0.0 1.0
-116.074 118.25100000000002 1744.61 0.0 0.0 1.0
-112.83266666666667 118.61266666666667 1729.4800000000002 0.0 0.0 1.0
-123.01733333333333 158.92933333333335 2183.94 0.0 0.0 1.0
-125.353 -160.876 2183.94 0.0 0.0 1.0
-125.353 -160.876 2183.94 0.0 0.0 1.0
-125.353 -145.10933333333332 2183.94 0.0 0.0 1.0
-125.353 -145.10933333333332 2183.94 0.0 0.0 1.0
-117.28300000000002 -120.96166666666666 1875.86 0.0 0.0 1.0
-124.38 -138.29666666666665 2183.94 0.0 0.0 1.0
-118.45366666666666 -113.43766666666666 1875.86 0.0 0.0 1.0
-118.45366666666666 -113.43766666666666 1875.86 0.0 0.0 1.0
-117.95233333333333 -102.90500000000002 1875.86 0.0 0.0 1.0
-118.955 -100.06256666666667 1875.86 0.0 0.0 1.0
-124.96366666666667 -103.64999999999999 2183.94 0.0 0.0 1.0
-117.18666666666667 -84.89300000000001 1829.97 0.0 0.0 1.0
-125.74233333333332 -96.83696666666667 2183.94 0.0 0.0 1.0
-124.769 -95.66906666666667 2183.94 0.0 0.0 1.0
-117.72333333333334 -75.6911 1824.39 0.0 0.0 1.0
-124.96366666666665 -74.45256666666667 2183.94 0.0 0.0 1.0
-116.68666666666667 -57.454499999999996 1813.33 0.0 0.0 1.0
-126.13133333333333 -49.5377 2183.94 0.0 0.0 1.0
-118.94333333333333 -35.295700000000004 1820.6899999999998 0.4426214667364938 0.8852065276935212 0.14316298583367856
-124.96366666666667 -27.931866666666668 2183.94 0.0 0.0 1.0
-124.96366666666665 -22.871066666666668 2183.94 0.0 0.0 1.0
-115.002 -15.903799999999999 1793.4133333333332 -1.1310276500737726e-17 -0.9967872342375668 0.08009500397042553
-125.353 -7.493916666666666 2183.94 0.0 0.0 1.0
-124.964 -3.4063266666666663 2183.94 0.0 0.0 1.0
-124.964 -3.4063266666666667 2183.94 0.0 0.0 1.0
-125.15833333333335 -2.62774 2183.94 0.0 0.0 1.0
-125.54766666666667 5.352796666666666 2183.94 0.0 0.0 1.0
-125.15833333333335 5.93674 2183.94 0.0 0.0 1.0
-124.38 29.683733333333333 2183.94 0.0 0.0 1.0
-117.23866666666667 50.256400000000006 1770.41 0.0 0.0 1.0
-114.90766666666667 76.04863333333334 1772.1633333333332 -1.6884690734129917e-15 0.7928318250693982 0.6094404787648481
-124.96366666666665 92.94403333333332 2183.94 0.0 0.0 1.0
-125.74233333333332 95.86373333333334 2183.94 0.0 0.0 1.0
-124.18533333333333 110.46233333333333 2183.94 0.0 0.0 1.0
-125.353 111.63033333333333 2183.94 0.0 0.0 1.0
-115.76100000000001 101.19466666666666 1729.4800000000002 4.082584509038072e-30 5.656423044128176e-27 1.0
-124.769 134.98799999999997 2183.94 0.0 0.0 1.0
-115.65899999999999 119.30233333333335 1739.53 0.0 0.0 1.0
-119.24533333333333 -129.39200000000002 1881.76 0.0 0.0 1.0
-120.12533333333333 -108.75633333333333 1875.86 0.0 0.0 1.0
-119.28933333333333 -106.24866666666667 1875.86 0.0 0.0 1.0
-122.82233333333333 -117.27499999999999 2183.94 0.0 0.0 1.0
-119.0 -96.75 1870.0 0.0 0.0 1.0
-121.55433333333333 -88.91616666666668 1835.58 0.0 0.0 1.0
-117.02333333333333 -85.7085 1829.97 0.0 0.0 1.0
-118.69933333333334 -74.06503333333332 1824.39 0.0 0.0 1.0
-118.09499999999998 -67.19349999999999 1818.84 0.0 0.0 1.0
-118.25733333333334 -65.24823333333335 1818.84 0.0 0.0 1.0
-124.96366666666665 -74.45256666666667 2183.94 0.0 0.0 1.0
-117.073 -53.73983333333334 1824.39 0.0 0.0 1.0
-120.16266666666667 -40.5691 1824.39 0.0 0.0 1.0
-127.29899999999999 -40.3893 2183.94 0.0 0.0 1.0
-119.87966666666667 -29.709699999999998 1797.0 0.0 0.0 1.0
-117.73433333333332 -9.151449999999999 1817.0033333333333 0.0 0.9134690601087773 0.40690819139455386
-125.35266666666666 -6.326036666666667 2183.94 0.0 0.0 1.0
-125.35266666666666 -1.8491506666666666 2183.94 0.0 0.0 1.0
-125.93633333333332 -1.654504 2183.94 0.0 0.0 1.0
-125.742 6.909976666666666 2183.94 0.0 0.0 1.0
-116.89833333333333 10.8761 1807.8499999999997 3.111383645977901e-27 6.901789712920043e-28 1.0
-124.96333333333332 15.474466666666666 2183.94 0.0 0.0 1.0
-117.03266666666667 22.2041 1798.8033333333333 -4.931529681161002e-16 0.9970763443263402 0.07641180265391785
-117.758 36.10616666666667 1765.1899999999998 0.0 0.0 1.0
-116.28533333333333 37.92766666666666 1754.84 0.0 0.0 1.0
-118.993 39.71803333333333 1807.8499999999997 7.388816212206984e-28 -4.577210548652917e-30 1.0
-117.378 44.497299999999996 1754.8500000000001 -0.9651241209155458 -0.15567548965759215 0.21047701334555224
-125.742 77.5669 2183.94 0.0 0.0 1.0
-125.35266666666666 81.4599 2183.94 0.0 0.0 1.0
-116.54899999999999 83.8431 1760.0 0.0 0.0 1.0
-127.10433333333333 129.1483333333333 2183.94 0.0 0.0 1.0
-125.54733333333333 141.99533333333335 2183.94 0.0 0.0 1.0
-115.969 116.66633333333334 1739.53 0.0 0.0 1.0
-115.50433333333332 115.19666666666667 1724.5 0.0 0.0 1.0
-115.65899999999999 119.30233333333335 1739.53 0.0 0.0 1.0
-126.13133333333333 -160.09733333333335 2183.94 0.0 0.0 1.0
-125.54733333333336 -154.45233333333334 2183.94 0.0 0.0 1.0
-125.353 -145.10933333333335 2183.94 0.0 0.0 1.0
-121.04700000000001 -118.19999999999999 1879.7933333333333 -0.4995785204855998 0.8324103030077883 0.23982157808650365
-124.769 -89.44040000000001 2183.94 0.0 0.0 1.0
-116.41466666666668 -59.05336666666667 1807.8499999999997 -2.7700985766106928e-28 -9.401401438020943e-27 1.0
-118.943 -51.56733333333333 1828.11 0.602593599667159 -0.6026346510739091 0.5231753348211321
-124.185 -56.350366666666666 2183.94 0.0 0.0 1.0
-126.13133333333333 -26.374666666666666 2183.94 0.0 0.0 1.0
-118.04866666666665 -20.8943 1824.39 0.0 0.0 1.0
-125.35266666666666 -6.326036666666667 2183.94 0.0 0.0 1.0
-126.13133333333333 21.703166666666664 2183.94 0.0 0.0 1.0
-117.03266666666667 22.2041 1798.8033333333333 -4.931529681161002e-16 0.9970763443263402 0.07641180265391785
-125.742 34.3552 2183.94 0.0 0.0 1.0
-117.193 37.7413 1746.3100000000002 0.06990521767399242 0.9088877357956504 0.4111402975411285
-117.82366666666667 55.628099999999996 1775.67 0.0 0.0 1.0
-117.82366666666667 55.628099999999996 1775.67 0.0 0.0 1.0
-125.35266666666666 81.4599 2183.94 0.0 0.0 1.0
-116.681 86.24103333333333 1751.42 -0.9172969643046351 -0.27528320320701605 0.28772458586221916
-126.13133333333333 112.60366666666665 2183.94 0.0 0.0 1.0
-125.93666666666667 132.45766666666665 2183.94 0.0 0.0 1.0
-116.58033333333333 114.58200000000001 1724.5 0.0 0.0 1.0
-124.769 -156.00933333333333 2183.94 0.0 0.0 1.0
-119.12233333333332 -101.40003333333334 1875.86 0.0 0.0 1.0
-120.0 -96.08333333333333 1870.0 0.0 0.0 1.0
-126.32600000000001 -95.8637 2183.94 0.0 0.0 1.0
-119.02433333333333 -75.20326666666666 1824.39 0.0 0.0 1.0
-118.90566666666666 -64.92403333333334 1818.84 0.0 0.0 1.0
-119.11133333333332 -59.55553333333334 1813.33 0.0 0.0 1.0
-118.78766666666667 -56.96966666666666 1813.33 0.0 0.0 1.0
-126.13133333333333 -49.5377 2183.94 0.0 0.0 1.0
-126.13133333333333 -49.5377 2183.94 0.0 0.0 1.0
-120.36466666666666 -10.2938 1818.84 0.0 0.0 1.0
-126.52066666666667 -7.883210000000001 2183.94 0.0 0.0 1.0
-125.93633333333332 -1.654504 2183.94 0.0 0.0 1.0
-126.71533333333333 4.9635 2183.94 0.0 0.0 1.0
-125.742 6.909976666666666 2183.94 0.0 0.0 1.0
-124.96333333333332 15.474466666666666 2183.94 0.0 0.0 1.0
-125.353 28.905133333333335 2183.94 0.0 0.0 1.0
-116.73733333333332 37.62336666666667 1807.8499999999997 5.850108400356403e-28 1.9635721390658765e-28 1.0
-127.49399999999999 64.13626666666666 2183.94 0.0 0.0 1.0
-120.71833333333332 72.4152 1791.62 0.0 0.0 1.0
-125.353 93.52796666666666 2183.94 0.0 0.0 1.0
-117.71966666666667 97.6232 1734.49 0.0 0.0 1.0
-115.76100000000001 101.19466666666666 1729.4800000000002 4.082584509038072e-30 5.656423044128176e-27 1.0
-127.10433333333333 129.1483333333333 2183.94 0.0 0.0 1.0
-115.88 103.407 1727.82 -0.9490347939957824 0.11853313728738978 0.29203228443134815
-117.25566666666667 109.37166666666667 1734.49 0.0 0.0 1.0
-125.158 139.46466666666666 2183.94 0.0 0.0 1.0
-126.90966666666668 -160.48666666666668 2183.94 0.0 0.0 1.0
-126.90966666666668 -160.48666666666668 2183.94 0.0 0.0 1.0
-120.12566666666667 -115.444 1875.86 0.0 0.0 1.0
-120.96133333333334 -105.07833333333333 1875.86 0.0 0.0 1.0
-120.96133333333334 -105.07833333333333 1875.86 0.0 0.0 1.0
-126.71533333333333 -104.62299999999999 2183.94 0.0 0.0 1.0
-126.32600000000001 -95.8637 2183.94 0.0 0.0 1.0
-125.93666666666667 -90.219 2183.94 0.0 0.0 1.0
-119.06766666666665 -66.54509999999999 1818.84 0.0 0.0 1.0
-126.71533333333333 -76.59366666666666 2183.94 0.0 0.0 1.0
-119.11133333333332 -59.55553333333334 1813.33 0.0 0.0 1.0
-119.596 -58.424233333333326 1813.33 0.0 0.0 1.0
-114.68333333333334 -28.711699999999997 1835.58 0.0 0.0 1.0
-128.85633333333334 -34.54986666666667 2183.94 0.0 0.0 1.0
-127.29900000000002 -24.8175 2183.94 0.0 0.0 1.0
-127.68833333333335 -23.455 2183.94 0.0 0.0 1.0
-124.57433333333334 -15.863766666666669 2183.94 0.0 0.0 1.0
-127.49366666666667 4.37956 2183.94 0.0 0.0 1.0
-126.71533333333333 31.435533333333336 2183.94 0.0 0.0 1.0
-128.07766666666666 55.96106666666666 2183.94 0.0 0.0 1.0
-117.82366666666667 55.628099999999996 1775.67 0.0 0.0 1.0
-126.71499999999999 78.15083333333332 2183.94 0.0 0.0 1.0
-126.71499999999999 78.15083333333332 2183.94 0.0 0.0 1.0
-126.13133333333333 112.60366666666665 2183.94 0.0 0.0 1.0
-117.565 96.69566666666667 1734.49 0.0 0.0 1.0
-118.22733333333332 111.05966666666667 1729.4800000000002 -3.426746497917414e-27 -1.609459387430451e-27 1.0
-116.58033333333333 114.58200000000001 1724.5 0.0 0.0 1.0
-122.59933333333333 -130.39833333333334 1881.76 0.0 0.0 1.0
-121.79733333333333 -116.94866666666667 1875.86 0.0 0.0 1.0
-120.0 -96.08333333333333 1870.0 0.0 0.0 1.0
-127.883 -105.98533333333334 2183.94 0.0 0.0 1.0
-129.4403333333333 -82.8224 2183.94 0.0 0.0 1.0
-119.06766666666665 -66.54509999999999 1818.84 0.0 0.0 1.0
-128.27233333333334 -39.02676666666667 2183.94 0.0 0.0 1.0
-119.87966666666667 -29.709699999999998 1797.0 0.0 0.0 1.0
-128.07766666666666 -7.493916666666666 2183.94 0.0 0.0 1.0
-127.883 -5.93674 2183.94 0.0 0.0 1.0
-128.27233333333334 -0.8759140000000002 2183.94 0.0 0.0 1.0
-127.29899999999999 22.2871 2183.94 0.0 0.0 1.0
-127.29899999999999 22.2871 2183.94 0.0 0.0 1.0
-127.10433333333333 33.187333333333335 2183.94 0.0 0.0 1.0
-128.27233333333334 54.79316666666667 2183.94 0.0 0.0 1.0
-128.07766666666666 55.96106666666666 2183.94 0.0 0.0 1.0
-127.10433333333333 80.29196666666667 2183.94 0.0 0.0 1.0
-126.52066666666667 92.16543333333334 2183.94 0.0 0.0 1.0
-126.52066666666667 95.47443333333335 2183.94 0.0 0.0 1.0
-119.72333333333334 81.1078 1775.67 0.0 0.0 1.0
-128.078 108.51566666666666 2183.94 0.0 0.0 1.0
-118.16866666666665 89.34443333333333 1748.01 -0.9577386762242419 -0.28741986606934733 0.011244938991179874
-117.565 96.69566666666667 1734.49 0.0 0.0 1.0
-117.71966666666667 97.6232 1734.49 0.0 0.0 1.0
-118.22733333333333 111.67633333333333 1729.4800000000002 5.24369623243147e-27 3.3690190486142445e-27 1.0
-117.47333333333334 118.25100000000002 1744.61 0.0 0.0 1.0
-122.09633333333333 -131.57233333333332 1881.76 0.0 0.0 1.0
-126.52066666666667 -145.88766666666666 2183.94 0.0 0.0 1.0
-121.63 -105.74733333333332 1875.86 0.0 0.0 1.0
-122.0 -97.58333333333333 1870.0 0.0 0.0 1.0
-128.467 -107.73700000000001 2183.94 0.0 0.0 1.0
-122.71 -93.3464 1871.9533333333331 -0.5274974692887014 -0.7912462039330523 0.30931515426107065
-119.02433333333333 -75.20326666666666 1824.39 0.0 0.0 1.0
-127.10433333333333 -76.20436666666667 2183.94 0.0 0.0 1.0
-119.43433333333333 -57.292899999999996 1813.33 0.0 0.0 1.0
-128.467 -63.55233333333333 2183.94 0.0 0.0 1.0
-128.467 -63.55233333333333 2183.94 0.0 0.0 1.0
-129.05100000000002 -62.579100000000004 2183.94 0.0 0.0 1.0
-128.27233333333334 -57.12896666666666 2183.94 0.0 0.0 1.0
-127.29900000000002 -49.927 2183.94 0.0 0.0 1.0
-121.57800000000002 -34.5387 1815.1666666666667 0.0 -0.9485937375774972 0.3164963207191423
-127.29900000000002 -40.3893 2183.94 0.0 0.0 1.0
-128.467 -37.27493333333333 2183.94 0.0 0.0 1.0
-127.68833333333335 -23.455 2183.94 0.0 0.0 1.0
-128.0776666666667 5.352796666666666 2183.94 0.0 0.0 1.0
-118.22766666666666 11.209833333333334 1809.6766666666665 0.4292611584801958 -0.8586999177706838 0.27994518935116736
-120.77600000000001 46.14823333333333 1746.3099999999997 0.0 -0.9931008029032555 0.11726378500163293
-120.79366666666665 53.0952 1780.95 0.0 0.0 1.0
-128.68033333333332 68.54676666666667 2092.36 0.7941870978730986 -0.529080824019491 0.29889853667551036
-120.71833333333332 72.4152 1791.62 0.0 0.0 1.0
-119.72333333333334 81.1078 1775.67 0.0 0.0 1.0
-119.84333333333332 82.5882 1760.0 0.0 0.0 1.0
-120.66466666666668 83.59726666666666 1754.84 0.0 0.0 1.0
-117.47333333333334 118.25100000000002 1744.61 0.0 0.0 1.0
-121.88266666666668 -118.53433333333332 1879.7933333333333 -0.490124056598852 0.8166570373527838 0.3047124751060565
-122.80033333333334 -109.09100000000001 1875.86 0.0 0.0 1.0
-130.21900000000002 -109.09966666666666 2183.94 0.0 0.0 1.0
-123.05799999999999 -75.107 1829.97 0.0 0.0 1.0
-128.07766666666666 -86.52069999999999 2183.94 0.0 0.0 1.0
-129.4403333333333 -82.8224 2183.94 0.0 0.0 1.0
-120.16266666666667 -40.5691 1824.39 0.0 0.0 1.0
-129.24566666666666 -35.9124 2183.94 0.0 0.0 1.0
-129.82966666666667 -2.8223866666666666 2183.94 0.0 0.0 1.0
-129.05100000000002 5.93674 2183.94 0.0 0.0 1.0
-129.82966666666667 37.46956666666666 2183.94 0.0 0.0 1.0
-129.82966666666667 37.46956666666666 2183.94 0.0 0.0 1.0
-119.04066666666667 34.49983333333333 1788.0533333333333 6.702383972083376e-16 0.8548877528087165 0.5188130010877356
-118.993 39.71803333333333 1807.8499999999997 7.388816212206984e-28 -4.577210548652917e-30 1.0
-128.07766666666666 55.96106666666666 2183.94 0.0 0.0 1.0
-118.81666666666666 49.9408 1770.41 0.0 0.0 1.0
-120.79366666666665 53.0952 1780.95 0.0 0.0 1.0
-120.03933333333333 55.46986666666667 1775.67 0.0 0.0 1.0
-116.60733333333333 78.65873333333333 1770.41 0.0 0.0 1.0
-121.37633333333333 86.9219 1765.2 0.17874679025722415 0.9832065675937294 0.03680258704624986
-117.66633333333334 91.7493 1746.3100000000002 -5.242229258867412e-17 0.8953942234135177 0.44527428027868804
-117.14833333333333 100.26976666666667 1729.4800000000002 -5.302330881749459e-26 6.059716013194024e-26 1.0
-129.05100000000002 130.12166666666667 2183.94 0.0 0.0 1.0
-119.80566666666665 121.20533333333333 1744.61 0.0 0.0 1.0
-120.039 122.82133333333333 1734.49 0.0 0.0 1.0
-130.60833333333332 161.46 2183.94 0.0 0.0 1.0
-129.82966666666667 -140.04866666666666 2183.94 0.0 0.0 1.0
-129.82966666666667 -140.04866666666666 2183.94 0.0 0.0 1.0
-122.96733333333333 -107.92066666666665 1875.86 0.0 0.0 1.0
-122.29866666666665 -106.08166666666666 1875.86 0.0 0.0 1.0
-122.29866666666665 -106.08166666666666 1875.86 0.0 0.0 1.0
-120.08233333333334 -64.3396 1820.6899999999998 0.8080206041966078 -0.40374031114948805 0.42906463889099905
-119.75766666666668 -60.525233333333325 1813.33 0.0 0.0 1.0
-121.91633333333334 -50.6422 1829.97 0.0 0.0 1.0
-120.16266666666667 -40.5691 1824.39 0.0 0.0 1.0
-121.46333333333332 -19.1057 1824.39 0.0 0.0 1.0
-128.46699999999998 -6.52068 2183.94 0.0 0.0 1.0
-129.82966666666667 -2.8223866666666666 2183.94 0.0 0.0 1.0
-129.82966666666667 6.13139 2183.94 0.0 0.0 1.0
-119.758 21.1602 1791.6299999999999 -0.15842835049411488 -0.951802756357217 0.2626251525473486
-119.758 21.1602 1791.6299999999999 -0.15842835049411477 -0.951802756357217 0.2626251525473486
-118.81666666666666 49.9408 1770.41 0.0 0.0 1.0
-121.634 60.5385 1789.8366666666668 -2.7980510949444054e-16 -0.999428827401561 0.033793771005035535
