ply
format ascii 1.0
comment VCGLIB generated
element vertex 861
property float x
property float y
property float z
property float nx
property float ny
property float nz
element face 0
property list uchar int vertex_indices
end_header
-17.244466666666668 36.0 1994.67 0.0 0.0 1.0
-16.888900000000003 41.155566666666665 1994.67 0.0 0.0 1.0
-16.888900000000003 41.86666666666667 1994.67 0.0 0.0 1.0
-17.422233333333335 45.60003333333333 1994.67 0.0 0.0 1.0
-16.888900000000003 57.6889 1994.67 0.0 0.0 1.0
-17.777800000000003 64.62223333333333 1994.67 0.0 0.0 1.0
-17.955566666666666 83.28886666666666 1994.67 0.0 0.0 1.0
-16.888900000000003 87.02223333333335 1994.67 0.0 0.0 1.0
-16.888900000000003 87.02223333333335 1994.67 0.0 0.0 1.0
-16.8889 91.82223333333333 1994.67 0.0 0.0 1.0
-16.888900000000003 97.5111 1994.67 0.0 0.0 1.0
-16.888900000000003 97.5111 1994.67 0.0 0.0 1.0
-16.711133333333336 129.689 1994.67 0.0 0.0 1.0
-16.711133333333336 131.46666666666667 1994.67 0.0 0.0 1.0
-16.355566666666665 140.35566666666668 1994.67 0.0 0.0 1.0
-17.422233333333335 143.55533333333332 1994.67 0.0 0.0 1.0
-16.533366666666666 145.511 1994.67 0.0 0.0 1.0
-23.893999999999995 -126.646 1829.97 0.0 0.0 1.0
-18.3111 -130.2223333333333 1994.67 0.0 0.0 1.0
-18.3111 -110.48866666666667 1994.67 0.0 0.0 1.0
-17.777766666666665 -85.42223333333334 1994.67 0.0 0.0 1.0
-17.4222 -79.37776666666667 1994.67 0.0 0.0 1.0
-17.244466666666664 -69.7778 1994.67 0.0 0.0 1.0
-17.6 -63.73333333333333 1994.67 0.0 0.0 1.0
-17.777800000000003 -54.31113333333334 1994.67 0.0 0.0 1.0
-22.9268 -42.1951 1824.39 0.0 0.0 1.0
-22.7642 -21.7073 1824.39 0.0 0.0 1.0
-17.244433333333333 18.933333333333334 1994.67 0.0 0.0 1.0
-17.599999999999998 36.8889 1994.67 0.0 0.0 1.0
-18.3111 48.444433333333336 1994.67 0.0 0.0 1.0
-17.777800000000003 58.4 1994.67 0.0 0.0 1.0
-17.422233333333335 62.31113333333334 1994.67 0.0 0.0 1.0
-17.777800000000003 64.97776666666665 1994.67 0.0 0.0 1.0
-18.133333333333333 67.46666666666667 1994.67 0.0 0.0 1.0
-16.88886666666667 75.2889 1994.67 0.0 0.0 1.0
-16.355566666666665 90.93333333333334 1994.67 0.0 0.0 1.0
-17.955566666666666 96.26663333333333 1994.67 0.0 0.0 1.0
-18.133333333333336 105.51100000000001 1994.67 0.0 0.0 1.0
-16.533333333333335 106.57766666666667 1994.67 0.0 0.0 1.0
-17.422233333333335 130.22233333333335 1994.67 0.0 0.0 1.0
-17.422233333333335 131.1113333333333 1994.67 0.0 0.0 1.0
-18.3111 -130.22233333333332 1994.67 0.0 0.0 1.0
-18.3111 -110.48866666666667 1994.67 0.0 0.0 1.0
-17.955566666666666 -106.39999999999999 1994.67 0.0 0.0 1.0
-18.133300000000002 -102.84433333333334 1994.67 0.0 0.0 1.0
-19.377766666666666 -100.53333333333335 1994.67 0.0 0.0 1.0
-17.599966666666667 -82.39999999999999 1994.67 0.0 0.0 1.0
-18.488866666666667 -80.44443333333334 1994.67 0.0 0.0 1.0
-19.022233333333332 -73.51113333333333 1994.67 0.0 0.0 1.0
-18.133333333333333 -64.6222 1994.67 0.0 0.0 1.0
-18.666666666666664 -58.044466666666665 1994.67 0.0 0.0 1.0
-17.955566666666666 -31.733299999999996 1994.67 0.0 0.0 1.0
-23.5772 -21.544700000000002 1824.39 0.0 0.0 1.0
-18.666666666666668 -10.39999 1994.67 0.0 0.0 1.0
-18.3111 0.088889 1994.67 0.0 0.0 1.0
-18.3111 18.755566666666667 1994.67 0.0 0.0 1.0
-17.955566666666666 31.733333333333334 1994.67 0.0 0.0 1.0
-18.488866666666667 37.599999999999994 1994.67 0.0 0.0 1.0
-17.422233333333335 41.51113333333333 1994.67 0.0 0.0 1.0
-18.133333333333333 49.333333333333336 1994.67 0.0 0.0 1.0
-18.133333333333333 67.46666666666667 1994.67 0.0 0.0 1.0
-18.3111 73.33333333333333 1994.67 0.0 0.0 1.0
-17.4222 76.1778 1994.67 0.0 0.0 1.0
-17.955566666666666 83.28886666666666 1994.67 0.0 0.0 1.0
-18.666633333333333 100.53333333333335 1994.67 0.0 0.0 1.0
-18.666633333333333 100.53333333333335 1994.67 0.0 0.0 1.0
-18.84443333333333 113.33333333333333 1994.67 0.0 0.0 1.0
-18.84443333333333 113.86666666666667 1994.67 0.0 0.0 1.0
-18.666666666666668 116.88866666666667 1994.67 0.0 0.0 1.0
-17.599966666666663 120.44433333333332 1994.67 0.0 0.0 1.0
-18.84443333333333 121.15566666666666 1994.67 0.0 0.0 1.0
-17.599999999999998 125.067 1994.67 0.0 0.0 1.0
-17.599999999999998 136.9776666666667 1994.67 0.0 0.0 1.0
-18.844466666666666 -142.66666666666666 1994.67 0.0 0.0 1.0
-23.893999999999995 -126.646 1829.97 0.0 0.0 1.0
-17.955566666666666 -134.66666666666666 1994.67 0.0 0.0 1.0
-18.4889 -114.04433333333334 1994.67 0.0 0.0 1.0
-17.955566666666666 -106.39999999999999 1994.67 0.0 0.0 1.0
-18.488899999999997 -72.44446666666666 1994.67 0.0 0.0 1.0
-19.200033333333334 -71.02223333333333 1994.67 0.0 0.0 1.0
-18.84443333333333 -64.97776666666665 1994.67 0.0 0.0 1.0
-18.666666666666668 -58.044466666666665 1994.67 0.0 0.0 1.0
-19.2 -53.95556666666667 1994.67 0.0 0.0 1.0
-22.9268 -42.1951 1824.39 0.0 0.0 1.0
-24.390200000000004 -35.8537 1824.39 0.0 0.0 1.0
-19.022233333333332 -32.97776666666667 1994.67 0.0 0.0 1.0
-19.555566666666667 -28.53333333333333 1994.67 0.0 0.0 1.0
-22.9268 -11.626 1824.39 0.0 0.0 1.0
-18.666666666666668 -10.39999 1994.67 0.0 0.0 1.0
-18.666666666666664 -9.866666666666667 1994.67 0.0 0.0 1.0
-19.022233333333332 -4.177776666666667 1994.67 0.0 0.0 1.0
-19.2 -2.22222 1994.67 0.0 0.0 1.0
-19.2 7.022223333333333 1994.67 0.0 0.0 1.0
-18.133366666666664 13.955566666666668 1994.67 0.0 0.0 1.0
-18.844466666666666 15.022233333333332 1994.67 0.0 0.0 1.0
-18.666666666666664 31.733333333333334 1994.67 0.0 0.0 1.0
-18.488899999999997 47.555566666666664 1994.67 0.0 0.0 1.0
-18.666666666666664 49.86666666666667 1994.67 0.0 0.0 1.0
-19.2 53.244433333333326 1994.67 0.0 0.0 1.0
-18.4889 58.22220000000001 1994.67 0.0 0.0 1.0
-18.311133333333334 61.06666666666666 1994.67 0.0 0.0 1.0
-18.311133333333334 64.8 1994.67 0.0 0.0 1.0
-18.6667 65.33333333333333 1994.67 0.0 0.0 1.0
-18.488899999999997 66.57776666666666 1994.67 0.0 0.0 1.0
-17.955566666666666 83.28886666666666 1994.67 0.0 0.0 1.0
-17.600033333333332 87.2 1994.67 0.0 0.0 1.0
-18.666666666666668 116.88866666666667 1994.67 0.0 0.0 1.0
-19.022233333333332 136.9776666666667 1994.67 0.0 0.0 1.0
-19.555566666666667 142.84466666666665 1994.67 0.0 0.0 1.0
-19.911133333333332 -133.95566666666664 1994.67 0.0 0.0 1.0
-18.3111 -130.22233333333332 1994.67 0.0 0.0 1.0
-20.26666666666667 -126.84466666666667 1994.67 0.0 0.0 1.0
-20.622233333333334 -121.51100000000001 1994.67 0.0 0.0 1.0
-19.0222 -109.95533333333333 1994.67 0.0 0.0 1.0
-19.733333333333334 -91.46666666666665 1994.67 0.0 0.0 1.0
-19.2 -86.13333333333333 1994.67 0.0 0.0 1.0
-18.84443333333333 -56.62223333333333 1994.67 0.0 0.0 1.0
-19.2 -55.555566666666664 1994.67 0.0 0.0 1.0
-19.377766666666666 -54.4889 1994.67 0.0 0.0 1.0
-24.390200000000004 -35.8537 1824.39 0.0 0.0 1.0
-19.911133333333336 -34.5778 1994.67 0.0 0.0 1.0
-24.5528 -22.8455 1824.39 0.0 0.0 1.0
-24.5528 -22.8455 1824.39 0.0 0.0 1.0
-18.844466666666666 -10.044433333333332 1994.67 0.0 0.0 1.0
-19.2 -5.244443333333334 1994.67 0.0 0.0 1.0
-18.844466666666666 -3.2888866666666665 1994.67 0.0 0.0 1.0
-29.953333333333333 1.8674166666666665 1676.1899999999998 -9.635580621783054e-28 -1.2987030840574056e-27 1.0
-19.2 7.022223333333333 1994.67 0.0 0.0 1.0
-19.733333333333334 8.444443333333334 1994.67 0.0 0.0 1.0
-19.555566666666667 16.9778 1994.67 0.0 0.0 1.0
-19.555566666666667 16.977800000000002 1994.67 0.0 0.0 1.0
-18.666666666666664 31.733333333333334 1994.67 0.0 0.0 1.0
-18.488899999999997 47.555566666666664 1994.67 0.0 0.0 1.0
-18.666666666666664 49.86666666666667 1994.67 0.0 0.0 1.0
-19.2 53.244433333333326 1994.67 0.0 0.0 1.0
-19.3778 57.68886666666666 1994.67 0.0 0.0 1.0
-19.2 79.55556666666666 1994.67 0.0 0.0 1.0
-19.2 79.55556666666666 1994.67 0.0 0.0 1.0
-19.2 79.55556666666666 1994.67 0.0 0.0 1.0
-19.2 95.91109999999999 1994.67 0.0 0.0 1.0
-19.9111 103.37766666666666 1994.67 0.0 0.0 1.0
-19.9111 103.37766666666666 1994.67 0.0 0.0 1.0
-18.84443333333333 113.33333333333333 1994.67 0.0 0.0 1.0
-18.84443333333333 113.86666666666667 1994.67 0.0 0.0 1.0
-18.666666666666664 116.88866666666667 1994.67 0.0 0.0 1.0
-19.377766666666663 125.067 1994.67 0.0 0.0 1.0
-18.133333333333333 130.578 1994.67 0.0 0.0 1.0
-25.035700000000002 -127.78766666666665 1829.97 0.0 0.0 1.0
-20.444433333333333 -117.42200000000001 1994.67 0.0 0.0 1.0
-19.9111 -113.86666666666667 1994.67 0.0 0.0 1.0
-19.733333333333334 -109.77766666666666 1994.67 0.0 0.0 1.0
-19.555533333333333 -103.73333333333333 1994.67 0.0 0.0 1.0
-19.377766666666666 -100.53333333333335 1994.67 0.0 0.0 1.0
-20.0889 -98.75543333333333 1994.67 0.0 0.0 1.0
-19.733333333333334 -91.46666666666665 1994.67 0.0 0.0 1.0
-20.6222 -84.88886666666666 1994.67 0.0 0.0 1.0
-19.555533333333333 -81.5111 1994.67 0.0 0.0 1.0
-19.555533333333333 -78.84446666666668 1994.67 0.0 0.0 1.0
-19.377766666666666 -64.44443333333334 1994.67 0.0 0.0 1.0
-19.0222 -63.9111 1994.67 0.0 0.0 1.0
-19.2 -53.95556666666667 1994.67 0.0 0.0 1.0
-24.390200000000004 -35.8537 1824.39 0.0 0.0 1.0
-19.555566666666667 -28.53333333333333 1994.67 0.0 0.0 1.0
-25.040633333333332 -22.520300000000002 1824.39 0.0 0.0 1.0
-19.733333333333334 -6.133333333333333 1994.67 0.0 0.0 1.0
-19.2 -2.22222 1994.67 0.0 0.0 1.0
-19.2 5.955556666666666 1994.67 0.0 0.0 1.0
-19.37776666666667 7.733333333333333 1994.67 0.0 0.0 1.0
-17.777766666666665 26.399999999999995 1994.67 0.0 0.0 1.0
-19.7333 38.13333333333333 1994.67 0.0 0.0 1.0
-19.2 53.244433333333326 1994.67 0.0 0.0 1.0
-20.088866666666664 98.22223333333334 1994.67 0.0 0.0 1.0
-19.199966666666665 99.64433333333334 1994.67 0.0 0.0 1.0
-20.266666666666666 141.0666666666667 1994.67 0.0 0.0 1.0
-19.555566666666667 142.84466666666665 1994.67 0.0 0.0 1.0
-19.911133333333336 -143.20000000000002 1994.67 0.0 0.0 1.0
-25.035700000000002 -127.78766666666665 1829.97 0.0 0.0 1.0
-25.361900000000002 -126.97233333333334 1829.97 0.0 0.0 1.0
-24.872599999999995 -125.66766666666668 1829.97 0.0 0.0 1.0
-20.266666666666666 -126.84466666666667 1994.67 0.0 0.0 1.0
-20.444433333333333 -117.42199999999998 1994.67 0.0 0.0 1.0
-19.733333333333334 -109.77766666666666 1994.67 0.0 0.0 1.0
-20.8 -100.711 1994.67 0.0 0.0 1.0
-20.0889 -97.15553333333332 1994.67 0.0 0.0 1.0
-20.800033333333335 -96.08886666666666 1994.67 0.0 0.0 1.0
-20.444433333333333 -92.1778 1994.67 0.0 0.0 1.0
-19.555566666666667 -74.57780000000001 1994.67 0.0 0.0 1.0
-19.555566666666667 -74.57780000000001 1994.67 0.0 0.0 1.0
-19.733366666666665 -69.60000000000001 1994.67 0.0 0.0 1.0
-20.9778 -68.0 1994.67 0.0 0.0 1.0
-19.555566666666667 -53.244433333333326 1994.67 0.0 0.0 1.0
-19.911133333333336 -34.5778 1994.67 0.0 0.0 1.0
-20.800033333333335 -34.044466666666665 1994.67 0.0 0.0 1.0
-20.444466666666667 -30.133333333333336 1994.67 0.0 0.0 1.0
-20.444466666666667 -29.422233333333338 1994.67 0.0 0.0 1.0
-20.444466666666667 -29.422233333333338 1994.67 0.0 0.0 1.0
-24.715466666666668 -19.9187 1824.39 0.0 0.0 1.0
-25.691100000000002 -18.617900000000002 1824.39 0.0 0.0 1.0
-26.0163 -12.7642 1824.39 0.0 0.0 1.0
-20.266666666666666 -10.39999 1994.67 0.0 0.0 1.0
-20.8 -6.844443333333333 1994.67 0.0 0.0 1.0
-19.733333333333334 8.444443333333334 1994.67 0.0 0.0 1.0
-20.26666666666667 16.9778 1994.67 0.0 0.0 1.0
-30.814833333333336 20.22223333333333 1662.22 0.0 0.0 1.0
-20.8 33.51113333333333 1994.67 0.0 0.0 1.0
-21.155566666666665 41.68886666666667 1994.67 0.0 0.0 1.0
-20.0889 57.333333333333336 1994.67 0.0 0.0 1.0
-21.333333333333332 73.15556666666667 1994.67 0.0 0.0 1.0
-20.977766666666668 91.8222 1994.67 0.0 0.0 1.0
-20.0889 118.48899999999999 1994.67 0.0 0.0 1.0
-19.555566666666667 122.04433333333334 1994.67 0.0 0.0 1.0
-20.444466666666667 123.289 1994.67 0.0 0.0 1.0
-20.62223333333333 136.97766666666666 1994.67 0.0 0.0 1.0
-20.0889 141.77800000000002 1994.67 0.0 0.0 1.0
-20.0889 142.31133333333332 1994.67 0.0 0.0 1.0
-21.333366666666667 145.86633333333333 1994.67 0.0 0.0 1.0
-19.911133333333336 -143.20000000000002 1994.67 0.0 0.0 1.0
-25.361900000000002 -125.99366666666667 1829.97 0.0 0.0 1.0
-21.15556666666667 -122.93366666666667 1994.67 0.0 0.0 1.0
-21.511133333333333 -121.68900000000001 1994.67 0.0 0.0 1.0
-20.977766666666668 -104.089 1994.67 0.0 0.0 1.0
-31.108233333333335 -85.44853333333333 1698.3933333333334 0.9199874853761304 0.12266589759107106 0.3722581151828405
-20.622200000000003 -84.88886666666666 1994.67 0.0 0.0 1.0
-20.6222 -82.75553333333333 1994.67 0.0 0.0 1.0
-20.444466666666667 -29.422233333333335 1994.67 0.0 0.0 1.0
-19.73333333333333 -27.644433333333335 1994.67 0.0 0.0 1.0
-25.85366666666667 -22.520300000000002 1824.39 0.0 0.0 1.0
-30.7003 1.5686296666666666 1676.1899999999998 0.0 0.0 1.0
-31.259266666666665 19.037033333333333 1662.22 0.0 0.0 1.0
-20.8 33.51113333333333 1994.67 0.0 0.0 1.0
-21.155566666666665 41.68886666666667 1994.67 0.0 0.0 1.0
-21.15556666666667 48.9778 1994.67 0.0 0.0 1.0
-21.15556666666667 49.6889 1994.67 0.0 0.0 1.0
-21.15556666666667 50.5778 1994.67 0.0 0.0 1.0
-20.9778 57.333333333333336 1994.67 0.0 0.0 1.0
-21.333333333333332 82.4 1994.67 0.0 0.0 1.0
-21.68886666666667 88.62223333333333 1994.67 0.0 0.0 1.0
-19.9111 96.8 1994.67 0.0 0.0 1.0
-20.977766666666668 105.51100000000001 1994.67 0.0 0.0 1.0
-20.977766666666668 105.51100000000001 1994.67 0.0 0.0 1.0
-20.9778 119.2 1994.67 0.0 0.0 1.0
-20.8 125.067 1994.67 0.0 0.0 1.0
-20.8 131.111 1994.67 0.0 0.0 1.0
-20.622233333333334 136.9776666666667 1994.67 0.0 0.0 1.0
-20.622233333333334 136.9776666666667 1994.67 0.0 0.0 1.0
-20.266666666666666 141.06666666666666 1994.67 0.0 0.0 1.0
-21.333333333333332 -129.511 1994.67 0.0 0.0 1.0
-21.15556666666667 -126.66666666666667 1994.67 0.0 0.0 1.0
-20.444433333333333 -117.42199999999998 1994.67 0.0 0.0 1.0
-20.977766666666668 -113.68900000000001 1994.67 0.0 0.0 1.0
-21.5111 -93.95556666666666 1994.67 0.0 0.0 1.0
-20.977766666666668 -92.88889999999999 1994.67 0.0 0.0 1.0
-20.622200000000003 -84.88886666666666 1994.67 0.0 0.0 1.0
-21.5111 -79.20003333333334 1994.67 0.0 0.0 1.0
-22.04443333333333 -57.6889 1994.67 0.0 0.0 1.0
-21.5111 -50.04443333333333 1994.67 0.0 0.0 1.0
-22.577766666666665 -42.57776666666667 1994.67 0.0 0.0 1.0
-25.691100000000002 -18.617900000000002 1824.39 0.0 0.0 1.0
-26.0163 -12.7642 1824.39 0.0 0.0 1.0
-26.666700000000002 -11.9512 1824.39 0.0 0.0 1.0
-21.5111 -10.39999 1994.67 0.0 0.0 1.0
-30.999066666666664 2.3155966666666665 1676.1899999999998 4.3336279242193936e-27 5.208360749825574e-27 1.0
-21.5111 10.044433333333334 1994.67 0.0 0.0 1.0
-22.755533333333332 13.600033333333334 1994.67 0.0 0.0 1.0
-20.977766666666668 17.866666666666664 1994.67 0.0 0.0 1.0
-20.977766666666668 17.866666666666664 1994.67 0.0 0.0 1.0
-31.4074 18.740733333333335 1662.22 0.0 0.0 1.0
-20.977766666666668 34.222233333333335 1994.67 0.0 0.0 1.0
-21.3333 34.93333333333334 1994.67 0.0 0.0 1.0
-21.3333 34.93333333333334 1994.67 0.0 0.0 1.0
-21.6889 38.4889 1994.67 0.0 0.0 1.0
-21.5111 70.3111 1994.67 0.0 0.0 1.0
-20.977766666666668 71.91109999999999 1994.67 0.0 0.0 1.0
-21.333333333333332 82.39999999999999 1994.67 0.0 0.0 1.0
-21.68886666666667 88.62223333333333 1994.67 0.0 0.0 1.0
-20.977766666666668 91.8222 1994.67 0.0 0.0 1.0
-20.977766666666668 91.8222 1994.67 0.0 0.0 1.0
-21.5111 103.73333333333333 1994.67 0.0 0.0 1.0
-21.5111 105.15533333333333 1994.67 0.0 0.0 1.0
-21.866666666666664 113.33366666666667 1994.67 0.0 0.0 1.0
-21.5111 114.75566666666667 1994.67 0.0 0.0 1.0
-21.5111 114.75566666666667 1994.67 0.0 0.0 1.0
-21.866666666666664 127.91133333333333 1994.67 0.0 0.0 1.0
-22.044466666666665 -132.35566666666668 1994.67 0.0 0.0 1.0
-22.044466666666665 -132.35566666666668 1994.67 0.0 0.0 1.0
-21.866666666666664 -125.95566666666667 1994.67 0.0 0.0 1.0
-21.511133333333333 -122.93366666666667 1994.67 0.0 0.0 1.0
-21.511133333333333 -121.68900000000001 1994.67 0.0 0.0 1.0
-21.511133333333333 -121.68900000000001 1994.67 0.0 0.0 1.0
-22.044433333333334 -112.8 1994.67 0.0 0.0 1.0
-21.15556666666667 -94.84443333333333 1994.67 0.0 0.0 1.0
-21.333366666666667 -34.755566666666674 1994.67 0.0 0.0 1.0
-20.800033333333335 -34.044466666666665 1994.67 0.0 0.0 1.0
-26.666700000000002 -22.1951 1824.39 0.0 0.0 1.0
-30.803933333333333 0.5222473333333334 1677.7600000000002 0.6901756638566324 -0.6902056928861094 -0.21742505496759676
-31.148466666666668 1.4192363333333333 1676.1899999999998 -5.630194501722604e-28 -2.4126854083038604e-28 1.0
-32.6257 7.374300000000001 1671.51 0.0 0.0 1.0
-31.851866666666666 20.3704 1662.22 0.0 0.0 1.0
-22.044466666666665 38.4889 1994.67 0.0 0.0 1.0
-22.044466666666665 38.4889 1994.67 0.0 0.0 1.0
-21.15556666666667 48.9778 1994.67 0.0 0.0 1.0
-21.86666666666667 51.644466666666666 1994.67 0.0 0.0 1.0
-22.04446666666667 57.5111 1994.67 0.0 0.0 1.0
-22.577766666666665 62.666666666666664 1994.67 0.0 0.0 1.0
-22.04443333333333 69.42223333333334 1994.67 0.0 0.0 1.0
-21.333333333333332 82.39999999999999 1994.67 0.0 0.0 1.0
-21.333333333333332 100.17790000000001 1994.67 0.0 0.0 1.0
-22.044433333333334 103.37766666666668 1994.67 0.0 0.0 1.0
-21.866666666666664 114.22233333333334 1994.67 0.0 0.0 1.0
-21.6889 119.55533333333334 1994.67 0.0 0.0 1.0
-22.044433333333334 128.44466666666668 1994.67 0.0 0.0 1.0
-21.866666666666664 133.24433333333334 1994.67 0.0 0.0 1.0
-22.399999999999995 142.84433333333334 1994.67 0.0 0.0 1.0
-22.22223333333333 145.86633333333333 1994.67 0.0 0.0 1.0
-22.222233333333335 145.8663333333333 1994.67 0.0 0.0 1.0
-22.044466666666665 -132.35566666666668 1994.67 0.0 0.0 1.0
-22.044466666666665 -124.889 1994.67 0.0 0.0 1.0
-22.044433333333334 -104.97800000000001 1994.67 0.0 0.0 1.0
-21.866666666666664 -99.822 1994.67 0.0 0.0 1.0
-31.6384 -66.36536666666666 1690.4000000000003 4.7446563960350786e-26 -9.48931279206993e-26 1.0
-23.288899999999998 -66.75556666666667 1994.67 0.0 0.0 1.0
-22.933333333333334 -65.86666666666666 1994.67 0.0 0.0 1.0
-22.04443333333333 -57.6889 1994.67 0.0 0.0 1.0
-22.04443333333333 -57.6889 1994.67 0.0 0.0 1.0
-22.755533333333332 -44.71113333333333 1994.67 0.0 0.0 1.0
-27.479699999999998 -22.1951 1824.39 0.0 0.0 1.0
-26.666700000000002 -11.9512 1824.39 0.0 0.0 1.0
-21.6889 -6.31111 1994.67 0.0 0.0 1.0
-23.111100000000004 -5.066666666666666 1994.67 0.0 0.0 1.0
-32.71453333333333 8.104656666666667 1668.4033333333334 0.6730273870833821 -0.6730500385318418 0.30665580357789024
-21.333333333333332 17.15556666666667 1994.67 0.0 0.0 1.0
-31.851866666666666 20.3704 1662.22 0.0 0.0 1.0
-31.851866666666666 20.3704 1662.22 0.0 0.0 1.0
-32.46053333333333 22.9526 1666.8499999999997 0.0 1.0 0.0
-22.044466666666665 38.4889 1994.67 0.0 0.0 1.0
-22.399999999999995 39.91113333333333 1994.67 0.0 0.0 1.0
-22.399999999999995 39.91113333333333 1994.67 0.0 0.0 1.0
-22.577799999999996 47.555566666666664 1994.67 0.0 0.0 1.0
-21.866666666666664 74.22223333333334 1994.67 0.0 0.0 1.0
-22.755566666666667 100.35556666666666 1994.67 0.0 0.0 1.0
-21.5111 105.15533333333333 1994.67 0.0 0.0 1.0
-21.866666666666664 114.22233333333334 1994.67 0.0 0.0 1.0
-21.6889 119.55533333333334 1994.67 0.0 0.0 1.0
-22.22223333333333 125.24466666666666 1994.67 0.0 0.0 1.0
-21.866666666666664 127.91133333333333 1994.67 0.0 0.0 1.0
-22.044433333333334 130.57766666666666 1994.67 0.0 0.0 1.0
-22.400000000000002 142.8443333333333 1994.67 0.0 0.0 1.0
-23.8222 -146.7553333333333 1994.67 0.0 0.0 1.0
-22.400000000000002 -139.11100000000002 1994.67 0.0 0.0 1.0
-23.8222 -118.84433333333334 1994.67 0.0 0.0 1.0
-23.111099999999997 -116.17766666666667 1994.67 0.0 0.0 1.0
-23.288866666666667 -115.82233333333333 1994.67 0.0 0.0 1.0
-22.933333333333334 -112.622 1994.67 0.0 0.0 1.0
-23.288866666666667 -109.24433333333333 1994.67 0.0 0.0 1.0
-23.288866666666667 -109.24433333333332 1994.67 0.0 0.0 1.0
-23.46666666666667 -106.22233333333334 1994.67 0.0 0.0 1.0
-31.108233333333335 -85.44853333333333 1698.3933333333334 0.9199874853761305 0.12266589759107095 0.3722581151828405
-23.8222 -98.22223333333334 1994.67 0.0 0.0 1.0
-23.288899999999998 -88.8 1994.67 0.0 0.0 1.0
-31.6384 -66.36536666666666 1690.4000000000003 4.7446563960350786e-26 -9.48931279206993e-26 1.0
-22.399966666666668 -47.555566666666664 1994.67 0.0 0.0 1.0
-22.755533333333332 -44.71113333333333 1994.67 0.0 0.0 1.0
-22.9333 -44.0 1994.67 0.0 0.0 1.0
-23.111099999999997 -43.1111 1994.67 0.0 0.0 1.0
-23.822233333333333 -41.333333333333336 1994.67 0.0 0.0 1.0
-23.822233333333333 -31.022233333333332 1994.67 0.0 0.0 1.0
-27.642300000000002 -23.0081 1824.39 0.0 0.0 1.0
-21.5111 -10.39999 1994.67 0.0 0.0 1.0
-31.596633333333333 2.4649900000000002 1676.1899999999998 6.70301260645774e-28 5.0269603378412655e-28 1.0
-32.493 2.6143833333333335 1676.1899999999998 8.377893366851476e-29 2.5134801689206323e-28 1.0
-22.9333 11.288866666666669 1994.67 0.0 0.0 1.0
-23.8222 14.488900000000001 1994.67 0.0 0.0 1.0
-32.444433333333336 19.1852 1662.22 0.0 0.0 1.0
-32.46053333333333 22.9526 1666.8499999999997 0.0 1.0 0.0
-22.400000000000002 31.555566666666664 1994.67 0.0 0.0 1.0
-23.111100000000004 52.71113333333333 1994.67 0.0 0.0 1.0
-23.111099999999997 54.84446666666667 1994.67 0.0 0.0 1.0
-23.111099999999997 59.46666666666667 1994.67 0.0 0.0 1.0
-22.9333 60.1778 1994.67 0.0 0.0 1.0
-22.9333 60.1778 1994.67 0.0 0.0 1.0
-22.577766666666665 62.666666666666664 1994.67 0.0 0.0 1.0
-23.288866666666667 66.75556666666667 1994.67 0.0 0.0 1.0
-23.288866666666667 66.75556666666667 1994.67 0.0 0.0 1.0
-22.755566666666667 69.24446666666667 1994.67 0.0 0.0 1.0
-22.755533333333332 75.11110000000001 1994.67 0.0 0.0 1.0
-23.466633333333334 76.35553333333333 1994.67 0.0 0.0 1.0
-24.177766666666667 86.1333 1994.67 0.0 0.0 1.0
-23.111099999999997 89.33333333333333 1994.67 0.0 0.0 1.0
-23.111099999999997 89.33333333333333 1994.67 0.0 0.0 1.0
-22.755566666666667 103.55533333333334 1994.67 0.0 0.0 1.0
-22.9333 122.75566666666667 1994.67 0.0 0.0 1.0
-22.9333 122.75566666666667 1994.67 0.0 0.0 1.0
-22.9333 122.75566666666667 1994.67 0.0 0.0 1.0
-22.755566666666667 128.62233333333333 1994.67 0.0 0.0 1.0
-21.866666666666664 133.24433333333334 1994.67 0.0 0.0 1.0
-22.933333333333334 143.2 1994.67 0.0 0.0 1.0
-22.22223333333333 145.86633333333333 1994.67 0.0 0.0 1.0
-23.4667 -134.311 1994.67 0.0 0.0 1.0
-23.822233333333333 -129.15533333333335 1994.67 0.0 0.0 1.0
-23.46666666666667 -116.17766666666667 1994.67 0.0 0.0 1.0
-23.822233333333333 -114.40000000000002 1994.67 0.0 0.0 1.0
-23.46666666666667 -106.22233333333334 1994.67 0.0 0.0 1.0
-23.288899999999998 -88.8 1994.67 0.0 0.0 1.0
-23.288899999999998 -87.37776666666667 1994.67 0.0 0.0 1.0
-24.000033333333334 -86.84443333333333 1994.67 0.0 0.0 1.0
-24.355566666666665 -81.33333333333333 1994.67 0.0 0.0 1.0
-32.0904 -66.51603333333334 1690.4000000000003 -3.9538803300292604e-26 8.303148693061214e-26 1.0
-32.55903333333333 -65.0425 1695.18 0.0 0.0 1.0
-32.55903333333333 -64.7403 1695.18 0.0 0.0 1.0
-23.64446666666667 -67.82223333333333 1994.67 0.0 0.0 1.0
-23.64446666666667 -67.82223333333333 1994.67 0.0 0.0 1.0
-24.53333333333333 -62.3111 1994.67 0.0 0.0 1.0
-23.822233333333333 -42.400000000000006 1994.67 0.0 0.0 1.0
-22.400000000000002 -30.133333333333336 1994.67 0.0 0.0 1.0
-27.479699999999998 -22.1951 1824.39 0.0 0.0 1.0
-24.355566666666665 -22.133300000000002 1994.67 0.0 0.0 1.0
-32.56553333333333 7.508753333333334 1668.4033333333334 0.7069936957891955 -0.7070174904096951 -0.016916925521839214
-32.444433333333336 19.1852 1662.22 0.0 0.0 1.0
-33.333333333333336 21.11113333333333 1662.22 0.0 0.0 1.0
-24.355566666666665 31.2 1994.67 0.0 0.0 1.0
-22.04443333333333 35.64443333333333 1994.67 0.0 0.0 1.0
-23.46666666666667 47.02223333333333 1994.67 0.0 0.0 1.0
-23.822233333333333 56.79999999999999 1994.67 0.0 0.0 1.0
-23.822233333333333 56.79999999999999 1994.67 0.0 0.0 1.0
-23.644433333333335 59.288900000000005 1994.67 0.0 0.0 1.0
-22.755566666666667 69.24446666666667 1994.67 0.0 0.0 1.0
-23.644433333333335 77.60000000000001 1994.67 0.0 0.0 1.0
-23.111099999999997 89.33333333333333 1994.67 0.0 0.0 1.0
-22.755566666666667 103.55533333333334 1994.67 0.0 0.0 1.0
-24.355566666666665 110.66666666666667 1994.67 0.0 0.0 1.0
-22.577799999999996 113.51133333333333 1994.67 0.0 0.0 1.0
-22.755566666666663 125.95566666666666 1994.67 0.0 0.0 1.0
-23.46666666666667 128.44433333333333 1994.67 0.0 0.0 1.0
-23.8222 -146.7553333333333 1994.67 0.0 0.0 1.0
-29.439333333333334 -127.46166666666666 1829.97 0.0 0.0 1.0
-23.822233333333333 -129.15533333333335 1994.67 0.0 0.0 1.0
-23.822233333333333 -129.15533333333335 1994.67 0.0 0.0 1.0
-23.644433333333335 -124.35566666666666 1994.67 0.0 0.0 1.0
-24.53333333333333 -118.84433333333334 1994.67 0.0 0.0 1.0
-23.46666666666667 -115.82233333333333 1994.67 0.0 0.0 1.0
-24.0 -113.51100000000001 1994.67 0.0 0.0 1.0
-23.288866666666667 -109.24433333333333 1994.67 0.0 0.0 1.0
-24.0 -106.40000000000002 1994.67 0.0 0.0 1.0
-22.933333333333337 -96.8 1994.67 0.0 0.0 1.0
-33.333333333333336 -79.7727 1700.0 0.0 0.0 1.0
-32.665866666666666 -79.16879999999999 1696.7866666666669 0.9873542003785024 2.5550956667425302e-17 0.1585297542889914
-32.665866666666666 -79.16879999999999 1696.7866666666669 0.9873542003785026 8.835449868573709e-17 0.15852975428899133
-32.0904 -66.51603333333334 1690.4000000000003 -3.9538803300292604e-26 8.303148693061214e-26 1.0
-24.177766666666667 -74.04443333333334 1994.67 0.0 0.0 1.0
-24.177766666666667 -74.04443333333333 1994.67 0.0 0.0 1.0
-24.0 -69.42219999999999 1994.67 0.0 0.0 1.0
-23.822233333333333 -67.11113333333334 1994.67 0.0 0.0 1.0
-23.822233333333333 -67.11113333333334 1994.67 0.0 0.0 1.0
-23.822233333333333 -33.86666666666667 1994.67 0.0 0.0 1.0
-24.0 -20.355533333333334 1994.67 0.0 0.0 1.0
-32.6257 7.374300000000001 1671.51 0.0 0.0 1.0
-23.8222 13.422233333333333 1994.67 0.0 0.0 1.0
-33.333333333333336 21.11113333333333 1662.22 0.0 0.0 1.0
-33.351866666666666 23.249733333333335 1666.8499999999997 8.132894108042952e-27 1.6265788216086034e-26 1.0
-33.351866666666666 23.249733333333335 1666.8499999999997 8.13289410804295e-27 1.626578821608603e-26 1.0
-23.288866666666667 66.75556666666667 1994.67 0.0 0.0 1.0
-23.288866666666667 92.35553333333333 1994.67 0.0 0.0 1.0
-22.755566666666667 100.35556666666666 1994.67 0.0 0.0 1.0
-23.288899999999998 113.86666666666667 1994.67 0.0 0.0 1.0
-24.1778 127.911 1994.67 0.0 0.0 1.0
-24.888899999999996 137.86666666666667 1994.67 0.0 0.0 1.0
-23.644433333333335 143.0223333333333 1994.67 0.0 0.0 1.0
-23.644433333333335 143.0223333333333 1994.67 0.0 0.0 1.0
-23.8222 -146.7553333333333 1994.67 0.0 0.0 1.0
-24.177766666666667 -128.79999999999998 1994.67 0.0 0.0 1.0
-24.53333333333333 -124.711 1994.67 0.0 0.0 1.0
-24.53333333333333 -118.84433333333334 1994.67 0.0 0.0 1.0
-24.53333333333333 -112.8 1994.67 0.0 0.0 1.0
-24.0 -106.40000000000002 1994.67 0.0 0.0 1.0
-23.288866666666667 -99.46656666666667 1994.67 0.0 0.0 1.0
-24.355566666666665 -81.33333333333333 1994.67 0.0 0.0 1.0
-24.177766666666667 -74.04443333333334 1994.67 0.0 0.0 1.0
-24.0 -69.42219999999999 1994.67 0.0 0.0 1.0
-24.53333333333333 -62.3111 1994.67 0.0 0.0 1.0
-23.8222 -55.20000000000001 1994.67 0.0 0.0 1.0
-25.4222 -53.42223333333334 1994.67 0.0 0.0 1.0
-24.355533333333337 -43.82223333333334 1994.67 0.0 0.0 1.0
-24.88886666666667 -36.0 1994.67 0.0 0.0 1.0
-24.88886666666666 -18.2222 1994.67 0.0 0.0 1.0
-24.177766666666667 -4.533333333333333 1994.67 0.0 0.0 1.0
-32.9412 3.06256 1676.1899999999998 -1.675616060492889e-28 -1.0054369346179966e-27 1.0
-32.9412 3.06256 1676.1899999999998 -1.6756160604928887e-28 -1.0054369346179964e-27 1.0
-33.966499999999996 8.41713 1671.51 0.0 0.0 1.0
-23.8222 12.177766666666665 1994.67 0.0 0.0 1.0
-24.177766666666667 15.555566666666666 1994.67 0.0 0.0 1.0
-33.333333333333336 21.11113333333333 1662.22 0.0 0.0 1.0
-33.351866666666666 23.249733333333335 1666.8499999999997 8.13289410804295e-27 1.626578821608603e-26 1.0
-23.111100000000004 39.555566666666664 1994.67 0.0 0.0 1.0
-25.066633333333332 43.288900000000005 1994.67 0.0 0.0 1.0
-25.066633333333332 43.288900000000005 1994.67 0.0 0.0 1.0
-24.177766666666667 47.555566666666664 1994.67 0.0 0.0 1.0
-24.711100000000002 48.800000000000004 1994.67 0.0 0.0 1.0
-24.711100000000002 48.79999999999999 1994.67 0.0 0.0 1.0
-24.177766666666667 53.95556666666666 1994.67 0.0 0.0 1.0
-24.355566666666665 56.62223333333333 1994.67 0.0 0.0 1.0
-24.888900000000003 59.644466666666666 1994.67 0.0 0.0 1.0
-23.644433333333335 77.60000000000001 1994.67 0.0 0.0 1.0
-25.066666666666666 85.95553333333334 1994.67 0.0 0.0 1.0
-24.355566666666665 89.86666666666667 1994.67 0.0 0.0 1.0
-25.066666666666666 138.75566666666668 1994.67 0.0 0.0 1.0
-25.777800000000003 -143.02233333333334 1994.67 0.0 0.0 1.0
-30.0917 -126.80900000000001 1829.97 0.0 0.0 1.0
-25.422233333333335 -134.13333333333333 1994.67 0.0 0.0 1.0
-24.53333333333333 -128.97766666666666 1994.67 0.0 0.0 1.0
-24.711100000000002 -126.13333333333333 1994.67 0.0 0.0 1.0
-24.53333333333333 -118.84433333333334 1994.67 0.0 0.0 1.0
-24.53333333333333 -112.8 1994.67 0.0 0.0 1.0
-33.333333333333336 -79.7727 1700.0 0.0 0.0 1.0
-24.000033333333334 -86.84443333333333 1994.67 0.0 0.0 1.0
-25.244433333333333 -82.57776666666666 1994.67 0.0 0.0 1.0
-24.711133333333333 -42.5778 1994.67 0.0 0.0 1.0
-24.888900000000003 -33.333333333333336 1994.67 0.0 0.0 1.0
-25.600000000000005 -5.9555533333333335 1994.67 0.0 0.0 1.0
-25.599999999999998 16.0889 1994.67 0.0 0.0 1.0
-24.711100000000002 48.800000000000004 1994.67 0.0 0.0 1.0
-25.244433333333333 50.75553333333334 1994.67 0.0 0.0 1.0
-24.888900000000003 56.26666666666667 1994.67 0.0 0.0 1.0
-24.888900000000003 56.26666666666667 1994.67 0.0 0.0 1.0
-24.888900000000003 59.644466666666666 1994.67 0.0 0.0 1.0
-24.888900000000003 59.644466666666666 1994.67 0.0 0.0 1.0
-25.422233333333335 60.8889 1994.67 0.0 0.0 1.0
-25.95556666666667 71.91109999999999 1994.67 0.0 0.0 1.0
-25.066666666666666 85.95553333333334 1994.67 0.0 0.0 1.0
-24.888900000000003 88.62223333333333 1994.67 0.0 0.0 1.0
-26.311133333333334 105.867 1994.67 0.0 0.0 1.0
-24.888900000000003 121.15566666666666 1994.67 0.0 0.0 1.0
-24.1778 127.911 1994.67 0.0 0.0 1.0
-25.77776666666667 130.22199999999998 1994.67 0.0 0.0 1.0
-25.066666666666666 138.75566666666668 1994.67 0.0 0.0 1.0
-25.777800000000003 -143.02233333333334 1994.67 0.0 0.0 1.0
-30.0917 -127.78766666666665 1829.97 0.0 0.0 1.0
-30.0917 -127.78766666666665 1829.97 0.0 0.0 1.0
-30.0917 -126.80900000000001 1829.97 0.0 0.0 1.0
-33.446333333333335 -66.66666666666667 1690.4000000000003 1.3184461964149486e-27 7.909656290028724e-27 1.0
-33.446333333333335 -66.66666666666667 1690.4000000000003 1.3184461964149486e-27 7.909656290028724e-27 1.0
-33.16336666666667 -65.0425 1695.18 0.0 0.0 1.0
-33.16336666666667 -64.8914 1695.18 0.0 0.0 1.0
-24.711100000000002 -71.7333 1994.67 0.0 0.0 1.0
-24.533333333333335 -62.3111 1994.67 0.0 0.0 1.0
-27.022233333333332 -58.9333 1994.67 0.0 0.0 1.0
-25.066666666666666 -43.111133333333335 1994.67 0.0 0.0 1.0
-24.888900000000003 -33.333333333333336 1994.67 0.0 0.0 1.0
-25.599999999999998 -23.199966666666665 1994.67 0.0 0.0 1.0
-26.4889 -10.044433333333334 1994.67 0.0 0.0 1.0
-26.311133333333334 -8.266666666666667 1994.67 0.0 0.0 1.0
-25.599999999999998 -5.9555533333333335 1994.67 0.0 0.0 1.0
-32.84863333333333 -1.434699 1690.4333333333334 0.27273887329618735 0.953450402851839 0.12863061958488864
-32.84863333333333 -1.434699 1690.4333333333334 0.27273887329618673 0.9534504028518391 0.12863061958488864
-33.333333333333336 18.740733333333335 1662.22 0.0 0.0 1.0
-25.777800000000003 85.59999999999998 1994.67 0.0 0.0 1.0
-25.777800000000003 138.4 1994.67 0.0 0.0 1.0
-26.666666666666668 146.9333333333333 1994.67 0.0 0.0 1.0
-30.0917 -126.80899999999998 1829.97 0.0 0.0 1.0
-25.955566666666666 -129.68866666666668 1994.67 0.0 0.0 1.0
-27.2 -117.42233333333333 1994.67 0.0 0.0 1.0
-26.133333333333336 -111.02233333333334 1994.67 0.0 0.0 1.0
-26.133300000000002 -105.68866666666668 1994.67 0.0 0.0 1.0
-25.422233333333335 -84.35556666666668 1994.67 0.0 0.0 1.0
-24.7111 -67.11113333333334 1994.67 0.0 0.0 1.0
-26.133300000000002 -36.17776666666666 1994.67 0.0 0.0 1.0
-27.022199999999998 -15.022199999999998 1994.67 0.0 0.0 1.0
-27.022199999999998 -14.844433333333333 1994.67 0.0 0.0 1.0
-25.599999999999998 -5.9555533333333335 1994.67 0.0 0.0 1.0
-26.84443333333333 18.04443333333333 1994.67 0.0 0.0 1.0
-25.066633333333332 43.288900000000005 1994.67 0.0 0.0 1.0
-26.133333333333336 52.17776666666666 1994.67 0.0 0.0 1.0
-25.422233333333335 59.644466666666666 1994.67 0.0 0.0 1.0
-25.422233333333335 60.8889 1994.67 0.0 0.0 1.0
-26.4889 63.199999999999996 1994.67 0.0 0.0 1.0
-27.2 67.46666666666667 1994.67 0.0 0.0 1.0
-26.666666666666668 71.7333 1994.67 0.0 0.0 1.0
-24.5333 76.0 1994.67 0.0 0.0 1.0
-24.711100000000002 78.4889 1994.67 0.0 0.0 1.0
-26.488866666666667 83.64443333333334 1994.67 0.0 0.0 1.0
-26.488866666666667 83.64443333333334 1994.67 0.0 0.0 1.0
-25.955566666666666 86.84443333333333 1994.67 0.0 0.0 1.0
-26.84443333333333 109.24466666666666 1994.67 0.0 0.0 1.0
-25.77776666666667 130.222 1994.67 0.0 0.0 1.0
-25.77776666666667 130.22199999999998 1994.67 0.0 0.0 1.0
-25.7778 -143.02233333333334 1994.67 0.0 0.0 1.0
-26.4889 -129.33333333333334 1994.67 0.0 0.0 1.0
-26.133366666666664 -128.97766666666666 1994.67 0.0 0.0 1.0
-27.377799999999997 -102.31099999999999 1994.67 0.0 0.0 1.0
-25.7778 -96.08890000000001 1994.67 0.0 0.0 1.0
-27.022233333333332 -94.66666666666667 1994.67 0.0 0.0 1.0
-34.09093333333333 -78.10603333333334 1700.0 0.0 0.0 1.0
-35.000033333333334 -76.43936666666667 1700.0 0.0 0.0 1.0
-34.8253 -68.81963333333334 1695.18 0.0 0.0 1.0
-34.9764 -67.30876666666667 1695.18 0.0 0.0 1.0
-26.844466666666666 -75.46666666666667 1994.67 0.0 0.0 1.0
-27.2 -74.22223333333334 1994.67 0.0 0.0 1.0
-34.871833333333335 -55.536566666666666 1704.84 0.0 0.0 1.0
-34.871833333333335 -55.536566666666666 1704.84 0.0 0.0 1.0
-27.022233333333332 -58.9333 1994.67 0.0 0.0 1.0
-27.022233333333332 -49.155566666666665 1994.67 0.0 0.0 1.0
-27.73333333333333 -20.711133333333333 1994.67 0.0 0.0 1.0
-26.311133333333334 -8.266666666666667 1994.67 0.0 0.0 1.0
-26.311133333333334 -8.266666666666667 1994.67 0.0 0.0 1.0
-26.133333333333336 -5.42222 1994.67 0.0 0.0 1.0
-35.1583 8.715083333333334 1671.51 0.0 0.0 1.0
-27.377799999999997 30.3111 1994.67 0.0 0.0 1.0
-26.666666666666668 38.48886666666667 1994.67 0.0 0.0 1.0
-26.4889 63.20000000000001 1994.67 0.0 0.0 1.0
-26.4889 63.199999999999996 1994.67 0.0 0.0 1.0
-26.666666666666668 71.7333 1994.67 0.0 0.0 1.0
-26.4889 84.88889999999999 1994.67 0.0 0.0 1.0
-26.84443333333333 87.55556666666666 1994.67 0.0 0.0 1.0
-27.200033333333334 95.91109999999999 1994.67 0.0 0.0 1.0
-27.200033333333334 95.91109999999999 1994.67 0.0 0.0 1.0
-27.022233333333332 103.19999999999999 1994.67 0.0 0.0 1.0
-27.2 111.55566666666668 1994.67 0.0 0.0 1.0
-26.13336666666667 121.68900000000001 1994.67 0.0 0.0 1.0
-27.377799999999997 123.11133333333333 1994.67 0.0 0.0 1.0
-27.022233333333332 137.511 1994.67 0.0 0.0 1.0
-26.666666666666668 138.04433333333336 1994.67 0.0 0.0 1.0
-26.666666666666668 146.9333333333333 1994.67 0.0 0.0 1.0
-27.2 -142.31133333333332 1994.67 0.0 0.0 1.0
-27.55553333333333 -118.13366666666666 1994.67 0.0 0.0 1.0
-26.84443333333333 -109.77766666666666 1994.67 0.0 0.0 1.0
-27.733333333333334 -108.17766666666667 1994.67 0.0 0.0 1.0
-27.377799999999997 -102.31099999999999 1994.67 0.0 0.0 1.0
-35.60606666666666 -70.53033333333333 1700.0 0.0 0.0 1.0
-34.9764 -67.30876666666667 1695.18 0.0 0.0 1.0
-34.9764 -67.30876666666667 1695.18 0.0 0.0 1.0
-27.2 -74.22223333333334 1994.67 0.0 0.0 1.0
-27.377799999999997 -51.288900000000005 1994.67 0.0 0.0 1.0
-27.377766666666663 -45.77779999999999 1994.67 0.0 0.0 1.0
-27.37776666666667 -45.77779999999999 1994.67 0.0 0.0 1.0
-27.73333333333333 -20.711133333333333 1994.67 0.0 0.0 1.0
-27.2 -10.755533333333332 1994.67 0.0 0.0 1.0
-27.733333333333334 14.844433333333333 1994.67 0.0 0.0 1.0
-27.377766666666663 16.62223333333333 1994.67 0.0 0.0 1.0
-27.37776666666667 16.622233333333334 1994.67 0.0 0.0 1.0
-27.2 18.755533333333332 1994.67 0.0 0.0 1.0
-27.733333333333334 29.066666666666666 1994.67 0.0 0.0 1.0
-26.13333333333333 53.6 1994.67 0.0 0.0 1.0
-27.2 67.46666666666667 1994.67 0.0 0.0 1.0
-27.2 71.2 1994.67 0.0 0.0 1.0
-27.2 71.2 1994.67 0.0 0.0 1.0
-27.022233333333332 71.55553333333334 1994.67 0.0 0.0 1.0
-26.666666666666668 84.35556666666666 1994.67 0.0 0.0 1.0
-27.377766666666663 102.13333333333333 1994.67 0.0 0.0 1.0
-27.022233333333332 103.2 1994.67 0.0 0.0 1.0
-27.2 108.53333333333335 1994.67 0.0 0.0 1.0
-27.022199999999998 110.66666666666667 1994.67 0.0 0.0 1.0
-27.555566666666667 -133.77800000000002 1994.67 0.0 0.0 1.0
-28.266666666666666 -124.35566666666666 1994.67 0.0 0.0 1.0
-28.266666666666666 -115.46666666666668 1994.67 0.0 0.0 1.0
-28.444433333333333 -105.86666666666667 1994.67 0.0 0.0 1.0
-28.0889 -93.42223333333334 1994.67 0.0 0.0 1.0
-35.75756666666667 -73.25756666666666 1700.0 0.0 0.0 1.0
-27.2 -74.22223333333334 1994.67 0.0 0.0 1.0
-27.555533333333333 -44.8889 1994.67 0.0 0.0 1.0
-28.266633333333335 -44.35556666666667 1994.67 0.0 0.0 1.0
-27.55553333333333 -35.28886666666667 1994.67 0.0 0.0 1.0
-27.2 -30.133333333333336 1994.67 0.0 0.0 1.0
-28.444433333333336 -25.15556666666667 1994.67 0.0 0.0 1.0
-27.022199999999998 -24.444433333333336 1994.67 0.0 0.0 1.0
-27.37776666666667 16.622233333333334 1994.67 0.0 0.0 1.0
-27.733333333333334 20.711100000000002 1994.67 0.0 0.0 1.0
-27.733333333333334 29.066666666666666 1994.67 0.0 0.0 1.0
-27.9111 70.31113333333333 1994.67 0.0 0.0 1.0
-27.9111 88.26666666666667 1994.67 0.0 0.0 1.0
-27.37776666666667 102.13333333333333 1994.67 0.0 0.0 1.0
-27.2 111.55566666666668 1994.67 0.0 0.0 1.0
-28.622200000000003 131.111 1994.67 0.0 0.0 1.0
-27.73333333333333 137.15533333333335 1994.67 0.0 0.0 1.0
-28.0889 146.39999999999998 1994.67 0.0 0.0 1.0
-28.977800000000002 -125.42233333333333 1994.67 0.0 0.0 1.0
-28.62223333333333 -116.35533333333335 1994.67 0.0 0.0 1.0
-27.733333333333334 -103.55533333333334 1994.67 0.0 0.0 1.0
-35.30303333333333 -74.7727 1700.0 0.0 0.0 1.0
-35.45453333333334 -71.74243333333334 1700.0 0.0 0.0 1.0
-35.60606666666666 -70.53033333333333 1700.0 0.0 0.0 1.0
-28.8 -69.24443333333333 1994.67 0.0 0.0 1.0
-34.871833333333335 -55.536566666666666 1704.84 0.0 0.0 1.0
-28.266666666666666 -52.71113333333333 1994.67 0.0 0.0 1.0
-34.39443333333333 3.36491 1677.7600000000002 0.8422145651552655 -1.8430938230237476e-17 0.5391424915922758
-36.79703333333333 8.417133333333334 1671.51 0.0 0.0 1.0
-28.0889 18.9333 1994.67 0.0 0.0 1.0
-28.0889 20.711100000000002 1994.67 0.0 0.0 1.0
-27.733333333333334 29.066666666666666 1994.67 0.0 0.0 1.0
-28.800033333333335 42.57776666666667 1994.67 0.0 0.0 1.0
-28.800033333333335 42.57776666666667 1994.67 0.0 0.0 1.0
-28.8 51.1111 1994.67 0.0 0.0 1.0
-28.266666666666666 67.46666666666667 1994.67 0.0 0.0 1.0
-28.8 90.93329999999999 1994.67 0.0 0.0 1.0
-27.91113333333333 95.02223333333335 1994.67 0.0 0.0 1.0
-28.0889 108.88900000000001 1994.67 0.0 0.0 1.0
-29.333333333333332 117.60000000000001 1994.67 0.0 0.0 1.0
-28.0889 138.57766666666666 1994.67 0.0 0.0 1.0
-28.8 -141.95566666666664 1994.67 0.0 0.0 1.0
-28.266666666666666 -124.35566666666666 1994.67 0.0 0.0 1.0
-28.622233333333337 -116.35533333333335 1994.67 0.0 0.0 1.0
-28.622233333333337 -116.35533333333335 1994.67 0.0 0.0 1.0
-28.444433333333336 -105.86666666666667 1994.67 0.0 0.0 1.0
-28.444433333333336 -105.86666666666667 1994.67 0.0 0.0 1.0
-30.222233333333335 -79.91109999999999 1994.67 0.0 0.0 1.0
-28.8 -69.24443333333333 1994.67 0.0 0.0 1.0
-28.26666666666667 -58.22220000000001 1994.67 0.0 0.0 1.0
-33.8211 -36.8293 1824.39 0.0 0.0 1.0
-29.155533333333334 -34.93333333333334 1994.67 0.0 0.0 1.0
-28.977766666666668 -26.933333333333337 1994.67 0.0 0.0 1.0
-29.333333333333332 -15.3778 1994.67 0.0 0.0 1.0
-29.333333333333332 -15.3778 1994.67 0.0 0.0 1.0
-28.977766666666668 -10.22221 1994.67 0.0 0.0 1.0
-29.333333333333332 -9.688886666666667 1994.67 0.0 0.0 1.0
-29.511133333333333 -5.6000000000000005 1994.67 0.0 0.0 1.0
-29.333333333333332 4.533333333333334 1994.67 0.0 0.0 1.0
-28.444433333333336 13.955533333333333 1994.67 0.0 0.0 1.0
-28.0889 18.9333 1994.67 0.0 0.0 1.0
-29.6889 38.4889 1994.67 0.0 0.0 1.0
-28.8 51.1111 1994.67 0.0 0.0 1.0
-29.333333333333332 64.08886666666666 1994.67 0.0 0.0 1.0
-27.9111 70.31113333333333 1994.67 0.0 0.0 1.0
-28.62223333333333 92.7111 1994.67 0.0 0.0 1.0
-28.977800000000002 95.02223333333335 1994.67 0.0 0.0 1.0
-28.444433333333336 103.73333333333333 1994.67 0.0 0.0 1.0
-27.9111 111.02233333333334 1994.67 0.0 0.0 1.0
-29.511133333333333 125.59999999999998 1994.67 0.0 0.0 1.0
-28.622200000000003 131.111 1994.67 0.0 0.0 1.0
-28.622200000000003 137.68866666666668 1994.67 0.0 0.0 1.0
-29.86666666666667 -144.26666666666665 1994.67 0.0 0.0 1.0
-30.04443333333333 -141.0666666666667 1994.67 0.0 0.0 1.0
-29.333299999999998 -117.95566666666667 1994.67 0.0 0.0 1.0
-29.333299999999998 -117.95566666666667 1994.67 0.0 0.0 1.0
-29.155533333333334 -117.24433333333333 1994.67 0.0 0.0 1.0
-30.933333333333334 -100.53323333333333 1994.67 0.0 0.0 1.0
-29.6889 -94.84443333333333 1994.67 0.0 0.0 1.0
-29.866666666666664 -86.13333333333333 1994.67 0.0 0.0 1.0
-29.5111 -74.2222 1994.67 0.0 0.0 1.0
-29.5111 -74.2222 1994.67 0.0 0.0 1.0
-28.8 -69.24443333333333 1994.67 0.0 0.0 1.0
-35.17573333333333 -56.44826666666666 1704.84 0.0 0.0 1.0
-29.155533333333334 -57.15553333333333 1994.67 0.0 0.0 1.0
-29.333299999999998 -55.377766666666666 1994.67 0.0 0.0 1.0
-29.333333333333332 -53.24446666666666 1994.67 0.0 0.0 1.0
-29.6889 -47.55553333333334 1994.67 0.0 0.0 1.0
-29.688866666666666 -44.1778 1994.67 0.0 0.0 1.0
-28.799966666666666 -43.82223333333334 1994.67 0.0 0.0 1.0
-34.308899999999994 -35.69106666666667 1824.39 0.0 0.0 1.0
-29.155533333333334 -20.888900000000003 1994.67 0.0 0.0 1.0
-28.977766666666668 -10.22221 1994.67 0.0 0.0 1.0
-29.333333333333332 -6.4888900000000005 1994.67 0.0 0.0 1.0
-29.5111 -0.44444466666666665 1994.67 0.0 0.0 1.0
-29.5111 -0.44444466666666665 1994.67 0.0 0.0 1.0
-29.333333333333332 2.9333333333333336 1994.67 0.0 0.0 1.0
-28.444433333333336 13.955533333333333 1994.67 0.0 0.0 1.0
-39.51983333333333 22.8255 1657.62 0.0 0.0 1.0
-30.044433333333334 47.199999999999996 1994.67 0.0 0.0 1.0
-28.8 51.1111 1994.67 0.0 0.0 1.0
-29.6889 63.55553333333334 1994.67 0.0 0.0 1.0
-29.333333333333332 67.11113333333333 1994.67 0.0 0.0 1.0
-29.333299999999998 79.0222 1994.67 0.0 0.0 1.0
-29.333299999999998 79.0222 1994.67 0.0 0.0 1.0
-29.688866666666666 79.91109999999999 1994.67 0.0 0.0 1.0
-28.622200000000003 83.82223333333333 1994.67 0.0 0.0 1.0
-28.622200000000003 83.82223333333333 1994.67 0.0 0.0 1.0
-28.444433333333336 89.5111 1994.67 0.0 0.0 1.0
-29.333333333333332 104.8 1994.67 0.0 0.0 1.0
-28.622200000000003 111.55566666666668 1994.67 0.0 0.0 1.0
-29.86663333333333 114.04466666666667 1994.67 0.0 0.0 1.0
-29.333333333333332 117.60000000000001 1994.67 0.0 0.0 1.0
-28.622200000000003 131.111 1994.67 0.0 0.0 1.0
-28.8 138.22199999999998 1994.67 0.0 0.0 1.0
-30.755566666666667 -134.66666666666666 1994.67 0.0 0.0 1.0
-30.400000000000002 -131.64433333333332 1994.67 0.0 0.0 1.0
-30.222233333333335 -127.02233333333334 1994.67 0.0 0.0 1.0
-30.222233333333335 -127.02233333333334 1994.67 0.0 0.0 1.0
-29.6889 -94.84443333333333 1994.67 0.0 0.0 1.0
-29.866699999999998 -93.95556666666666 1994.67 0.0 0.0 1.0
-29.866699999999998 -93.95556666666666 1994.67 0.0 0.0 1.0
-29.866666666666664 -86.13333333333333 1994.67 0.0 0.0 1.0
-30.044466666666665 -85.42219999999999 1994.67 0.0 0.0 1.0
-29.5111 -74.2222 1994.67 0.0 0.0 1.0
-30.755566666666667 -68.35553333333333 1994.67 0.0 0.0 1.0
-30.044466666666665 -52.0 1994.67 0.0 0.0 1.0
-30.222233333333335 -50.93333333333334 1994.67 0.0 0.0 1.0
-29.6889 -47.55553333333334 1994.67 0.0 0.0 1.0
-29.6889 -47.55553333333334 1994.67 0.0 0.0 1.0
-34.47149999999999 -34.065 1824.39 0.0 0.0 1.0
-30.044466666666665 -26.044433333333334 1994.67 0.0 0.0 1.0
-30.222233333333335 -25.866666666666664 1994.67 0.0 0.0 1.0
-29.333333333333332 -9.688886666666667 1994.67 0.0 0.0 1.0
-29.333333333333332 -6.4888900000000005 1994.67 0.0 0.0 1.0
-29.6889 -4.355553333333334 1994.67 0.0 0.0 1.0
-29.5111 -0.44444466666666665 1994.67 0.0 0.0 1.0
-29.6889 0.2666653333333333 1994.67 0.0 0.0 1.0
-30.755566666666667 5.9555533333333335 1994.67 0.0 0.0 1.0
-38.58473333333333 8.715083333333334 1671.51 0.0 0.0 1.0
-30.044466666666665 32.8 1994.67 0.0 0.0 1.0
-30.044466666666665 33.51113333333333 1994.67 0.0 0.0 1.0
-29.6889 38.4889 1994.67 0.0 0.0 1.0
-29.333366666666667 43.466633333333334 1994.67 0.0 0.0 1.0
-30.400033333333337 43.999966666666666 1994.67 0.0 0.0 1.0
-30.044433333333334 47.199999999999996 1994.67 0.0 0.0 1.0
-30.399999999999995 54.3111 1994.67 0.0 0.0 1.0
-29.6889 63.55553333333334 1994.67 0.0 0.0 1.0
-29.6889 63.55553333333334 1994.67 0.0 0.0 1.0
-30.400000000000002 80.8 1994.67 0.0 0.0 1.0
-28.977800000000002 95.02223333333335 1994.67 0.0 0.0 1.0
-30.400000000000002 98.22223333333334 1994.67 0.0 0.0 1.0
-30.222233333333335 106.39999999999999 1994.67 0.0 0.0 1.0
-30.22223333333333 121.86666666666667 1994.67 0.0 0.0 1.0
-30.22223333333333 121.86666666666667 1994.67 0.0 0.0 1.0
-29.511133333333333 125.60000000000001 1994.67 0.0 0.0 1.0
-29.511133333333333 125.60000000000001 1994.67 0.0 0.0 1.0
-30.400033333333337 144.62233333333333 1994.67 0.0 0.0 1.0
-29.15556666666667 145.689 1994.67 0.0 0.0 1.0
-30.04443333333333 -141.0666666666667 1994.67 0.0 0.0 1.0
-30.04443333333333 -141.0666666666667 1994.67 0.0 0.0 1.0
-30.399999999999995 -131.64433333333332 1994.67 0.0 0.0 1.0
-30.933333333333334 -111.91133333333333 1994.67 0.0 0.0 1.0
-30.044466666666665 -85.42219999999999 1994.67 0.0 0.0 1.0
-31.466666666666665 -79.37776666666667 1994.67 0.0 0.0 1.0
-30.222233333333335 -60.88886666666667 1994.67 0.0 0.0 1.0
-30.399999999999995 -52.8889 1994.67 0.0 0.0 1.0
-30.577766666666665 -45.06666666666666 1994.67 0.0 0.0 1.0
-33.821099999999994 -36.8293 1824.39 0.0 0.0 1.0
-34.4715 -34.065 1824.39 0.0 0.0 1.0
-34.4715 -34.065 1824.39 0.0 0.0 1.0
-30.399999999999995 -26.399999999999995 1994.67 0.0 0.0 1.0
-30.22223333333333 -15.733333333333334 1994.67 0.0 0.0 1.0
-30.755566666666667 -3.4666633333333334 1994.67 0.0 0.0 1.0
-39.031666666666666 8.268156666666668 1671.51 0.0 0.0 1.0
-39.815333333333335 21.643600000000003 1657.62 0.0 0.0 1.0
-29.688866666666666 27.822233333333333 1994.67 0.0 0.0 1.0
-30.755566666666667 32.266666666666666 1994.67 0.0 0.0 1.0
-30.044466666666665 33.51113333333333 1994.67 0.0 0.0 1.0
-30.5778 38.4889 1994.67 0.0 0.0 1.0
-30.400000000000002 54.3111 1994.67 0.0 0.0 1.0
-30.400000000000002 65.6889 1994.67 0.0 0.0 1.0
-30.400000000000002 80.8 1994.67 0.0 0.0 1.0
-30.400000000000002 89.86663333333333 1994.67 0.0 0.0 1.0
-30.399999999999995 98.22223333333334 1994.67 0.0 0.0 1.0
-30.222199999999997 117.06666666666666 1994.67 0.0 0.0 1.0
-40.76293333333333 110.37266666666666 1630.5199999999998 -2.427988739037383e-27 -7.28412538772437e-27 1.0
-30.22223333333333 136.79999999999998 1994.67 0.0 0.0 1.0
-30.755566666666667 -134.66666666666666 1994.67 0.0 0.0 1.0
-30.399999999999995 -131.64433333333332 1994.67 0.0 0.0 1.0
-30.22223333333333 -127.02233333333334 1994.67 0.0 0.0 1.0
-31.46666666666667 -121.86666666666667 1994.67 0.0 0.0 1.0
-31.288899999999998 -113.15566666666666 1994.67 0.0 0.0 1.0
-30.755533333333336 -70.13333333333334 1994.67 0.0 0.0 1.0
-30.755566666666667 -68.35553333333333 1994.67 0.0 0.0 1.0
-30.933333333333334 -53.42223333333334 1994.67 0.0 0.0 1.0
-31.288899999999998 -49.6889 1994.67 0.0 0.0 1.0
-29.155533333333334 -34.93333333333334 1994.67 0.0 0.0 1.0
-29.155533333333334 -32.08886666666666 1994.67 0.0 0.0 1.0
-31.111099999999997 -26.577766666666662 1994.67 0.0 0.0 1.0
-31.288866666666667 -21.422233333333338 1994.67 0.0 0.0 1.0
-30.755566666666667 5.9555533333333335 1994.67 0.0 0.0 1.0
-31.466666666666665 28.1778 1994.67 0.0 0.0 1.0
-30.04443333333333 47.20000000000001 1994.67 0.0 0.0 1.0
-30.399999999999995 54.3111 1994.67 0.0 0.0 1.0
-30.399999999999995 80.8 1994.67 0.0 0.0 1.0
