ply
format ascii 1.0
comment VCGLIB generated
element vertex 867
property float x
property float y
property float z
property float nx
property float ny
property float nz
element face 0
property list uchar int vertex_indices
end_header
-93.13576666666667 -102.815 2216.3 0.0 0.0 1.0
-90.00999999999999 -80.0 1797.0 0.0 0.0 1.0
-89.18163333333332 -74.33133333333333 1791.62 0.0 0.0 1.0
-90.81080000000001 -62.542566666666666 1797.0 0.0 0.0 1.0
-91.004 -54.53816666666666 1802.41 0.0 0.0 1.0
-92.74073333333335 -32.2963 2216.3 0.0 0.0 1.0
-92.7407 -22.617266666666666 2216.3 0.0 0.0 1.0
-92.7407 -17.4815 2216.3 0.0 0.0 1.0
-93.13576666666667 2.074073 2216.3 0.0 0.0 1.0
-94.12343333333335 12.740699999999999 2216.3 0.0 0.0 1.0
-92.14813333333332 33.67903333333334 2216.3 0.0 0.0 1.0
-92.93823333333334 35.25926666666667 2216.3 0.0 0.0 1.0
-92.5432 39.20986666666666 2216.3 0.0 0.0 1.0
-91.01446666666668 36.35606666666667 1858.39 0.0 0.0 1.0
-92.93826666666666 68.44443333333334 2216.3 0.0 0.0 1.0
-93.33330000000001 72.98766666666667 2216.3 0.0 0.0 1.0
-93.1358 78.12343333333332 2216.3 0.0 0.0 1.0
-94.32096666666666 93.72836666666667 2216.3 0.0 0.0 1.0
-93.1358 97.4815 2216.3 0.0 0.0 1.0
-92.34566666666667 110.32100000000001 2216.3 0.0 0.0 1.0
-91.95063333333333 120.79033333333332 2216.3 0.0 0.0 1.0
-93.1358 125.33300000000001 2216.3 0.0 0.0 1.0
-89.98913333333333 111.96499999999999 1949.1899999999998 5.874609535449612e-28 -1.0280284868111689e-27 1.0
-90.68403333333333 114.745 1949.1899999999998 4.461918491887636e-27 4.459209008636445e-27 1.0
-91.35803333333332 143.70366666666666 2216.3 0.0 0.0 1.0
-92.56453333333333 128.38733333333332 1891.68 0.3676496566817975 0.8578411311239608 0.3590853988868386
-92.93823333333334 158.519 2216.3 0.0 0.0 1.0
-92.7407 -160.09866666666667 2216.3 0.0 0.0 1.0
-92.9705 -137.23333333333335 2035.37 0.0 0.0 1.0
-91.84179999999999 -120.859 2028.47 0.0 0.0 1.0
-91.9679 -74.93973333333334 1802.41 0.0 0.0 1.0
-90.81080000000001 -62.542566666666666 1797.0 0.0 0.0 1.0
-91.19836666666667 -49.38570000000001 1807.8499999999997 -2.8341735776821275e-25 9.678182077760913e-26 1.0
-94.91356666666665 -51.061733333333336 2216.3 0.0 0.0 1.0
-93.13576666666665 -42.172866666666664 2216.3 0.0 0.0 1.0
-93.72836666666666 -39.407399999999996 2216.3 0.0 0.0 1.0
-92.93826666666666 -37.62963333333334 2216.3 0.0 0.0 1.0
-92.34566666666667 -26.3704 2216.3 0.0 0.0 1.0
-92.7407 -22.61726666666667 2216.3 0.0 0.0 1.0
-93.3333 -20.246933333333335 2216.3 0.0 0.0 1.0
-93.13576666666665 -18.469166666666666 2216.3 0.0 0.0 1.0
-92.34566666666667 -12.345666666666666 2216.3 0.0 0.0 1.0
-93.72836666666667 1.6790096666666665 2216.3 0.0 0.0 1.0
-93.33330000000001 3.0617266666666665 2216.3 0.0 0.0 1.0
-93.33330000000001 8.592593333333333 2216.3 0.0 0.0 1.0
-92.93823333333334 9.382726666666668 2216.3 0.0 0.0 1.0
-92.34566666666667 32.2963 2216.3 0.0 0.0 1.0
-94.12343333333332 37.23453333333333 2216.3 0.0 0.0 1.0
-93.53083333333332 37.827133333333336 2216.3 0.0 0.0 1.0
-92.54316666666666 45.92589999999999 2216.3 0.0 0.0 1.0
-94.12343333333332 53.23453333333333 2216.3 0.0 0.0 1.0
-94.32096666666666 61.728366666666666 2216.3 0.0 0.0 1.0
-93.33330000000001 72.98766666666667 2216.3 0.0 0.0 1.0
-93.9259 74.3704 2216.3 0.0 0.0 1.0
-92.34566666666667 79.11110000000001 2216.3 0.0 0.0 1.0
-92.93826666666666 100.64176666666667 2216.3 0.0 0.0 1.0
-93.9259 111.50633333333333 2216.3 0.0 0.0 1.0
-92.34566666666667 138.56799999999998 2216.3 0.0 0.0 1.0
-93.87753333333335 -146.66666666666669 2035.37 0.0 0.0 1.0
-93.33330000000001 -134.87533333333332 2035.37 0.0 0.0 1.0
-93.53083333333332 -136.39533333333333 2216.3 0.0 0.0 1.0
-93.64973333333334 -115.97733333333333 2028.47 0.0 0.0 1.0
-93.46893333333333 -111.63833333333334 2028.47 0.0 0.0 1.0
-94.71603333333333 -114.66666666666667 2216.3 0.0 0.0 1.0
-93.53083333333332 -101.62966666666667 2216.3 0.0 0.0 1.0
-93.53083333333332 -101.62966666666667 2216.3 0.0 0.0 1.0
-90.82166666666667 -77.67403333333333 1798.8033333333333 -0.8169303316247221 -0.5446580051972855 0.18966415224294564
-91.77176666666666 -61.90193333333334 1797.0 0.0 0.0 1.0
-91.19836666666667 -49.38570000000001 1807.8499999999997 -2.8341735776821215e-25 9.678182077760893e-26 1.0
-91.19836666666667 -49.38570000000001 1807.8499999999997 -2.834173577682108e-25 9.678182077760841e-26 1.0
-93.72836666666667 -54.8148 2216.3 0.0 0.0 1.0
-93.13576666666665 -42.172866666666664 2216.3 0.0 0.0 1.0
-93.72836666666666 -39.4074 2216.3 0.0 0.0 1.0
-93.72836666666666 -39.4074 2216.3 0.0 0.0 1.0
-92.74073333333335 -32.2963 2216.3 0.0 0.0 1.0
-94.32096666666666 -3.6543200000000002 2216.3 0.0 0.0 1.0
-94.32096666666666 -3.6543200000000002 2216.3 0.0 0.0 1.0
-93.72836666666666 4.246913333333333 2216.3 0.0 0.0 1.0
-94.71603333333333 6.024693333333333 2216.3 0.0 0.0 1.0
-94.91356666666667 17.4815 2216.3 0.0 0.0 1.0
-94.32096666666666 26.76546666666667 2216.3 0.0 0.0 1.0
-94.32096666666666 26.76546666666667 2216.3 0.0 0.0 1.0
-94.12343333333332 37.23453333333333 2216.3 0.0 0.0 1.0
-94.12343333333332 53.23453333333333 2216.3 0.0 0.0 1.0
-93.9259 62.91356666666667 2216.3 0.0 0.0 1.0
-94.5185 64.8889 2216.3 0.0 0.0 1.0
-93.53083333333332 72.5926 2216.3 0.0 0.0 1.0
-93.72836666666666 72.79013333333333 2216.3 0.0 0.0 1.0
-91.49849999999999 71.0296 1829.97 0.0 0.0 1.0
-93.72836666666666 102.617 2216.3 0.0 0.0 1.0
-93.9259 111.50633333333333 2216.3 0.0 0.0 1.0
-94.71603333333333 122.568 2216.3 0.0 0.0 1.0
-94.32096666666666 149.62933333333334 2216.3 0.0 0.0 1.0
-91.26226666666666 129.05166666666665 1871.9533333333331 3.9614573928752874e-17 -0.9882837965912608 0.15262744640189554
-93.53083333333332 158.91400000000002 2216.3 0.0 0.0 1.0
-93.53083333333332 158.91400000000002 2216.3 0.0 0.0 1.0
-95.50616666666667 -163.654 2216.3 0.0 0.0 1.0
-93.72836666666667 -163.259 2216.3 0.0 0.0 1.0
-93.51473333333333 -138.322 2035.37 0.0 0.0 1.0
-93.33330000000001 -134.87533333333332 2035.37 0.0 0.0 1.0
-94.05893333333334 -130.52166666666668 2035.37 0.0 0.0 1.0
-95.30863333333333 -137.383 2216.3 0.0 0.0 1.0
-93.46893333333333 -114.89266666666667 2028.47 0.0 0.0 1.0
-92.92653333333334 -109.28800000000001 2028.47 0.0 0.0 1.0
-95.70369999999998 -109.13600000000001 2216.3 0.0 0.0 1.0
-89.82036666666666 -70.01993333333333 1791.62 0.0 0.0 1.0
-93.53356666666667 -58.6987 1797.0 0.0 0.0 1.0
-93.09233333333333 -56.1446 1802.41 0.0 0.0 1.0
-94.71603333333333 -29.72836666666667 2216.3 0.0 0.0 1.0
-94.91356666666665 7.60494 2216.3 0.0 0.0 1.0
-94.32096666666666 11.753066666666667 2216.3 0.0 0.0 1.0
-94.91356666666667 17.4815 2216.3 0.0 0.0 1.0
-91.84263333333332 36.02483333333333 1858.39 0.0 0.0 1.0
-93.9259 47.7037 2216.3 0.0 0.0 1.0
-94.91356666666665 64.49383333333334 2216.3 0.0 0.0 1.0
-94.5185 103.20966666666665 2216.3 0.0 0.0 1.0
-93.9259 111.50633333333333 2216.3 0.0 0.0 1.0
-94.71603333333333 146.27133333333333 2216.3 0.0 0.0 1.0
-94.71603333333333 147.259 2216.3 0.0 0.0 1.0
-94.5185 148.64166666666665 2216.3 0.0 0.0 1.0
-94.32096666666666 149.62933333333334 2216.3 0.0 0.0 1.0
-93.87753333333335 -146.66666666666669 2035.37 0.0 0.0 1.0
-93.33330000000001 -134.87533333333332 2035.37 0.0 0.0 1.0
-94.05893333333334 -130.52166666666668 2035.37 0.0 0.0 1.0
-93.64973333333334 -112.723 2028.47 0.0 0.0 1.0
-93.28813333333335 -110.55366666666667 2028.47 0.0 0.0 1.0
-94.71603333333333 -114.66666666666667 2216.3 0.0 0.0 1.0
-95.50616666666667 -114.27166666666666 2216.3 0.0 0.0 1.0
-92.44983333333333 -73.9759 1802.41 0.0 0.0 1.0
-92.44983333333333 -73.97590000000001 1802.41 0.0 0.0 1.0
-94.91356666666665 -51.061733333333336 2216.3 0.0 0.0 1.0
-92.68683333333333 -40.48486666666667 1813.33 0.0 0.0 1.0
-92.68683333333333 -40.48486666666667 1813.33 0.0 0.0 1.0
-94.91356666666667 -17.086433333333336 2216.3 0.0 0.0 1.0
-94.91356666666667 -3.85185 2216.3 0.0 0.0 1.0
-94.12343333333332 2.271603 2216.3 0.0 0.0 1.0
-94.71603333333333 6.024693333333333 2216.3 0.0 0.0 1.0
-95.11110000000001 6.814816666666666 2216.3 0.0 0.0 1.0
-94.91356666666665 7.60494 2216.3 0.0 0.0 1.0
-95.50616666666667 12.543166666666666 2216.3 0.0 0.0 1.0
-95.30863333333333 18.469166666666666 2216.3 0.0 0.0 1.0
-94.32096666666666 26.76546666666667 2216.3 0.0 0.0 1.0
-95.11110000000001 37.6296 2216.3 0.0 0.0 1.0
-91.84263333333332 36.02483333333333 1858.39 0.0 0.0 1.0
-95.50616666666667 48.09876666666667 2216.3 0.0 0.0 1.0
-95.11110000000001 53.6296 2216.3 0.0 0.0 1.0
-94.91356666666665 64.49383333333334 2216.3 0.0 0.0 1.0
-95.30863333333332 64.69136666666667 2216.3 0.0 0.0 1.0
-96.09876666666666 67.06176666666666 2216.3 0.0 0.0 1.0
-95.11110000000001 75.35803333333332 2216.3 0.0 0.0 1.0
-95.70369999999998 93.53083333333335 2216.3 0.0 0.0 1.0
-95.11110000000001 94.5185 2216.3 0.0 0.0 1.0
-94.32096666666666 95.90123333333334 2216.3 0.0 0.0 1.0
-94.5185 103.20966666666665 2216.3 0.0 0.0 1.0
-94.71603333333333 122.568 2216.3 0.0 0.0 1.0
-94.71603333333333 123.95066666666666 2216.3 0.0 0.0 1.0
-95.50616666666667 124.93833333333333 2216.3 0.0 0.0 1.0
-91.72636666666666 115.78733333333332 1949.1899999999998 -6.323115938290276e-27 -1.0045403410928989e-26 1.0
-94.41210000000001 124.531 1936.57 0.0 0.0 1.0
-94.71603333333333 146.27133333333333 2216.3 0.0 0.0 1.0
-91.26226666666666 129.05166666666665 1871.9533333333331 1.4525343773876055e-16 -0.9882837965912605 0.1526274464018957
-95.30863333333332 158.12366666666665 2216.3 0.0 0.0 1.0
-94.42176666666667 -132.88 2035.37 0.0 0.0 1.0
-97.67903333333334 -132.44433333333333 2216.3 0.0 0.0 1.0
-93.83049999999999 -113.627 2028.47 0.0 0.0 1.0
-95.90123333333334 -108.54333333333334 2216.3 0.0 0.0 1.0
-92.44983333333333 -73.97590000000001 1802.41 0.0 0.0 1.0
-93.41363333333334 -55.50203333333334 1802.41 0.0 0.0 1.0
-94.0987 -42.29606666666667 1807.8499999999997 1.6205514308289167e-27 -1.0263502641622481e-27 1.0
-94.14143333333332 -37.09093333333333 1813.33 0.0 0.0 1.0
-93.69806666666666 -33.150933333333334 1818.84 0.0 0.0 1.0
-96.49383333333333 -8.000003333333334 2216.3 0.0 0.0 1.0
-96.09876666666666 -3.45679 2216.3 0.0 0.0 1.0
-96.29630000000002 22.419766666666664 2216.3 0.0 0.0 1.0
-94.32096666666666 61.72836666666666 2216.3 0.0 0.0 1.0
-95.30863333333332 64.69136666666667 2216.3 0.0 0.0 1.0
-95.11110000000001 77.33330000000001 2216.3 0.0 0.0 1.0
-91.49849999999999 71.0296 1829.97 0.0 0.0 1.0
-96.09876666666666 107.55566666666668 2216.3 0.0 0.0 1.0
-94.41210000000001 124.531 1936.57 0.0 0.0 1.0
-95.5102 -145.9406666666667 2035.37 0.0 0.0 1.0
-94.96596666666666 -138.322 2035.37 0.0 0.0 1.0
-95.1474 -132.69833333333335 2035.37 0.0 0.0 1.0
-95.27683333333334 -116.51966666666665 2028.47 0.0 0.0 1.0
-95.50616666666667 -114.27166666666666 2216.3 0.0 0.0 1.0
-93.73493333333333 -71.245 1802.41 0.0 0.0 1.0
-93.5743 -70.60243333333334 1802.41 0.0 0.0 1.0
-93.53353333333332 -63.82383333333333 1797.0 0.0 0.0 1.0
-92.73273333333334 -61.90193333333334 1797.0 0.0 0.0 1.0
-94.3775 -51.6466 1802.41 0.0 0.0 1.0
-93.73493333333333 -49.23696666666666 1802.41 0.0 0.0 1.0
-93.73493333333333 -49.23696666666666 1802.41 0.0 0.0 1.0
-94.91356666666667 -51.061733333333336 2216.3 0.0 0.0 1.0
-93.49493333333334 -39.353566666666666 1813.33 0.0 0.0 1.0
-97.28396666666667 -23.802466666666664 2216.3 0.0 0.0 1.0
-96.69136666666668 -11.9506 2216.3 0.0 0.0 1.0
-96.49383333333333 -8.000003333333334 2216.3 0.0 0.0 1.0
-97.28396666666667 11.160499999999999 2216.3 0.0 0.0 1.0
-96.88889999999999 14.123433333333333 2216.3 0.0 0.0 1.0
-95.30863333333332 18.469166666666666 2216.3 0.0 0.0 1.0
-96.49383333333333 37.6296 2216.3 0.0 0.0 1.0
-96.49383333333333 53.827133333333336 2216.3 0.0 0.0 1.0
-96.69136666666668 66.46916666666668 2216.3 0.0 0.0 1.0
-95.50616666666667 105.778 2216.3 0.0 0.0 1.0
-96.69136666666668 108.74066666666666 2216.3 0.0 0.0 1.0
-98.0741 117.23466666666667 2216.3 0.0 0.0 1.0
-96.09876666666666 126.51833333333333 2216.3 0.0 0.0 1.0
-95.90123333333334 145.87666666666667 2216.3 0.0 0.0 1.0
-95.90123333333334 145.87666666666667 2216.3 0.0 0.0 1.0
-97.4815 161.87633333333335 2216.3 0.0 0.0 1.0
-96.69136666666668 162.66666666666666 2216.3 0.0 0.0 1.0
-95.5102 -145.9406666666667 2035.37 0.0 0.0 1.0
-95.14736666666666 -134.14966666666666 2035.37 0.0 0.0 1.0
-97.4815 -134.815 2216.3 0.0 0.0 1.0
-95.27683333333334 -116.51966666666665 2028.47 0.0 0.0 1.0
-95.27683333333334 -116.51966666666665 2028.47 0.0 0.0 1.0
-95.09603333333332 -112.18066666666668 2028.47 0.0 0.0 1.0
-97.28396666666667 -109.926 2216.3 0.0 0.0 1.0
-97.67903333333334 -92.74073333333332 2216.3 0.0 0.0 1.0
-93.73493333333333 -71.245 1802.41 0.0 0.0 1.0
-96.19333333333333 -63.7261 1807.8499999999997 1.1268986422177283e-24 9.95539217563651e-25 1.0
-93.53353333333332 -63.82383333333333 1797.0 0.0 0.0 1.0
-93.53353333333332 -63.82383333333333 1797.0 0.0 0.0 1.0
-93.89556666666665 -56.1446 1802.41 0.0 0.0 1.0
-93.89556666666665 -56.1446 1802.41 0.0 0.0 1.0
-94.42093333333332 -41.490433333333335 1807.8499999999997 8.143759119351741e-28 -8.604104104881011e-28 1.0
-93.69806666666666 -33.150933333333334 1818.84 0.0 0.0 1.0
-94.3465 -28.44983333333333 1818.84 0.0 0.0 1.0
-96.29630000000002 -29.333299999999998 2216.3 0.0 0.0 1.0
-97.28396666666667 -23.802466666666664 2216.3 0.0 0.0 1.0
-97.87656666666668 -18.0741 2216.3 0.0 0.0 1.0
-96.88889999999999 -13.3333 2216.3 0.0 0.0 1.0
-96.88889999999999 -10.567896666666668 2216.3 0.0 0.0 1.0
-95.70369999999998 6.024693333333333 2216.3 0.0 0.0 1.0
-96.49383333333333 13.3333 2216.3 0.0 0.0 1.0
-97.08643333333333 31.901233333333334 2216.3 0.0 0.0 1.0
-97.08643333333335 31.901233333333334 2216.3 0.0 0.0 1.0
-97.67903333333334 43.9506 2216.3 0.0 0.0 1.0
-97.08643333333333 48.691366666666674 2216.3 0.0 0.0 1.0
-97.08643333333333 57.77776666666666 2216.3 0.0 0.0 1.0
-96.69136666666668 66.46916666666668 2216.3 0.0 0.0 1.0
-96.69136666666668 66.46916666666668 2216.3 0.0 0.0 1.0
-95.90123333333334 76.34566666666666 2216.3 0.0 0.0 1.0
-96.06523333333332 67.6045 1829.97 0.0 0.0 1.0
-96.69136666666668 93.53083333333332 2216.3 0.0 0.0 1.0
-97.4815 102.22233333333332 2216.3 0.0 0.0 1.0
-96.29630000000002 102.61733333333332 2216.3 0.0 0.0 1.0
-96.69136666666668 112.889 2216.3 0.0 0.0 1.0
-97.28396666666667 128.88866666666667 2216.3 0.0 0.0 1.0
-97.28396666666667 128.88866666666667 2216.3 0.0 0.0 1.0
-97.87656666666668 134.81466666666668 2216.3 0.0 0.0 1.0
-97.08643333333333 157.926 2216.3 0.0 0.0 1.0
-95.50616666666667 -163.654 2216.3 0.0 0.0 1.0
-95.5102 -145.9406666666667 2035.37 0.0 0.0 1.0
-95.5102 -133.424 2035.37 0.0 0.0 1.0
-97.87656666666668 -136.79033333333334 2216.3 0.0 0.0 1.0
-97.67903333333334 -135.80266666666668 2216.3 0.0 0.0 1.0
-95.45763333333333 -113.80766666666666 2028.47 0.0 0.0 1.0
-96.0 -113.26533333333333 2028.47 0.0 0.0 1.0
-95.81920000000001 -112.54233333333333 2028.47 0.0 0.0 1.0
-97.67903333333334 -112.49366666666667 2216.3 0.0 0.0 1.0
-97.67903333333334 -112.49366666666667 2216.3 0.0 0.0 1.0
-96.69136666666668 -108.54333333333334 2216.3 0.0 0.0 1.0
-95.11110000000001 -101.23466666666667 2216.3 0.0 0.0 1.0
-97.67903333333334 -96.69136666666667 2216.3 0.0 0.0 1.0
-97.28396666666667 -95.30863333333332 2216.3 0.0 0.0 1.0
-93.73493333333333 -70.60243333333334 1802.41 0.0 0.0 1.0
-94.65466666666667 -59.019000000000005 1797.0 0.0 0.0 1.0
-93.89556666666665 -56.1446 1802.41 0.0 0.0 1.0
-95.11110000000001 -35.1515 1813.33 0.0 0.0 1.0
-94.5086 -32.016200000000005 1818.84 0.0 0.0 1.0
-94.3465 -28.449833333333334 1818.84 0.0 0.0 1.0
-96.29629999999999 -31.901233333333334 2216.3 0.0 0.0 1.0
-97.28396666666667 -30.5185 2216.3 0.0 0.0 1.0
-98.0741 -14.518499999999998 2216.3 0.0 0.0 1.0
-96.88889999999999 -9.185196666666668 2216.3 0.0 0.0 1.0
-97.4815 -3.45679 2216.3 0.0 0.0 1.0
-96.88889999999999 14.123433333333333 2216.3 0.0 0.0 1.0
-98.46916666666668 26.3704 2216.3 0.0 0.0 1.0
-97.28396666666667 32.69136666666667 2216.3 0.0 0.0 1.0
-97.28396666666667 32.69136666666667 2216.3 0.0 0.0 1.0
-94.8057 64.0491 1835.58 0.0 0.0 1.0
-94.8057 64.0491 1835.58 0.0 0.0 1.0
-98.07406666666668 79.30863333333333 2216.3 0.0 0.0 1.0
-97.87656666666668 121.97533333333332 2216.3 0.0 0.0 1.0
-97.87656666666668 123.16033333333333 2216.3 0.0 0.0 1.0
-97.4815 135.40733333333333 2216.3 0.0 0.0 1.0
-97.67903333333334 137.18533333333332 2216.3 0.0 0.0 1.0
-97.67903333333334 137.18533333333332 2216.3 0.0 0.0 1.0
-96.69136666666668 162.66666666666666 2216.3 0.0 0.0 1.0
-96.78003333333334 -138.322 2035.37 0.0 0.0 1.0
-98.0741 -133.62966666666668 2216.3 0.0 0.0 1.0
-95.81920000000001 -116.51966666666665 2028.47 0.0 0.0 1.0
-96.0 -111.45766666666667 2028.47 0.0 0.0 1.0
-98.46916666666668 -113.086 2216.3 0.0 0.0 1.0
-98.46916666666668 -97.87656666666668 2216.3 0.0 0.0 1.0
-94.65466666666667 -59.019000000000005 1797.0 0.0 0.0 1.0
-93.73493333333333 -54.85946666666667 1802.41 0.0 0.0 1.0
-94.3775 -51.6466 1802.41 0.0 0.0 1.0
-95.34140000000001 -48.75503333333334 1802.41 0.0 0.0 1.0
-94.30303333333332 -38.222233333333335 1813.33 0.0 0.0 1.0
-94.62626666666667 -35.9596 1813.33 0.0 0.0 1.0
-94.3465 -28.449833333333334 1818.84 0.0 0.0 1.0
-98.66669999999999 -18.666700000000002 2216.3 0.0 0.0 1.0
-98.0741 -14.518499999999998 2216.3 0.0 0.0 1.0
-98.07406666666668 2.4691366666666665 2216.3 0.0 0.0 1.0
-98.86406666666666 24.790133333333333 2216.3 0.0 0.0 1.0
-97.87656666666668 25.58026666666667 2216.3 0.0 0.0 1.0
-98.27163333333333 29.925900000000002 2216.3 0.0 0.0 1.0
-97.4815 38.2222 2216.3 0.0 0.0 1.0
-97.4815 38.2222 2216.3 0.0 0.0 1.0
-97.67903333333334 43.9506 2216.3 0.0 0.0 1.0
-97.67903333333334 43.9506 2216.3 0.0 0.0 1.0
-98.66669999999999 53.827133333333336 2216.3 0.0 0.0 1.0
-98.86423333333335 69.23456666666668 2216.3 0.0 0.0 1.0
-98.86406666666666 87.01233333333334 2216.3 0.0 0.0 1.0
-99.45666666666666 88.79013333333334 2216.3 0.0 0.0 1.0
-98.27163333333334 93.9259 2216.3 0.0 0.0 1.0
-98.0741 108.74066666666666 2216.3 0.0 0.0 1.0
-98.0741 108.74066666666666 2216.3 0.0 0.0 1.0
-98.0741 108.74066666666666 2216.3 0.0 0.0 1.0
-97.67903333333334 115.85199999999999 2216.3 0.0 0.0 1.0
-97.28396666666667 128.88866666666667 2216.3 0.0 0.0 1.0
-97.67903333333334 137.18533333333335 2216.3 0.0 0.0 1.0
-99.25926666666668 139.95066666666665 2216.3 0.0 0.0 1.0
-97.67903333333334 147.25933333333333 2216.3 0.0 0.0 1.0
-95.3288 -130.34033333333335 2035.37 0.0 0.0 1.0
-97.87656666666668 -136.79033333333334 2216.3 0.0 0.0 1.0
-99.00906666666667 -95.94596666666666 2021.62 0.0 0.0 1.0
-99.06176666666666 -89.38273333333332 2216.3 0.0 0.0 1.0
-94.65466666666667 -59.019000000000005 1797.0 0.0 0.0 1.0
-94.3775 -51.6466 1802.41 0.0 0.0 1.0
-95.71 -45.51863333333333 1807.8499999999997 9.506212989077629e-27 -1.2962712931691986e-27 1.0
-94.5086 -30.881466666666668 1818.84 0.0 0.0 1.0
-97.28396666666667 -23.802466666666664 2216.3 0.0 0.0 1.0
-98.66669999999999 -18.666700000000002 2216.3 0.0 0.0 1.0
-98.0741 -14.518499999999998 2216.3 0.0 0.0 1.0
-98.27163333333334 9.580266666666667 2216.3 0.0 0.0 1.0
-98.66669999999999 53.827133333333336 2216.3 0.0 0.0 1.0
-99.25926666666668 69.62960000000001 2216.3 0.0 0.0 1.0
-98.0741 73.58023333333334 2216.3 0.0 0.0 1.0
-96.11449999999998 63.0675 1835.58 0.0 0.0 1.0
-97.48150000000003 102.22233333333332 2216.3 0.0 0.0 1.0
-98.86423333333333 114.66666666666667 2216.3 0.0 0.0 1.0
-98.86406666666666 121.77766666666668 2216.3 0.0 0.0 1.0
-98.66669999999999 124.14799999999998 2216.3 0.0 0.0 1.0
-98.66669999999999 138.37033333333332 2216.3 0.0 0.0 1.0
-94.41210000000001 124.531 1936.57 0.0 0.0 1.0
-97.08643333333335 145.87666666666667 2216.3 0.0 0.0 1.0
-97.31283333333333 129.23066666666668 1841.2300000000002 2.5683827958652673e-26 -1.2887591527210525e-25 1.0
-98.66669999999999 161.28400000000002 2216.3 0.0 0.0 1.0
-97.14286666666668 -144.48966666666666 2035.37 0.0 0.0 1.0
-98.0499 -142.857 2035.37 0.0 0.0 1.0
-99.65436666666666 -139.75300000000001 2216.3 0.0 0.0 1.0
-99.06176666666666 -133.23466666666664 2216.3 0.0 0.0 1.0
-99.85173333333334 -110.91366666666666 2216.3 0.0 0.0 1.0
-99.6542 -110.12333333333333 2216.3 0.0 0.0 1.0
-99.06176666666666 -89.38273333333332 2216.3 0.0 0.0 1.0
-99.06176666666666 -89.38273333333335 2216.3 0.0 0.0 1.0
-95.34140000000001 -48.75503333333334 1802.41 0.0 0.0 1.0
-95.34140000000001 -48.75503333333334 1802.41 0.0 0.0 1.0
-95.8711 -44.2296 1807.8499999999997 0.0 0.0 1.0
-98.66669999999999 -18.6667 2216.3 0.0 0.0 1.0
-99.6542 -5.432099999999999 2216.3 0.0 0.0 1.0
-99.0616 -4.246913333333333 2216.3 0.0 0.0 1.0
-99.85173333333334 21.629633333333334 2216.3 0.0 0.0 1.0
-98.46916666666668 49.481500000000004 2216.3 0.0 0.0 1.0
-99.25913333333334 51.851866666666666 2216.3 0.0 0.0 1.0
-98.66669999999999 53.827133333333336 2216.3 0.0 0.0 1.0
-98.46916666666665 108.34566666666666 2216.3 0.0 0.0 1.0
-99.2593 125.33333333333333 2216.3 0.0 0.0 1.0
-99.85186666666668 135.20966666666666 2216.3 0.0 0.0 1.0
-98.86423333333333 135.605 2216.3 0.0 0.0 1.0
-100.04939999999999 157.72833333333332 2216.3 0.0 0.0 1.0
-98.9569 -140.136 2035.37 0.0 0.0 1.0
-99.65436666666666 -139.75300000000001 2216.3 0.0 0.0 1.0
-99.2593 -138.37033333333332 2216.3 0.0 0.0 1.0
-99.06176666666666 -133.23466666666664 2216.3 0.0 0.0 1.0
-98.71186666666665 -113.80766666666666 2028.47 0.0 0.0 1.0
-98.89263333333334 -111.45766666666667 2028.47 0.0 0.0 1.0
-98.89266666666667 -107.661 2028.47 0.0 0.0 1.0
-100.24693333333335 -112.88866666666667 2216.3 0.0 0.0 1.0
-99.65436666666666 -112.09866666666666 2216.3 0.0 0.0 1.0
-99.45666666666666 -98.0741 2216.3 0.0 0.0 1.0
-96.83786666666667 -47.29103333333333 1807.8499999999997 -6.224856189583345e-26 1.659856728431792e-25 1.0
-96.56566666666667 -34.666666666666664 1813.33 0.0 0.0 1.0
-96.66669999999999 -19.2683 1824.39 0.0 0.0 1.0
-96.66669999999999 -19.2683 1824.39 0.0 0.0 1.0
-100.64193333333333 6.4197533333333325 2216.3 0.0 0.0 1.0
-99.45683333333334 8.00001 2216.3 0.0 0.0 1.0
-98.46916666666668 19.4568 2216.3 0.0 0.0 1.0
-100.4446 27.358033333333335 2216.3 0.0 0.0 1.0
-99.2593 28.543200000000002 2216.3 0.0 0.0 1.0
-100.4446 30.913566666666668 2216.3 0.0 0.0 1.0
-100.83963333333334 36.64196666666667 2216.3 0.0 0.0 1.0
-99.2593 43.358066666666666 2216.3 0.0 0.0 1.0
-99.2593 43.358066666666666 2216.3 0.0 0.0 1.0
-101.23463333333332 61.135799999999996 2216.3 0.0 0.0 1.0
-99.65433333333334 68.64196666666668 2216.3 0.0 0.0 1.0
-96.6053 61.5951 1835.58 0.0 0.0 1.0
-96.44170000000001 62.576699999999995 1835.58 0.0 0.0 1.0
-96.1145 63.0675 1835.58 0.0 0.0 1.0
-100.83963333333334 91.1605 2216.3 0.0 0.0 1.0
-99.65433333333334 93.9259 2216.3 0.0 0.0 1.0
-99.8519 99.2593 2216.3 0.0 0.0 1.0
-99.8519 99.2593 2216.3 0.0 0.0 1.0
-100.24693333333335 99.65436666666666 2216.3 0.0 0.0 1.0
-100.04939999999999 107.16066666666666 2216.3 0.0 0.0 1.0
-99.06176666666666 109.13566666666668 2216.3 0.0 0.0 1.0
-99.6542 113.48133333333334 2216.3 0.0 0.0 1.0
-100.4443 118.02466666666668 2216.3 0.0 0.0 1.0
-99.2593 125.33333333333333 2216.3 0.0 0.0 1.0
-99.2593 130.864 2216.3 0.0 0.0 1.0
-99.65436666666666 132.83933333333331 2216.3 0.0 0.0 1.0
-99.6542 138.56766666666667 2216.3 0.0 0.0 1.0
-98.85863333333333 128.45666666666668 1897.676666666667 0.12405008905389052 0.9921809386512828 -0.013731729052862254
-97.31283333333333 129.23066666666668 1841.2300000000002 2.5683827958652673e-26 -1.2887591527210525e-25 1.0
-100.04939999999999 157.72833333333332 2216.3 0.0 0.0 1.0
-99.65436666666666 158.51866666666666 2216.3 0.0 0.0 1.0
-99.13826666666667 -140.31733333333332 2035.37 0.0 0.0 1.0
-98.41266666666667 -138.322 2035.37 0.0 0.0 1.0
-99.3197 -132.87966666666668 2035.37 0.0 0.0 1.0
-100.64196666666668 -134.81466666666668 2216.3 0.0 0.0 1.0
-98.89266666666667 -107.661 2028.47 0.0 0.0 1.0
-99.6542 -110.12333333333333 2216.3 0.0 0.0 1.0
-99.45666666666666 -98.0741 2216.3 0.0 0.0 1.0
-100.44443333333334 -87.01233333333334 2216.3 0.0 0.0 1.0
-101.03666666666668 -81.87656666666668 2216.3 0.0 0.0 1.0
-101.03666666666668 -81.87656666666668 2216.3 0.0 0.0 1.0
-95.18073333333332 -55.66266666666667 1802.41 0.0 0.0 1.0
-96.83786666666667 -47.29103333333333 1807.8499999999997 -6.224856189583345e-26 1.659856728431792e-25 1.0
-96.35446666666667 -43.1017 1807.8499999999997 -1.728884244135516e-26 -6.915155462782866e-27 1.0
-97.1601 -41.812666666666665 1807.8499999999997 0.0 0.0 1.0
-96.56566666666667 -34.666666666666664 1813.33 0.0 0.0 1.0
-96.7273 -34.020199999999996 1813.33 0.0 0.0 1.0
-96.7273 -34.020199999999996 1813.33 0.0 0.0 1.0
-98.39916666666666 -24.883466666666664 1818.84 0.0 0.0 1.0
-97.3171 -17.9675 1824.39 0.0 0.0 1.0
-100.04916666666666 -9.185186666666667 2216.3 0.0 0.0 1.0
-99.6542 -5.432099999999999 2216.3 0.0 0.0 1.0
-100.04936666666667 24.98766666666667 2216.3 0.0 0.0 1.0
-100.44443333333334 51.2593 2216.3 0.0 0.0 1.0
-97.2597 60.9407 1835.58 0.0 0.0 1.0
-97.2069 67.2783 1829.97 0.0 0.0 1.0
-100.04936666666667 87.01233333333333 2216.3 0.0 0.0 1.0
-100.8393 113.28366666666666 2216.3 0.0 0.0 1.0
-100.8393 117.43200000000002 2216.3 0.0 0.0 1.0
-101.23466666666667 122.568 2216.3 0.0 0.0 1.0
-100.4443 138.76533333333336 2216.3 0.0 0.0 1.0
-98.25956666666667 127.98233333333333 1905.7433333333336 0.09038394756843415 0.9939078525130377 0.06307077560065674
-101.43233333333335 -159.309 2216.3 0.0 0.0 1.0
-101.23466666666667 -158.51866666666666 2216.3 0.0 0.0 1.0
-99.31970000000001 -132.87966666666668 2035.37 0.0 0.0 1.0
-99.6158 -116.51966666666668 2028.47 0.0 0.0 1.0
-98.89263333333334 -111.45766666666667 2028.47 0.0 0.0 1.0
-99.6158 -110.73466666666667 2028.47 0.0 0.0 1.0
-99.25423333333333 -106.938 2028.47 0.0 0.0 1.0
-100.83963333333334 -113.481 2216.3 0.0 0.0 1.0
-100.09006666666666 -94.14413333333334 2021.62 0.0 0.0 1.0
-100.27006666666666 -87.2973 2021.62 0.0 0.0 1.0
-101.43233333333335 -91.7531 2216.3 0.0 0.0 1.0
-97.48236666666668 -61.63143333333333 1807.8499999999997 -6.481745338389747e-26 -7.778477018435371e-27 1.0
-97.4797 -20.569100000000002 1824.39 0.0 0.0 1.0
-97.4797 -20.569100000000002 1824.39 0.0 0.0 1.0
-96.82929999999999 -18.617900000000002 1824.39 0.0 0.0 1.0
-100.2469 -13.530833333333334 2216.3 0.0 0.0 1.0
-100.2469 -13.530833333333334 2216.3 0.0 0.0 1.0
-101.03710000000001 -2.6666666666666665 2216.3 0.0 0.0 1.0
-101.43233333333335 2.8641966666666665 2216.3 0.0 0.0 1.0
-101.43233333333335 37.6296 2216.3 0.0 0.0 1.0
-101.23466666666667 38.22220000000001 2216.3 0.0 0.0 1.0
-101.23466666666667 39.20986666666666 2216.3 0.0 0.0 1.0
-99.65433333333334 68.64196666666668 2216.3 0.0 0.0 1.0
-99.85183333333333 79.7037 2216.3 0.0 0.0 1.0
-99.85183333333333 79.7037 2216.3 0.0 0.0 1.0
-97.2069 67.2783 1829.97 0.0 0.0 1.0
-97.2069 67.2783 1829.97 0.0 0.0 1.0
-97.18926666666668 68.51123333333334 1828.11 -0.6565300032088659 0.656530003208862 0.3713983168690161
-100.24693333333335 92.74073333333332 2216.3 0.0 0.0 1.0
-100.24693333333335 99.65436666666666 2216.3 0.0 0.0 1.0
-100.64209999999999 107.75333333333333 2216.3 0.0 0.0 1.0
-101.23463333333332 118.41966666666666 2216.3 0.0 0.0 1.0
-101.62966666666667 135.20966666666666 2216.3 0.0 0.0 1.0
-101.432 135.80233333333334 2216.3 0.0 0.0 1.0
-101.23433333333334 139.358 2216.3 0.0 0.0 1.0
-101.62966666666667 142.51866666666666 2216.3 0.0 0.0 1.0
-98.98723333333332 128.69166666666666 1893.67 0.0 0.0 1.0
-101.03696666666667 157.33333333333334 2216.3 0.0 0.0 1.0
-101.43233333333335 -160.69166666666666 2216.3 0.0 0.0 1.0
-101.43233333333335 -159.309 2216.3 0.0 0.0 1.0
-101.43233333333335 -159.309 2216.3 0.0 0.0 1.0
-99.68246666666668 -138.86633333333333 2035.37 0.0 0.0 1.0
-99.6825 -133.061 2035.37 0.0 0.0 1.0
-99.6825 -133.061 2035.37 0.0 0.0 1.0
-101.82733333333333 -136.395 2216.3 0.0 0.0 1.0
-101.432 -135.80233333333334 2216.3 0.0 0.0 1.0
-99.6158 -116.51966666666668 2028.47 0.0 0.0 1.0
-99.25423333333333 -115.254 2028.47 0.0 0.0 1.0
-98.89266666666667 -107.661 2028.47 0.0 0.0 1.0
-101.62966666666667 -113.67866666666667 2216.3 0.0 0.0 1.0
-100.44443333333334 -109.33333333333333 2216.3 0.0 0.0 1.0
-101.43233333333335 -91.7531 2216.3 0.0 0.0 1.0
-101.82733333333333 -90.76546666666667 2216.3 0.0 0.0 1.0
-101.827 -86.02466666666668 2216.3 0.0 0.0 1.0
-97.48236666666668 -61.63143333333333 1807.8499999999997 -6.481745338389747e-26 -7.778477018435371e-27 1.0
-97.48236666666666 -61.63143333333333 1807.8499999999997 4.4076576318943595e-26 7.778655817557762e-27 1.0
-98.0723 -49.0763 1802.41 0.0 0.0 1.0
-97.80463333333334 -47.45216666666667 1807.8499999999997 -7.682004979195607e-28 -7.682004979195115e-27 1.0
-97.4797 -19.7561 1824.39 0.0 0.0 1.0
-97.3171 -17.9675 1824.39 0.0 0.0 1.0
-102.61733333333332 -1.0864186666666666 2216.3 0.0 0.0 1.0
-101.43233333333335 2.8641966666666665 2216.3 0.0 0.0 1.0
-101.62966666666667 3.4567900000000003 2216.3 0.0 0.0 1.0
-100.64196666666668 25.777800000000003 2216.3 0.0 0.0 1.0
-101.62963333333333 31.901233333333334 2216.3 0.0 0.0 1.0
-101.43233333333335 37.037000000000006 2216.3 0.0 0.0 1.0
-101.43233333333335 37.037000000000006 2216.3 0.0 0.0 1.0
-101.23466666666667 38.222199999999994 2216.3 0.0 0.0 1.0
-101.23466666666667 51.06176666666667 2216.3 0.0 0.0 1.0
-101.23466666666667 51.06176666666667 2216.3 0.0 0.0 1.0
-102.02499999999999 56.98766666666666 2216.3 0.0 0.0 1.0
-101.0373 58.96296666666667 2216.3 0.0 0.0 1.0
-102.22233333333332 66.27163333333334 2216.3 0.0 0.0 1.0
-97.7505 59.9591 1835.58 0.0 0.0 1.0
-96.9325 63.231100000000005 1835.58 0.0 0.0 1.0
-102.22233333333332 88.98766666666667 2216.3 0.0 0.0 1.0
-102.22233333333332 88.98766666666667 2216.3 0.0 0.0 1.0
-100.64209999999999 107.75333333333333 2216.3 0.0 0.0 1.0
-101.23466666666667 122.568 2216.3 0.0 0.0 1.0
-101.23466666666667 122.568 2216.3 0.0 0.0 1.0
-101.62966666666667 135.20966666666666 2216.3 0.0 0.0 1.0
-102.02466666666665 141.72866666666667 2216.3 0.0 0.0 1.0
-98.98723333333332 128.69166666666666 1893.67 0.0 0.0 1.0
-101.62966666666667 157.53099999999998 2216.3 0.0 0.0 1.0
-99.50106666666666 -139.59199999999998 2035.37 0.0 0.0 1.0
-102.41963333333332 -141.72866666666667 2216.3 0.0 0.0 1.0
-102.41966666666666 -136.59266666666667 2216.3 0.0 0.0 1.0
-100.51973333333332 -110.19233333333334 2028.47 0.0 0.0 1.0
-101.62966666666667 -113.67866666666667 2216.3 0.0 0.0 1.0
-100.09006666666669 -94.14413333333333 2021.62 0.0 0.0 1.0
-100.27006666666666 -87.2973 2021.62 0.0 0.0 1.0
-101.827 -82.27163333333334 2216.3 0.0 0.0 1.0
-98.0723 -48.43373333333333 1802.41 0.0 0.0 1.0
-99.09363333333333 -40.36253333333333 1807.8499999999997 2.3049193670869866e-27 -2.3843993340008995e-31 1.0
-99.32726666666667 -11.8247 1829.97 0.0 0.0 1.0
-102.41966666666667 -8.19753 2216.3 0.0 0.0 1.0
-101.62966666666667 3.4567900000000003 2216.3 0.0 0.0 1.0
-102.02466666666665 4.444443333333333 2216.3 0.0 0.0 1.0
-103.40733333333333 13.135799999999998 2216.3 0.0 0.0 1.0
-102.02466666666665 65.28396666666667 2216.3 0.0 0.0 1.0
-102.22233333333332 66.27163333333334 2216.3 0.0 0.0 1.0
-97.7505 59.9591 1835.58 0.0 0.0 1.0
-102.2223 97.08643333333333 2216.3 0.0 0.0 1.0
-102.81466666666665 102.41966666666666 2216.3 0.0 0.0 1.0
-100.8393 113.28366666666666 2216.3 0.0 0.0 1.0
-101.827 117.43200000000002 2216.3 0.0 0.0 1.0
-102.22233333333332 135.40733333333333 2216.3 0.0 0.0 1.0
-102.41966666666666 140.3456666666667 2216.3 0.0 0.0 1.0
-102.41966666666667 140.3456666666667 2216.3 0.0 0.0 1.0
-102.22233333333332 142.51866666666666 2216.3 0.0 0.0 1.0
-103.012 146.27166666666668 2216.3 0.0 0.0 1.0
-101.62966666666667 157.531 2216.3 0.0 0.0 1.0
-103.21 161.679 2216.3 0.0 0.0 1.0
-100.2266 -133.60533333333333 2035.37 0.0 0.0 1.0
-100.70039999999999 -111.277 2028.47 0.0 0.0 1.0
-100.09006666666669 -94.14413333333333 2021.62 0.0 0.0 1.0
-102.42 -89.7778 2216.3 0.0 0.0 1.0
-102.42 -89.77780000000001 2216.3 0.0 0.0 1.0
-101.827 -82.27163333333334 2216.3 0.0 0.0 1.0
-98.87549999999999 -50.68273333333334 1802.41 0.0 0.0 1.0
-98.55423333333333 -49.39759999999999 1802.41 0.0 0.0 1.0
-98.0723 -48.43373333333333 1802.41 0.0 0.0 1.0
-99.41576666666667 -43.74620000000001 1807.8499999999997 -1.55694777475509e-26 -2.9395476296599455e-26 1.0
-99.79789999999998 -36.7677 1813.33 0.0 0.0 1.0
-99.63636666666666 -33.53536666666667 1813.33 0.0 0.0 1.0
-96.29176666666667 -29.4225 1818.84 0.0 0.0 1.0
-99.2097 -23.748733333333334 1818.84 0.0 0.0 1.0
-102.61733333333332 -1.0864186666666666 2216.3 0.0 0.0 1.0
-103.21 7.012346666666666 2216.3 0.0 0.0 1.0
-102.815 48.69136666666666 2216.3 0.0 0.0 1.0
-104.0 54.22220000000001 2216.3 0.0 0.0 1.0
-102.22233333333332 66.27163333333334 2216.3 0.0 0.0 1.0
-102.81466666666665 102.41966666666666 2216.3 0.0 0.0 1.0
-103.01233333333333 117.827 2216.3 0.0 0.0 1.0
-102.815 133.827 2216.3 0.0 0.0 1.0
-102.22233333333332 135.40733333333336 2216.3 0.0 0.0 1.0
-102.41966666666666 140.3456666666667 2216.3 0.0 0.0 1.0
-102.81466666666665 143.11133333333333 2216.3 0.0 0.0 1.0
-102.61733333333332 159.50633333333334 2216.3 0.0 0.0 1.0
-102.041 -136.145 2035.37 0.0 0.0 1.0
-102.041 -136.145 2035.37 0.0 0.0 1.0
-103.40733333333333 -136.0 2216.3 0.0 0.0 1.0
-101.351 -86.75676666666668 2021.62 0.0 0.0 1.0
-103.40733333333333 -85.6296 2216.3 0.0 0.0 1.0
-99.13366666666667 -57.07053333333334 1811.5033333333333 0.9331256223706261 0.3499191011777326 0.08266314478895231
-98.93240000000002 -47.77443333333334 1807.8499999999997 6.90903699783834e-27 -5.528660336421881e-26 1.0
-99.2097 -23.748733333333334 1818.84 0.0 0.0 1.0
-99.32726666666667 -11.8247 1829.97 0.0 0.0 1.0
-102.61733333333332 -1.0864186666666666 2216.3 0.0 0.0 1.0
-101.827 24.790133333333333 2216.3 0.0 0.0 1.0
-103.60466666666666 32.69136666666667 2216.3 0.0 0.0 1.0
-103.60466666666666 32.69136666666667 2216.3 0.0 0.0 1.0
-103.21 38.41973333333333 2216.3 0.0 0.0 1.0
-104.0 44.3457 2216.3 0.0 0.0 1.0
-104.395 51.8519 2216.3 0.0 0.0 1.0
-103.80233333333332 85.6296 2216.3 0.0 0.0 1.0
-104.0 86.61726666666665 2216.3 0.0 0.0 1.0
-104.0 89.7778 2216.3 0.0 0.0 1.0
-102.81466666666665 102.41966666666667 2216.3 0.0 0.0 1.0
-103.40733333333333 143.50633333333334 2216.3 0.0 0.0 1.0
-103.60466666666666 144.09900000000002 2216.3 0.0 0.0 1.0
-103.80233333333332 147.65433333333337 2216.3 0.0 0.0 1.0
-99.61393333333332 128.15166666666667 1905.743333333333 -1.7165632843539097e-05 0.9949715757814153 0.10015769112948131
-102.61733333333332 159.50633333333334 2216.3 0.0 0.0 1.0
-100.9523 -133.24266666666668 2035.37 0.0 0.0 1.0
-101.42373333333335 -118.87 2028.47 0.0 0.0 1.0
-101.062 -110.55400000000002 2028.47 0.0 0.0 1.0
-104.0 -109.531 2216.3 0.0 0.0 1.0
-104.98766666666667 -106.17266666666667 2216.3 0.0 0.0 1.0
-104.0 -70.81479999999999 2216.3 0.0 0.0 1.0
-104.0 -70.81479999999999 2216.3 0.0 0.0 1.0
-104.0 -70.8148 2216.3 0.0 0.0 1.0
-98.71486666666665 -49.23693333333333 1802.41 0.0 0.0 1.0
-99.899 -43.26283333333333 1807.8499999999997 0.0 0.0 1.0
-99.09363333333333 -40.36253333333333 1807.8499999999997 2.3049193670869866e-27 -2.3843993340008995e-31 1.0
-99.09363333333333 -40.36253333333333 1807.8499999999997 2.3049193670869866e-27 -2.3843993340008995e-31 1.0
-99.63636666666666 -33.53536666666667 1813.33 0.0 0.0 1.0
-99.69613333333332 -24.72136666666667 1818.84 0.0 0.0 1.0
-104.79033333333335 10.370393333333332 2216.3 0.0 0.0 1.0
-103.80233333333332 15.7037 2216.3 0.0 0.0 1.0
-103.60466666666666 32.69136666666667 2216.3 0.0 0.0 1.0
-104.19766666666668 48.09876666666667 2216.3 0.0 0.0 1.0
-104.0 54.222199999999994 2216.3 0.0 0.0 1.0
-104.0 86.61726666666665 2216.3 0.0 0.0 1.0
-104.0 89.7778 2216.3 0.0 0.0 1.0
-103.01233333333333 117.827 2216.3 0.0 0.0 1.0
-103.01233333333333 135.20966666666666 2216.3 0.0 0.0 1.0
-104.0 143.50633333333334 2216.3 0.0 0.0 1.0
-100.16866666666665 128.35433333333333 1893.67 0.0 0.0 1.0
-100.59483333333334 129.06666666666666 1841.2300000000002 6.674214810515414e-27 1.332812267941678e-26 1.0
-104.988 -159.30866666666665 2216.3 0.0 0.0 1.0
-104.988 -159.30866666666665 2216.3 0.0 0.0 1.0
-105.18533333333335 -140.938 2216.3 0.0 0.0 1.0
-104.79 -135.80233333333334 2216.3 0.0 0.0 1.0
-101.96586666666667 -115.61566666666668 2028.47 0.0 0.0 1.0
-102.61233333333332 -88.01803333333334 2021.62 0.0 0.0 1.0
-102.43233333333335 -86.21623333333334 2021.62 0.0 0.0 1.0
-103.21 -81.67903333333334 2216.3 0.0 0.0 1.0
-100.44433333333332 -51.798 1813.33 0.0 0.0 1.0
-98.93240000000002 -47.77443333333334 1807.8499999999997 6.909036997838343e-27 -5.528660336421882e-26 1.0
-99.899 -43.26283333333333 1807.8499999999997 0.0 0.0 1.0
-99.899 -43.26283333333333 1807.8499999999997 0.0 0.0 1.0
-100.606 -36.7677 1813.33 0.0 0.0 1.0
-99.32726666666667 -11.8247 1829.97 0.0 0.0 1.0
-104.988 -4.6419733333333335 2216.3 0.0 0.0 1.0
-104.59266666666667 -3.0617266666666665 2216.3 0.0 0.0 1.0
-103.80266666666667 4.444443333333333 2216.3 0.0 0.0 1.0
-104.593 5.827159999999999 2216.3 0.0 0.0 1.0
-104.00033333333333 8.395063333333333 2216.3 0.0 0.0 1.0
-104.79033333333335 9.97532 2216.3 0.0 0.0 1.0
-105.383 36.44446666666667 2216.3 0.0 0.0 1.0
-104.19766666666668 37.62963333333334 2216.3 0.0 0.0 1.0
-104.98766666666666 42.962999999999994 2216.3 0.0 0.0 1.0
-104.395 51.8519 2216.3 0.0 0.0 1.0
-101.646 52.9218 1846.91 0.0 0.0 1.0
-104.59266666666667 85.6296 2216.3 0.0 0.0 1.0
-104.59266666666667 89.7778 2216.3 0.0 0.0 1.0
-105.778 95.30863333333332 2216.3 0.0 0.0 1.0
-104.00033333333334 106.173 2216.3 0.0 0.0 1.0
-105.58033333333333 141.33333333333334 2216.3 0.0 0.0 1.0
-104.0 143.50633333333334 2216.3 0.0 0.0 1.0
-99.8713 128.62566666666666 1897.676666666667 -0.1240585144974958 -0.9922483272731593 -0.007262369055097116
-100.59483333333334 129.06666666666666 1841.2300000000002 6.674214810515414e-27 1.332812267941678e-26 1.0
-104.0 162.46933333333334 2216.3 0.0 0.0 1.0
-102.76633333333335 -138.86633333333336 2035.37 0.0 0.0 1.0
-103.855 -135.96366666666668 2035.37 0.0 0.0 1.0
-105.38266666666668 -141.53066666666666 2216.3 0.0 0.0 1.0
-105.38266666666668 -141.53066666666666 2216.3 0.0 0.0 1.0
-105.38266666666668 -138.1726666666667 2216.3 0.0 0.0 1.0
-105.58033333333333 -133.827 2216.3 0.0 0.0 1.0
-102.87 -118.32766666666667 2028.47 0.0 0.0 1.0
-104.98766666666667 -106.17266666666667 2216.3 0.0 0.0 1.0
-106.96300000000001 -96.88889999999999 2216.3 0.0 0.0 1.0
-102.61233333333332 -88.01803333333334 2021.62 0.0 0.0 1.0
-102.61266666666666 -84.77476666666666 2021.62 0.0 0.0 1.0
-104.98733333333332 -85.43206666666667 2216.3 0.0 0.0 1.0
-106.17266666666667 -75.55556666666666 2216.3 0.0 0.0 1.0
-106.17266666666667 -75.55556666666666 2216.3 0.0 0.0 1.0
-104.98766666666667 -69.43206666666667 2216.3 0.0 0.0 1.0
-100.44433333333332 -51.798 1813.33 0.0 0.0 1.0
-100.44433333333332 -51.798 1813.33 0.0 0.0 1.0
-100.606 -36.7677 1813.33 0.0 0.0 1.0
-100.76766666666667 -34.505066666666664 1813.33 0.0 0.0 1.0
-100.2828 -33.858599999999996 1813.33 0.0 0.0 1.0
-100.2828 -32.8889 1813.33 0.0 0.0 1.0
-99.69613333333332 -24.72136666666667 1818.84 0.0 0.0 1.0
-101.70766666666667 -11.7886 1824.39 0.0 0.0 1.0
-104.98733333333332 -0.2962956666666666 2216.3 0.0 0.0 1.0
-105.58033333333333 16.49383333333333 2216.3 0.0 0.0 1.0
-104.395 51.8519 2216.3 0.0 0.0 1.0
-105.38266666666668 53.827133333333336 2216.3 0.0 0.0 1.0
-104.79 61.333333333333336 2216.3 0.0 0.0 1.0
-104.59266666666667 89.7778 2216.3 0.0 0.0 1.0
-104.79 132.04933333333335 2216.3 0.0 0.0 1.0
-100.16866666666665 128.35433333333333 1893.67 0.0 0.0 1.0
-95.26226666666666 129.385 1871.9533333333331 -0.11513910464723895 -0.9786823895015311 0.17006988875343415
-104.0 162.46933333333334 2216.3 0.0 0.0 1.0
-104.988 -159.30866666666665 2216.3 0.0 0.0 1.0
-102.40333333333335 -139.77333333333334 2035.37 0.0 0.0 1.0
-105.38266666666668 -141.53066666666666 2216.3 0.0 0.0 1.0
-103.05066666666666 -116.88133333333333 2028.47 0.0 0.0 1.0
-103.41233333333334 -109.83066666666667 2028.47 0.0 0.0 1.0
-104.98766666666667 -106.17266666666667 2216.3 0.0 0.0 1.0
-102.43233333333335 -86.21623333333334 2021.62 0.0 0.0 1.0
-104.59266666666667 -71.20986666666666 2216.3 0.0 0.0 1.0
-105.97533333333335 -68.44443333333334 2216.3 0.0 0.0 1.0
-100.606 -36.7677 1813.33 0.0 0.0 1.0
-101.25266666666668 -35.15153333333333 1813.33 0.0 0.0 1.0
-101.21966666666667 -10.813 1824.39 0.0 0.0 1.0
-104.988 -4.6419733333333335 2216.3 0.0 0.0 1.0
-105.58033333333334 9.58025 2216.3 0.0 0.0 1.0
-105.778 10.76546 2216.3 0.0 0.0 1.0
-105.778 10.76546 2216.3 0.0 0.0 1.0
-105.778 32.2963 2216.3 0.0 0.0 1.0
-105.383 48.8889 2216.3 0.0 0.0 1.0
-106.76566666666668 57.97533333333333 2216.3 0.0 0.0 1.0
-101.45933333333333 53.524766666666665 1845.0166666666667 -0.2414654700640208 0.9657640813617648 0.09483757650967202
-106.37033333333333 81.28396666666667 2216.3 0.0 0.0 1.0
-105.778 86.61726666666665 2216.3 0.0 0.0 1.0
-106.568 92.93823333333334 2216.3 0.0 0.0 1.0
-106.173 93.9259 2216.3 0.0 0.0 1.0
-106.568 99.45693333333332 2216.3 0.0 0.0 1.0
-106.173 103.01233333333333 2216.3 0.0 0.0 1.0
-106.76566666666666 104.0 2216.3 0.0 0.0 1.0
-105.58033333333334 141.33333333333334 2216.3 0.0 0.0 1.0
-105.77766666666666 148.44433333333333 2216.3 0.0 0.0 1.0
-100.59483333333333 129.06666666666666 1841.2300000000002 -1.334842962103084e-26 -2.665624535883358e-26 1.0
-107.16066666666666 -157.72833333333332 2216.3 0.0 0.0 1.0
-103.855 -135.96366666666668 2035.37 0.0 0.0 1.0
-103.855 -135.96366666666668 2035.37 0.0 0.0 1.0
-105.306 -134.14966666666666 2035.37 0.0 0.0 1.0
-105.97533333333335 -135.20966666666666 2216.3 0.0 0.0 1.0
-106.96300000000001 -126.71633333333334 2216.3 0.0 0.0 1.0
-106.76533333333333 -122.37066666666668 2216.3 0.0 0.0 1.0
-107.358 -117.82733333333334 2216.3 0.0 0.0 1.0
-106.17266666666667 -109.72833333333334 2216.3 0.0 0.0 1.0
-106.17266666666667 -85.03699999999999 2216.3 0.0 0.0 1.0
-100.22166666666665 -40.36253333333333 1807.8499999999997 3.887406508069818e-27 5.363419039658452e-31 1.0
-101.25266666666666 -38.0606 1813.33 0.0 0.0 1.0
-101.25266666666666 -38.0606 1813.33 0.0 0.0 1.0
-102.84566666666666 -14.2276 1824.39 0.0 0.0 1.0
-101.21966666666667 -10.813 1824.39 0.0 0.0 1.0
-106.56766666666665 -0.2962956666666666 2216.3 0.0 0.0 1.0
-106.568 9.185186666666667 2216.3 0.0 0.0 1.0
-105.97500000000001 25.382733333333334 2216.3 0.0 0.0 1.0
-106.76533333333333 41.77779999999999 2216.3 0.0 0.0 1.0
-102.469 52.09876666666667 1846.91 0.0 0.0 1.0
-107.55533333333334 70.2222 2216.3 0.0 0.0 1.0
-108.34566666666666 76.14813333333335 2216.3 0.0 0.0 1.0
-106.37033333333333 81.28396666666667 2216.3 0.0 0.0 1.0
-105.185 132.64200000000002 2216.3 0.0 0.0 1.0
-105.58033333333334 141.33333333333334 2216.3 0.0 0.0 1.0
-107.16033333333333 155.75300000000001 2216.3 0.0 0.0 1.0
-107.95033333333333 158.51866666666666 2216.3 0.0 0.0 1.0
-105.97533333333332 -135.20966666666666 2216.3 0.0 0.0 1.0
-106.96300000000001 -127.70400000000001 2216.3 0.0 0.0 1.0
-107.358 -122.96300000000001 2216.3 0.0 0.0 1.0
-107.358 -121.97533333333332 2216.3 0.0 0.0 1.0
-103.41233333333334 -109.83066666666667 2028.47 0.0 0.0 1.0
-107.358 -104.39533333333334 2216.3 0.0 0.0 1.0
-107.16033333333333 -84.04936666666667 2216.3 0.0 0.0 1.0
-106.76566666666668 -67.4568 2216.3 0.0 0.0 1.0
-102.128 -48.22696666666667 1818.84 0.0 0.0 1.0
-102.128 -48.22696666666667 1818.84 0.0 0.0 1.0
-102.29 -46.2817 1818.84 0.0 0.0 1.0
-103.17099999999999 -41.707300000000004 1824.39 0.0 0.0 1.0
-101.41433333333333 -35.798 1813.33 0.0 0.0 1.0
-102.426 -3.8328233333333332 1829.97 0.0 0.0 1.0
-102.426 -3.8328233333333332 1829.97 0.0 0.0 1.0
-107.35799999999999 28.740733333333335 2216.3 0.0 0.0 1.0
-107.16066666666666 30.320966666666667 2216.3 0.0 0.0 1.0
-106.37066666666668 36.0494 2216.3 0.0 0.0 1.0
-106.76533333333333 41.777800000000006 2216.3 0.0 0.0 1.0
-106.76533333333333 41.777800000000006 2216.3 0.0 0.0 1.0
-106.568 54.02466666666667 2216.3 0.0 0.0 1.0
-106.76566666666668 57.97533333333334 2216.3 0.0 0.0 1.0
-101.646 52.9218 1846.91 0.0 0.0 1.0
-107.16066666666666 65.4815 2216.3 0.0 0.0 1.0
-107.35799999999999 67.06173333333334 2216.3 0.0 0.0 1.0
-106.37033333333333 81.28396666666667 2216.3 0.0 0.0 1.0
-106.76566666666666 86.81479999999999 2216.3 0.0 0.0 1.0
-106.568 95.11110000000001 2216.3 0.0 0.0 1.0
-107.35799999999999 96.29629999999999 2216.3 0.0 0.0 1.0
-106.76566666666666 104.0 2216.3 0.0 0.0 1.0
-107.16033333333333 155.75300000000001 2216.3 0.0 0.0 1.0
-107.95100000000001 -157.72833333333332 2216.3 0.0 0.0 1.0
-107.55566666666668 -157.333 2216.3 0.0 0.0 1.0
-107.55566666666668 -128.69133333333335 2216.3 0.0 0.0 1.0
-107.55566666666668 -126.32133333333333 2216.3 0.0 0.0 1.0
-107.16066666666667 -107.55566666666668 2216.3 0.0 0.0 1.0
-108.14833333333333 -96.09876666666666 2216.3 0.0 0.0 1.0
-107.95066666666666 -66.27163333333333 2216.3 0.0 0.0 1.0
-107.95100000000001 -62.32096666666666 2216.3 0.0 0.0 1.0
-107.75333333333333 -61.530833333333334 2216.3 0.0 0.0 1.0
-103.26233333333334 -44.012166666666666 1818.84 0.0 0.0 1.0
-103.26233333333334 -44.012166666666666 1818.84 0.0 0.0 1.0
-103.19166666666666 -32.8889 1813.33 0.0 0.0 1.0
-102.222 -31.272733333333335 1813.33 0.0 0.0 1.0
-102.91533333333332 -3.343526666666666 1829.97 0.0 0.0 1.0
-103.63999999999999 0.4089966666666667 1835.58 0.0 0.0 1.0
-103.52366666666666 3.690546666666666 1839.3466666666666 -0.8251889620925807 -0.4131769515967245 0.3851596857276306
-107.16066666666666 8.197533333333332 2216.3 0.0 0.0 1.0
-107.358 9.185186666666667 2216.3 0.0 0.0 1.0
-108.54333333333334 17.283966666666668 2216.3 0.0 0.0 1.0
-107.95066666666666 31.111100000000004 2216.3 0.0 0.0 1.0
-107.95066666666666 36.0494 2216.3 0.0 0.0 1.0
-107.55566666666668 41.1852 2216.3 0.0 0.0 1.0
-107.35833333333333 49.08643333333333 2216.3 0.0 0.0 1.0
-107.95100000000001 49.87656666666667 2216.3 0.0 0.0 1.0
-106.568 54.02466666666667 2216.3 0.0 0.0 1.0
-106.76566666666668 57.97533333333334 2216.3 0.0 0.0 1.0
-102.79833333333333 51.440333333333335 1846.91 0.0 0.0 1.0
-107.95066666666666 64.49383333333334 2216.3 0.0 0.0 1.0
-106.76566666666668 86.81479999999999 2216.3 0.0 0.0 1.0
-106.76566666666668 104.0 2216.3 0.0 0.0 1.0
-108.54333333333334 121.58033333333333 2216.3 0.0 0.0 1.0
-107.95066666666666 -156.3456666666667 2216.3 0.0 0.0 1.0
-107.95066666666666 -156.3456666666667 2216.3 0.0 0.0 1.0
-105.306 -135.78266666666664 2035.37 0.0 0.0 1.0
-106.03166666666665 -134.14966666666666 2035.37 0.0 0.0 1.0
-106.03166666666665 -134.14966666666666 2035.37 0.0 0.0 1.0
-107.95033333333333 -137.18533333333332 2216.3 0.0 0.0 1.0
-107.55566666666668 -128.69133333333335 2216.3 0.0 0.0 1.0
-108.34566666666666 -109.13600000000001 2216.3 0.0 0.0 1.0
-108.14833333333333 -95.90123333333334 2216.3 0.0 0.0 1.0
-109.72833333333334 -88.79013333333334 2216.3 0.0 0.0 1.0
-107.16033333333333 -84.04936666666667 2216.3 0.0 0.0 1.0
-109.13600000000001 -77.9259 2216.3 0.0 0.0 1.0
-109.13600000000001 -75.55556666666666 2216.3 0.0 0.0 1.0
-108.54333333333334 -60.93823333333333 2216.3 0.0 0.0 1.0
-103.49633333333334 -14.3902 1824.39 0.0 0.0 1.0
-103.49633333333334 -12.6016 1824.39 0.0 0.0 1.0
-106.56766666666665 -0.2962956666666666 2216.3 0.0 0.0 1.0
-103.52366666666666 3.690546666666666 1839.3466666666666 -0.8251889620925807 -0.4131769515967245 0.3851596857276306
-108.14833333333333 9.777790000000001 2216.3 0.0 0.0 1.0
-108.14799999999998 27.555566666666667 2216.3 0.0 0.0 1.0
-107.55566666666668 41.1852 2216.3 0.0 0.0 1.0
-103.786 50.94649999999999 1846.91 0.0 0.0 1.0
-107.753 68.8395 2216.3 0.0 0.0 1.0
-107.55533333333334 70.2222 2216.3 0.0 0.0 1.0
-107.358 92.93823333333334 2216.3 0.0 0.0 1.0
-108.14799999999998 94.5185 2216.3 0.0 0.0 1.0
-107.95066666666666 97.4815 2216.3 0.0 0.0 1.0
-107.358 148.24666666666667 2216.3 0.0 0.0 1.0
-107.358 148.24666666666667 2216.3 0.0 0.0 1.0
-107.95066666666666 153.18533333333332 2216.3 0.0 0.0 1.0
-108.34566666666667 157.53099999999998 2216.3 0.0 0.0 1.0
-109.33333333333333 -162.469 2216.3 0.0 0.0 1.0
-108.14833333333333 -156.938 2216.3 0.0 0.0 1.0
-106.57600000000001 -133.96833333333333 2035.37 0.0 0.0 1.0
-106.21333333333332 -133.06133333333332 2035.37 0.0 0.0 1.0
-108.93866666666668 -126.12366666666667 2216.3 0.0 0.0 1.0
-109.531 -123.16033333333333 2216.3 0.0 0.0 1.0
-108.74066666666666 -115.45666666666666 2216.3 0.0 0.0 1.0
-108.54333333333334 -95.90123333333334 2216.3 0.0 0.0 1.0
-108.54333333333334 -95.90123333333334 2216.3 0.0 0.0 1.0
-108.34566666666667 -76.5432 2216.3 0.0 0.0 1.0
