ply
format ascii 1.0
comment VCGLIB generated
element vertex 717
property float x
property float y
property float z
property float nx
property float ny
property float nz
element face 0
property list uchar int vertex_indices
end_header
-30.3083 -126.10333333333334 1915.9066666666668 -0.8315468621212101 0.5543555665483403 0.03492451765217953
-32.536699999999996 -108.25999999999999 1881.76 0.0 0.0 1.0
-34.2154 -92.63589999999999 1841.2300000000002 -7.9992995550992e-28 -5.599509688569439e-27 1.0
-33.3537 -88.6442 1829.97 0.0 0.0 1.0
-33.333299999999994 -82.5203 1824.39 0.0 0.0 1.0
-18.759000000000004 -87.96993333333334 2181.2933333333335 0.04501598177823422 -0.9904209849468087 0.13053671499442226
-33.7994 -38.500499999999995 1818.84 0.0 0.0 1.0
-32.901266666666665 19.6104 1841.24 -0.9898035629741934 0.09003698627467137 0.11037322060249528
-33.954433333333334 19.6273 1858.39 0.0 0.0 1.0
-34.4273 22.049899999999997 1839.3466666666666 0.9427378335232695 0.2538100662581672 0.21639276214762124
-30.497600000000002 23.571366666666666 1895.6733333333334 -0.5849496705540702 -0.7799457307832112 0.2225276161552255
-31.405966666666668 24.63506666666667 1899.6933333333334 -0.9431880501301406 -0.3143344126307412 0.10765769423404133
-34.2154 30.276933333333332 1841.2300000000002 -4.590682520931711e-28 6.977667348517027e-28 1.0
-33.3881 32.66086666666667 1809.6766666666665 0.19580946231974158 -0.9790068048832867 -0.05660680575930838
-35.0049 43.97246666666666 1765.1899999999998 -7.253538344668416e-27 -1.813144447307264e-27 1.0
-34.69023333333333 45.54569999999999 1765.1899999999998 7.252705845196788e-27 -3.6262888946145244e-27 1.0
-35.76846666666667 50.6986 1791.62 0.0 0.0 1.0
-29.599 57.95036666666667 1860.3166666666668 0.5720905373742347 -0.43860479213749276 0.6930643933725684
-35.79153333333334 60.49163333333333 1765.1899999999998 -4.758927993542069e-27 6.796410621606585e-28 1.0
-36.803133333333335 66.5107 1749.71 0.0 0.0 1.0
-34.58376666666667 62.100433333333335 1503.5233333333333 0.47494675915301793 0.03670251346593273 0.8792488279635795
-35.1124 90.9482 1754.84 0.0 0.0 1.0
-35.2688 96.10950000000001 1754.84 0.0 0.0 1.0
-35.2688 96.10950000000001 1754.84 0.0 0.0 1.0
-35.738 108.30900000000001 1754.84 0.0 0.0 1.0
-35.738 108.30900000000001 1754.84 0.0 0.0 1.0
-35.738 109.09100000000001 1754.84 0.0 0.0 1.0
-31.884200000000003 -131.11333333333334 1868.0566666666666 0.3162249791958334 0.9486749375875 0.004198252725515501
-30.3083 -126.10333333333334 1915.9066666666668 -0.8315468621212101 0.5543555665483403 0.03492451765217951
-33.688633333333335 -125.141 1875.86 0.0 0.0 1.0
-31.849566666666664 -119.95800000000001 1875.86 0.0 0.0 1.0
-33.20753333333334 -119.329 1881.76 0.0 0.0 1.0
-33.20753333333334 -119.329 1881.76 0.0 0.0 1.0
-32.5367 -108.25999999999999 1881.76 0.0 0.0 1.0
-32.5367 -108.25999999999999 1881.76 0.0 0.0 1.0
-36.881033333333335 -94.1705 1758.34 -0.8783505683664703 -0.09889082872982174 0.4676760449749671
-34.2154 -92.63589999999999 1841.2300000000002 -7.999299555099197e-28 -5.599509688569438e-27 1.0
-34.1236 -60.7092 1818.84 0.0 0.0 1.0
-33.00809999999999 -46.5854 1824.39 0.0 0.0 1.0
-34.60993333333334 -40.6079 1818.84 0.0 0.0 1.0
-34.60993333333334 -40.6079 1818.84 0.0 0.0 1.0
-33.7994 -38.500499999999995 1818.84 0.0 0.0 1.0
-38.21576666666667 -38.3997 1629.0900000000001 0.856236793829595 -0.00925428639153632 0.5165006399568147
-35.3939 -35.1515 1813.33 0.0 0.0 1.0
-35.09626666666667 -21.641333333333336 1818.84 0.0 0.0 1.0
-30.6331 12.896966 2063.5966666666664 -0.7615264793284696 -0.24226342852218677 0.6011537677518634
-44.74993333333333 7.1104899999999995 1648.5133333333333 0.6644068787248479 0.4599743507206382 0.5890561061411999
-33.8932 30.654 1815.1666666666667 1.566468285229189e-16 0.7563771233546434 0.6541358018529139
-33.45453333333334 32.40403333333334 1813.33 0.0 0.0 1.0
-50.5539 25.1317 1405.8033333333333 0.08065748649099394 -0.5645916932400663 0.8214198620664527
-46.2527 26.88383333333333 1270.493333333333 -0.586236657447326 0.11067384683801004 0.8025446287223306
-35.94886666666667 59.54766666666666 1765.1899999999998 -1.0877714292044916e-26 -4.3510857168179666e-26 1.0
-35.94886666666667 59.54766666666666 1765.1899999999998 -1.0877714292044921e-26 -4.351085716817968e-26 1.0
-35.5816 82.50243333333333 1754.84 0.0 0.0 1.0
-34.799600000000005 86.88170000000001 1754.84 0.0 0.0 1.0
-36.05083333333334 101.58366666666666 1754.84 0.0 0.0 1.0
-36.2072 104.086 1754.84 0.0 0.0 1.0
-35.31956666666667 127.35533333333335 1765.1899999999998 9.067143858580983e-26 4.71463664588747e-26 1.0
-22.579066666666666 161.26533333333336 2183.94 0.0 0.0 1.0
-36.582699999999996 -96.14299999999999 1734.5333333333335 0.9254875806860402 -0.09798967095700727 0.365883536636506
-32.03353333333334 -106.415 1881.76 0.0 0.0 1.0
-47.066633333333336 -71.55900000000001 1343.7166666666667 -3.089886975162074e-15 0.9436880062726138 0.3308367374056565
-33.3537 -88.6442 1829.97 0.0 0.0 1.0
-33.6585 -78.6179 1824.39 0.0 0.0 1.0
-34.934133333333335 -66.383 1818.84 0.0 0.0 1.0
-34.934133333333335 -66.383 1818.84 0.0 0.0 1.0
-34.1236 -60.7092 1818.84 0.0 0.0 1.0
-34.934133333333335 -43.0395 1818.84 0.0 0.0 1.0
-34.934133333333335 -43.0395 1818.84 0.0 0.0 1.0
-35.25836666666667 -30.881466666666665 1818.84 0.0 0.0 1.0
-34.447833333333335 -24.397133333333333 1818.84 0.0 0.0 1.0
-35.93496666666667 -6.585366666666666 1824.39 0.0 0.0 1.0
-34.471533333333326 -4.308943333333334 1824.39 0.0 0.0 1.0
-35.28456666666667 -0.2439016666666667 1824.39 0.0 0.0 1.0
-33.954433333333334 19.6273 1858.39 0.0 0.0 1.0
-42.45093333333333 33.86143333333333 1493.5366666666666 -0.9329639233902948 -0.2466617413620003 0.2621760915881796
-32.135266666666666 54.911833333333334 1858.3966666666668 0.9052160561531449 -0.2739930711783094 0.32482562803575743
-34.690266666666666 47.748266666666666 1765.1899999999998 0.0 0.0 1.0
-36.17933333333334 69.4737 1749.71 0.0 0.0 1.0
-48.6461 53.8127 1294.3233333333335 0.20177963061068815 0.9209041333075962 0.33349746315017037
-36.83283333333333 81.4076 1754.84 0.0 0.0 1.0
-35.738 83.12806666666665 1754.84 0.0 0.0 1.0
-35.738 84.6921 1754.84 0.0 0.0 1.0
-36.207233333333335 94.70186666666666 1754.84 0.0 0.0 1.0
-36.2072 104.086 1754.84 0.0 0.0 1.0
-36.2072 104.086 1754.84 0.0 0.0 1.0
-35.738 108.30900000000001 1754.84 0.0 0.0 1.0
-37.614866666666664 120.97766666666666 1754.84 0.0 0.0 1.0
-37.333333333333336 123.68633333333334 1760.0 0.0 0.0 1.0
-36.549 125.72533333333332 1760.0 0.0 0.0 1.0
-37.05013333333333 128.614 1765.1899999999998 -2.9598625142439865e-28 -2.8612283168293608e-27 1.0
-29.497533333333337 -139.64466666666667 2030.8333333333333 -0.9776215407259118 0.1912271913323436 0.08768286265763578
-32.2108 -137.718 2008.0666666666666 -0.9671183224745349 -0.00034478935710322825 0.2543266235657227
-33.688633333333335 -125.141 1875.86 0.0 0.0 1.0
-34.90906666666667 -110.94966666666666 1813.33 0.0 0.0 1.0
-47.066633333333336 -71.55900000000001 1343.7166666666667 -5.864479361021896e-15 0.9436880062726138 0.3308367374056561
-35.3374 -91.04289999999999 1835.58 0.0 0.0 1.0
-35.3374 -91.04289999999999 1835.58 0.0 0.0 1.0
-34.95936666666666 -81.54469999999999 1824.39 0.0 0.0 1.0
-35.42046666666667 -66.7072 1818.84 0.0 0.0 1.0
-34.146366666666665 -53.57723333333333 1824.39 0.0 0.0 1.0
-35.42046666666667 -45.4711 1818.84 0.0 0.0 1.0
-34.934133333333335 -43.0395 1818.84 0.0 0.0 1.0
-35.09626666666667 -40.6079 1818.84 0.0 0.0 1.0
-35.420500000000004 -37.041500000000006 1818.84 0.0 0.0 1.0
-35.420500000000004 -37.041500000000006 1818.84 0.0 0.0 1.0
-35.25836666666667 -31.854133333333333 1818.84 0.0 0.0 1.0
-35.25836666666667 -30.881466666666668 1818.84 0.0 0.0 1.0
-35.420500000000004 -22.9382 1818.84 0.0 0.0 1.0
-35.420500000000004 -22.9382 1818.84 0.0 0.0 1.0
-35.28456666666667 -1.0569106666666666 1824.39 0.0 0.0 1.0
-39.041133333333335 16.097166666666666 1727.8366666666668 0.9871989993493044 -0.0001845995378809903 0.1594932650827076
-36.67943333333333 14.244866666666667 1748.0266666666666 -0.852813645688201 -0.5018365521289095 0.14446093131143825
-36.14403333333333 21.6794 1822.54 -0.7583948573696395 0.5055965715797597 0.41135063768283764
-34.833333333333336 22.583333333333332 1870.0 0.0 0.0 1.0
-46.58766666666667 21.725066666666663 1266.0633333333333 -0.5333846689061077 0.8435742100768499 0.06231650719625081
-35.823299999999996 35.58233333333333 1802.41 0.0 0.0 1.0
-36.670899999999996 36.668 1800.6066666666666 0.14159954517126774 0.8496266546227909 0.5080197993796844
-35.94886666666667 51.52406666666667 1765.1899999999998 1.2328030098804928e-27 1.8855257919964965e-27 1.0
-37.20746666666667 54.8279 1765.1899999999998 0.0 0.0 1.0
-36.263533333333335 60.019666666666666 1765.1899999999998 0.0 0.0 1.0
-36.892833333333336 60.334333333333326 1765.1899999999998 -5.439433357183196e-27 -1.0877714292044918e-26 1.0
-37.7388 74.30796666666667 1749.71 0.0 0.0 1.0
-37.27096666666667 75.7115 1749.71 0.0 0.0 1.0
-35.738 89.85340000000001 1754.84 0.0 0.0 1.0
-34.524566666666665 -124.974 1875.86 0.0 0.0 1.0
-33.20753333333334 -119.329 1881.76 0.0 0.0 1.0
-33.20753333333334 -109.09866666666666 1881.76 0.0 0.0 1.0
-23.721733333333333 -113.531 1979.2933333333333 0.43233922348792303 0.7782870258783741 0.4553593099775768
-51.04853333333333 -60.10776666666667 1194.4133333333332 0.5048169219816256 0.050361383286524376 0.8617561176774233
-34.146366666666665 -53.57723333333333 1824.39 0.0 0.0 1.0
-35.09626666666667 -40.9321 1818.84 0.0 0.0 1.0
-35.420500000000004 -37.041500000000006 1818.84 0.0 0.0 1.0
-35.25836666666667 -30.881466666666668 1818.84 0.0 0.0 1.0
-35.582600000000006 -30.070933333333333 1818.84 0.0 0.0 1.0
-35.420500000000004 -22.9382 1818.84 0.0 0.0 1.0
-35.25836666666667 -20.506566666666668 1818.84 0.0 0.0 1.0
-36.555233333333334 -20.020266666666668 1818.84 0.0 0.0 1.0
-35.56466666666667 44.66933333333333 1793.4133333333332 -0.8595521198469598 0.28652235749338906 0.42317265025403994
-42.33586666666667 36.8692 1570.63 -0.43889441990477296 0.7196075853987632 0.5380860630168882
-36.96606666666667 54.16203333333333 1795.2166666666665 0.8988573152414007 0.27657370214297233 0.339944869236104
-36.803133333333335 66.5107 1749.71 0.0 0.0 1.0
-37.4269 67.44636666666666 1749.71 0.0 0.0 1.0
-37.115 68.538 1749.71 0.0 0.0 1.0
-37.458466666666666 93.91983333333333 1754.84 0.0 0.0 1.0
-36.98926666666666 102.053 1754.84 0.0 0.0 1.0
-35.47456666666667 91.74719999999998 1448.93 0.5251141332900549 -0.47509713121293895 0.706072137201483
-36.520066666666665 115.19066666666667 1754.84 0.0 0.0 1.0
-34.524566666666665 -118.28633333333333 1875.86 0.0 0.0 1.0
-34.022999999999996 -114.60833333333333 1875.86 0.0 0.0 1.0
-47.06663333333333 -71.559 1343.7166666666665 -3.089886975162074e-15 0.9436880062726138 0.3308367374056565
-36.202 -104.00013333333334 1813.33 0.0 0.0 1.0
-35.528200000000005 -92.8 1841.2300000000002 7.9992995550992415e-28 1.5998599110198481e-27 1.0
-36.4228 -80.7317 1824.39 0.0 0.0 1.0
-35.609766666666665 -77.4797 1824.39 0.0 0.0 1.0
-36.910599999999995 -76.66669999999999 1824.39 0.0 0.0 1.0
-35.906800000000004 -67.0314 1818.84 0.0 0.0 1.0
-35.906800000000004 -67.0314 1818.84 0.0 0.0 1.0
-36.87943333333333 -63.46503333333334 1818.84 0.0 0.0 1.0
-36.55523333333333 -46.44376666666667 1818.84 0.0 0.0 1.0
-36.422799999999995 -5.93496 1824.39 0.0 0.0 1.0
-36.0976 -1.5447166666666667 1824.39 0.0 0.0 1.0
-36.26016666666666 0.24390233333333333 1824.39 0.0 0.0 1.0
-36.748 6.422766666666667 1824.39 0.0 0.0 1.0
-33.954433333333334 19.6273 1858.39 0.0 0.0 1.0
-34.833333333333336 22.583333333333332 1870.0 0.0 0.0 1.0
-34.974066666666666 28.99273333333333 1864.17 0.0 0.0 1.0
-45.54123333333334 24.749733333333335 1288.7333333333333 -0.11081842043336096 0.4248155505133094 0.8984714941136023
-37.88046666666667 37.49576666666667 1824.3999999999999 0.10796816383506763 -0.5969695431480548 0.7949655590978055
-40.2743 38.715266666666665 1516.22 0.42418857538810645 -0.7918270518502326 0.43940183484866996
-31.441300000000002 43.4273 1828.11 0.08543229456236999 -0.5980216969102988 0.7969136547144459
-38.780699999999996 53.09733333333333 1765.1899999999998 6.799291702840678e-28 9.60504551719465e-32 1.0
-37.20746666666667 54.8279 1765.1899999999998 0.0 0.0 1.0
-37.20746666666667 60.8063 1765.1899999999998 0.0 0.0 1.0
-37.20746666666667 60.8063 1765.1899999999998 0.0 0.0 1.0
-37.27096666666667 75.7115 1749.71 0.0 0.0 1.0
-37.7713 100.64523333333334 1754.84 0.0 0.0 1.0
-37.14566666666666 102.67833333333333 1754.84 0.0 0.0 1.0
-32.2108 -137.718 2008.0666666666666 -0.9671183224745349 -0.0003447893571031659 0.2543266235657227
-34.524566666666665 -124.974 1875.86 0.0 0.0 1.0
-36.967800000000004 -120.70633333333335 1864.17 0.0 0.0 1.0
-36.202 -104.00013333333334 1813.33 0.0 0.0 1.0
-45.48623333333333 -69.33266666666667 1308.4633333333334 0.7162517805953105 -0.680363238858244 0.155207119696125
-35.3374 -91.04289999999999 1835.58 0.0 0.0 1.0
-37.2681 -85.8716 1829.97 0.0 0.0 1.0
-36.393100000000004 -67.51773333333334 1818.84 0.0 0.0 1.0
-37.203633333333336 -64.5998 1818.84 0.0 0.0 1.0
-37.852066666666666 -58.1155 1818.84 0.0 0.0 1.0
-38.17626666666666 -50.334333333333326 1818.84 0.0 0.0 1.0
-36.393100000000004 -43.0395 1818.84 0.0 0.0 1.0
-36.55519999999999 -26.342466666666667 1818.84 0.0 0.0 1.0
-36.9106 -9.837396666666667 1824.39 0.0 0.0 1.0
-36.4228 -5.934959999999999 1824.39 0.0 0.0 1.0
-36.4228 -5.934959999999999 1824.39 0.0 0.0 1.0
-37.07319999999999 6.74797 1824.39 0.0 0.0 1.0
-34.833333333333336 22.583333333333332 1870.0 0.0 0.0 1.0
-50.592733333333335 20.040153333333333 1210.5633333333333 0.7190470166190798 -0.06548424402310359 0.691869353039953
-41.4129 33.01756666666667 1438.4666666666665 0.129263624202807 -0.7220062388689675 0.679704278706735
-43.135799999999996 49.933033333333334 1654.58 0.4281080285795657 -0.6786657617610324 0.5967715640670517
-38.51853333333333 72.90446666666668 1749.71 0.0 0.0 1.0
-38.866099999999996 81.0948 1754.84 0.0 0.0 1.0
-37.7713 100.64523333333334 1754.84 0.0 0.0 1.0
-37.77126666666666 109.09100000000001 1754.84 0.0 0.0 1.0
-36.520066666666665 115.19066666666667 1754.84 0.0 0.0 1.0
-38.2405 121.75966666666666 1754.84 0.0 0.0 1.0
-38.2405 121.75966666666666 1754.84 0.0 0.0 1.0
-38.396899999999995 122.07266666666668 1754.84 0.0 0.0 1.0
-27.445233333333334 -158.92966666666666 2183.94 0.0 0.0 1.0
-36.196433333333324 -131.15966666666668 1875.86 0.0 0.0 1.0
-36.91546666666667 -112.69333333333333 1789.8466666666666 -0.4732436014259426 -0.4732634189971902 0.7430089030075573
-36.36363333333333 -118.28633333333333 1875.86 0.0 0.0 1.0
-56.03719999999999 -72.41373333333333 1233.8166666666666 0.21895452009988495 0.5385132776465111 0.8136721501478594
-41.43443333333333 -88.29993333333334 1703.2433333333336 -0.9725424118408583 -0.22102519287569194 0.07286371720568152
-41.43443333333333 -88.29993333333334 1703.2433333333336 -0.9725424118408583 -0.22102519287569194 0.07286371720568152
-37.819433333333336 -100.173 1877.8266666666666 -0.25244597609001973 0.42912796246594104 0.8672486500339952
-22.755566666666667 -80.44446666666666 1994.67 0.0 0.0 1.0
-37.20363333333333 -64.76190000000001 1818.84 0.0 0.0 1.0
-37.203633333333336 -42.55316666666666 1818.84 0.0 0.0 1.0
-36.87943333333333 -40.121566666666666 1818.84 0.0 0.0 1.0
-36.068900000000006 -23.4245 1818.84 0.0 0.0 1.0
-37.235800000000005 -10.6504 1824.39 0.0 0.0 1.0
-36.9106 -9.837396666666667 1824.39 0.0 0.0 1.0
-36.0976 -1.5447166666666667 1824.39 0.0 0.0 1.0
-39.807433333333336 17.236800000000002 1734.5 0.7060533067521204 -0.7059556053134198 0.05581587006362189
-34.2154 30.276933333333336 1841.2300000000002 2.2953412604658557e-28 -3.4888336742585136e-28 1.0
-40.077999999999996 79.61013333333334 1749.71 0.0 0.0 1.0
-38.866099999999996 81.0948 1754.84 0.0 0.0 1.0
-38.2405 93.2942 1754.84 0.0 0.0 1.0
-38.2405 93.2942 1754.84 0.0 0.0 1.0
-38.5533 95.32746666666667 1754.84 0.0 0.0 1.0
-37.77126666666666 109.09100000000001 1754.84 0.0 0.0 1.0
-38.396899999999995 122.07266666666668 1754.84 0.0 0.0 1.0
-38.90193333333334 126.19600000000001 1760.0 0.0 0.0 1.0
-38.90193333333334 126.19600000000001 1760.0 0.0 0.0 1.0
-37.36676666666666 -133.50033333333332 1875.86 0.0 0.0 1.0
-29.658966666666668 -139.846 1974.92 0.0 0.0 1.0
-36.865199999999994 -128.65200000000002 1875.86 0.0 0.0 1.0
-37.4268 -85.23753333333333 1587.3866666666665 0.6245248651450563 -0.7806375785332706 0.023951279658111137
-35.528200000000005 -92.8 1841.2300000000002 7.9992995550992415e-28 1.5998599110198481e-27 1.0
-37.9205 -86.68706666666667 1829.97 0.0 0.0 1.0
-37.9205 -84.7299 1829.97 0.0 0.0 1.0
-37.52786666666666 -64.76190000000001 1818.84 0.0 0.0 1.0
-37.52786666666666 -64.76190000000001 1818.84 0.0 0.0 1.0
-37.20366666666666 -63.46503333333334 1818.84 0.0 0.0 1.0
-37.852066666666666 -58.1155 1818.84 0.0 0.0 1.0
-37.68996666666666 -41.580533333333335 1818.84 0.0 0.0 1.0
-37.561 -11.9512 1824.39 0.0 0.0 1.0
-38.2114 3.170733333333333 1824.39 0.0 0.0 1.0
-37.3984 6.0975633333333334 1824.39 0.0 0.0 1.0
-37.972199999999994 11.925033333333333 1820.6899999999998 0.9885648689854506 -1.322570088362098e-16 0.1507962194744248
-38.1348 13.876266666666666 1820.6899999999998 0.9722918083425993 -2.366603823794354e-16 0.23377048451393226
-38.71483333333333 33.9759 1802.41 0.0 0.0 1.0
-37.9941 60.8063 1765.1899999999998 -1.6115132284511147e-27 2.4177820846437624e-27 1.0
-38.466100000000004 61.4356 1765.1899999999998 -2.618773021390724e-27 -6.044455058978776e-28 1.0
-56.06976666666666 61.412699999999994 1327.97 -0.5303787836674753 -0.7773647641832211 0.3382341928926974
-39.9609 85.7869 1754.84 0.0 0.0 1.0
-39.3353 87.82013333333333 1754.84 0.0 0.0 1.0
-40.38986666666667 107.05633333333333 1749.71 0.0 0.0 1.0
-32.2108 -137.718 2008.0666666666666 -0.9671183224745349 -0.00034478935710319366 0.2543266235657227
-37.253233333333334 -121.68900000000001 1809.6766666666665 -0.7332577411373843 0.2618514530961796 0.6275084872521806
-33.493633333333335 -116.66300000000001 1824.3999999999999 0.4907471064103807 -0.8586992103164456 0.14765819906713995
-36.967800000000004 -120.70633333333332 1864.17 0.0 0.0 1.0
-33.76833333333334 -113.00733333333334 1899.6933333333334 -0.6225343508816914 0.7782004654833051 -0.08279503302661673
-39.83206666666666 -99.4193 1854.5500000000002 0.12678149877389114 -0.8881108020171002 0.441798206095485
-38.2467 -87.01323333333333 1829.97 0.0 0.0 1.0
-37.9205 -85.54540000000001 1829.97 0.0 0.0 1.0
-37.8862 -79.7561 1824.39 0.0 0.0 1.0
-37.852066666666666 -47.57853333333333 1818.84 0.0 0.0 1.0
-37.68996666666666 -40.445766666666664 1818.84 0.0 0.0 1.0
-38.9495 -34.34343333333334 1813.33 0.0 0.0 1.0
-38.3384 -27.3151 1818.84 0.0 0.0 1.0
-37.68996666666666 -20.182366666666667 1818.84 0.0 0.0 1.0
-39.14893333333333 -17.750733333333333 1818.84 0.0 0.0 1.0
-37.561 -11.9512 1824.39 0.0 0.0 1.0
-40.2837 -6.241136666666667 1818.84 0.0 0.0 1.0
-37.561 1.0569096666666666 1824.39 0.0 0.0 1.0
-32.98026666666667 13.374900000000002 1864.17 0.0 0.0 1.0
-38.5366 13.7398 1824.39 0.0 0.0 1.0
-38.5366 13.7398 1824.39 0.0 0.0 1.0
-39.807433333333336 17.2368 1734.5 0.7060533067521204 -0.7059556053134198 0.055815870063621986
-39.807433333333336 17.2368 1734.5 0.7060533067521199 -0.7059556053134204 0.055815870063621834
-38.87546666666666 35.26103333333333 1802.41 0.0 0.0 1.0
-41.64896666666667 39.231433333333335 1520.0833333333333 0.2705454443876888 -0.872996920259927 0.4058097334191858
-46.05369999999999 37.9775 1487.3500000000001 -0.4063805129856755 -0.9037779132120576 0.1343144156654738
-38.780699999999996 53.09733333333333 1765.1899999999998 6.799291702840678e-28 9.60504551719465e-32 1.0
-38.780699999999996 53.09733333333333 1765.1899999999998 6.799291702840678e-28 9.60504551719465e-32 1.0
-40.7843 65.33333333333333 1760.0 0.0 0.0 1.0
-38.866099999999996 81.0948 1754.84 0.0 0.0 1.0
-38.553266666666666 88.91496666666667 1754.84 0.0 0.0 1.0
-39.0225 95.01466666666666 1754.84 0.0 0.0 1.0
-38.866099999999996 121.44666666666666 1754.84 0.0 0.0 1.0
-38.11763333333334 125.098 1760.0 0.0 0.0 1.0
-37.05013333333333 128.614 1765.1899999999998 -2.9598625142439865e-28 -2.8612283168293608e-27 1.0
-37.90356666666667 -128.38566666666668 1881.76 0.0 0.0 1.0
-37.90356666666667 -128.38566666666668 1881.76 0.0 0.0 1.0
-38.643100000000004 -118.89233333333334 1893.6833333333334 -0.8479342694343863 0.5299888455623476 -0.01092237603561615
-56.03719999999999 -72.41373333333333 1233.8166666666666 0.21895452009988492 0.5385132776465111 0.8136721501478594
-18.775513333333333 -112.16633333333334 2044.67 0.040565191620770664 0.9937494829334544 0.10400206920182961
-37.967800000000004 -77.73663333333333 1653.0733333333335 -0.4882462145010368 0.31167973069373905 0.8151511390534187
-38.2467 -87.01323333333333 1829.97 0.0 0.0 1.0
-38.0836 -86.68706666666667 1829.97 0.0 0.0 1.0
-38.5729 -84.89300000000001 1829.97 0.0 0.0 1.0
-38.4098 -83.58820000000001 1829.97 0.0 0.0 1.0
-33.4257 -92.86533333333334 1979.3366666666668 -0.9881269227201267 -0.13300715834298873 0.07690435894782523
-39.187000000000005 -76.3415 1824.39 0.0 0.0 1.0
-38.3384 -65.73456666666667 1818.84 0.0 0.0 1.0
-38.3384 -65.73456666666667 1818.84 0.0 0.0 1.0
-39.14893333333333 -50.0101 1818.84 0.0 0.0 1.0
-38.9495 -34.34343333333334 1813.33 0.0 0.0 1.0
-40.0808 -30.46466666666667 1813.33 0.0 0.0 1.0
-39.187000000000005 -2.5203266666666666 1824.39 0.0 0.0 1.0
-38.2114 3.170733333333333 1824.39 0.0 0.0 1.0
-38.2114 3.170733333333333 1824.39 0.0 0.0 1.0
-38.5366 5.772359999999999 1824.39 0.0 0.0 1.0
-39.6748 9.674793333333334 1824.39 0.0 0.0 1.0
-38.16913333333333 12.939 1826.25 0.9979138029922527 9.583023892281836e-16 0.06456037327602265
-36.7903 15.891753333333332 1756.57 -0.8924388966350864 -0.4462180937196449 0.06665004583611248
-35.57743333333333 26.66416666666667 1887.71 -0.8365880215315823 -0.44319343223846003 0.3220249429012702
-38.87546666666666 35.26103333333334 1802.41 0.0 0.0 1.0
-38.87546666666666 35.26103333333333 1802.41 0.0 0.0 1.0
-39.918499999999995 39.678000000000004 1806.0366666666666 -0.4423377046107835 0.8846754092215704 0.14726430456261372
-40.196666666666665 58.60373333333334 1765.1899999999998 -1.450208265573624e-26 7.251809528030048e-27 1.0
-40.7843 65.33333333333333 1760.0 0.0 0.0 1.0
-40.701766666666664 71.65693333333333 1749.71 0.0 0.0 1.0
-40.4301 85.1613 1754.84 0.0 0.0 1.0
-40.701766666666664 108.14799999999998 1749.71 0.0 0.0 1.0
-41.5249 127.07733333333333 1754.84 0.0 0.0 1.0
-40.992 -121.73599999999999 1854.5500000000002 0.28146339628023975 0.9382618302919196 0.20110468510616378
-36.967800000000004 -120.70633333333332 1864.17 0.0 0.0 1.0
-40.041266666666665 -102.78633333333335 1852.63 0.0 0.0 1.0
-41.072466666666664 -103.902 1843.1333333333332 3.797410234524715e-16 0.999915843042136 0.012973312350148692
-39.187000000000005 -75.36586666666666 1824.39 0.0 0.0 1.0
-39.8374 -73.252 1824.39 0.0 0.0 1.0
-38.17626666666666 -68.00406666666667 1818.84 0.0 0.0 1.0
-39.79736666666667 -59.08813333333333 1818.84 0.0 0.0 1.0
-39.14893333333333 -50.0101 1818.84 0.0 0.0 1.0
-39.311033333333334 -49.1996 1818.84 0.0 0.0 1.0
-38.986799999999995 -43.525866666666666 1818.84 0.0 0.0 1.0
-39.75756666666667 -36.44443333333333 1813.33 0.0 0.0 1.0
-39.63523333333333 -19.696033333333332 1818.84 0.0 0.0 1.0
-39.79736666666667 -14.832833333333333 1818.84 0.0 0.0 1.0
-38.861799999999995 14.715433333333332 1824.39 0.0 0.0 1.0
-35.833333333333336 23.916666666666668 1870.0 0.0 0.0 1.0
-35.34286666666666 25.272033333333336 1883.74 -0.645705522839743 -0.6456956510251171 0.40760459273848304
-41.00703333333333 31.983866666666668 1807.8499999999997 2.420224941313427e-27 3.5955788521359086e-27 1.0
-34.201966666666664 55.993066666666664 2070.606666666667 -0.4469756925390896 -0.8938639852793789 -0.03492715418793179
-43.7329 49.806999999999995 1660.7033333333331 -0.976067765299605 0.04126825919998815 0.21351498384337775
-40.825966666666666 51.68143333333334 1765.1899999999998 1.4799984547380475e-28 6.413587955430246e-28 1.0
-40.230533333333334 47.95770000000001 1716.253333333333 0.4343830787662786 -0.5133588839108021 0.7401175563323603
-40.196666666666665 58.60373333333334 1765.1899999999998 -1.450208265573624e-26 7.251809528030048e-27 1.0
-40.196666666666665 58.60373333333334 1765.1899999999998 -1.450208265573626e-26 7.251809528030051e-27 1.0
-41.4815 76.80313333333334 1749.71 0.0 0.0 1.0
-41.16963333333333 77.89473333333333 1749.71 0.0 0.0 1.0
-41.013666666666666 80.54583333333333 1749.71 0.0 0.0 1.0
-40.4301 85.1613 1754.84 0.0 0.0 1.0
-39.9609 85.7869 1754.84 0.0 0.0 1.0
-41.4815 97.54386666666666 1749.71 0.0 0.0 1.0
-40.701766666666664 108.14800000000001 1749.71 0.0 0.0 1.0
-41.013666666666666 117.66066666666666 1749.71 0.0 0.0 1.0
-41.013666666666666 117.66066666666666 1749.71 0.0 0.0 1.0
-36.698 -126.31133333333332 1875.86 0.0 0.0 1.0
-36.36363333333333 -118.28633333333333 1875.86 0.0 0.0 1.0
-39.0 -117.41666666666667 1870.0 0.0 0.0 1.0
-45.37436666666667 -66.97453333333334 1298.9966666666667 -0.1708683979125113 0.9823330979052556 0.07632611187971776
-39.2253 -84.5668 1829.97 0.0 0.0 1.0
-54.0216 -70.6232 1618.76 -0.18548112856292434 0.5152237685110251 0.8367444169567679
-39.8374 -78.13009999999998 1824.39 0.0 0.0 1.0
-39.9595 -62.8166 1818.84 0.0 0.0 1.0
-39.9595 -62.8166 1818.84 0.0 0.0 1.0
-39.473166666666664 -50.496433333333336 1818.84 0.0 0.0 1.0
-39.14893333333333 -50.0101 1818.84 0.0 0.0 1.0
-40.0808 -33.212133333333334 1813.33 0.0 0.0 1.0
-39.9595 -29.422466666666665 1818.84 0.0 0.0 1.0
-38.211400000000005 -10.813 1824.39 0.0 0.0 1.0
-39.187000000000005 -2.5203266666666666 1824.39 0.0 0.0 1.0
-39.6748 -1.707319 1824.39 0.0 0.0 1.0
-39.3496 4.308943333333334 1824.39 0.0 0.0 1.0
-38.8618 14.715433333333332 1824.39 0.0 0.0 1.0
-40.40403333333333 29.333333333333332 1813.33 0.0 0.0 1.0
-37.64353333333333 32.51303333333333 1338.7 0.0 0.0 1.0
-39.918499999999995 39.678000000000004 1806.0366666666666 -0.4423377046107822 0.8846754092215711 0.14726430456261336
-42.85856666666666 52.829100000000004 1804.2233333333334 0.5839959334370227 -0.08760090476352611 0.8070160043107151
-43.7329 49.806999999999995 1660.7033333333331 -0.976067765299605 0.041268259199988125 0.21351498384337775
-41.382666666666665 71.18743333333333 1868.0566666666666 -0.3856335900113861 -0.5591687055165099 0.7339053706207095
-41.63743333333333 97.07603333333333 1749.71 0.0 0.0 1.0
-41.169599999999996 107.21233333333333 1749.71 0.0 0.0 1.0
-42.573100000000004 112.04666666666667 1749.71 0.0 0.0 1.0
-37.803000000000004 -124.09566666666667 1932.42 -0.9980055111200068 3.1561528748497066e-14 0.06312685461904594
-37.803000000000004 -124.09566666666667 1932.42 -0.9980055111200068 3.1561528748497066e-14 0.06312685461904594
-39.0 -117.41666666666667 1870.0 0.0 0.0 1.0
-41.52733333333333 -101.30033333333334 1852.63 0.0 0.0 1.0
-39.5515 -87.99183333333333 1829.97 0.0 0.0 1.0
-39.2253 -84.5668 1829.97 0.0 0.0 1.0
-39.8374 -78.13009999999998 1824.39 0.0 0.0 1.0
-39.8374 -78.13010000000001 1824.39 0.0 0.0 1.0
-40.325199999999995 -74.2276 1824.39 0.0 0.0 1.0
-39.79736666666667 -59.08813333333333 1818.84 0.0 0.0 1.0
-39.79736666666667 -59.08813333333333 1818.84 0.0 0.0 1.0
-40.4458 -56.33233333333333 1818.84 0.0 0.0 1.0
-40.4458 -56.33233333333334 1818.84 0.0 0.0 1.0
-39.635266666666666 -49.1996 1818.84 0.0 0.0 1.0
-42.0202 -40.8081 1813.33 0.0 0.0 1.0
-40.0808 -33.212133333333334 1813.33 0.0 0.0 1.0
-40.0808 -33.212133333333334 1813.33 0.0 0.0 1.0
-39.9595 -29.422466666666665 1818.84 0.0 0.0 1.0
-39.9595 -29.422466666666665 1818.84 0.0 0.0 1.0
-41.094233333333335 -23.748733333333334 1818.84 0.0 0.0 1.0
-39.14893333333333 -15.967566666666665 1818.84 0.0 0.0 1.0
-39.79736666666667 -14.832833333333333 1818.84 0.0 0.0 1.0
-40.2837 -6.241136666666667 1818.84 0.0 0.0 1.0
-39.674800000000005 -1.707319 1824.39 0.0 0.0 1.0
-39.3496 4.308943333333334 1824.39 0.0 0.0 1.0
-40.6504 7.560976666666668 1824.39 0.0 0.0 1.0
-29.311366666666668 18.700100000000003 1934.4866666666667 -0.018382109600964053 0.551463288028922 0.8339966067094928
-44.56786666666667 19.819366666666667 1692.0100000000002 0.6827631551870871 0.5476970040491629 0.48359328539025925
-43.77869999999999 18.94326666666667 1679.3366666666668 -0.9886795693789797 0.1348167507814525 -0.06585706341256731
-40.40403333333333 29.333333333333332 1813.33 0.0 0.0 1.0
-41.00703333333333 31.983866666666668 1807.8499999999997 2.420224941313427e-27 3.5955788521359086e-27 1.0
-40.96386666666667 36.867466666666665 1802.41 0.0 0.0 1.0
-46.5461 51.594833333333334 1746.3166666666666 0.8224292368239786 -0.06325962658855183 0.5653391637424434
-41.481500000000004 76.80313333333334 1749.71 0.0 0.0 1.0
-41.63743333333333 81.94933333333334 1749.71 0.0 0.0 1.0
-41.9493 105.653 1749.71 0.0 0.0 1.0
-41.48146666666667 106.43266666666666 1749.71 0.0 0.0 1.0
-41.63743333333333 117.97266666666667 1749.71 0.0 0.0 1.0
-41.45213333333333 -138.086 1974.92 0.0 0.0 1.0
-42.71676666666667 -123.753 1811.5133333333333 0.7306605373529844 -0.26092397351188323 0.6309150966665944
-38.909866666666666 -128.21766666666667 1881.76 0.0 0.0 1.0
-38.28333333333333 -102.32326666666665 1746.3666666666668 -0.92233612509464 0.38638253960297025 -0.0021460278105648483
-32.605066666666666 -124.14733333333334 1920.0066666666664 0.4633669702499662 -0.3089062938166259 0.8305828992471753
-39.0 -117.41666666666667 1870.0 0.0 0.0 1.0
-47.93696666666667 -62.41696666666667 1198.41 -0.6757031714173741 0.385513341728108 0.6283348529933143
-27.250600000000002 -117.27466666666665 2183.94 0.0 0.0 1.0
-41.7178 -90.8793 1835.58 0.0 0.0 1.0
-40.0408 -86.52396666666668 1829.97 0.0 0.0 1.0
-41.3008 -80.8943 1824.39 0.0 0.0 1.0
-40.1626 -80.40650000000001 1824.39 0.0 0.0 1.0
-40.3252 -74.2276 1824.39 0.0 0.0 1.0
-40.3252 -74.2276 1824.39 0.0 0.0 1.0
-40.6079 -62.4924 1818.84 0.0 0.0 1.0
-40.93213333333333 -52.441766666666666 1818.84 0.0 0.0 1.0
-38.21576666666667 -38.3997 1629.0900000000001 0.856236793829595 -0.009254286391536243 0.5165006399568147
-40.28366666666667 -44.660599999999995 1818.84 0.0 0.0 1.0
-40.84863333333333 -22.89153333333333 1815.1666666666667 -5.411995819681394e-17 -0.9971579929503429 0.0753388153294425
-40.0 10.9756 1824.39 0.0 0.0 1.0
-47.875933333333336 26.258566666666667 1441.95 0.9346466521157849 0.13940789636009193 0.3271101865139771
-44.42726666666667 19.997133333333334 1656.1000000000001 -0.997571818633899 -1.4947713084352632e-14 0.06964529178239946
-43.226733333333335 21.53673333333333 1684.0733333333335 -0.9942909517602964 -0.10652256829647802 0.006200458944801422
-40.96386666666667 36.867466666666665 1802.41 0.0 0.0 1.0
-42.088366666666666 39.437733333333334 1802.41 0.0 0.0 1.0
-41.92773333333333 45.220866666666666 1802.41 0.0 0.0 1.0
-41.22253333333333 48.15603333333333 1768.67 0.9702386385927887 -2.4969330534540815e-15 0.2421507468120057
-41.22253333333333 48.15603333333333 1768.67 0.9702386385927884 1.6527119736143289e-16 0.24215074681200696
-41.45526666666667 58.761066666666665 1765.1899999999998 2.2206360886874377e-28 -9.620979269746947e-28 1.0
-41.94933333333333 77.7388 1749.71 0.0 0.0 1.0
-42.885 84.13253333333334 1749.71 0.0 0.0 1.0
-41.368500000000004 90.32260000000001 1754.84 0.0 0.0 1.0
-42.306900000000006 126.45166666666665 1754.84 0.0 0.0 1.0
-40.87773333333333 -135.67366666666666 1875.86 0.0 0.0 1.0
-40.75469999999999 -130.73366666666666 1881.76 0.0 0.0 1.0
-40.8563 -83.9144 1829.97 0.0 0.0 1.0
-40.4458 -56.33233333333334 1818.84 0.0 0.0 1.0
-40.77 -47.2543 1818.84 0.0 0.0 1.0
-40.9321 -45.63323333333333 1818.84 0.0 0.0 1.0
-42.020199999999996 -36.7677 1813.33 0.0 0.0 1.0
-40.40403333333333 -33.858599999999996 1813.33 0.0 0.0 1.0
-41.212133333333334 -29.9798 1813.33 0.0 0.0 1.0
-41.094233333333335 -23.748733333333334 1818.84 0.0 0.0 1.0
-41.4634 7.235773333333334 1824.39 0.0 0.0 1.0
-40.6504 7.560976666666668 1824.39 0.0 0.0 1.0
-41.3008 11.626 1824.39 0.0 0.0 1.0
-45.261066666666665 22.150199999999998 1651.5199999999998 -0.9258991039101708 2.230409091819671e-14 0.3777708953563556
-45.261066666666665 22.150199999999998 1651.5199999999998 -0.9258991039101782 -4.679574046376725e-16 0.37777089535633784
-40.40403333333333 29.333333333333332 1813.33 0.0 0.0 1.0
-43.89116666666666 31.51223333333333 1695.1933333333334 0.9951203840309023 0.09149357379030161 -0.03693707136831102
-41.445766666666664 37.51003333333333 1802.41 0.0 0.0 1.0
-41.4129 33.01756666666667 1438.4666666666665 0.12926362420280701 -0.7220062388689675 0.679704278706735
-41.92773333333333 45.220866666666666 1802.41 0.0 0.0 1.0
-43.028533333333336 55.771866666666675 1765.1899999999998 -3.05176893499893e-27 2.3787852795169146e-27 1.0
-42.08456666666667 57.97443333333334 1765.1899999999998 4.532573012688629e-27 3.35391389191499e-26 1.0
-43.5797 69.3396 1746.3100000000002 -0.8832809618734205 -0.44164048093671027 0.15737988432438396
-43.196866666666665 79.14229999999999 1749.71 0.0 0.0 1.0
-42.5731 82.5731 1749.71 0.0 0.0 1.0
-38.345499999999994 108.90533333333333 2183.94 0.0 0.0 1.0
-39.941833333333335 82.4508 1714.62 -0.4779281934974931 0.5722199685796073 0.6664450085483243
-41.368500000000004 90.32260000000001 1754.84 0.0 0.0 1.0
-43.6647 92.08576666666666 1749.71 0.0 0.0 1.0
-42.72903333333333 98.0117 1749.71 0.0 0.0 1.0
-42.88499999999999 99.2593 1749.71 0.0 0.0 1.0
-43.040933333333335 101.754 1749.71 0.0 0.0 1.0
-41.9493 105.653 1749.71 0.0 0.0 1.0
-42.261199999999995 117.97266666666667 1749.71 0.0 0.0 1.0
-42.261199999999995 117.97266666666667 1749.71 0.0 0.0 1.0
-42.93253333333333 125.044 1754.84 0.0 0.0 1.0
-42.93253333333333 125.044 1754.84 0.0 0.0 1.0
-42.619733333333336 127.54633333333334 1754.84 0.0 0.0 1.0
-40.754733333333334 -129.05666666666667 1881.76 0.0 0.0 1.0
-42.469166666666666 -99.34156666666667 1846.91 0.0 0.0 1.0
-41.0194 -84.7299 1829.97 0.0 0.0 1.0
-42.28096666666667 -64.2674 1516.2766666666666 -0.4907380382037065 -0.8710580759733914 -0.020832814056461528
-41.74263333333334 -62.0061 1818.84 0.0 0.0 1.0
-40.6079 -59.574466666666666 1818.84 0.0 0.0 1.0
-41.858599999999996 -38.38386666666667 1813.33 0.0 0.0 1.0
-41.17283333333334 -23.37783333333333 1815.1666666666667 -7.227650873416446e-17 0.9825647874047071 0.18592051676009985
-42.06686666666667 -18.885500000000004 1818.84 0.0 0.0 1.0
-46.98409999999999 12.17554 1676.1899999999998 5.479609896982255e-28 -2.978664108180823e-28 1.0
-37.9211 27.025199999999998 1866.1133333333335 0.08234618334881834 0.9058906273740689 0.41542902802247555
-43.52583333333334 30.233033333333335 1818.84 0.0 0.0 1.0
-43.81516666666667 53.097366666666666 1765.1899999999998 -1.6117408674278968e-27 -1.3431553333720865e-27 1.0
-43.60783333333334 64.07843333333334 1760.0 0.0 0.0 1.0
-43.04093333333333 78.5185 1749.71 0.0 0.0 1.0
-42.15056666666667 85.0049 1754.84 0.0 0.0 1.0
-42.15056666666667 85.6305 1754.84 0.0 0.0 1.0
-42.2612 97.07603333333333 1749.71 0.0 0.0 1.0
-43.040933333333335 101.754 1749.71 0.0 0.0 1.0
-43.6647 109.23966666666666 1749.71 0.0 0.0 1.0
-42.72903333333333 113.45033333333333 1749.71 0.0 0.0 1.0
-40.87773333333333 -135.67366666666666 1875.86 0.0 0.0 1.0
-40.75473333333333 -129.05666666666664 1881.76 0.0 0.0 1.0
-40.992 -121.736 1854.5500000000002 0.2814633962802399 0.9382618302919198 0.20110468510616375
-38.083099999999995 -110.50933333333334 1788.0533333333333 -0.2513393681135758 -0.2513498932127421 0.9346934006497594
-41.2652 -126.61766666666665 2183.94 0.0 0.0 1.0
-41.3456 -84.2406 1829.97 0.0 0.0 1.0
-41.43443333333334 -88.29993333333334 1703.243333333333 -0.9725424118408584 -0.2210251928756908 0.07286371720568303
-42.391099999999994 -66.7072 1818.84 0.0 0.0 1.0
-41.90476666666667 -54.71123333333333 1818.84 0.0 0.0 1.0
-41.90476666666667 -49.685900000000004 1818.84 0.0 0.0 1.0
-42.020199999999996 -36.7677 1813.33 0.0 0.0 1.0
-42.0202 -33.050533333333334 1813.33 0.0 0.0 1.0
-42.3911 -23.910833333333333 1818.84 0.0 0.0 1.0
-42.06686666666666 -18.885500000000004 1818.84 0.0 0.0 1.0
-42.1138 -12.439 1824.39 0.0 0.0 1.0
-42.764199999999995 16.178866666666668 1824.39 0.0 0.0 1.0
-46.300999999999995 20.881666666666664 1643.9633333333331 0.994118537391764 -0.05514046842634791 0.09320870321908127
-41.445766666666664 37.51003333333333 1802.41 0.0 0.0 1.0
-43.135799999999996 49.933033333333334 1654.58 0.4281080285795655 -0.6786657617610325 0.5967715640670518
-43.92156666666667 51.0588 1760.0 0.0 0.0 1.0
-43.92156666666667 51.0588 1760.0 0.0 0.0 1.0
-43.60783333333334 64.07843333333334 1760.0 0.0 0.0 1.0
-44.444433333333336 71.65693333333334 1749.71 0.0 0.0 1.0
-43.820666666666675 81.4815 1749.71 0.0 0.0 1.0
-43.1969 82.26119999999999 1749.71 0.0 0.0 1.0
-47.5496 89.41113333333334 1830.0133333333333 -0.0985053128023805 0.6875658355301255 0.719409428045995
-43.1969 100.50673333333333 1749.71 0.0 0.0 1.0
-43.04093333333333 101.754 1749.71 0.0 0.0 1.0
-43.6647 109.23966666666666 1749.71 0.0 0.0 1.0
-48.9077 85.63280000000002 1373.53 0.23268553689993954 -0.5429317452322143 0.8068968713142274
-53.403166666666664 106.18573333333332 1546.26 0.6074364044892381 -0.7645924449942227 0.2154516362410447
-43.40176666666667 127.70266666666667 1754.84 0.0 0.0 1.0
-41.04493333333333 -134.50333333333333 1875.86 0.0 0.0 1.0
-40.75473333333333 -129.05666666666664 1881.76 0.0 0.0 1.0
-43.29216666666667 -118.76566666666668 1846.91 0.0 0.0 1.0
-41.19713333333333 -107.90500000000002 1852.63 0.0 0.0 1.0
-42.79833333333334 -103.95099999999998 1846.91 0.0 0.0 1.0
-41.71779999999999 -90.8793 1835.58 0.0 0.0 1.0
-43.46583333333333 -87.33943333333332 1829.97 0.0 0.0 1.0
-46.25463333333334 -53.87383333333333 1423.6566666666668 -0.5503264910898349 0.7910539185334908 0.2671599730078574
-42.5532 -68.8146 1818.84 0.0 0.0 1.0
-42.8774 -64.11346666666667 1818.84 0.0 0.0 1.0
-42.71529999999999 -53.7386 1818.84 0.0 0.0 1.0
-42.82829999999999 -38.7071 1813.33 0.0 0.0 1.0
-42.020199999999996 -36.7677 1813.33 0.0 0.0 1.0
-42.877399999999994 -19.371800000000004 1818.84 0.0 0.0 1.0
-42.391099999999994 -19.047600000000003 1818.84 0.0 0.0 1.0
-41.7886 -7.560976666666666 1824.39 0.0 0.0 1.0
-42.229000000000006 -4.944276666666666 1818.84 0.0 0.0 1.0
-42.92680000000001 1.707319 1824.39 0.0 0.0 1.0
-41.9512 6.422766666666667 1824.39 0.0 0.0 1.0
-41.9512 6.422766666666667 1824.39 0.0 0.0 1.0
-42.113800000000005 12.6016 1824.39 0.0 0.0 1.0
-42.6016 17.642300000000002 1824.39 0.0 0.0 1.0
-43.29006666666667 20.547600000000003 1822.54 0.8895635894452705 -0.44478179472263574 0.10414305265622475
-44.80623333333333 22.998166666666666 1659.1599999999999 0.98713086065075 0.15794164843265382 -0.025041957616879676
-43.052233333333334 40.88353333333333 1802.41 0.0 0.0 1.0
-50.07463333333333 40.7391 1486.1066666666666 -0.5269989911287656 -0.8006476214217516 0.2850183321489247
-39.974 43.263666666666666 1695.1933333333334 0.08742011624510053 0.33320194362456057 0.9387940072457367
-31.42906666666667 43.961999999999996 2109.5966666666664 -0.46992619361350885 -0.4526123577434572 0.75783337626013
-43.815133333333335 57.97443333333334 1765.1899999999998 -4.440420949466298e-28 1.1099735339518559e-26 1.0
-43.9766 78.67446666666666 1749.71 0.0 0.0 1.0
-43.976633333333325 84.91226666666667 1749.71 0.0 0.0 1.0
-44.288466666666665 91.77386666666666 1749.71 0.0 0.0 1.0
-44.6004 93.6452 1749.71 0.0 0.0 1.0
-43.6647 114.54166666666667 1749.71 0.0 0.0 1.0
-44.2885 115.63333333333333 1749.71 0.0 0.0 1.0
-44.13253333333333 118.59666666666668 1749.71 0.0 0.0 1.0
-44.132533333333335 118.59666666666668 1749.71 0.0 0.0 1.0
-43.558166666666665 125.82600000000001 1754.84 0.0 0.0 1.0
-40.87773333333333 -135.67366666666666 1875.86 0.0 0.0 1.0
-40.7547 -130.73366666666666 1881.76 0.0 0.0 1.0
-43.12753333333333 -114.15666666666668 1846.91 0.0 0.0 1.0
-42.96296666666666 -112.18133333333333 1846.91 0.0 0.0 1.0
-43.621399999999994 -108.23033333333335 1846.91 0.0 0.0 1.0
-42.79833333333334 -103.95099999999998 1846.91 0.0 0.0 1.0
-41.52733333333333 -101.30033333333334 1852.63 0.0 0.0 1.0
-44.553866666666664 -93.62049999999999 1841.2300000000002 -5.33254141104624e-27 -4.3995226832155523e-26 1.0
-43.1902 -91.04289999999999 1835.58 0.0 0.0 1.0
-41.3008 -80.8943 1824.39 0.0 0.0 1.0
-43.20163333333333 -70.7599 1818.84 0.0 0.0 1.0
-43.363699999999994 -61.35766666666666 1818.84 0.0 0.0 1.0
-43.20163333333334 -13.536000000000001 1818.84 0.0 0.0 1.0
-43.30276666666666 -9.541293333333334 1829.97 0.0 0.0 1.0
-44.17426666666666 -1.215807 1818.84 0.0 0.0 1.0
-42.92679999999999 1.707319 1824.39 0.0 0.0 1.0
-43.089400000000005 13.5772 1824.39 0.0 0.0 1.0
-46.300999999999995 20.881666666666664 1643.9633333333331 0.9941185373917641 -0.0551404684263479 0.09320870321908137
-45.26106666666667 22.150199999999998 1651.5199999999998 -0.9258991039101782 -4.679574046376725e-16 0.37777089535633784
-44.39073333333334 34.561933333333336 1807.8499999999997 -9.722342026916097e-28 3.7820623806651315e-28 1.0
-42.33586666666667 36.8692 1570.6299999999999 -0.43889441990477296 0.7196075853987632 0.5380860630168882
-43.21286666666666 45.220866666666666 1802.41 0.0 0.0 1.0
-44.75910000000001 51.209433333333344 1765.1899999999998 -2.7197593551529856e-27 1.6116697249723699e-27 1.0
-43.81516666666667 53.097366666666666 1765.1899999999998 -1.6117408674278968e-27 -1.3431553333720865e-27 1.0
-47.269733333333335 59.09863333333333 1611.51 0.20036298392134 -0.9795780548385836 -0.016778234495718573
-43.5797 69.3396 1746.3100000000002 -0.8832809618734203 -0.4416404809367103 0.15737988432438418
-44.444433333333336 71.65693333333333 1749.71 0.0 0.0 1.0
-45.22416666666667 75.24366666666667 1749.71 0.0 0.0 1.0
-44.444433333333336 80.85773333333334 1749.71 0.0 0.0 1.0
-45.38013333333333 88.65493333333332 1749.71 0.0 0.0 1.0
-44.288466666666665 91.77386666666666 1749.71 0.0 0.0 1.0
-44.288466666666665 91.77386666666666 1749.71 0.0 0.0 1.0
-39.95646666666667 115.378 2181.2933333333335 0.07525002914970534 0.7524229798232672 0.6543677043886287
-44.2885 98.0117 1749.71 0.0 0.0 1.0
-44.6004 102.69 1749.71 0.0 0.0 1.0
-43.6647 109.23966666666666 1749.71 0.0 0.0 1.0
-38.201766666666664 105.15899999999999 1570.74 -0.005848108344750338 0.9623020267180785 0.27192022543949673
-44.13253333333333 118.59666666666668 1749.71 0.0 0.0 1.0
-42.055299999999995 120.96933333333334 1674.7699999999998 0.14658814214431476 -0.982686390993106 0.1133109594859332
-43.871 126.92066666666669 1754.84 0.0 0.0 1.0
-52.03643333333333 122.545 1813.3633333333335 -0.12707147569147198 0.6194857666758798 0.7746549070080103
-43.41093333333333 -130.412 1891.6933333333334 -0.9826792445893862 -1.0863351154674995e-16 0.18531460345378445
-43.15456666666666 -126.77199999999999 1887.7 0.0 0.0 1.0
-43.2922 -111.52266666666667 1846.91 0.0 0.0 1.0
-41.52733333333333 -101.30033333333334 1852.63 0.0 0.0 1.0
-42.469166666666666 -99.34156666666668 1846.91 0.0 0.0 1.0
-43.950633333333336 -96.04939999999999 1846.91 0.0 0.0 1.0
-43.92506666666667 -56.255100000000006 1511.1899999999998 0.6057149114878445 -0.7874248647861055 -0.11433078464637736
-43.363699999999994 -61.35766666666666 1818.84 0.0 0.0 1.0
-43.363699999999994 -61.35766666666667 1818.84 0.0 0.0 1.0
-42.228966666666665 -55.84596666666667 1818.84 0.0 0.0 1.0
-43.36373333333333 -52.765966666666664 1818.84 0.0 0.0 1.0
-44.012166666666666 -49.361700000000006 1818.84 0.0 0.0 1.0
-42.427933333333335 -32.6305 1817.0033333333333 -0.7867524240262874 0.6119085658503245 0.08116976239807536
-44.12123333333333 -33.0505 1813.33 0.0 0.0 1.0
-44.12123333333333 -31.43433333333333 1813.33 0.0 0.0 1.0
-42.877399999999994 -19.371800000000004 1818.84 0.0 0.0 1.0
-43.62893333333333 -8.56269 1829.97 0.0 0.0 1.0
-43.62893333333333 -6.9317 1829.97 0.0 0.0 1.0
-44.55283333333333 -6.585366666666666 1824.39 0.0 0.0 1.0
-42.92679999999999 1.707319 1824.39 0.0 0.0 1.0
-43.9024 19.430899999999998 1824.39 0.0 0.0 1.0
-43.577200000000005 19.9187 1824.39 0.0 0.0 1.0
-53.1072 21.588866666666664 1403.6066666666666 -1.665301034898063e-14 -0.5855755516971501 0.8106178342810983
-43.968799999999995 32.14033333333333 1525.2466666666667 -0.4826488404861412 0.6286191196360902 0.6098262860891865
-43.81516666666667 53.097366666666666 1765.1899999999998 -1.6117408674278968e-27 -1.3431553333720865e-27 1.0
-44.07843333333333 65.64706666666666 1760.0 0.0 0.0 1.0
-44.07843333333333 65.64706666666666 1760.0 0.0 0.0 1.0
-43.9766 78.67446666666666 1749.71 0.0 0.0 1.0
-44.75633333333334 92.39766666666667 1749.71 0.0 0.0 1.0
-44.912299999999995 92.8655 1749.71 0.0 0.0 1.0
-44.912299999999995 92.8655 1749.71 0.0 0.0 1.0
-45.94753333333333 101.1468 1744.61 0.0 0.0 1.0
-44.444433333333336 116.88100000000001 1749.71 0.0 0.0 1.0
-49.406666666666666 87.1562 1361.0633333333333 -0.7338482457876585 0.28382953663717797 0.6171770785493426
-53.403166666666664 106.18573333333332 1546.26 0.6074364044892381 -0.7645924449942227 0.2154516362410447
-43.218399999999995 -137.68033333333332 1875.86 0.0 0.0 1.0
-43.15456666666666 -125.93066666666665 1887.7 0.0 0.0 1.0
-41.7302 -120.82566666666666 1850.7233333333334 0.2845845615587546 0.9486662746550765 0.13799973425506962
-43.29216666666667 -118.76566666666668 1846.91 0.0 0.0 1.0
-43.2922 -111.52266666666667 1846.91 0.0 0.0 1.0
-43.45680000000001 -111.02866666666667 1846.91 0.0 0.0 1.0
-43.45680000000001 -111.02866666666667 1846.91 0.0 0.0 1.0
-42.5568 -108.61966666666666 1850.7233333333334 0.5342404197102841 0.8019542300317647 0.2673136488882279
-43.45680000000001 -98.68313333333333 1846.91 0.0 0.0 1.0
-43.465833333333336 -87.33943333333333 1829.97 0.0 0.0 1.0
-49.16193333333334 -72.4627 1646.9866666666667 0.2586471023253948 0.5408041735190925 0.8003952288482286
-43.20163333333333 -70.7599 1818.84 0.0 0.0 1.0
-46.25463333333334 -53.87383333333333 1423.6566666666668 -0.5503264910898347 0.7910539185334909 0.26715997300785754
-44.4985 -60.385 1818.84 0.0 0.0 1.0
-43.687933333333326 -51.6312 1818.84 0.0 0.0 1.0
-44.012166666666666 -49.361700000000006 1818.84 0.0 0.0 1.0
-43.9596 -40.48486666666667 1813.33 0.0 0.0 1.0
-44.12123333333333 -38.38386666666667 1813.33 0.0 0.0 1.0
-44.12123333333333 -32.2424 1813.33 0.0 0.0 1.0
-44.3364 -22.28976666666667 1818.84 0.0 0.0 1.0
-44.60753333333334 -12.803266666666667 1829.97 0.0 0.0 1.0
-43.62893333333333 -8.56269 1829.97 0.0 0.0 1.0
-43.792 -8.073393333333334 1829.97 0.0 0.0 1.0
-43.792 -8.073393333333334 1829.97 0.0 0.0 1.0
-43.62893333333333 -6.9317 1829.97 0.0 0.0 1.0
-43.85006666666666 -2.18845 1818.84 0.0 0.0 1.0
-43.9024 14.715433333333332 1824.39 0.0 0.0 1.0
-43.9024 19.430899999999998 1824.39 0.0 0.0 1.0
-53.1072 21.588866666666664 1403.6066666666666 -1.665301034898063e-14 -0.5855755516971501 0.8106178342810983
-48.75300000000001 27.268533333333334 1623.1499999999999 0.9532673868075183 0.08289198506347041 0.29053434919369325
-43.52583333333333 30.233033333333335 1818.84 0.0 0.0 1.0
-44.39073333333334 34.561933333333336 1807.8499999999997 -9.722342026916095e-28 3.782062380665132e-28 1.0
-43.92156666666667 51.0588 1760.0 0.0 0.0 1.0
-46.373400000000004 65.29813333333333 1754.84 0.0 0.0 1.0
-41.45983333333333 89.82966666666668 2183.94 0.0 0.0 1.0
-45.0682 73.21636666666666 1749.71 0.0 0.0 1.0
-45.22416666666667 75.24366666666667 1749.71 0.0 0.0 1.0
-45.56969999999999 75.4812 1748.01 3.129219944349986e-16 0.974241269819377 0.22550819980818412
-45.22416666666667 80.85773333333333 1749.71 0.0 0.0 1.0
-44.44443333333333 115.00966666666666 1749.71 0.0 0.0 1.0
-43.218399999999995 -137.68033333333335 1875.86 0.0 0.0 1.0
-43.55276666666666 -137.1786666666667 1875.86 0.0 0.0 1.0
-47.015366666666665 -117.74366666666667 1841.2300000000002 -1.3331624313964236e-28 -3.9939437181561174e-28 1.0
-43.786 -103.62166666666667 1846.91 0.0 0.0 1.0
-43.456799999999994 -98.68313333333333 1846.91 0.0 0.0 1.0
-43.465833333333336 -87.33943333333333 1829.97 0.0 0.0 1.0
-43.414633333333335 -73.9024 1824.39 0.0 0.0 1.0
-44.33636666666666 -67.84193333333333 1818.84 0.0 0.0 1.0
-44.33636666666666 -65.57243333333334 1818.84 0.0 0.0 1.0
-44.9848 -62.4924 1818.84 0.0 0.0 1.0
-44.33636666666666 -60.8713 1818.84 0.0 0.0 1.0
-44.012166666666666 -49.361700000000006 1818.84 0.0 0.0 1.0
-44.12123333333333 -33.0505 1813.33 0.0 0.0 1.0
-44.28286666666667 -30.464633333333335 1813.33 0.0 0.0 1.0
