ply
format ascii 1.0
comment VCGLIB generated
element vertex 838
property float x
property float y
property float z
property float nx
property float ny
property float nz
element face 0
property list uchar int vertex_indices
end_header
372.5333333333333 -178.13333333333333 2992.0 0.0 0.0 1.0
221.92666666666665 -35.08303333333333 1988.04 0.0 0.0 1.0
372.0 10.4 2992.0 0.0 0.0 1.0
372.0 10.4 2992.0 0.0 0.0 1.0
372.5333333333333 11.466666666666667 2992.0 0.0 0.0 1.0
372.0 141.0666666666667 2992.0 0.0 0.0 1.0
372.0 190.66666666666666 2992.0 0.0 0.0 1.0
370.9333333333334 347.73333333333335 2992.0 0.0 0.0 1.0
374.40000000000003 361.06666666666666 2992.0 0.0 0.0 1.0
370.40000000000003 398.3999999999999 2992.0 0.0 0.0 1.0
373.3333333333333 399.4666666666667 2992.0 0.0 0.0 1.0
241.33333333333334 -299.04766666666666 2137.14 0.0 0.0 1.0
240.381 -268.762 2137.14 0.0 0.0 1.0
241.33333333333334 -262.6666666666667 2137.14 0.0 0.0 1.0
241.52366666666668 -256.95233333333334 2137.14 0.0 0.0 1.0
241.14266666666666 -236.1903333333333 2137.14 0.0 0.0 1.0
241.524 -232.5713333333333 2137.14 0.0 0.0 1.0
240.0 -132.28933333333333 2129.54 0.0 0.0 1.0
222.4 -107.91133333333335 1994.67 0.0 0.0 1.0
220.15499999999997 -99.2248 1988.04 0.0 0.0 1.0
220.68666666666664 -26.932433333333336 1988.04 0.0 0.0 1.0
218.56066666666666 -22.50276666666667 1988.04 0.0 0.0 1.0
222.4 -11.0222 1994.67 0.0 0.0 1.0
370.40000000000003 18.400000000000002 2992.0 0.0 0.0 1.0
371.73333333333335 20.8 2992.0 0.0 0.0 1.0
368.5333333333333 66.13333333333334 2992.0 0.0 0.0 1.0
368.5333333333333 91.73333333333333 2992.0 0.0 0.0 1.0
371.7333333333333 174.66666666666666 2992.0 0.0 0.0 1.0
370.40000000000003 349.3333333333333 2992.0 0.0 0.0 1.0
371.2 440.0 2992.0 0.0 0.0 1.0
241.52366666666668 -305.9046666666666 2137.14 0.0 0.0 1.0
241.14266666666666 -305.52366666666666 2137.14 0.0 0.0 1.0
241.33333333333334 -299.04766666666666 2137.14 0.0 0.0 1.0
241.71433333333334 -292.3806666666667 2137.14 0.0 0.0 1.0
241.33333333333334 -262.6666666666667 2137.14 0.0 0.0 1.0
241.52366666666668 -256.95233333333334 2137.14 0.0 0.0 1.0
243.0476666666667 -210.095 2137.14 0.0 0.0 1.0
239.05066666666664 -199.6676666666667 2129.54 0.0 0.0 1.0
191.854 -121.743 1818.84 0.0 0.0 1.0
219.55566666666664 -112.35566666666666 1994.67 0.0 0.0 1.0
217.80033333333336 -97.66733333333333 1992.46 -0.07224312106724122 -0.9391334860897081 0.3358708483382501
366.93333333333334 57.06666666666666 2992.0 0.0 0.0 1.0
370.13333333333327 83.46666666666667 2992.0 0.0 0.0 1.0
369.8666666666666 119.73333333333333 2992.0 0.0 0.0 1.0
369.59999999999997 141.33333333333334 2992.0 0.0 0.0 1.0
371.2 206.9333333333333 2992.0 0.0 0.0 1.0
367.7333333333333 251.19999999999996 2992.0 0.0 0.0 1.0
367.7333333333333 251.19999999999996 2992.0 0.0 0.0 1.0
368.0 264.8 2992.0 0.0 0.0 1.0
370.40000000000003 270.1333333333333 2992.0 0.0 0.0 1.0
370.40000000000003 314.40000000000003 2992.0 0.0 0.0 1.0
370.1333333333334 320.0 2992.0 0.0 0.0 1.0
368.5333333333333 391.4666666666667 2992.0 0.0 0.0 1.0
240.9523333333333 -306.095 2137.14 0.0 0.0 1.0
241.33366666666666 -285.3333333333333 2137.14 0.0 0.0 1.0
240.76166666666666 -233.90466666666666 2137.14 0.0 0.0 1.0
241.524 -232.5713333333333 2137.14 0.0 0.0 1.0
216.67600000000002 -192.82666666666668 2012.5566666666666 5.0850823261861496e-17 0.9690192443530374 0.24698523047637552
240.0 -132.2893333333333 2129.54 0.0 0.0 1.0
368.0 -4.266666666666667 2992.0 0.0 0.0 1.0
369.59999999999997 188.79999999999998 2992.0 0.0 0.0 1.0
370.6666666666667 295.20000000000005 2992.0 0.0 0.0 1.0
369.8666666666666 347.4666666666667 2992.0 0.0 0.0 1.0
370.6666666666667 367.7333333333333 2992.0 0.0 0.0 1.0
368.5333333333333 391.4666666666667 2992.0 0.0 0.0 1.0
238.85699999999997 -273.3333333333333 2137.14 0.0 0.0 1.0
240.381 -268.762 2137.14 0.0 0.0 1.0
241.52366666666663 -256.95233333333334 2137.14 0.0 0.0 1.0
241.14266666666666 -236.1903333333333 2137.14 0.0 0.0 1.0
240.76166666666666 -233.90466666666666 2137.14 0.0 0.0 1.0
240.76166666666666 -233.90466666666666 2137.14 0.0 0.0 1.0
191.854 -121.743 1818.84 0.0 0.0 1.0
372.5333333333333 -178.13333333333333 2992.0 0.0 0.0 1.0
219.55566666666664 -112.35566666666666 1994.67 0.0 0.0 1.0
219.55566666666664 -112.35566666666666 1994.67 0.0 0.0 1.0
217.49733333333333 -98.87043333333334 1988.04 0.0 0.0 1.0
370.93333333333334 10.933333333333332 2992.0 0.0 0.0 1.0
370.40000000000003 18.400000000000002 2992.0 0.0 0.0 1.0
371.2 206.9333333333333 2992.0 0.0 0.0 1.0
366.40000000000003 300.8 2992.0 0.0 0.0 1.0
240.9523333333333 -306.095 2137.14 0.0 0.0 1.0
241.33333333333334 -299.04766666666666 2137.14 0.0 0.0 1.0
241.33333333333334 -262.6666666666667 2137.14 0.0 0.0 1.0
239.05066666666664 -199.6676666666667 2129.54 0.0 0.0 1.0
240.0 -132.2893333333333 2129.54 0.0 0.0 1.0
219.80066666666667 -91.96013333333333 1988.04 0.0 0.0 1.0
216.9656666666667 -64.67333333333333 1988.04 0.0 0.0 1.0
367.73333333333335 -5.599999999999999 2992.0 0.0 0.0 1.0
369.3333333333333 38.4 2992.0 0.0 0.0 1.0
368.5333333333333 66.13333333333334 2992.0 0.0 0.0 1.0
368.5333333333333 91.73333333333333 2992.0 0.0 0.0 1.0
368.26666666666665 269.6 2992.0 0.0 0.0 1.0
366.40000000000003 333.3333333333333 2992.0 0.0 0.0 1.0
370.40000000000003 349.3333333333333 2992.0 0.0 0.0 1.0
352.0 -443.4666666666667 2992.0 0.0 0.0 1.0
241.33366666666666 -285.3333333333333 2137.14 0.0 0.0 1.0
240.00033333333332 -217.14266666666666 2137.14 0.0 0.0 1.0
218.20600000000002 -82.56920000000001 1988.04 0.0 0.0 1.0
216.78866666666667 -80.2658 1988.04 0.0 0.0 1.0
216.9656666666667 -64.67333333333333 1988.04 0.0 0.0 1.0
216.43433333333334 -45.53710000000001 1988.04 0.0 0.0 1.0
216.43433333333334 -45.53710000000001 1988.04 0.0 0.0 1.0
219.97766666666666 -35.96896666666667 1988.04 0.0 0.0 1.0
369.59999999999997 188.79999999999998 2992.0 0.0 0.0 1.0
369.3333333333333 316.8 2992.0 0.0 0.0 1.0
367.4666666666667 397.06666666666666 2992.0 0.0 0.0 1.0
238.09533333333334 -224.00033333333332 2137.14 0.0 0.0 1.0
239.05066666666664 -199.6676666666667 2129.54 0.0 0.0 1.0
241.51833333333335 -174.6146666666667 2129.54 0.0 0.0 1.0
189.75033333333332 -141.79566666666665 1824.3999999999999 0.43613952654886873 0.6546157675648909 0.6174629626440418
239.42866666666666 -164.57133333333334 2137.14 0.0 0.0 1.0
192.77833333333334 -139.0713333333333 1820.6899999999998 -0.27621981689223823 0.6444497989727045 0.7130126712478952
192.24300000000002 -125.40500000000002 1822.54 0.9378812394630915 0.15642038443540235 0.30969572808848356
218.73733333333334 -107.907 1988.04 0.0 0.0 1.0
368.0 -4.266666666666667 2992.0 0.0 0.0 1.0
364.5333333333333 49.333333333333336 2992.0 0.0 0.0 1.0
368.26666666666665 61.06666666666666 2992.0 0.0 0.0 1.0
368.5333333333333 91.73333333333333 2992.0 0.0 0.0 1.0
366.1333333333334 119.2 2992.0 0.0 0.0 1.0
365.3333333333333 134.93333333333334 2992.0 0.0 0.0 1.0
368.26666666666665 138.13333333333335 2992.0 0.0 0.0 1.0
366.93333333333334 170.4 2992.0 0.0 0.0 1.0
367.2 183.4666666666667 2992.0 0.0 0.0 1.0
368.26666666666665 269.6 2992.0 0.0 0.0 1.0
362.1333333333334 286.40000000000003 2992.0 0.0 0.0 1.0
366.40000000000003 300.8 2992.0 0.0 0.0 1.0
365.8666666666666 331.2 2992.0 0.0 0.0 1.0
366.1333333333334 367.7333333333333 2992.0 0.0 0.0 1.0
364.5333333333333 378.93333333333334 2992.0 0.0 0.0 1.0
238.662 -315.0296666666666 2144.8 0.0 0.0 1.0
240.5713333333333 -294.47600000000006 2137.14 0.0 0.0 1.0
240.381 -268.762 2137.14 0.0 0.0 1.0
239.80933333333334 -233.90466666666666 2137.14 0.0 0.0 1.0
238.09533333333331 -224.00033333333332 2137.14 0.0 0.0 1.0
239.0476666666667 -211.04733333333334 2137.14 0.0 0.0 1.0
236.96333333333334 -179.929 2129.54 0.0 0.0 1.0
192.24300000000002 -125.40500000000002 1822.54 0.9378812394630915 0.15642038443540235 0.30969572808848356
216.78866666666667 -80.2658 1988.04 0.0 0.0 1.0
215.72533333333334 -65.91363333333332 1988.04 0.0 0.0 1.0
215.01666666666665 -49.96676666666667 1988.04 0.0 0.0 1.0
216.78866666666667 -18.0731 1988.04 0.0 0.0 1.0
366.6666666666667 -4.8 2992.0 0.0 0.0 1.0
367.20000000000005 22.133333333333336 2992.0 0.0 0.0 1.0
365.0666666666666 126.13333333333333 2992.0 0.0 0.0 1.0
364.26666666666665 161.6 2992.0 0.0 0.0 1.0
367.2 183.4666666666667 2992.0 0.0 0.0 1.0
367.4666666666667 264.5333333333333 2992.0 0.0 0.0 1.0
365.8666666666666 331.2 2992.0 0.0 0.0 1.0
365.8666666666666 331.2 2992.0 0.0 0.0 1.0
366.3999999999999 393.59999999999997 2992.0 0.0 0.0 1.0
360.8 425.8666666666666 2992.0 0.0 0.0 1.0
237.71399999999997 -275.80933333333337 2137.14 0.0 0.0 1.0
215.19366666666667 -105.24919999999999 1988.04 0.0 0.0 1.0
365.06666666666666 25.066666666666666 2992.0 0.0 0.0 1.0
364.5333333333333 27.733333333333334 2992.0 0.0 0.0 1.0
365.3333333333333 41.333333333333336 2992.0 0.0 0.0 1.0
365.3333333333333 83.46666666666665 2992.0 0.0 0.0 1.0
366.9333333333334 384.0 2992.0 0.0 0.0 1.0
364.8 404.8 2992.0 0.0 0.0 1.0
237.143 -224.00033333333332 2137.14 0.0 0.0 1.0
238.28599999999997 -213.52366666666663 2137.14 0.0 0.0 1.0
213.95333333333335 -49.25803333333334 1988.04 0.0 0.0 1.0
364.5333333333333 27.733333333333334 2992.0 0.0 0.0 1.0
364.26666666666665 52.53333333333333 2992.0 0.0 0.0 1.0
364.26666666666665 161.6 2992.0 0.0 0.0 1.0
363.4666666666667 301.6 2992.0 0.0 0.0 1.0
361.8666666666666 355.46666666666664 2992.0 0.0 0.0 1.0
199.05066666666667 -134.07600000000002 1852.63 0.0 0.0 1.0
215.371 -99.04763333333334 1988.04 0.0 0.0 1.0
212.00466666666668 -88.4164 1988.04 0.0 0.0 1.0
213.42200000000003 -14.529366666666666 1988.04 0.0 0.0 1.0
211.744 -10.772600000000002 1981.46 0.0 0.0 1.0
364.8 45.06666666666666 2992.0 0.0 0.0 1.0
362.93333333333334 132.26666666666665 2992.0 0.0 0.0 1.0
361.3333333333333 153.86666666666667 2992.0 0.0 0.0 1.0
364.26666666666665 161.6 2992.0 0.0 0.0 1.0
361.8666666666666 326.40000000000003 2992.0 0.0 0.0 1.0
362.9333333333334 394.40000000000003 2992.0 0.0 0.0 1.0
238.66666666666666 -303.04766666666666 2137.14 0.0 0.0 1.0
237.33333333333334 -224.5716666666667 2137.14 0.0 0.0 1.0
194.78733333333332 -161.837 1871.9533333333331 2.5893893180795215e-17 0.9191693678077922 0.39386250555723573
239.42866666666666 -164.57133333333334 2137.14 0.0 0.0 1.0
191.854 -121.743 1818.84 0.0 0.0 1.0
215.72533333333334 -65.91363333333334 1988.04 0.0 0.0 1.0
214.30766666666668 -50.143966666666664 1988.04 0.0 0.0 1.0
364.26666666666665 52.53333333333333 2992.0 0.0 0.0 1.0
364.26666666666665 209.60000000000002 2992.0 0.0 0.0 1.0
358.40000000000003 254.13333333333335 2992.0 0.0 0.0 1.0
361.8666666666666 365.0666666666666 2992.0 0.0 0.0 1.0
362.93333333333334 376.0 2992.0 0.0 0.0 1.0
361.59999999999997 407.46666666666664 2992.0 0.0 0.0 1.0
236.19066666666666 -287.2383333333333 2137.14 0.0 0.0 1.0
238.66666666666666 -265.143 2137.14 0.0 0.0 1.0
215.371 -99.04763333333334 1988.04 0.0 0.0 1.0
361.3333333333333 120.26666666666665 2992.0 0.0 0.0 1.0
363.20000000000005 189.86666666666667 2992.0 0.0 0.0 1.0
360.0 208.53333333333333 2992.0 0.0 0.0 1.0
359.4666666666667 289.59999999999997 2992.0 0.0 0.0 1.0
361.86666666666673 326.40000000000003 2992.0 0.0 0.0 1.0
237.32866666666666 -304.93533333333335 2139.693333333333 0.4807395808820632 0.8415572531852215 0.24631452451019495
234.66666666666666 -277.714 2137.14 0.0 0.0 1.0
237.90466666666666 -236.9523333333333 2137.14 0.0 0.0 1.0
216.67600000000002 -192.82666666666668 2012.5566666666666 5.0850823261861496e-17 0.9690192443530374 0.24698523047637552
217.75 -113.01499999999999 1996.8933333333334 0.8376105968386088 -2.600984784217907e-16 0.5462677805469307
213.27599999999998 -73.62773333333332 1985.8466666666666 -0.6761136715790838 -0.6761348703522558 0.2927660161248037
213.9533333333333 -49.25803333333334 1988.04 0.0 0.0 1.0
362.3999999999999 -4.0 2992.0 0.0 0.0 1.0
359.4666666666667 82.13333333333334 2992.0 0.0 0.0 1.0
363.20000000000005 189.86666666666667 2992.0 0.0 0.0 1.0
360.2666666666667 291.4666666666667 2992.0 0.0 0.0 1.0
361.8666666666666 326.40000000000003 2992.0 0.0 0.0 1.0
359.73333333333335 347.2 2992.0 0.0 0.0 1.0
360.8 351.73333333333335 2992.0 0.0 0.0 1.0
361.8666666666666 355.4666666666667 2992.0 0.0 0.0 1.0
358.6666666666667 431.2 2992.0 0.0 0.0 1.0
233.14266666666666 -254.09533333333334 2137.14 0.0 0.0 1.0
194.78733333333332 -161.837 1871.9533333333331 -1.8125725226556648e-16 0.9191693678077921 0.3938625055572359
211.76166666666668 -96.95796666666666 1992.46 -2.5518849004757558e-17 -0.9820339053039938 0.18870455435252909
214.16366666666667 -26.1973 1985.8466666666666 0.06439643655434592 0.9015016569553055 0.4279577800039867
211.744 -10.772599999999999 1981.46 0.0 0.0 1.0
359.4666666666667 -5.6000000000000005 2992.0 0.0 0.0 1.0
359.4666666666667 82.13333333333333 2992.0 0.0 0.0 1.0
363.4666666666667 301.59999999999997 2992.0 0.0 0.0 1.0
358.6666666666667 373.3333333333333 2992.0 0.0 0.0 1.0
358.93333333333334 393.3333333333333 2992.0 0.0 0.0 1.0
360.8 425.8666666666666 2992.0 0.0 0.0 1.0
236.19066666666666 -287.2383333333333 2137.14 0.0 0.0 1.0
220.40833333333333 -134.422 2035.37 0.0 0.0 1.0
174.05200000000002 -110.81866666666667 1791.62 0.0 0.0 1.0
212.18133333333333 -112.868 1988.04 0.0 0.0 1.0
209.34633333333332 -58.47176666666667 1988.04 0.0 0.0 1.0
212.89 -50.675533333333334 1988.04 0.0 0.0 1.0
362.40000000000003 41.86666666666667 2992.0 0.0 0.0 1.0
358.93333333333334 130.4 2992.0 0.0 0.0 1.0
358.6666666666667 309.06666666666666 2992.0 0.0 0.0 1.0
358.93333333333334 393.3333333333333 2992.0 0.0 0.0 1.0
213.22366666666667 -187.6833333333333 2003.5766666666666 -0.31897771986463735 0.31897771986463724 0.8924720883366123
210.5873333333333 -88.94796666666666 1988.04 0.0 0.0 1.0
208.74199999999996 -24.0177 1981.46 0.0 0.0 1.0
211.744 -10.772599999999999 1981.46 0.0 0.0 1.0
355.73333333333335 7.466666666666668 2992.0 0.0 0.0 1.0
356.8 21.599999999999998 2992.0 0.0 0.0 1.0
357.06666666666666 63.46666666666666 2992.0 0.0 0.0 1.0
357.3333333333333 176.0 2992.0 0.0 0.0 1.0
359.4666666666667 289.59999999999997 2992.0 0.0 0.0 1.0
358.1333333333334 292.53333333333336 2992.0 0.0 0.0 1.0
232.76200000000003 -257.143 2137.14 0.0 0.0 1.0
233.14266666666666 -254.09533333333334 2137.14 0.0 0.0 1.0
230.1303333333333 -180.30833333333337 2129.54 0.0 0.0 1.0
211.827 -67.86266666666667 1988.04 0.0 0.0 1.0
211.827 -67.86266666666667 1988.04 0.0 0.0 1.0
210.201 -10.461133333333335 1990.25 0.6551622207373421 -0.655655194567829 0.3753381546748701
359.4666666666667 -5.6000000000000005 2992.0 0.0 0.0 1.0
356.8 21.599999999999998 2992.0 0.0 0.0 1.0
354.40000000000003 49.333333333333336 2992.0 0.0 0.0 1.0
359.4666666666667 82.13333333333334 2992.0 0.0 0.0 1.0
356.8 172.26666666666665 2992.0 0.0 0.0 1.0
356.0 256.53333333333336 2992.0 0.0 0.0 1.0
357.06666666666666 346.1333333333334 2992.0 0.0 0.0 1.0
358.93333333333334 393.3333333333333 2992.0 0.0 0.0 1.0
361.59999999999997 407.46666666666664 2992.0 0.0 0.0 1.0
233.143 -211.80933333333334 2137.14 0.0 0.0 1.0
212.90166666666664 -176.57000000000002 1936.57 0.0 0.0 1.0
210.5873333333333 -88.94796666666666 1988.04 0.0 0.0 1.0
210.5873333333333 -87.88483333333333 1988.04 0.0 0.0 1.0
210.5873333333333 -87.88483333333333 1988.04 0.0 0.0 1.0
208.74199999999996 -24.0177 1981.46 0.0 0.0 1.0
356.2666666666667 65.33333333333333 2992.0 0.0 0.0 1.0
353.59999999999997 152.79999999999998 2992.0 0.0 0.0 1.0
354.93333333333334 312.26666666666665 2992.0 0.0 0.0 1.0
361.06666666666666 362.1333333333334 2992.0 0.0 0.0 1.0
354.9333333333334 424.5333333333333 2992.0 0.0 0.0 1.0
231.398 -314.4563333333333 2144.8 0.0 0.0 1.0
231.398 -314.4563333333333 2144.8 0.0 0.0 1.0
231.23833333333334 -278.857 2137.14 0.0 0.0 1.0
229.524 -271.238 2137.14 0.0 0.0 1.0
231.23799999999997 -259.8096666666666 2137.14 0.0 0.0 1.0
208.28333333333333 -83.8095 1988.04 0.0 0.0 1.0
211.11833333333334 -13.111866666666666 1988.04 0.0 0.0 1.0
356.0 3.2000000000000006 2992.0 0.0 0.0 1.0
355.4666666666667 61.6 2992.0 0.0 0.0 1.0
356.8 74.93333333333334 2992.0 0.0 0.0 1.0
354.6666666666667 123.73333333333335 2992.0 0.0 0.0 1.0
354.1333333333334 128.0 2992.0 0.0 0.0 1.0
356.0 178.9333333333333 2992.0 0.0 0.0 1.0
360.0 208.53333333333333 2992.0 0.0 0.0 1.0
353.8666666666666 399.2 2992.0 0.0 0.0 1.0
352.0 -443.4666666666667 2992.0 0.0 0.0 1.0
224.92333333333332 -198.822 2114.49 0.0 0.0 1.0
194.78733333333332 -161.837 1871.9533333333331 -5.178778636159042e-17 0.9191693678077921 0.39386250555723584
207.57466666666664 -55.813966666666666 1988.04 0.0 0.0 1.0
211.11833333333334 -13.111866666666666 1988.04 0.0 0.0 1.0
353.59999999999997 13.333333333333334 2992.0 0.0 0.0 1.0
354.6666666666667 34.666666666666664 2992.0 0.0 0.0 1.0
348.79999999999995 223.46666666666667 2992.0 0.0 0.0 1.0
354.1333333333334 253.86666666666667 2992.0 0.0 0.0 1.0
354.6666666666667 260.26666666666665 2992.0 0.0 0.0 1.0
353.8666666666666 264.0 2992.0 0.0 0.0 1.0
357.3333333333333 290.6666666666667 2992.0 0.0 0.0 1.0
354.1333333333334 381.0666666666666 2992.0 0.0 0.0 1.0
356.26666666666665 427.4666666666667 2992.0 0.0 0.0 1.0
230.28566666666666 -210.095 2137.14 0.0 0.0 1.0
184.44133333333332 -144.03366666666668 1828.11 7.860568462328523e-16 0.9864511989908994 0.16405496642716166
185.63333333333333 -141.54566666666665 1831.8400000000001 1.7697677486071126e-15 -0.5557513600437276 0.8313485585538396
208.81500000000003 -100.11086666666667 1988.04 0.0 0.0 1.0
209.16966666666667 -90.01106666666665 1988.04 0.0 0.0 1.0
209.16966666666667 -90.01106666666665 1988.04 0.0 0.0 1.0
356.8 21.599999999999998 2992.0 0.0 0.0 1.0
354.6666666666667 70.4 2992.0 0.0 0.0 1.0
354.1333333333334 92.53333333333335 2992.0 0.0 0.0 1.0
353.06666666666666 94.40000000000002 2992.0 0.0 0.0 1.0
354.1333333333334 128.0 2992.0 0.0 0.0 1.0
349.8666666666666 138.9333333333333 2992.0 0.0 0.0 1.0
354.6666666666667 169.33333333333334 2992.0 0.0 0.0 1.0
353.0666666666666 184.80000000000004 2992.0 0.0 0.0 1.0
354.93333333333334 424.5333333333333 2992.0 0.0 0.0 1.0
228.9523333333333 -262.0953333333334 2137.14 0.0 0.0 1.0
224.92333333333332 -198.822 2114.49 0.0 0.0 1.0
186.22833333333332 -138.88466666666667 1822.54 0.5984645854654417 -0.11217856355361168 0.7932566481427844
349.06666666666666 -177.33333333333334 2992.0 0.0 0.0 1.0
208.992 -112.69099999999999 1988.04 0.0 0.0 1.0
208.28333333333333 -83.8095 1988.04 0.0 0.0 1.0
351.2 -1.866666666666667 2992.0 0.0 0.0 1.0
352.26666666666665 50.4 2992.0 0.0 0.0 1.0
354.9333333333334 67.46666666666667 2992.0 0.0 0.0 1.0
353.06666666666666 94.40000000000002 2992.0 0.0 0.0 1.0
354.6666666666667 181.86666666666667 2992.0 0.0 0.0 1.0
352.8 372.26666666666665 2992.0 0.0 0.0 1.0
353.8666666666666 399.2 2992.0 0.0 0.0 1.0
354.93333333333334 424.5333333333333 2992.0 0.0 0.0 1.0
229.524 -271.238 2137.14 0.0 0.0 1.0
227.4286666666667 -237.71433333333334 2137.14 0.0 0.0 1.0
216.67600000000002 -192.82666666666668 2012.5566666666666 5.0850823261861496e-17 0.9690192443530374 0.24698523047637552
184.44133333333332 -144.03366666666668 1828.11 -3.5372558080478346e-16 0.9864511989908993 0.1640549664271621
205.69666666666663 -159.34766666666667 1934.4866666666667 9.603101416594929e-17 0.12009150269452586 0.9927628271548904
205.511 -111.46666666666665 1994.67 0.0 0.0 1.0
207.75199999999998 -105.60366666666665 1988.04 0.0 0.0 1.0
208.742 -24.0177 1981.46 0.0 0.0 1.0
353.59999999999997 13.333333333333334 2992.0 0.0 0.0 1.0
353.3333333333333 16.0 2992.0 0.0 0.0 1.0
353.59999999999997 152.79999999999998 2992.0 0.0 0.0 1.0
351.73333333333335 350.1333333333334 2992.0 0.0 0.0 1.0
230.476 -296.762 2137.14 0.0 0.0 1.0
230.28566666666666 -210.095 2137.14 0.0 0.0 1.0
184.33766666666668 -122.517 1820.6899999999998 0.12937000358326348 0.8405726234875576 0.5260238272322949
349.06666666666666 -177.33333333333334 2992.0 0.0 0.0 1.0
207.57466666666664 -110.21033333333332 1988.04 0.0 0.0 1.0
206.33466666666666 -85.93576666666667 1988.04 0.0 0.0 1.0
207.043 -58.29456666666667 1988.04 0.0 0.0 1.0
353.3333333333333 15.999999999999998 2992.0 0.0 0.0 1.0
352.26666666666665 50.4 2992.0 0.0 0.0 1.0
353.8666666666666 62.4 2992.0 0.0 0.0 1.0
351.4666666666667 120.8 2992.0 0.0 0.0 1.0
354.1333333333334 128.0 2992.0 0.0 0.0 1.0
354.6666666666667 169.33333333333334 2992.0 0.0 0.0 1.0
349.6000000000001 324.8 2992.0 0.0 0.0 1.0
352.5333333333333 400.0 2992.0 0.0 0.0 1.0
352.5333333333333 400.0 2992.0 0.0 0.0 1.0
229.29533333333333 -313.3093333333333 2144.8 0.0 0.0 1.0
228.76199999999997 -268.95233333333334 2137.14 0.0 0.0 1.0
225.90466666666666 -220.0 2137.14 0.0 0.0 1.0
224.4366666666667 -191.12700000000004 2129.54 0.0 0.0 1.0
184.44133333333332 -144.03366666666668 1828.11 4.5198268658389e-16 0.9864511989908995 0.16405496642716177
208.711 -96.35553333333333 1994.67 0.0 0.0 1.0
206.33466666666666 -85.93576666666667 1988.04 0.0 0.0 1.0
205.44866666666667 -81.86046666666667 1988.04 0.0 0.0 1.0
205.09433333333334 -50.49836666666666 1988.04 0.0 0.0 1.0
204.32666666666668 -17.130233333333333 1981.46 0.0 0.0 1.0
352.8 -6.666666666666667 2992.0 0.0 0.0 1.0
352.2666666666667 50.4 2992.0 0.0 0.0 1.0
351.2 93.86666666666667 2992.0 0.0 0.0 1.0
351.4666666666667 120.8 2992.0 0.0 0.0 1.0
351.4666666666667 120.8 2992.0 0.0 0.0 1.0
353.59999999999997 152.79999999999998 2992.0 0.0 0.0 1.0
353.0666666666666 184.80000000000004 2992.0 0.0 0.0 1.0
350.6666666666667 262.1333333333334 2992.0 0.0 0.0 1.0
351.73333333333335 350.1333333333334 2992.0 0.0 0.0 1.0
350.6666666666667 350.93333333333334 2992.0 0.0 0.0 1.0
229.33366666666666 -277.52366666666666 2137.14 0.0 0.0 1.0
229.524 -260.38100000000003 2137.14 0.0 0.0 1.0
227.4286666666667 -237.71433333333334 2137.14 0.0 0.0 1.0
224.4366666666667 -191.12700000000004 2129.54 0.0 0.0 1.0
180.9753333333333 -125.69099999999999 1824.39 0.0 0.0 1.0
204.32666666666668 -17.130233333333333 1981.46 0.0 0.0 1.0
351.2 -1.8666666666666665 2992.0 0.0 0.0 1.0
354.6666666666667 293.06666666666666 2992.0 0.0 0.0 1.0
225.14266666666666 -285.52399999999994 2137.14 0.0 0.0 1.0
226.85699999999997 -266.6666666666667 2137.14 0.0 0.0 1.0
224.29700000000003 -197.63966666666667 2122.0066666666667 0.4463653480510674 -0.8936502075697237 -0.04633878040949187
205.511 -111.46666666666665 1994.67 0.0 0.0 1.0
206.33466666666666 -85.93576666666667 1988.04 0.0 0.0 1.0
205.44866666666667 -81.86046666666667 1988.04 0.0 0.0 1.0
201.90499999999997 -38.80396666666667 1988.04 0.0 0.0 1.0
346.9333333333334 -3.1999999999999997 2992.0 0.0 0.0 1.0
348.8 31.46666666666667 2992.0 0.0 0.0 1.0
347.7333333333333 109.86666666666667 2992.0 0.0 0.0 1.0
349.0666666666666 252.53333333333333 2992.0 0.0 0.0 1.0
349.59999999999997 324.8 2992.0 0.0 0.0 1.0
349.8666666666666 352.2666666666667 2992.0 0.0 0.0 1.0
180.9753333333333 -125.69099999999999 1824.39 0.0 0.0 1.0
205.44833333333335 -60.42083333333333 1988.04 0.0 0.0 1.0
205.09433333333334 -50.49836666666666 1988.04 0.0 0.0 1.0
349.3333333333333 94.13333333333333 2992.0 0.0 0.0 1.0
351.4666666666667 174.66666666666666 2992.0 0.0 0.0 1.0
350.93333333333334 209.33333333333334 2992.0 0.0 0.0 1.0
345.8666666666666 308.0 2992.0 0.0 0.0 1.0
349.86666666666673 352.26666666666665 2992.0 0.0 0.0 1.0
226.23666666666668 -315.0296666666666 2144.8 0.0 0.0 1.0
227.42833333333337 -264.5713333333333 2137.14 0.0 0.0 1.0
227.4286666666667 -237.71433333333334 2137.14 0.0 0.0 1.0
225.90466666666666 -220.0 2137.14 0.0 0.0 1.0
205.09400000000002 -99.4021 1988.04 0.0 0.0 1.0
205.72833333333332 -97.31176666666666 1992.46 -0.21400232168811886 -0.8563303102989901 0.4700014957160562
205.44866666666667 -81.86046666666667 1988.04 0.0 0.0 1.0
203.67666666666665 -62.1927 1988.04 0.0 0.0 1.0
202.34533333333334 -57.108200000000004 1983.6533333333334 -0.7431497018164119 -0.6689469475202815 -0.015443512990111917
202.20766666666668 -44.6799 1981.46 0.0 0.0 1.0
201.85433333333333 -31.258300000000002 1981.46 0.0 0.0 1.0
349.06666666666666 49.06666666666666 2992.0 0.0 0.0 1.0
348.26666666666665 94.66666666666667 2992.0 0.0 0.0 1.0
348.26666666666665 94.66666666666667 2992.0 0.0 0.0 1.0
347.2 137.6 2992.0 0.0 0.0 1.0
347.2 213.0666666666667 2992.0 0.0 0.0 1.0
345.59999999999997 234.66666666666666 2992.0 0.0 0.0 1.0
345.3333333333333 364.0 2992.0 0.0 0.0 1.0
347.73333333333335 406.40000000000003 2992.0 0.0 0.0 1.0
225.28100000000003 -313.69166666666666 2144.8 0.0 0.0 1.0
222.28566666666666 -249.524 2137.14 0.0 0.0 1.0
185.26233333333334 -165.20833333333334 1883.7533333333333 -9.310422427330237e-17 0.9776523261094615 0.2102282789083318
188.72299999999998 -162.33966666666666 1873.9066666666665 0.4435426039675098 0.6655350139293214 0.6002775222343568
204.917 -80.44296666666666 1988.04 0.0 0.0 1.0
205.09433333333334 -50.49836666666666 1988.04 0.0 0.0 1.0
348.8 49.86666666666667 2992.0 0.0 0.0 1.0
347.7333333333333 109.86666666666667 2992.0 0.0 0.0 1.0
347.2 137.6 2992.0 0.0 0.0 1.0
345.3333333333333 147.46666666666667 2992.0 0.0 0.0 1.0
346.6666666666667 321.8666666666667 2992.0 0.0 0.0 1.0
349.3333333333333 385.3333333333333 2992.0 0.0 0.0 1.0
226.23666666666668 -315.0296666666666 2144.8 0.0 0.0 1.0
225.14266666666666 -285.52399999999994 2137.14 0.0 0.0 1.0
223.80933333333334 -217.52366666666668 2137.14 0.0 0.0 1.0
182.20833333333334 -133.746 1852.63 0.0 0.0 1.0
201.635 -73.54323333333333 1983.6533333333334 0.9333386169473553 -0.2332025281585614 0.2729388337618036
199.55866666666665 -18.719633333333334 1981.46 0.0 0.0 1.0
200.8373333333333 -11.646279999999999 1979.28 0.31334505184761097 0.7441797121314749 0.5899249397461792
348.26666666666665 114.39999999999999 2992.0 0.0 0.0 1.0
347.2 137.6 2992.0 0.0 0.0 1.0
345.06666666666666 232.0 2992.0 0.0 0.0 1.0
343.46666666666664 440.26666666666665 2992.0 0.0 0.0 1.0
223.619 -282.6666666666667 2137.14 0.0 0.0 1.0
224.1903333333333 -218.66666666666666 2137.14 0.0 0.0 1.0
223.25833333333333 -218.02666666666664 2134.6066666666666 -0.7068903291623843 -0.706890329162384 -0.02474116152068571
209.79133333333334 -188.25766666666667 2005.83 -0.6233694579868388 0.6233694579868387 0.4720392332194324
224.92333333333332 -198.822 2114.49 0.0 0.0 1.0
202.20766666666665 -44.679899999999996 1981.46 0.0 0.0 1.0
201.85433333333333 -31.258300000000002 1981.46 0.0 0.0 1.0
346.9333333333334 -3.1999999999999997 2992.0 0.0 0.0 1.0
346.9333333333334 -3.1999999999999997 2992.0 0.0 0.0 1.0
348.0 15.200000000000001 2992.0 0.0 0.0 1.0
344.0 19.46666666666667 2992.0 0.0 0.0 1.0
347.73333333333335 39.2 2992.0 0.0 0.0 1.0
343.7333333333333 151.73333333333332 2992.0 0.0 0.0 1.0
347.20000000000005 261.59999999999997 2992.0 0.0 0.0 1.0
345.8666666666666 308.0 2992.0 0.0 0.0 1.0
343.2 388.26666666666665 2992.0 0.0 0.0 1.0
188.72299999999998 -162.33966666666666 1873.9066666666665 0.44354260396750916 0.665535013929322 0.6002775222343566
178.86166666666668 -126.34133333333334 1824.39 0.0 0.0 1.0
339.2 -186.9333333333333 2992.0 0.0 0.0 1.0
205.09400000000002 -99.4021 1988.04 0.0 0.0 1.0
200.44166666666663 -76.82119999999999 1981.46 0.0 0.0 1.0
202.20766666666665 -44.679899999999996 1981.46 0.0 0.0 1.0
345.8666666666666 201.86666666666667 2992.0 0.0 0.0 1.0
347.2 213.0666666666667 2992.0 0.0 0.0 1.0
345.59999999999997 234.66666666666666 2992.0 0.0 0.0 1.0
344.2666666666667 258.4 2992.0 0.0 0.0 1.0
345.06666666666666 370.1333333333334 2992.0 0.0 0.0 1.0
350.9333333333334 424.0 2992.0 0.0 0.0 1.0
224.51633333333334 -313.3093333333333 2144.8 0.0 0.0 1.0
222.66666666666666 -248.19066666666666 2137.14 0.0 0.0 1.0
223.80933333333334 -217.52366666666668 2137.14 0.0 0.0 1.0
219.69133333333332 -198.529 2129.54 0.0 0.0 1.0
220.64066666666668 -176.89166666666665 2129.54 0.0 0.0 1.0
201.95566666666664 -107.37766666666666 1994.67 0.0 0.0 1.0
201.37333333333333 -63.43303333333333 1988.04 0.0 0.0 1.0
343.4666666666667 21.333333333333332 2992.0 0.0 0.0 1.0
343.4666666666667 21.333333333333332 2992.0 0.0 0.0 1.0
345.3333333333333 181.6 2992.0 0.0 0.0 1.0
344.0 194.66666666666666 2992.0 0.0 0.0 1.0
345.59999999999997 234.66666666666666 2992.0 0.0 0.0 1.0
224.32500000000002 -314.074 2144.8 0.0 0.0 1.0
222.66666666666666 -280.38100000000003 2137.14 0.0 0.0 1.0
197.82933333333335 -69.63456666666667 1988.04 0.0 0.0 1.0
199.95566666666664 -40.57583333333333 1988.04 0.0 0.0 1.0
201.85433333333333 -31.258300000000002 1981.46 0.0 0.0 1.0
344.5333333333333 146.93333333333337 2992.0 0.0 0.0 1.0
342.6666666666667 149.86666666666665 2992.0 0.0 0.0 1.0
341.59999999999997 163.20000000000002 2992.0 0.0 0.0 1.0
343.73333333333335 187.73333333333335 2992.0 0.0 0.0 1.0
345.8666666666666 308.0 2992.0 0.0 0.0 1.0
340.8 356.2666666666667 2992.0 0.0 0.0 1.0
342.1333333333334 407.4666666666667 2992.0 0.0 0.0 1.0
343.4666666666667 440.26666666666665 2992.0 0.0 0.0 1.0
222.66666666666666 -280.38100000000003 2137.14 0.0 0.0 1.0
223.4283333333333 -267.61899999999997 2137.14 0.0 0.0 1.0
223.04733333333334 -266.6666666666667 2137.14 0.0 0.0 1.0
221.14266666666666 -222.28566666666666 2137.14 0.0 0.0 1.0
220.64066666666668 -176.89166666666668 2129.54 0.0 0.0 1.0
203.20000000000002 -109.33333333333333 1994.67 0.0 0.0 1.0
201.95566666666664 -107.37766666666666 1994.67 0.0 0.0 1.0
200.6643333333333 -86.46733333333333 1988.04 0.0 0.0 1.0
343.4666666666667 21.333333333333332 2992.0 0.0 0.0 1.0
343.73333333333335 151.73333333333335 2992.0 0.0 0.0 1.0
342.13333333333327 255.73333333333332 2992.0 0.0 0.0 1.0
340.8 375.73333333333335 2992.0 0.0 0.0 1.0
222.857 -216.381 2137.14 0.0 0.0 1.0
224.43666666666664 -191.12700000000004 2129.54 0.0 0.0 1.0
219.31199999999998 -173.096 2129.54 0.0 0.0 1.0
340.0 -175.20000000000002 2992.0 0.0 0.0 1.0
340.53333333333336 26.666666666666668 2992.0 0.0 0.0 1.0
338.6666666666667 128.0 2992.0 0.0 0.0 1.0
219.737 -306.8103333333333 2144.8 0.0 0.0 1.0
220.31066666666666 -297.8253333333334 2144.8 0.0 0.0 1.0
220.31066666666666 -297.8253333333334 2144.8 0.0 0.0 1.0
220.1903333333333 -237.143 2137.14 0.0 0.0 1.0
217.5013333333333 -188.94133333333335 2122.0066666666667 -0.47017199411372934 0.782975531160286 0.4072930315576087
220.07133333333334 -174.61433333333335 2129.54 0.0 0.0 1.0
174.05200000000002 -110.81866666666667 1791.62 0.0 0.0 1.0
198.97866666666667 -53.3873 1983.6533333333334 0.7430697028816236 0.6688749363991019 0.02130108251975847
199.95566666666664 -40.575833333333335 1988.04 0.0 0.0 1.0
338.40000000000003 89.86666666666667 2992.0 0.0 0.0 1.0
340.53333333333336 161.60000000000002 2992.0 0.0 0.0 1.0
341.06666666666666 166.66666666666666 2992.0 0.0 0.0 1.0
346.6666666666667 321.8666666666667 2992.0 0.0 0.0 1.0
339.4666666666667 338.6666666666667 2992.0 0.0 0.0 1.0
339.4666666666667 338.6666666666667 2992.0 0.0 0.0 1.0
340.53333333333336 441.06666666666666 2992.0 0.0 0.0 1.0
222.79566666666668 -312.3536666666667 2144.8 0.0 0.0 1.0
219.80933333333334 -246.85733333333334 2137.14 0.0 0.0 1.0
176.09766666666667 -127.80466666666666 1824.39 0.0 0.0 1.0
340.2666666666667 -170.4 2992.0 0.0 0.0 1.0
199.95566666666664 -40.575833333333335 1988.04 0.0 0.0 1.0
199.55866666666665 -18.71963333333333 1981.46 0.0 0.0 1.0
199.55866666666665 -18.71963333333333 1981.46 0.0 0.0 1.0
340.0 170.66666666666666 2992.0 0.0 0.0 1.0
338.93333333333334 266.1333333333334 2992.0 0.0 0.0 1.0
340.8 356.2666666666667 2992.0 0.0 0.0 1.0
219.31199999999998 -173.096 2129.54 0.0 0.0 1.0
338.1333333333333 -181.86666666666667 2992.0 0.0 0.0 1.0
340.2666666666667 -170.4 2992.0 0.0 0.0 1.0
197.79266666666663 -79.2936 1981.46 0.0 0.0 1.0
334.93333333333334 54.93333333333334 2992.0 0.0 0.0 1.0
337.59999999999997 102.13333333333334 2992.0 0.0 0.0 1.0
341.8666666666666 147.73333333333332 2992.0 0.0 0.0 1.0
340.0 170.66666666666666 2992.0 0.0 0.0 1.0
337.3333333333333 228.0 2992.0 0.0 0.0 1.0
340.8 230.66666666666666 2992.0 0.0 0.0 1.0
339.46666666666664 254.4 2992.0 0.0 0.0 1.0
340.8 356.2666666666667 2992.0 0.0 0.0 1.0
217.90466666666669 -275.4286666666667 2137.14 0.0 0.0 1.0
218.476 -249.14300000000003 2137.14 0.0 0.0 1.0
196.94366666666667 -65.38206666666666 1988.04 0.0 0.0 1.0
195.67333333333332 -22.075066666666668 1981.46 0.0 0.0 1.0
339.73333333333335 5.866666666666667 2992.0 0.0 0.0 1.0
334.93333333333334 74.93333333333334 2992.0 0.0 0.0 1.0
338.13333333333327 104.8 2992.0 0.0 0.0 1.0
337.06666666666666 249.86666666666667 2992.0 0.0 0.0 1.0
337.06666666666666 263.2 2992.0 0.0 0.0 1.0
337.3333333333333 269.6 2992.0 0.0 0.0 1.0
219.23833333333332 -281.1426666666667 2137.14 0.0 0.0 1.0
218.71533333333332 -204.28033333333335 2132.0733333333333 -0.7506464213979833 0.6004907708935417 0.27557355481627865
215.619 -165.71433333333331 2137.14 0.0 0.0 1.0
220.40833333333333 -134.422 2035.37 0.0 0.0 1.0
195.8803333333333 -48.19493333333333 1988.04 0.0 0.0 1.0
197.475 -41.284600000000005 1988.04 0.0 0.0 1.0
338.40000000000003 89.86666666666667 2992.0 0.0 0.0 1.0
338.6666666666667 128.00000000000003 2992.0 0.0 0.0 1.0
338.1333333333334 161.6 2992.0 0.0 0.0 1.0
335.20000000000005 394.40000000000003 2992.0 0.0 0.0 1.0
337.6 440.0 2992.0 0.0 0.0 1.0
215.4286666666667 -223.048 2137.14 0.0 0.0 1.0
215.619 -165.71433333333331 2137.14 0.0 0.0 1.0
197.121 -38.98116666666667 1988.04 0.0 0.0 1.0
336.00000000000006 92.53333333333335 2992.0 0.0 0.0 1.0
337.59999999999997 102.13333333333333 2992.0 0.0 0.0 1.0
337.59999999999997 102.13333333333333 2992.0 0.0 0.0 1.0
338.6666666666667 128.0 2992.0 0.0 0.0 1.0
336.0 207.20000000000002 2992.0 0.0 0.0 1.0
336.53333333333336 209.6 2992.0 0.0 0.0 1.0
336.53333333333336 254.9333333333333 2992.0 0.0 0.0 1.0
339.4666666666667 338.6666666666667 2992.0 0.0 0.0 1.0
335.20000000000005 394.40000000000003 2992.0 0.0 0.0 1.0
216.76199999999997 -280.762 2137.14 0.0 0.0 1.0
216.0 -241.71433333333334 2137.14 0.0 0.0 1.0
216.0 -211.80966666666666 2137.14 0.0 0.0 1.0
211.89466666666667 -187.54833333333332 2116.99 0.0 0.9867963115280572 0.16196616793213775
174.309 -140.81333333333333 1824.39 0.0 0.0 1.0
196.94366666666667 -65.38206666666666 1988.04 0.0 0.0 1.0
196.94366666666667 -65.38206666666666 1988.04 0.0 0.0 1.0
194.614 -12.008806666666667 1981.46 0.0 0.0 1.0
335.73333333333335 24.266666666666666 2992.0 0.0 0.0 1.0
334.40000000000003 25.333333333333332 2992.0 0.0 0.0 1.0
335.73333333333335 163.46666666666667 2992.0 0.0 0.0 1.0
336.0 207.20000000000002 2992.0 0.0 0.0 1.0
337.06666666666666 249.86666666666667 2992.0 0.0 0.0 1.0
217.25199999999998 -313.883 2144.8 0.0 0.0 1.0
220.31066666666666 -297.8253333333334 2144.8 0.0 0.0 1.0
217.33333333333334 -283.238 2137.14 0.0 0.0 1.0
217.333 -249.14300000000003 2137.14 0.0 0.0 1.0
217.71400000000003 -247.80966666666666 2137.14 0.0 0.0 1.0
172.8456666666667 -128.13 1824.39 0.0 0.0 1.0
194.99433333333332 -89.12509999999999 1988.04 0.0 0.0 1.0
195.17133333333334 -74.9502 1988.04 0.0 0.0 1.0
333.59999999999997 2.4 2992.0 0.0 0.0 1.0
335.2 22.133333333333336 2992.0 0.0 0.0 1.0
331.7333333333333 51.46666666666667 2992.0 0.0 0.0 1.0
335.2 71.2 2992.0 0.0 0.0 1.0
336.0 207.20000000000002 2992.0 0.0 0.0 1.0
336.53333333333336 378.40000000000003 2992.0 0.0 0.0 1.0
333.8666666666666 405.3333333333333 2992.0 0.0 0.0 1.0
217.25199999999998 -313.883 2144.8 0.0 0.0 1.0
217.25199999999998 -313.883 2144.8 0.0 0.0 1.0
216.735 -293.11600000000004 2139.693333333333 -0.9702305978695978 0.06925020892294237 0.2320711001433222
215.80933333333334 -261.1426666666667 2137.14 0.0 0.0 1.0
216.24066666666667 -217.95833333333334 2132.0733333333333 7.807832189243479e-17 0.9846318910763476 0.17464260383828242
219.12233333333333 -179.54899999999998 2129.54 0.0 0.0 1.0
331.7333333333333 -143.20000000000002 2992.0 0.0 0.0 1.0
193.554 -79.117 1981.46 0.0 0.0 1.0
195.8803333333333 -48.19493333333333 1988.04 0.0 0.0 1.0
194.99433333333332 -41.4618 1988.04 0.0 0.0 1.0
335.2 22.133333333333336 2992.0 0.0 0.0 1.0
334.93333333333334 114.66666666666667 2992.0 0.0 0.0 1.0
331.2 151.20000000000002 2992.0 0.0 0.0 1.0
333.59999999999997 191.73333333333335 2992.0 0.0 0.0 1.0
333.59999999999997 191.73333333333335 2992.0 0.0 0.0 1.0
333.3333333333333 290.40000000000003 2992.0 0.0 0.0 1.0
331.2 308.26666666666665 2992.0 0.0 0.0 1.0
333.59999999999997 400.8 2992.0 0.0 0.0 1.0
331.46666666666664 420.26666666666665 2992.0 0.0 0.0 1.0
333.8666666666667 433.59999999999997 2992.0 0.0 0.0 1.0
333.3333333333333 435.73333333333335 2992.0 0.0 0.0 1.0
340.26666666666665 -442.93333333333334 2992.0 0.0 0.0 1.0
217.4433333333333 -303.943 2144.8 0.0 0.0 1.0
217.414 -173.66533333333334 2129.54 0.0 0.0 1.0
167.70000000000002 -121.90466666666667 1818.84 0.0 0.0 1.0
333.06666666666666 -185.6 2992.0 0.0 0.0 1.0
194.99433333333332 -89.12509999999999 1988.04 0.0 0.0 1.0
195.17133333333334 -74.9502 1988.04 0.0 0.0 1.0
195.17133333333334 -74.9502 1988.04 0.0 0.0 1.0
194.10833333333335 -48.372099999999996 1988.04 0.0 0.0 1.0
336.00000000000006 92.53333333333335 2992.0 0.0 0.0 1.0
334.1333333333334 165.86666666666667 2992.0 0.0 0.0 1.0
337.3333333333333 228.0 2992.0 0.0 0.0 1.0
334.1333333333334 255.20000000000002 2992.0 0.0 0.0 1.0
334.93333333333334 270.40000000000003 2992.0 0.0 0.0 1.0
332.8 372.26666666666665 2992.0 0.0 0.0 1.0
216.76200000000003 -280.762 2137.14 0.0 0.0 1.0
174.05200000000002 -110.81866666666667 1791.62 0.0 0.0 1.0
194.99433333333332 -89.12509999999999 1988.04 0.0 0.0 1.0
333.06666666666666 87.46666666666665 2992.0 0.0 0.0 1.0
332.8 169.60000000000002 2992.0 0.0 0.0 1.0
334.6666666666667 264.0 2992.0 0.0 0.0 1.0
333.06666666666666 267.46666666666664 2992.0 0.0 0.0 1.0
333.3333333333333 290.40000000000003 2992.0 0.0 0.0 1.0
330.93333333333334 295.20000000000005 2992.0 0.0 0.0 1.0
331.20000000000005 348.8 2992.0 0.0 0.0 1.0
331.73333333333335 366.13333333333327 2992.0 0.0 0.0 1.0
333.8666666666667 433.59999999999997 2992.0 0.0 0.0 1.0
340.26666666666665 -442.93333333333334 2992.0 0.0 0.0 1.0
212.5716666666667 -236.9523333333333 2137.14 0.0 0.0 1.0
215.4286666666667 -223.048 2137.14 0.0 0.0 1.0
215.4286666666667 -223.048 2137.14 0.0 0.0 1.0
331.2 70.4 2992.0 0.0 0.0 1.0
332.0 119.46666666666665 2992.0 0.0 0.0 1.0
330.93333333333334 172.80000000000004 2992.0 0.0 0.0 1.0
333.59999999999997 191.73333333333335 2992.0 0.0 0.0 1.0
332.5333333333333 204.79999999999998 2992.0 0.0 0.0 1.0
334.1333333333334 255.20000000000002 2992.0 0.0 0.0 1.0
331.4666666666667 378.6666666666667 2992.0 0.0 0.0 1.0
332.0 413.06666666666666 2992.0 0.0 0.0 1.0
332.0 413.0666666666666 2992.0 0.0 0.0 1.0
332.0 413.0666666666666 2992.0 0.0 0.0 1.0
167.54333333333332 -135.90166666666667 1839.3466666666666 0.0 -0.9999142408084569 0.013096221915010347
329.8666666666666 -147.46666666666667 2992.0 0.0 0.0 1.0
191.32633333333334 -68.67176666666666 1985.8466666666666 0.8778536835953958 -0.3989083883143689 0.2650377481235969
193.93133333333333 -65.0277 1988.04 0.0 0.0 1.0
192.212 -44.955066666666674 1985.8466666666666 0.9997081751127015 4.309909775380917e-18 0.024157082043000128
333.8666666666666 23.2 2992.0 0.0 0.0 1.0
330.13333333333327 81.06666666666666 2992.0 0.0 0.0 1.0
135.29999999999998 49.6789 1574.743333333333 -0.7139418908257965 -0.635513603286433 -0.29395482061361233
331.2 348.8 2992.0 0.0 0.0 1.0
328.26666666666665 394.6666666666667 2992.0 0.0 0.0 1.0
332.79999999999995 435.73333333333335 2992.0 0.0 0.0 1.0
214.38466666666667 -301.64899999999994 2144.8 0.0 0.0 1.0
213.71433333333334 -272.95233333333334 2137.14 0.0 0.0 1.0
328.5333333333333 -172.79999999999998 2992.0 0.0 0.0 1.0
328.5333333333333 -172.79999999999998 2992.0 0.0 0.0 1.0
191.08166666666668 -25.7837 1981.46 0.0 0.0 1.0
191.08166666666668 -25.7837 1981.46 0.0 0.0 1.0
331.7333333333333 51.46666666666667 2992.0 0.0 0.0 1.0
330.13333333333327 81.06666666666666 2992.0 0.0 0.0 1.0
332.5333333333333 204.79999999999998 2992.0 0.0 0.0 1.0
133.753 150.481 1570.5999999999997 -2.6167592061752855e-27 1.1214682312179673e-27 1.0
331.2 308.26666666666665 2992.0 0.0 0.0 1.0
214.57600000000002 -312.35366666666664 2144.8 0.0 0.0 1.0
181.51800000000003 -165.715 1885.72 -1.3580268801710493e-17 0.9854083480418969 0.17020689647995954
176.40200000000002 -163.85033333333334 1877.8266666666666 -0.4293504145194686 0.8587008290389139 0.2798054820046285
330.4 -138.93333333333334 2992.0 0.0 0.0 1.0
193.93133333333333 -65.0277 1988.04 0.0 0.0 1.0
194.10833333333335 -48.37210000000001 1988.04 0.0 0.0 1.0
193.04533333333333 -40.75306666666666 1988.04 0.0 0.0 1.0
327.7333333333333 50.13333333333333 2992.0 0.0 0.0 1.0
332.8 123.46666666666665 2992.0 0.0 0.0 1.0
332.2666666666667 140.53333333333333 2992.0 0.0 0.0 1.0
331.2 151.20000000000002 2992.0 0.0 0.0 1.0
331.2 151.20000000000002 2992.0 0.0 0.0 1.0
328.53333333333336 178.66666666666666 2992.0 0.0 0.0 1.0
130.80033333333333 166.05133333333333 1578.89 0.0 0.0 1.0
329.6 334.93333333333334 2992.0 0.0 0.0 1.0
329.6 334.93333333333334 2992.0 0.0 0.0 1.0
330.6666666666667 344.8 2992.0 0.0 0.0 1.0
330.6666666666667 344.8 2992.0 0.0 0.0 1.0
214.57600000000002 -312.35366666666664 2144.8 0.0 0.0 1.0
212.57166666666663 -236.9523333333333 2137.14 0.0 0.0 1.0
191.75233333333333 -192.64700000000002 2012.5566666666666 0.14065630439615467 0.9840722149868009 0.1087091519817357
172.8456666666667 -128.13 1824.39 0.0 0.0 1.0
193.04533333333333 -40.75306666666666 1988.04 0.0 0.0 1.0
331.4666666666667 20.8 2992.0 0.0 0.0 1.0
330.6666666666667 84.26666666666667 2992.0 0.0 0.0 1.0
135.29999999999998 49.6789 1574.743333333333 -0.7139418908257974 -0.6355136032864324 -0.2939548206136115
331.2 308.26666666666665 2992.0 0.0 0.0 1.0
330.93333333333334 360.26666666666665 2992.0 0.0 0.0 1.0
212.282 -300.11966666666666 2144.8 0.0 0.0 1.0
210.85733333333334 -236.9523333333333 2137.14 0.0 0.0 1.0
212.19066666666666 -220.381 2137.14 0.0 0.0 1.0
176.40200000000002 -163.85033333333334 1877.8266666666666 -0.42935041451946865 0.8587008290389138 0.27980548200462846
176.40200000000002 -163.85033333333334 1877.8266666666666 -0.42935041451946865 0.8587008290389138 0.27980548200462846
190.55200000000002 -10.772606666666666 1981.46 0.0 0.0 1.0
326.40000000000003 3.733333333333333 2992.0 0.0 0.0 1.0
328.53333333333336 178.66666666666666 2992.0 0.0 0.0 1.0
328.53333333333336 178.66666666666666 2992.0 0.0 0.0 1.0
331.46666666666664 192.79999999999998 2992.0 0.0 0.0 1.0
331.73333333333335 406.6666666666667 2992.0 0.0 0.0 1.0
329.8666666666667 424.0 2992.0 0.0 0.0 1.0
211.04733333333334 -246.47633333333337 2137.14 0.0 0.0 1.0
209.905 -218.85699999999997 2137.14 0.0 0.0 1.0
208.76200000000003 -165.524 2137.14 0.0 0.0 1.0
326.1333333333333 -133.33333333333334 2992.0 0.0 0.0 1.0
191.98233333333334 -63.078633333333336 1988.04 0.0 0.0 1.0
326.66666666666663 -84.26666666666667 2992.0 0.0 0.0 1.0
191.08166666666668 -25.7837 1981.46 0.0 0.0 1.0
326.40000000000003 3.733333333333333 2992.0 0.0 0.0 1.0
324.53333333333336 38.13333333333333 2992.0 0.0 0.0 1.0
134.037 54.5813 1570.61 -0.731451520336622 0.1611429780634187 0.6625795152418289
331.4666666666667 378.6666666666667 2992.0 0.0 0.0 1.0
328.26666666666665 394.6666666666667 2992.0 0.0 0.0 1.0
326.93333333333334 426.93333333333334 2992.0 0.0 0.0 1.0
323.46666666666664 -186.66666666666666 2992.0 0.0 0.0 1.0
321.8666666666666 -91.73333333333335 2992.0 0.0 0.0 1.0
323.7333333333333 -77.33333333333333 2992.0 0.0 0.0 1.0
190.19866666666667 -24.370900000000002 1981.46 0.0 0.0 1.0
131.11800000000002 16.487466666666666 1554.2933333333333 -0.9906824846701202 -0.003949735190607844 0.1361345443293551
131.118 16.487466666666666 1554.2933333333333 -0.9906824846701202 -0.003949735190607844 0.1361345443293551
131.118 16.487466666666666 1554.2933333333333 -0.9906824846701229 -0.003949735190561641 0.13613454432933814
329.3333333333333 77.60000000000001 2992.0 0.0 0.0 1.0
131.25 73.05553333333334 1558.33 0.0 0.0 1.0
131.51833333333335 146.597 1566.49 0.0 0.0 1.0
133.75300000000001 150.481 1570.5999999999997 5.233518412350568e-26 -4.5980197479937116e-26 1.0
133.14433333333332 154.112 1573.36 0.39944191286157177 -0.5990838344856969 0.6939342313990591
131.428 168.22233333333335 1563.7633333333333 0.9125143283223658 0.2605846320619633 0.3152986681537249
328.26666666666665 394.6666666666667 2992.0 0.0 0.0 1.0
206.28566666666666 -253.33333333333334 2137.14 0.0 0.0 1.0
207.619 -212.381 2137.14 0.0 0.0 1.0
164.782 -122.229 1818.84 0.0 0.0 1.0
324.8 -190.4 2992.0 0.0 0.0 1.0
191.788 -75.585 1981.46 0.0 0.0 1.0
192.51366666666664 -69.63456666666667 1988.04 0.0 0.0 1.0
131.25 73.05553333333334 1558.33 0.0 0.0 1.0
329.06666666666666 300.8 2992.0 0.0 0.0 1.0
130.10366666666667 182.69766666666666 1552.9466666666667 0.6386952925328646 0.6381831070536722 0.42987282441168556
129.68833333333336 184.63700000000003 1552.9466666666667 0.985247619935741 1.6927249293440202e-18 0.17113482232134294
323.7333333333333 429.8666666666666 2992.0 0.0 0.0 1.0
210.5616666666667 -314.8386666666667 2144.8 0.0 0.0 1.0
212.282 -300.11966666666666 2144.8 0.0 0.0 1.0
209.33333333333334 -269.9046666666666 2137.14 0.0 0.0 1.0
209.905 -236.9523333333333 2137.14 0.0 0.0 1.0
208.9523333333333 -236.0 2137.14 0.0 0.0 1.0
208.19033333333334 -225.524 2137.14 0.0 0.0 1.0
208.76199999999997 -214.28566666666666 2137.14 0.0 0.0 1.0
208.76200000000003 -165.524 2137.14 0.0 0.0 1.0
325.06666666666666 -172.5333333333333 2992.0 0.0 0.0 1.0
187.37300000000002 -29.668899999999997 1981.46 0.0 0.0 1.0
130.48833333333334 63.77776666666666 1569.2300000000002 7.693748289984425e-15 -0.837427333616869 0.5465486811907436
131.33933333333331 70.25926666666668 1561.0433333333333 -0.999458450843896 2.9147578768762315e-16 0.032906003049892926
130.827 70.73976666666665 1562.4000000000003 -7.810961849772458e-27 -1.735726981019945e-27 1.0
131.25 73.05553333333334 1558.33 0.0 0.0 1.0
129.583 132.91666666666666 1558.33 0.0 0.0 1.0
133.75300000000001 150.481 1570.5999999999997 5.233518412350568e-26 -4.5980197479937116e-26 1.0
131.428 168.22233333333335 1563.7633333333333 0.9125143283223658 0.2605846320619633 0.315298668153725
127.82100000000001 206.30466666666666 1546.25 0.0 0.0 1.0
208.9523333333333 -236.0 2137.14 0.0 0.0 1.0
208.0 -227.8096666666667 2137.14 0.0 0.0 1.0
209.06266666666667 -204.982 2129.54 0.0 0.0 1.0
165.69066666666666 -133.3336666666667 1824.39 0.0 0.0 1.0
322.1333333333333 -147.46666666666667 2992.0 0.0 0.0 1.0
326.40000000000003 3.733333333333333 2992.0 0.0 0.0 1.0
324.53333333333336 38.13333333333333 2992.0 0.0 0.0 1.0
128.84666666666666 89.9217 1556.9833333333333 0.1409219871700373 0.9864877287616826 0.08356407442594609
127.93066666666668 101.26403333333333 1554.29 0.0 0.0 1.0
127.36566666666668 208.881 1544.9233333333334 0.8493587231738559 0.42519287955740986 0.3127311537761391
191.75233333333333 -192.64700000000002 2012.5566666666666 0.1406563043961545 0.9840722149868008 0.10870915198173586
164.782 -122.229 1818.84 0.0 0.0 1.0
187.37300000000002 -29.668899999999997 1981.46 0.0 0.0 1.0
187.37300000000002 -29.668899999999997 1981.46 0.0 0.0 1.0
325.06666666666666 5.866666666666667 2992.0 0.0 0.0 1.0
324.53333333333336 47.46666666666667 2992.0 0.0 0.0 1.0
321.8666666666666 55.199999999999996 2992.0 0.0 0.0 1.0
181.38633333333334 47.87676666666667 1974.92 0.0 0.0 1.0
321.59999999999997 87.73333333333335 2992.0 0.0 0.0 1.0
128.20766666666665 92.25973333333333 1554.29 0.0 0.0 1.0
129.31633333333335 113.31599999999999 1554.29 0.0 0.0 1.0
128.90066666666667 113.87033333333333 1554.29 0.0 0.0 1.0
130.95966666666666 145.759 1566.49 0.0 0.0 1.0
130.95966666666666 145.759 1566.49 0.0 0.0 1.0
130.10366666666667 182.69766666666666 1552.9466666666667 0.6386952925328646 0.6381831070536722 0.42987282441168556
129.68833333333336 184.63700000000003 1552.9466666666667 0.9852476199357411 2.8394581911901574e-17 0.1711348223213431
323.7333333333333 429.86666666666673 2992.0 0.0 0.0 1.0
210.5616666666667 -314.8386666666667 2144.8 0.0 0.0 1.0
204.9523333333333 -287.80933333333337 2137.14 0.0 0.0 1.0
206.85733333333334 -286.47600000000006 2137.14 0.0 0.0 1.0
209.143 -216.76166666666668 2137.14 0.0 0.0 1.0
205.26700000000002 -178.60000000000002 2129.54 0.0 0.0 1.0
205.26700000000002 -178.60000000000002 2129.54 0.0 0.0 1.0
322.1333333333333 -188.0 2992.0 0.0 0.0 1.0
321.3333333333333 -145.33333333333334 2992.0 0.0 0.0 1.0
186.13700000000003 -31.964700000000004 1981.46 0.0 0.0 1.0
322.40000000000003 41.333333333333336 2992.0 0.0 0.0 1.0
321.8666666666666 55.199999999999996 2992.0 0.0 0.0 1.0
129.17766666666668 112.069 1554.29 0.0 0.0 1.0
