ply
format ascii 1.0
comment VCGLIB generated
element vertex 831
property float x
property float y
property float z
property float nx
property float ny
property float nz
element face 0
property list uchar int vertex_indices
end_header
-153.18766666666667 -107.73700000000001 2183.94 0.0 0.0 1.0
-153.38233333333332 -107.34766666666667 2183.94 0.0 0.0 1.0
-152.60366666666667 -105.20666666666666 2183.94 0.0 0.0 1.0
-152.99300000000002 -84.9635 2183.94 0.0 0.0 1.0
-142.467 -63.853199999999994 1829.97 0.0 0.0 1.0
-153.18766666666667 -73.09003333333334 2183.94 0.0 0.0 1.0
-153.18766666666667 -73.09003333333334 2183.94 0.0 0.0 1.0
-153.18766666666667 -43.698299999999996 2183.94 0.0 0.0 1.0
-141.34966666666665 -31.1656 1835.58 0.0 0.0 1.0
-142.19466666666668 -23.220499999999998 1841.2300000000002 5.739949752800504e-27 1.8130755980366587e-28 1.0
-153.38233333333332 -19.562033333333332 2183.94 0.0 0.0 1.0
-153.38233333333332 -19.562033333333332 2183.94 0.0 0.0 1.0
-155.13366666666664 -14.1119 2183.94 0.0 0.0 1.0
-140.976 -8.69919 1824.39 0.0 0.0 1.0
-140.976 -8.69919 1824.39 0.0 0.0 1.0
-140.976 -8.69919 1824.39 0.0 0.0 1.0
-153.38233333333332 1.654499333333333 2183.94 0.0 0.0 1.0
-139.75900000000001 11.807233333333334 1802.41 0.0 0.0 1.0
-139.75900000000001 11.807233333333334 1802.41 0.0 0.0 1.0
-152.01966666666667 20.7299 2183.94 0.0 0.0 1.0
-139.9 31.3113 1797.0 0.0 0.0 1.0
-140.40166666666667 41.0442 1802.41 0.0 0.0 1.0
-139.277 49.87950000000001 1802.41 0.0 0.0 1.0
-140.40166666666667 62.249 1802.41 0.0 0.0 1.0
-140.723 62.89156666666667 1802.41 0.0 0.0 1.0
-152.01966666666667 81.65453333333333 2183.94 0.0 0.0 1.0
-152.993 84.18493333333333 2183.94 0.0 0.0 1.0
-152.79833333333332 107.153 2183.94 0.0 0.0 1.0
-153.577 117.27466666666668 2183.94 0.0 0.0 1.0
-152.99266666666668 127.007 2183.94 0.0 0.0 1.0
-140.021 114.66733333333333 1800.6166666666668 0.6941119645163223 -0.694111964516301 0.1908328101522722
-140.262 116.89833333333333 1807.8499999999997 -1.5400066918344844e-27 -3.0736497196530942e-27 1.0
-140.101 117.54266666666666 1807.8499999999997 0.0 0.0 1.0
-140.58433333333332 120.76533333333333 1807.8499999999997 1.550983439363628e-26 1.2191208242623699e-26 1.0
-140.584 122.53766666666667 1807.8499999999997 -2.594287380165774e-27 -2.597862623248337e-27 1.0
-139.15166666666667 128.727 1813.33 0.0 0.0 1.0
-153.18733333333333 160.292 2183.94 0.0 0.0 1.0
-153.38233333333332 -141.80066666666667 2183.94 0.0 0.0 1.0
-153.38233333333332 -107.34766666666667 2183.94 0.0 0.0 1.0
-153.38233333333332 -107.34766666666667 2183.94 0.0 0.0 1.0
-153.77133333333333 -100.92466666666667 2183.94 0.0 0.0 1.0
-153.18766666666667 -85.93673333333334 2183.94 0.0 0.0 1.0
-139.67466666666667 -67.8862 1824.39 0.0 0.0 1.0
-153.18766666666667 -73.09003333333334 2183.94 0.0 0.0 1.0
-153.96633333333332 -63.16303333333334 2183.94 0.0 0.0 1.0
-152.993 -43.11436666666666 2183.94 0.0 0.0 1.0
-142.1676666666667 -34.274 1835.58 0.0 0.0 1.0
-141.34966666666665 -31.1656 1835.58 0.0 0.0 1.0
-142.19466666666668 -23.220499999999998 1841.2300000000002 5.739949752800504e-27 1.8130755980366578e-28 1.0
-153.577 -1.459854 2183.94 0.0 0.0 1.0
-140.76766666666666 2.66667 1813.33 0.0 0.0 1.0
-152.21433333333334 4.184913333333333 2183.94 0.0 0.0 1.0
-140.4226666666667 5.55891 1807.8499999999997 -3.688379663583566e-26 -2.765989072993696e-26 1.0
-140.4226666666667 5.55891 1807.8499999999997 -3.688379663583566e-26 -2.765989072993696e-26 1.0
-153.57666666666668 28.32116666666667 2183.94 0.0 0.0 1.0
-139.759 44.25703333333333 1802.41 0.0 0.0 1.0
-141.04433333333336 59.357400000000005 1802.41 0.0 0.0 1.0
-140.72300000000004 61.124500000000005 1802.41 0.0 0.0 1.0
-153.966 84.57423333333332 2183.94 0.0 0.0 1.0
-153.38233333333332 89.82966666666665 2183.94 0.0 0.0 1.0
-153.96633333333332 98.00486666666666 2183.94 0.0 0.0 1.0
-153.96633333333332 110.46233333333333 2183.94 0.0 0.0 1.0
-153.577 117.27466666666668 2183.94 0.0 0.0 1.0
-152.60366666666667 120.584 2183.94 0.0 0.0 1.0
-153.18766666666667 122.92 2183.94 0.0 0.0 1.0
-154.16066666666666 124.67166666666667 2183.94 0.0 0.0 1.0
-155.13366666666664 134.20933333333335 2183.94 0.0 0.0 1.0
-154.74433333333332 138.49133333333336 2183.94 0.0 0.0 1.0
-139.15166666666667 128.727 1813.33 0.0 0.0 1.0
-155.1336666666667 -152.31166666666664 2183.94 0.0 0.0 1.0
-153.18766666666667 -140.63266666666667 2183.94 0.0 0.0 1.0
-154.35533333333333 -122.33600000000001 2183.94 0.0 0.0 1.0
-154.7446666666667 -109.09966666666666 2183.94 0.0 0.0 1.0
-153.18766666666667 -104.62299999999999 2183.94 0.0 0.0 1.0
-142.467 -63.853199999999994 1829.97 0.0 0.0 1.0
-154.35533333333333 -63.55233333333334 2183.94 0.0 0.0 1.0
-154.161 -62.77373333333333 2183.94 0.0 0.0 1.0
-153.577 -58.49146666666667 2183.94 0.0 0.0 1.0
-154.7446666666667 -57.3236 2183.94 0.0 0.0 1.0
-143.8036666666667 -42.781200000000005 1835.58 0.0 0.0 1.0
-154.7446666666667 -45.450133333333326 2183.94 0.0 0.0 1.0
-153.77166666666668 -44.671533333333336 2183.94 0.0 0.0 1.0
-155.71766666666667 -24.622866666666663 2183.94 0.0 0.0 1.0
-153.38233333333332 -19.562033333333336 2183.94 0.0 0.0 1.0
-153.18766666666667 -5.15815 2183.94 0.0 0.0 1.0
-140.76766666666666 2.66667 1813.33 0.0 0.0 1.0
-153.966 18.1995 2183.94 0.0 0.0 1.0
-155.1336666666667 26.569333333333333 2183.94 0.0 0.0 1.0
-139.9 31.3113 1797.0 0.0 0.0 1.0
-155.71766666666667 44.671533333333336 2183.94 0.0 0.0 1.0
-139.759 55.823299999999996 1802.41 0.0 0.0 1.0
-141.04433333333336 59.357400000000005 1802.41 0.0 0.0 1.0
-141.04433333333336 59.357400000000005 1802.41 0.0 0.0 1.0
-139.759 65.78313333333334 1802.41 0.0 0.0 1.0
-153.96633333333332 90.41363333333334 2183.94 0.0 0.0 1.0
-154.35566666666668 91.19223333333332 2183.94 0.0 0.0 1.0
-153.96633333333332 98.00486666666666 2183.94 0.0 0.0 1.0
-153.96633333333332 98.00486666666666 2183.94 0.0 0.0 1.0
-153.77166666666668 108.12633333333333 2183.94 0.0 0.0 1.0
-153.96633333333332 110.46233333333333 2183.94 0.0 0.0 1.0
-153.96633333333332 110.46233333333333 2183.94 0.0 0.0 1.0
-153.577 117.27466666666668 2183.94 0.0 0.0 1.0
-142.0343333333333 122.05433333333333 1807.8499999999997 1.3269024572964862e-26 6.616216499039753e-27 1.0
-143.76933333333332 129.59033333333335 1839.3466666666666 -0.5428084245261477 -0.8147642713669873 0.20376014420701521
-154.93933333333334 -158.73466666666664 2183.94 0.0 0.0 1.0
-154.93933333333334 -135.18266666666665 2183.94 0.0 0.0 1.0
-154.93933333333334 -135.18266666666668 2183.94 0.0 0.0 1.0
-154.54999999999998 -108.51566666666668 2183.94 0.0 0.0 1.0
-156.49633333333335 -91.1922 2183.94 0.0 0.0 1.0
-154.55 -84.76886666666667 2183.94 0.0 0.0 1.0
-154.74466666666666 -62.77373333333333 2183.94 0.0 0.0 1.0
-154.93933333333334 -56.15573333333333 2183.94 0.0 0.0 1.0
-143.8036666666667 -42.781200000000005 1835.58 0.0 0.0 1.0
-155.52300000000002 -31.8248 2183.94 0.0 0.0 1.0
-142.68699999999998 -22.892299999999995 1841.2300000000002 -4.7549204966325416e-26 -2.5010005163885262e-26 1.0
-142.52266666666665 -22.564099999999996 1841.2300000000002 -7.035543354047825e-27 -7.776795905772715e-27 1.0
-153.18766666666667 -5.15815 2183.94 0.0 0.0 1.0
-143.00099999999998 13.615333333333334 1807.8499999999997 4.424834868016507e-27 -1.1054076969338298e-27 1.0
-155.52300000000002 39.221399999999996 2183.94 0.0 0.0 1.0
-140.72299999999998 62.89156666666667 1802.41 0.0 0.0 1.0
-155.13400000000001 86.13136666666666 2183.94 0.0 0.0 1.0
-154.35566666666668 91.19223333333332 2183.94 0.0 0.0 1.0
-154.74466666666666 104.42833333333334 2183.94 0.0 0.0 1.0
-154.16066666666666 131.679 2183.94 0.0 0.0 1.0
-140.74533333333332 118.026 1807.8499999999997 3.4590486071660195e-27 3.462629402825527e-27 1.0
-142.0343333333333 122.05433333333333 1807.8499999999997 1.3269024572964862e-26 6.616216499039753e-27 1.0
-156.691 152.70066666666668 2183.94 0.0 0.0 1.0
-142.65100000000004 129.07666666666668 1802.41 0.0 0.0 1.0
-141.79600000000002 130.69866666666667 1791.62 0.0 0.0 1.0
-155.13366666666667 -152.31166666666664 2183.94 0.0 0.0 1.0
-156.10666666666668 -143.74733333333333 2183.94 0.0 0.0 1.0
-154.93933333333334 -135.18266666666668 2183.94 0.0 0.0 1.0
-156.30133333333333 -130.12166666666667 2183.94 0.0 0.0 1.0
-154.74433333333334 -114.35566666666666 2183.94 0.0 0.0 1.0
-154.7446666666667 -109.09966666666666 2183.94 0.0 0.0 1.0
-153.77133333333333 -100.92466666666667 2183.94 0.0 0.0 1.0
-154.939 -63.94163333333333 2183.94 0.0 0.0 1.0
-155.13366666666664 -63.55233333333333 2183.94 0.0 0.0 1.0
-142.1676666666667 -31.6564 1835.58 0.0 0.0 1.0
-142.85133333333332 -23.712799999999998 1841.2300000000002 -1.1563476712210338e-26 9.434064635306513e-28 1.0
-142.27666666666667 -8.373983333333333 1824.39 0.0 0.0 1.0
-143.08966666666666 -6.097559999999999 1824.39 0.0 0.0 1.0
-143.41466666666665 -4.95935 1824.39 0.0 0.0 1.0
-155.13366666666667 26.569333333333333 2183.94 0.0 0.0 1.0
-156.496 32.21413333333333 2183.94 0.0 0.0 1.0
-140.40166666666667 41.0442 1802.41 0.0 0.0 1.0
-142.972 47.469899999999996 1802.41 0.0 0.0 1.0
-156.30133333333333 78.54016666666666 2183.94 0.0 0.0 1.0
-155.13366666666667 84.57423333333332 2183.94 0.0 0.0 1.0
-154.55 97.81023333333333 2183.94 0.0 0.0 1.0
-155.32833333333335 101.70336666666667 2183.94 0.0 0.0 1.0
-154.74433333333334 126.423 2183.94 0.0 0.0 1.0
-155.13366666666664 134.20933333333335 2183.94 0.0 0.0 1.0
-154.74433333333334 138.49133333333336 2183.94 0.0 0.0 1.0
-154.74433333333334 138.49133333333336 2183.94 0.0 0.0 1.0
-141.55066666666667 116.89833333333333 1807.8499999999997 -4.324258126858078e-27 -3.675910254823999e-27 1.0
-141.79600000000002 130.69866666666667 1791.62 0.0 0.0 1.0
-156.10666666666668 -152.117 2183.94 0.0 0.0 1.0
-155.71733333333336 -133.04166666666666 2183.94 0.0 0.0 1.0
-156.10666666666668 -131.679 2183.94 0.0 0.0 1.0
-156.496 -113.577 2183.94 0.0 0.0 1.0
-155.91233333333335 -85.54743333333333 2183.94 0.0 0.0 1.0
-155.1336666666667 -72.70073333333333 2183.94 0.0 0.0 1.0
-156.496 -70.36493333333333 2183.94 0.0 0.0 1.0
-156.10666666666668 -68.0292 2183.94 0.0 0.0 1.0
-156.10666666666668 -68.0292 2183.94 0.0 0.0 1.0
-155.91233333333335 -55.961099999999995 2183.94 0.0 0.0 1.0
-155.91233333333332 -45.64476666666667 2183.94 0.0 0.0 1.0
-143.31266666666667 -35.4192 1835.58 0.0 0.0 1.0
-155.52300000000002 -31.8248 2183.94 0.0 0.0 1.0
-156.49633333333335 -30.851566666666667 2183.94 0.0 0.0 1.0
-156.496 -14.890499999999998 2183.94 0.0 0.0 1.0
-143.08966666666666 -6.0975600000000005 1824.39 0.0 0.0 1.0
-145.32933333333332 2.18845 1818.84 0.0 0.0 1.0
-143.64566666666667 7.814699999999999 1807.8499999999997 -7.530423297682004e-27 3.2077420107351267e-27 1.0
-143.00099999999998 13.615333333333334 1807.8499999999997 4.4248348680165076e-27 -1.1054076969338304e-27 1.0
-156.10666666666668 20.3406 2183.94 0.0 0.0 1.0
-155.912 21.508499999999998 2183.94 0.0 0.0 1.0
-156.10666666666668 23.455 2183.94 0.0 0.0 1.0
-155.912 26.3747 2183.94 0.0 0.0 1.0
-156.496 32.21413333333333 2183.94 0.0 0.0 1.0
-155.52300000000002 39.221399999999996 2183.94 0.0 0.0 1.0
-155.91233333333335 40.389266666666664 2183.94 0.0 0.0 1.0
-155.71766666666667 44.671533333333336 2183.94 0.0 0.0 1.0
-156.10666666666668 83.01703333333334 2183.94 0.0 0.0 1.0
-155.71733333333336 83.01703333333334 2183.94 0.0 0.0 1.0
-155.523 98.78346666666665 2183.94 0.0 0.0 1.0
-155.912 125.25533333333334 2183.94 0.0 0.0 1.0
-142.0343333333333 122.05433333333333 1807.8499999999997 1.3269024572964862e-26 6.616216499039753e-27 1.0
-143.76933333333332 129.59033333333335 1839.3466666666666 -0.5428084245261479 -0.8147642713669873 0.20376014420701521
-141.79600000000002 130.69866666666667 1791.62 0.0 0.0 1.0
-157.85866666666666 -149.58633333333333 2183.94 0.0 0.0 1.0
-156.10666666666668 -143.74733333333333 2183.94 0.0 0.0 1.0
-156.496 -142.57933333333332 2183.94 0.0 0.0 1.0
-155.71766666666667 -141.02200000000002 2183.94 0.0 0.0 1.0
-156.691 -136.73933333333332 2183.94 0.0 0.0 1.0
-156.30133333333333 -130.12166666666667 2183.94 0.0 0.0 1.0
-157.46933333333334 -125.83933333333333 2183.94 0.0 0.0 1.0
-157.27466666666666 -118.24799999999999 2183.94 0.0 0.0 1.0
-155.32833333333335 -109.68366666666668 2183.94 0.0 0.0 1.0
-158.0533333333333 -81.6545 2183.94 0.0 0.0 1.0
-143.60866666666666 -64.5056 1829.97 0.0 0.0 1.0
-156.10666666666668 -68.0292 2183.94 0.0 0.0 1.0
-156.30133333333333 -67.25063333333334 2183.94 0.0 0.0 1.0
-156.88533333333336 -58.49146666666667 2183.94 0.0 0.0 1.0
-143.31266666666667 -35.4192 1835.58 0.0 0.0 1.0
-155.71766666666667 -24.622866666666667 2183.94 0.0 0.0 1.0
-155.71766666666667 -24.622866666666667 2183.94 0.0 0.0 1.0
-156.496 -14.890499999999998 2183.94 0.0 0.0 1.0
-143.41466666666665 -4.95935 1824.39 0.0 0.0 1.0
-156.10666666666668 20.3406 2183.94 0.0 0.0 1.0
-156.69066666666666 25.790766666666666 2183.94 0.0 0.0 1.0
-156.88533333333336 50.12166666666667 2183.94 0.0 0.0 1.0
-143.29333333333332 47.9518 1802.41 0.0 0.0 1.0
-143.29333333333332 47.9518 1802.41 0.0 0.0 1.0
-141.84766666666667 59.357400000000005 1802.41 0.0 0.0 1.0
-157.08 77.56693333333334 2183.94 0.0 0.0 1.0
-155.912 83.79563333333333 2183.94 0.0 0.0 1.0
-155.134 90.99756666666667 2183.94 0.0 0.0 1.0
-156.69066666666666 98.58879999999999 2183.94 0.0 0.0 1.0
-156.88533333333336 113.18766666666666 2183.94 0.0 0.0 1.0
-157.4693333333333 124.08800000000001 2183.94 0.0 0.0 1.0
-156.88533333333334 134.793 2183.94 0.0 0.0 1.0
-156.691 152.70066666666668 2183.94 0.0 0.0 1.0
-142.651 129.07666666666665 1802.41 0.0 0.0 1.0
-142.651 129.07666666666665 1802.41 0.0 0.0 1.0
-156.88566666666668 160.48666666666668 2183.94 0.0 0.0 1.0
-156.10666666666668 -152.117 2183.94 0.0 0.0 1.0
-156.30133333333333 -130.12166666666667 2183.94 0.0 0.0 1.0
-157.66400000000002 -127.591 2183.94 0.0 0.0 1.0
-156.49633333333335 -107.54233333333332 2183.94 0.0 0.0 1.0
-156.49633333333335 -93.13866666666667 2183.94 0.0 0.0 1.0
-157.08 -86.71533333333333 2183.94 0.0 0.0 1.0
-143.60866666666666 -64.5056 1829.97 0.0 0.0 1.0
-157.08 -59.27006666666667 2183.94 0.0 0.0 1.0
-156.88533333333336 -57.518233333333335 2183.94 0.0 0.0 1.0
-156.69066666666666 -56.739666666666665 2183.94 0.0 0.0 1.0
-157.46933333333334 -37.664233333333335 2183.94 0.0 0.0 1.0
-156.88533333333336 -15.6691 2183.94 0.0 0.0 1.0
-143.51533333333336 4.121213333333333 1813.33 0.0 0.0 1.0
-143.64566666666667 7.814699999999999 1807.8499999999997 -7.530423297682001e-27 3.207742010735124e-27 1.0
-156.88533333333336 27.153266666666667 2183.94 0.0 0.0 1.0
-156.69066666666666 42.1411 2183.94 0.0 0.0 1.0
-143.42333333333332 33.7137 1797.0 0.0 0.0 1.0
-157.27466666666666 44.4769 2183.94 0.0 0.0 1.0
-156.88533333333336 50.12166666666667 2183.94 0.0 0.0 1.0
-156.88533333333336 50.12166666666667 2183.94 0.0 0.0 1.0
-143.29333333333332 47.9518 1802.41 0.0 0.0 1.0
-144.09633333333332 51.48593333333334 1802.41 0.0 0.0 1.0
-156.30133333333333 78.54016666666666 2183.94 0.0 0.0 1.0
-156.691 86.52066666666667 2183.94 0.0 0.0 1.0
-156.88533333333336 113.18766666666666 2183.94 0.0 0.0 1.0
-156.88533333333336 113.18766666666666 2183.94 0.0 0.0 1.0
-145.60333333333335 128.50733333333332 1835.58 0.0 0.0 1.0
-144.36766666666665 -104.07523333333332 1875.86 0.0 0.0 1.0
-157.27466666666666 -118.24799999999999 2183.94 0.0 0.0 1.0
-157.27466666666666 -118.24799999999999 2183.94 0.0 0.0 1.0
-157.08 -108.12633333333332 2183.94 0.0 0.0 1.0
-155.71766666666667 -94.30656666666668 2183.94 0.0 0.0 1.0
-158.832 -89.24573333333335 2183.94 0.0 0.0 1.0
-156.496 -72.11676666666666 2183.94 0.0 0.0 1.0
-143.44533333333334 -61.7329 1829.97 0.0 0.0 1.0
-157.46933333333334 -60.04866666666667 2183.94 0.0 0.0 1.0
-157.46933333333334 -60.04866666666667 2183.94 0.0 0.0 1.0
-157.66400000000002 -46.03406666666666 2183.94 0.0 0.0 1.0
-158.0533333333333 -38.05353333333333 2183.94 0.0 0.0 1.0
-157.46933333333334 -37.66423333333333 2183.94 0.0 0.0 1.0
-156.88533333333336 -15.6691 2183.94 0.0 0.0 1.0
-143.64566666666667 7.814699999999999 1807.8499999999997 -7.530423297682004e-27 3.2077420107351267e-27 1.0
-144.93433333333334 12.648566666666667 1807.8499999999997 -6.10412381219395e-27 1.2407765372441866e-27 1.0
-143.80666666666664 14.259833333333333 1807.8499999999997 9.220941716190055e-27 -2.158403076398391e-28 1.0
-157.27466666666666 25.206833333333332 2183.94 0.0 0.0 1.0
-157.27466666666666 25.206833333333332 2183.94 0.0 0.0 1.0
-157.46933333333334 27.931866666666668 2183.94 0.0 0.0 1.0
-157.46933333333334 27.931866666666668 2183.94 0.0 0.0 1.0
-157.46933333333334 76.39903333333334 2183.94 0.0 0.0 1.0
-156.69066666666666 98.58879999999999 2183.94 0.0 0.0 1.0
-157.46933333333334 124.08800000000001 2183.94 0.0 0.0 1.0
-157.08 132.263 2183.94 0.0 0.0 1.0
-159.02666666666667 -157.17733333333334 2183.94 0.0 0.0 1.0
-158.63733333333332 -153.869 2183.94 0.0 0.0 1.0
-158.63733333333332 -153.869 2183.94 0.0 0.0 1.0
-157.85866666666666 -149.58633333333333 2183.94 0.0 0.0 1.0
-158.832 -112.21433333333333 2183.94 0.0 0.0 1.0
-157.664 -102.09266666666667 2183.94 0.0 0.0 1.0
-157.664 -88.2725 2183.94 0.0 0.0 1.0
-158.63733333333332 -66.2774 2183.94 0.0 0.0 1.0
-159.02666666666667 -41.16786666666667 2183.94 0.0 0.0 1.0
-158.248 -38.637499999999996 2183.94 0.0 0.0 1.0
-159.416 -8.661800000000001 2183.94 0.0 0.0 1.0
-143.51533333333336 4.121213333333333 1813.33 0.0 0.0 1.0
-144.93433333333334 12.648566666666667 1807.8499999999997 -6.104123812193949e-27 1.2407765372441865e-27 1.0
-157.664 32.603433333333335 2183.94 0.0 0.0 1.0
-158.248 55.76643333333333 2183.94 0.0 0.0 1.0
-158.248 55.76643333333333 2183.94 0.0 0.0 1.0
-158.248 55.76643333333333 2183.94 0.0 0.0 1.0
-160.0 66.2774 2183.94 0.0 0.0 1.0
-158.44266666666667 76.39903333333334 2183.94 0.0 0.0 1.0
-157.27466666666666 85.7421 2183.94 0.0 0.0 1.0
-158.44266666666667 114.55 2183.94 0.0 0.0 1.0
-157.46933333333334 124.08800000000001 2183.94 0.0 0.0 1.0
-158.44266666666667 130.511 2183.94 0.0 0.0 1.0
-146.42133333333334 128.01666666666668 1835.58 0.0 0.0 1.0
-158.63733333333332 -149.00233333333333 2183.94 0.0 0.0 1.0
-158.832 -147.63966666666667 2183.94 0.0 0.0 1.0
-158.832 -145.69333333333333 2183.94 0.0 0.0 1.0
-158.0533333333333 -144.72033333333334 2183.94 0.0 0.0 1.0
-158.44266666666667 -137.12866666666665 2183.94 0.0 0.0 1.0
-157.46933333333334 -125.83933333333333 2183.94 0.0 0.0 1.0
-159.22133333333332 -120.19466666666666 2183.94 0.0 0.0 1.0
-159.416 -113.18766666666666 2183.94 0.0 0.0 1.0
-159.02666666666667 -82.23843333333333 2183.94 0.0 0.0 1.0
-159.02666666666667 -82.23843333333333 2183.94 0.0 0.0 1.0
-159.22133333333332 -66.6667 2183.94 0.0 0.0 1.0
-159.22133333333332 -65.8881 2183.94 0.0 0.0 1.0
-157.85866666666666 -58.49146666666667 2183.94 0.0 0.0 1.0
-146.74833333333333 -43.4356 1835.58 0.0 0.0 1.0
-158.248 -38.637499999999996 2183.94 0.0 0.0 1.0
-158.83200000000002 -30.851566666666667 2183.94 0.0 0.0 1.0
-158.0533333333333 -22.092466666666667 2183.94 0.0 0.0 1.0
-160.0 -21.119233333333334 2183.94 0.0 0.0 1.0
-146.78799999999998 -0.08105366666666668 1818.84 0.0 0.0 1.0
-159.22133333333332 33.96596666666667 2183.94 0.0 0.0 1.0
-159.80533333333332 38.24816666666666 2183.94 0.0 0.0 1.0
-158.44266666666667 45.64476666666667 2183.94 0.0 0.0 1.0
-159.61066666666667 71.14353333333334 2183.94 0.0 0.0 1.0
-159.80533333333332 120.0 2183.94 0.0 0.0 1.0
-158.24800000000002 136.15533333333335 2183.94 0.0 0.0 1.0
-146.42133333333334 128.01666666666668 1835.58 0.0 0.0 1.0
-157.27466666666666 155.81500000000003 2183.94 0.0 0.0 1.0
-159.02666666666667 -157.17733333333334 2183.94 0.0 0.0 1.0
-159.61066666666667 -156.00966666666667 2183.94 0.0 0.0 1.0
-159.80533333333332 -153.869 2183.94 0.0 0.0 1.0
-159.80533333333332 -110.85166666666667 2183.94 0.0 0.0 1.0
-159.80533333333332 -104.623 2183.94 0.0 0.0 1.0
-159.02666666666667 -82.23843333333333 2183.94 0.0 0.0 1.0
-160.38933333333333 -54.793200000000006 2183.94 0.0 0.0 1.0
-146.74833333333333 -43.4356 1835.58 0.0 0.0 1.0
-160.584 -49.73233333333334 2183.94 0.0 0.0 1.0
-160.584 -47.785866666666664 2183.94 0.0 0.0 1.0
-159.02666666666667 -41.16786666666667 2183.94 0.0 0.0 1.0
-159.02666666666667 -40.3893 2183.94 0.0 0.0 1.0
-160.19466666666668 -25.790766666666666 2183.94 0.0 0.0 1.0
-144.587 -13.945 1829.97 0.0 0.0 1.0
-160.19466666666668 -8.85645 2183.94 0.0 0.0 1.0
-146.62599999999998 1.5400203333333333 1818.84 0.0 0.0 1.0
-145.74 12.165166666666666 1807.8499999999997 -3.455472439292169e-27 -6.481691701196581e-28 1.0
-159.02666666666667 24.038933333333333 2183.94 0.0 0.0 1.0
-159.80533333333332 38.24816666666666 2183.94 0.0 0.0 1.0
-160.19466666666668 47.39656666666667 2183.94 0.0 0.0 1.0
-143.45366666666666 53.8956 1802.41 0.0 0.0 1.0
-159.22133333333332 77.1776 2183.94 0.0 0.0 1.0
-158.832 83.99026666666667 2183.94 0.0 0.0 1.0
-160.38933333333333 108.71033333333332 2183.94 0.0 0.0 1.0
-159.80533333333332 120.0 2183.94 0.0 0.0 1.0
-159.416 129.14833333333334 2183.94 0.0 0.0 1.0
-134.61366666666666 101.39666666666666 1746.3166666666666 9.140195733434308e-16 0.9556551095149711 0.29448821989670276
-159.22133333333332 137.90733333333333 2183.94 0.0 0.0 1.0
-160.584 140.24333333333334 2183.94 0.0 0.0 1.0
-160.0 141.606 2183.94 0.0 0.0 1.0
-146.68033333333335 128.21233333333333 1833.71 0.44725333746558843 -0.8935957720035439 -0.03809262898886046
-143.936 128.91600000000003 1802.41 0.0 0.0 1.0
-160.0 -154.06366666666668 2183.94 0.0 0.0 1.0
-160.0 -153.67433333333335 2183.94 0.0 0.0 1.0
-160.38933333333333 -136.934 2183.94 0.0 0.0 1.0
-160.38933333333333 -105.01233333333333 2183.94 0.0 0.0 1.0
-160.38933333333333 -105.01233333333333 2183.94 0.0 0.0 1.0
-160.77866666666668 -86.32606666666668 2183.94 0.0 0.0 1.0
-146.74833333333333 -43.4356 1835.58 0.0 0.0 1.0
-160.77866666666668 -15.085166666666666 2183.94 0.0 0.0 1.0
-160.38933333333333 -14.111933333333333 2183.94 0.0 0.0 1.0
-160.38933333333333 -4.3795633333333335 2183.94 0.0 0.0 1.0
-146.62599999999998 1.5400203333333333 1818.84 0.0 0.0 1.0
-160.584 23.8443 2183.94 0.0 0.0 1.0
-160.0 25.790733333333332 2183.94 0.0 0.0 1.0
-145.41233333333335 34.548033333333336 1798.8033333333333 0.18375907014179377 0.9189865672231611 0.34884995829727944
-160.19466666666668 47.39656666666667 2183.94 0.0 0.0 1.0
-160.77866666666668 68.61313333333334 2183.94 0.0 0.0 1.0
-160.0 69.781 2183.94 0.0 0.0 1.0
-159.61066666666667 71.14353333333334 2183.94 0.0 0.0 1.0
-160.38933333333333 77.76156666666667 2183.94 0.0 0.0 1.0
-159.61066666666667 91.1922 2183.94 0.0 0.0 1.0
-159.416 114.74466666666667 2183.94 0.0 0.0 1.0
-159.416 114.74466666666667 2183.94 0.0 0.0 1.0
-147.73 126.053 1835.58 0.0 0.0 1.0
-147.23933333333335 127.853 1835.58 0.0 0.0 1.0
-160.38933333333333 -158.92933333333335 2183.94 0.0 0.0 1.0
-160.19466666666668 -153.869 2183.94 0.0 0.0 1.0
-160.584 -152.50633333333334 2183.94 0.0 0.0 1.0
-161.75199999999998 -134.015 2183.94 0.0 0.0 1.0
-160.584 -105.596 2183.94 0.0 0.0 1.0
-160.77866666666668 -89.4404 2183.94 0.0 0.0 1.0
-160.97333333333333 -88.66180000000001 2183.94 0.0 0.0 1.0
-148.01233333333334 -67.7676 1829.97 0.0 0.0 1.0
-148.01233333333334 -67.7676 1829.97 0.0 0.0 1.0
-159.61066666666667 -72.50606666666665 2183.94 0.0 0.0 1.0
-160.0 -70.36493333333334 2183.94 0.0 0.0 1.0
-159.416 -66.2774 2183.94 0.0 0.0 1.0
-160.38933333333333 -54.793200000000006 2183.94 0.0 0.0 1.0
-160.19466666666668 -25.790766666666666 2183.94 0.0 0.0 1.0
-160.19466666666668 -25.790766666666666 2183.94 0.0 0.0 1.0
-144.587 -13.945 1829.97 0.0 0.0 1.0
-160.97333333333333 -10.218966666666667 2183.94 0.0 0.0 1.0
-160.19466666666668 -8.85645 2183.94 0.0 0.0 1.0
-160.19466666666668 -8.85645 2183.94 0.0 0.0 1.0
-161.168 -5.547446666666667 2183.94 0.0 0.0 1.0
-161.168 -5.547446666666667 2183.94 0.0 0.0 1.0
-147.11233333333334 0.7294839999999999 1818.84 0.0 0.0 1.0
-162.92 7.6885666666666665 2183.94 0.0 0.0 1.0
-147.0293333333333 10.23162 1807.8499999999997 2.764377951433652e-26 -5.530082665202772e-27 1.0
-145.74 12.165166666666666 1807.8499999999997 -3.455472439292169e-27 -6.481691701196581e-28 1.0
-160.0 25.790733333333332 2183.94 0.0 0.0 1.0
-160.19466666666668 35.71776666666667 2183.94 0.0 0.0 1.0
-161.752 53.81993333333333 2183.94 0.0 0.0 1.0
-144.4176666666667 46.987966666666665 1802.41 0.0 0.0 1.0
-160.584 84.5742 2183.94 0.0 0.0 1.0
-160.38933333333333 108.71033333333332 2183.94 0.0 0.0 1.0
-161.36266666666668 125.45 2183.94 0.0 0.0 1.0
-160.77866666666668 127.78566666666667 2183.94 0.0 0.0 1.0
-147.73000000000002 126.053 1835.58 0.0 0.0 1.0
-161.36266666666668 -160.292 2183.94 0.0 0.0 1.0
-160.584 -152.50633333333334 2183.94 0.0 0.0 1.0
-161.168 -148.029 2183.94 0.0 0.0 1.0
-162.14133333333334 -129.53766666666664 2183.94 0.0 0.0 1.0
-144.535 -103.90806666666667 1875.86 0.0 0.0 1.0
-160.97333333333333 -121.168 2183.94 0.0 0.0 1.0
-160.97333333333333 -114.16066666666666 2183.94 0.0 0.0 1.0
-160.38933333333333 -105.01233333333333 2183.94 0.0 0.0 1.0
-161.36266666666668 -89.63503333333334 2183.94 0.0 0.0 1.0
-148.17533333333333 -50.479099999999995 1829.97 0.0 0.0 1.0
-148.17533333333333 -50.479099999999995 1829.97 0.0 0.0 1.0
-160.38933333333333 -54.793200000000006 2183.94 0.0 0.0 1.0
-161.36266666666668 -51.09486666666667 2183.94 0.0 0.0 1.0
-161.36266666666668 -51.09486666666667 2183.94 0.0 0.0 1.0
-161.168 -48.95373333333333 2183.94 0.0 0.0 1.0
-160.584 -47.785866666666664 2183.94 0.0 0.0 1.0
-149.20266666666666 -38.6912 1835.58 0.0 0.0 1.0
-159.22133333333332 -37.27493333333333 2183.94 0.0 0.0 1.0
-161.36266666666668 -28.32116666666667 2183.94 0.0 0.0 1.0
-160.584 -12.554733333333333 2183.94 0.0 0.0 1.0
-147.76066666666668 -0.24316266666666672 1818.84 0.0 0.0 1.0
-147.19 14.904333333333334 1807.8499999999997 1.0 0.0 0.0
-147.19 14.904333333333334 1807.8499999999997 1.0 0.0 0.0
-147.35133333333334 15.387733333333335 1807.8499999999997 -5.344707912584735e-26 -1.2082016178229223e-26 1.0
-160.77866666666668 38.05353333333333 2183.94 0.0 0.0 1.0
-145.41233333333332 34.548033333333336 1798.8033333333333 0.1837590701417934 0.9189865672231613 0.3488499582972793
-160.77866666666668 47.785866666666664 2183.94 0.0 0.0 1.0
-160.77866666666668 47.785866666666664 2183.94 0.0 0.0 1.0
-162.7253333333333 60.243300000000005 2183.94 0.0 0.0 1.0
-162.336 101.70333333333333 2183.94 0.0 0.0 1.0
-160.38933333333333 108.71033333333332 2183.94 0.0 0.0 1.0
-161.55733333333333 110.46233333333333 2183.94 0.0 0.0 1.0
-161.16799999999998 121.168 2183.94 0.0 0.0 1.0
-161.36266666666668 125.45 2183.94 0.0 0.0 1.0
-160.584 140.24333333333334 2183.94 0.0 0.0 1.0
-160.584 140.24333333333334 2183.94 0.0 0.0 1.0
-148.05733333333333 126.70733333333332 1835.58 0.0 0.0 1.0
-148.548 126.871 1835.58 0.0 0.0 1.0
-148.29866666666666 130.149 1786.2699999999998 0.0 1.0 0.0
-160.19466666666665 160.68133333333333 2183.94 0.0 0.0 1.0
-162.336 -133.23633333333336 2183.94 0.0 0.0 1.0
-162.14133333333334 -129.53766666666664 2183.94 0.0 0.0 1.0
-160.77866666666668 -111.04633333333334 2183.94 0.0 0.0 1.0
-160.77866666666668 -103.65000000000002 2183.94 0.0 0.0 1.0
-162.14133333333334 -88.46716666666667 2183.94 0.0 0.0 1.0
-160.38933333333333 -84.37956666666666 2183.94 0.0 0.0 1.0
-160.97333333333333 -68.61313333333334 2183.94 0.0 0.0 1.0
-148.17533333333333 -50.479099999999995 1829.97 0.0 0.0 1.0
-161.36266666666668 -51.09486666666667 2183.94 0.0 0.0 1.0
-149.20266666666666 -38.6912 1835.58 0.0 0.0 1.0
-162.53066666666666 -31.240866666666665 2183.94 0.0 0.0 1.0
-151.722 -12.999616666666668 1858.3966666666668 0.9240556682265214 0.3209981281632908 0.20756040984277443
-160.97333333333333 -10.218966666666667 2183.94 0.0 0.0 1.0
-147.99599999999998 9.748219999999998 1807.8499999999997 2.3324975129639105e-26 5.700864653444655e-26 1.0
-147.35133333333334 15.387733333333335 1807.8499999999997 -5.344707912584735e-26 -1.2082016178229223e-26 1.0
-162.14133333333334 38.24816666666666 2183.94 0.0 0.0 1.0
-162.14133333333334 46.42336666666667 2183.94 0.0 0.0 1.0
-162.336 65.8881 2183.94 0.0 0.0 1.0
-160.38933333333333 77.76156666666667 2183.94 0.0 0.0 1.0
-162.14133333333334 85.15816666666666 2183.94 0.0 0.0 1.0
-163.30933333333334 103.84466666666667 2183.94 0.0 0.0 1.0
-162.53066666666666 131.87366666666665 2183.94 0.0 0.0 1.0
-162.92 135.37699999999998 2183.94 0.0 0.0 1.0
-148.29866666666666 130.149 1786.2699999999998 0.0 1.0 0.0
-162.14133333333334 -161.26533333333336 2183.94 0.0 0.0 1.0
-148.26000000000002 -135.765 1881.76 0.0 0.0 1.0
-161.94666666666666 -134.988 2183.94 0.0 0.0 1.0
-162.72533333333334 -132.65233333333333 2183.94 0.0 0.0 1.0
-162.336 -105.207 2183.94 0.0 0.0 1.0
-162.14133333333334 -88.46716666666667 2183.94 0.0 0.0 1.0
-162.14133333333334 -88.46716666666667 2183.94 0.0 0.0 1.0
-148.01233333333334 -67.7676 1829.97 0.0 0.0 1.0
-161.752 -51.873466666666666 2183.94 0.0 0.0 1.0
-160.38933333333333 -40.583933333333334 2183.94 0.0 0.0 1.0
-149.90766666666664 -31.91796666666667 1841.2300000000002 -2.8281877622403875e-26 -3.2719953106503796e-27 1.0
-162.53066666666666 -31.240866666666665 2183.94 0.0 0.0 1.0
-161.94666666666666 -25.206833333333332 2183.94 0.0 0.0 1.0
-162.53066666666666 -22.481733333333334 2183.94 0.0 0.0 1.0
-162.336 -19.951333333333334 2183.94 0.0 0.0 1.0
-161.55733333333333 -16.253066666666665 2183.94 0.0 0.0 1.0
-161.55733333333333 -16.253066666666665 2183.94 0.0 0.0 1.0
-161.168 -5.547446666666667 2183.94 0.0 0.0 1.0
-149.91866666666667 -3.65854 1824.39 0.0 0.0 1.0
-147.76066666666665 -0.24316266666666672 1818.84 0.0 0.0 1.0
-149.17166666666665 4.767676666666667 1813.33 0.0 0.0 1.0
-148.96266666666668 19.738166666666668 1807.8499999999997 -6.1579201637169715e-27 1.618657285075824e-27 1.0
-160.97333333333333 24.622866666666667 2183.94 0.0 0.0 1.0
-162.53066666666666 54.01456666666667 2183.94 0.0 0.0 1.0
-162.53066666666666 54.01456666666667 2183.94 0.0 0.0 1.0
-162.33599999999998 65.8881 2183.94 0.0 0.0 1.0
-162.33599999999998 66.86133333333333 2183.94 0.0 0.0 1.0
-162.92 93.52796666666666 2183.94 0.0 0.0 1.0
-162.92 93.52796666666666 2183.94 0.0 0.0 1.0
-162.72533333333334 101.11933333333332 2183.94 0.0 0.0 1.0
-162.14133333333334 111.825 2183.94 0.0 0.0 1.0
-162.92 115.52300000000001 2183.94 0.0 0.0 1.0
-162.53066666666666 116.69066666666667 2183.94 0.0 0.0 1.0
-161.9466666666667 126.03399999999999 2183.94 0.0 0.0 1.0
-161.752 127.20166666666667 2183.94 0.0 0.0 1.0
-162.53066666666666 131.87366666666665 2183.94 0.0 0.0 1.0
-162.53066666666666 134.404 2183.94 0.0 0.0 1.0
-148.548 126.871 1835.58 0.0 0.0 1.0
-162.14133333333334 -161.26533333333336 2183.94 0.0 0.0 1.0
-163.504 -144.91500000000002 2183.94 0.0 0.0 1.0
-163.504 -144.91500000000002 2183.94 0.0 0.0 1.0
-162.92 -133.82033333333334 2183.94 0.0 0.0 1.0
-163.30933333333334 -122.14133333333332 2183.94 0.0 0.0 1.0
-163.30933333333334 -122.14133333333335 2183.94 0.0 0.0 1.0
-163.50366666666665 -115.13366666666667 2183.94 0.0 0.0 1.0
-163.69866666666667 -96.44766666666665 2183.94 0.0 0.0 1.0
-163.69866666666667 -61.216566666666665 2183.94 0.0 0.0 1.0
-150.56433333333334 -31.09743333333333 1841.2300000000002 6.132258745342622e-27 7.343170087354066e-28 1.0
-163.11466666666664 -25.401466666666664 2183.94 0.0 0.0 1.0
-151.434 10.262633333333333 1813.33 0.0 0.0 1.0
-148.6403333333333 16.999 1807.8499999999997 7.590446807108162e-25 5.987936532199906e-25 1.0
-164.28233333333333 32.214099999999995 2183.94 0.0 0.0 1.0
-163.504 32.9927 2183.94 0.0 0.0 1.0
-163.11466666666664 54.403866666666666 2183.94 0.0 0.0 1.0
-163.30933333333334 57.323566666666665 2183.94 0.0 0.0 1.0
-162.336 65.8881 2183.94 0.0 0.0 1.0
-163.69866666666667 113.38233333333334 2183.94 0.0 0.0 1.0
-162.53066666666666 116.69066666666667 2183.94 0.0 0.0 1.0
-162.7253333333333 122.53066666666666 2183.94 0.0 0.0 1.0
-160.19466666666665 160.68133333333333 2183.94 0.0 0.0 1.0
-148.26000000000002 -135.765 1881.76 0.0 0.0 1.0
-163.50366666666665 -148.41833333333332 2183.94 0.0 0.0 1.0
-164.088 -130.511 2183.94 0.0 0.0 1.0
-162.336 -105.207 2183.94 0.0 0.0 1.0
-150.29533333333333 -71.1927 1829.97 0.0 0.0 1.0
-150.29533333333333 -71.1927 1829.97 0.0 0.0 1.0
-148.8276666666667 -66.6259 1829.97 0.0 0.0 1.0
-150.83833333333334 -47.0348 1835.58 0.0 0.0 1.0
-149.90766666666664 -31.91796666666667 1841.2300000000002 -2.8281877622403875e-26 -3.271995310650379e-27 1.0
-162.53066666666666 -31.240866666666665 2183.94 0.0 0.0 1.0
-162.336 -28.905133333333335 2183.94 0.0 0.0 1.0
-164.477 -13.3333 2183.94 0.0 0.0 1.0
-149.756 -2.6829300000000003 1824.39 0.0 0.0 1.0
-149.17166666666665 4.767676666666667 1813.33 0.0 0.0 1.0
-164.477 8.85645 2183.94 0.0 0.0 1.0
-165.64466666666667 17.2263 2183.94 0.0 0.0 1.0
-148.96266666666668 19.738166666666668 1807.8499999999997 -6.157920163716971e-27 1.6186572850758244e-27 1.0
-163.11466666666666 38.44283333333333 2183.94 0.0 0.0 1.0
-162.92 47.59123333333334 2183.94 0.0 0.0 1.0
-163.30933333333334 50.70556666666666 2183.94 0.0 0.0 1.0
-163.30933333333334 57.323566666666665 2183.94 0.0 0.0 1.0
-163.30933333333334 57.323566666666665 2183.94 0.0 0.0 1.0
-164.088 95.47443333333335 2183.94 0.0 0.0 1.0
-163.30933333333334 103.84466666666667 2183.94 0.0 0.0 1.0
-163.69866666666667 113.96633333333334 2183.94 0.0 0.0 1.0
-164.28266666666664 132.65233333333333 2183.94 0.0 0.0 1.0
-162.92 140.24333333333334 2183.94 0.0 0.0 1.0
-164.67166666666665 147.445 2183.94 0.0 0.0 1.0
-149.0763333333333 128.11266666666666 1802.41 0.0 0.0 1.0
-164.47733333333335 -154.0633333333333 2183.94 0.0 0.0 1.0
-164.47733333333335 -152.31166666666664 2183.94 0.0 0.0 1.0
-163.89333333333332 -143.942 2183.94 0.0 0.0 1.0
-165.06066666666666 -138.49133333333336 2183.94 0.0 0.0 1.0
-163.69866666666667 -133.431 2183.94 0.0 0.0 1.0
-163.69866666666667 -131.87366666666665 2183.94 0.0 0.0 1.0
-164.088 -130.511 2183.94 0.0 0.0 1.0
-164.28233333333333 -121.168 2183.94 0.0 0.0 1.0
-163.69866666666667 -96.44766666666665 2183.94 0.0 0.0 1.0
-164.67166666666665 -95.27980000000001 2183.94 0.0 0.0 1.0
-164.47733333333335 -69.97566666666667 2183.94 0.0 0.0 1.0
-164.67166666666665 -66.27736666666667 2183.94 0.0 0.0 1.0
-164.477 -63.35766666666667 2183.94 0.0 0.0 1.0
-163.69866666666667 -61.216566666666665 2183.94 0.0 0.0 1.0
-151.32933333333335 -46.216800000000006 1835.58 0.0 0.0 1.0
-152.14733333333334 -41.3088 1835.58 0.0 0.0 1.0
-164.08766666666665 -25.206799999999998 2183.94 0.0 0.0 1.0
-164.477 -13.3333 2183.94 0.0 0.0 1.0
-148.73333333333335 0.24316033333333328 1818.84 0.0 0.0 1.0
-149.17166666666665 4.767676666666667 1813.33 0.0 0.0 1.0
-147.996 9.74822 1807.8499999999997 -1.1662487564819584e-26 -2.850432326722336e-26 1.0
-149.76833333333332 18.6103 1807.8499999999997 8.27600813072488e-26 -1.227614101010298e-42 1.0
-149.76833333333332 18.6103 1807.8499999999997 8.27600813072488e-26 1.227614101010298e-42 1.0
-165.2553333333333 28.32116666666667 2183.94 0.0 0.0 1.0
-163.11466666666666 38.44283333333333 2183.94 0.0 0.0 1.0
-163.69866666666667 48.7591 2183.94 0.0 0.0 1.0
-164.08766666666665 53.81993333333333 2183.94 0.0 0.0 1.0
-164.86633333333333 62.18979999999999 2183.94 0.0 0.0 1.0
-163.89333333333332 65.4988 2183.94 0.0 0.0 1.0
-164.86599999999999 84.57423333333332 2183.94 0.0 0.0 1.0
-164.28233333333333 94.69586666666667 2183.94 0.0 0.0 1.0
-163.69866666666667 111.43566666666668 2183.94 0.0 0.0 1.0
-164.08766666666665 123.89299999999999 2183.94 0.0 0.0 1.0
-164.477 139.854 2183.94 0.0 0.0 1.0
-164.67166666666665 144.331 2183.94 0.0 0.0 1.0
-149.366 126.38033333333333 1835.58 0.0 0.0 1.0
-150.059 129.137 1798.8033333333333 -0.15402495230171326 0.9231890592221323 0.3521338878906844
-164.86633333333333 -153.47966666666665 2183.94 0.0 0.0 1.0
-164.86633333333336 -153.47966666666665 2183.94 0.0 0.0 1.0
-164.47733333333335 -152.31166666666664 2183.94 0.0 0.0 1.0
-163.89333333333332 -143.942 2183.94 0.0 0.0 1.0
-164.088 -131.28966666666668 2183.94 0.0 0.0 1.0
-165.45033333333333 -125.25533333333334 2183.94 0.0 0.0 1.0
-150.78466666666665 -71.1927 1829.97 0.0 0.0 1.0
-164.47733333333335 -69.97566666666667 2183.94 0.0 0.0 1.0
-164.47733333333335 -67.05596666666666 2183.94 0.0 0.0 1.0
-164.47733333333335 -67.05596666666666 2183.94 0.0 0.0 1.0
-151.2206666666667 -31.09743333333334 1841.2300000000002 9.592221166139812e-27 -6.2217328051081295e-27 1.0
-165.061 -5.936743333333333 2183.94 0.0 0.0 1.0
-149.756 -2.6829300000000003 1824.39 0.0 0.0 1.0
-165.06066666666666 3.0170333333333335 2183.94 0.0 0.0 1.0
-164.477 8.85645 2183.94 0.0 0.0 1.0
-151.05733333333333 16.032233333333334 1807.8499999999997 3.239727954439642e-28 6.4796804251433585e-28 1.0
-149.76833333333332 18.6103 1807.8499999999997 8.276008130724881e-26 0.0 1.0
-165.25533333333334 32.9927 2183.94 0.0 0.0 1.0
-164.67166666666665 56.350366666666666 2183.94 0.0 0.0 1.0
-164.67166666666665 58.6861 2183.94 0.0 0.0 1.0
-164.28266666666664 64.13626666666666 2183.94 0.0 0.0 1.0
-165.06066666666666 69.97566666666667 2183.94 0.0 0.0 1.0
-150.15033333333332 62.3824 1797.0 0.0 0.0 1.0
-150.15033333333332 62.3824 1797.0 0.0 0.0 1.0
-164.67166666666665 82.8224 2183.94 0.0 0.0 1.0
-164.28266666666664 96.83696666666667 2183.94 0.0 0.0 1.0
-165.25566666666666 98.78346666666665 2183.94 0.0 0.0 1.0
-164.672 99.75673333333333 2183.94 0.0 0.0 1.0
-164.28266666666664 101.31400000000001 2183.94 0.0 0.0 1.0
-163.30933333333334 103.84466666666667 2183.94 0.0 0.0 1.0
-164.28266666666664 113.96633333333334 2183.94 0.0 0.0 1.0
-165.25533333333334 114.93933333333332 2183.94 0.0 0.0 1.0
-164.477 132.263 2183.94 0.0 0.0 1.0
-164.477 132.847 2183.94 0.0 0.0 1.0
-165.25566666666668 134.98766666666666 2183.94 0.0 0.0 1.0
-164.86633333333333 146.27733333333333 2183.94 0.0 0.0 1.0
-164.86633333333336 -153.47966666666665 2183.94 0.0 0.0 1.0
-165.839 -139.07533333333333 2183.94 0.0 0.0 1.0
-165.2553333333333 -105.79066666666667 2183.94 0.0 0.0 1.0
-164.67133333333334 -103.26066666666667 2183.94 0.0 0.0 1.0
-165.64433333333332 -101.89800000000001 2183.94 0.0 0.0 1.0
-150.78466666666665 -71.3558 1829.97 0.0 0.0 1.0
-164.67166666666665 -66.27736666666667 2183.94 0.0 0.0 1.0
-152.80166666666665 -49.81596666666667 1835.58 0.0 0.0 1.0
-164.67133333333334 -32.019466666666666 2183.94 0.0 0.0 1.0
-166.61766666666668 -29.878366666666665 2183.94 0.0 0.0 1.0
-164.08766666666665 -25.206799999999998 2183.94 0.0 0.0 1.0
-151.722 -12.999616666666668 1858.3966666666668 0.9240556682265214 0.32099812816329093 0.20756040984277446
-165.64466666666667 -11.192213333333333 2183.94 0.0 0.0 1.0
-149.91866666666667 -3.65854 1824.39 0.0 0.0 1.0
-165.06066666666666 3.0170333333333335 2183.94 0.0 0.0 1.0
-165.06066666666666 3.0170333333333335 2183.94 0.0 0.0 1.0
-164.477 8.85645 2183.94 0.0 0.0 1.0
-165.2553333333333 28.32116666666667 2183.94 0.0 0.0 1.0
-165.45000000000002 32.79803333333333 2183.94 0.0 0.0 1.0
-165.839 40.9732 2183.94 0.0 0.0 1.0
-163.893 53.236 2183.94 0.0 0.0 1.0
-165.06066666666666 69.97566666666667 2183.94 0.0 0.0 1.0
-165.255 70.36496666666666 2183.94 0.0 0.0 1.0
-165.44966666666667 70.9489 2183.94 0.0 0.0 1.0
-164.67166666666665 82.8224 2183.94 0.0 0.0 1.0
-164.86599999999999 84.57423333333332 2183.94 0.0 0.0 1.0
-164.86599999999999 93.72263333333335 2183.94 0.0 0.0 1.0
-164.86599999999999 93.72263333333335 2183.94 0.0 0.0 1.0
-165.25533333333334 114.93933333333332 2183.94 0.0 0.0 1.0
-165.45 124.47699999999999 2183.94 0.0 0.0 1.0
-164.86633333333336 132.45766666666668 2183.94 0.0 0.0 1.0
-164.28233333333333 140.8273333333333 2183.94 0.0 0.0 1.0
-166.423 -161.84933333333333 2183.94 0.0 0.0 1.0
-165.2553333333333 -149.39166666666668 2183.94 0.0 0.0 1.0
-165.64433333333332 -138.29666666666665 2183.94 0.0 0.0 1.0
-165.839 -137.12866666666665 2183.94 0.0 0.0 1.0
-165.839 -137.12866666666665 2183.94 0.0 0.0 1.0
-164.28233333333333 -121.168 2183.94 0.0 0.0 1.0
-165.2553333333333 -95.6691 2183.94 0.0 0.0 1.0
-165.2553333333333 -95.08516666666667 2183.94 0.0 0.0 1.0
-151.38466666666667 -31.589766666666666 1841.2300000000002 3.3335070135194644e-27 -6.240354420701449e-28 1.0
-164.477 -13.3333 2183.94 0.0 0.0 1.0
-151.722 -12.999616666666668 1858.3966666666668 0.9240556682265215 0.32099812816329076 0.20756040984277443
-165.64466666666667 6.326033333333332 2183.94 0.0 0.0 1.0
-151.70166666666668 16.676733333333335 1807.8499999999997 -2.073274531938776e-26 1.727378491983227e-27 1.0
-165.64466666666667 33.576633333333334 2183.94 0.0 0.0 1.0
-166.423 35.133833333333335 2183.94 0.0 0.0 1.0
-166.423 40.5839 2183.94 0.0 0.0 1.0
-165.83933333333331 56.15573333333333 2183.94 0.0 0.0 1.0
-164.8663333333333 60.2433 2183.94 0.0 0.0 1.0
-165.2553333333333 69.19706666666667 2183.94 0.0 0.0 1.0
-165.44966666666667 70.9489 2183.94 0.0 0.0 1.0
-166.03366666666668 72.89536666666667 2183.94 0.0 0.0 1.0
-165.2553333333333 114.93933333333332 2183.94 0.0 0.0 1.0
-165.06066666666666 118.05333333333333 2183.94 0.0 0.0 1.0
-166.423 127.39633333333332 2183.94 0.0 0.0 1.0
-165.64466666666667 139.46466666666666 2183.94 0.0 0.0 1.0
-166.034 147.25033333333332 2183.94 0.0 0.0 1.0
-152.02399999999997 127.53266666666667 1807.8499999999997 1.1034677507633048e-25 -2.481946595563792e-25 1.0
-166.423 -161.84933333333333 2183.94 0.0 0.0 1.0
-166.81233333333333 -157.956 2183.94 0.0 0.0 1.0
-167.39633333333333 -156.9826666666667 2183.94 0.0 0.0 1.0
-166.034 -151.9223333333333 2183.94 0.0 0.0 1.0
-165.839 -139.07533333333333 2183.94 0.0 0.0 1.0
-167.39633333333333 -118.44266666666665 2183.94 0.0 0.0 1.0
-166.81233333333333 -100.92466666666667 2183.94 0.0 0.0 1.0
-166.61766666666668 -99.95136666666667 2183.94 0.0 0.0 1.0
-168.3696666666667 -91.19223333333332 2183.94 0.0 0.0 1.0
-153.55766666666665 -67.6045 1829.97 0.0 0.0 1.0
-153.129 -42.78119999999999 1835.58 0.0 0.0 1.0
-152.52033333333333 1.3821123333333336 1824.39 0.0 0.0 1.0
-152.52033333333333 1.3821123333333336 1824.39 0.0 0.0 1.0
-152.52033333333333 2.03252 1824.39 0.0 0.0 1.0
-165.64466666666667 4.963503333333333 2183.94 0.0 0.0 1.0
-152.404 8.646466666666667 1813.33 0.0 0.0 1.0
-166.22833333333332 12.74938 2183.94 0.0 0.0 1.0
-165.64466666666667 17.2263 2183.94 0.0 0.0 1.0
-166.22833333333332 27.737233333333336 2183.94 0.0 0.0 1.0
-165.64466666666667 33.576633333333334 2183.94 0.0 0.0 1.0
-166.423 40.5839 2183.94 0.0 0.0 1.0
-166.03366666666668 72.89536666666667 2183.94 0.0 0.0 1.0
-150.79099999999997 62.86286666666666 1797.0 0.0 0.0 1.0
-165.64433333333332 92.55473333333333 2183.94 0.0 0.0 1.0
-166.61766666666668 98.9781 2183.94 0.0 0.0 1.0
-166.61766666666668 98.9781 2183.94 0.0 0.0 1.0
-165.839 117.46933333333334 2183.94 0.0 0.0 1.0
-166.22866666666667 135.5713333333333 2183.94 0.0 0.0 1.0
-152.02399999999997 127.53266666666667 1807.8499999999997 1.1034677507633138e-25 -2.4819465955638127e-25 1.0
-167.007 -161.84933333333333 2183.94 0.0 0.0 1.0
-166.22833333333332 -152.31166666666664 2183.94 0.0 0.0 1.0
-166.22866666666667 -130.90033333333335 2183.94 0.0 0.0 1.0
-166.22866666666667 -130.90033333333335 2183.94 0.0 0.0 1.0
-168.17499999999998 -109.87833333333333 2183.94 0.0 0.0 1.0
-167.00699999999998 -105.40133333333334 2183.94 0.0 0.0 1.0
-166.81233333333333 -100.92466666666667 2183.94 0.0 0.0 1.0
-167.007 -100.73 2183.94 0.0 0.0 1.0
-166.81233333333333 -100.53533333333333 2183.94 0.0 0.0 1.0
-165.25566666666666 -72.89536666666667 2183.94 0.0 0.0 1.0
-152.80166666666668 -49.81596666666667 1835.58 0.0 0.0 1.0
-153.78333333333333 -46.2168 1835.58 0.0 0.0 1.0
-153.29233333333335 -41.145199999999996 1835.58 0.0 0.0 1.0
-153.18966666666668 -33.559000000000005 1841.2300000000002 4.504925531964836e-26 -2.753655853014305e-26 1.0
-166.61766666666668 -29.878366666666665 2183.94 0.0 0.0 1.0
-183.91400000000002 -1.1644100000000008 2021.82 0.39446258246115873 0.8903772678271666 0.22721705916304683
-154.04666666666665 -2.364933333333333 1829.97 0.0 0.0 1.0
-152.404 8.646466666666667 1813.33 0.0 0.0 1.0
-167.78566666666666 16.25306666666667 2183.94 0.0 0.0 1.0
-151.70166666666668 16.67673333333333 1807.8499999999997 -2.0733013490339735e-26 -3.4590477191980295e-27 1.0
-151.70166666666668 16.67673333333333 1807.8499999999997 -2.0733013490339735e-26 -3.4590477191980295e-27 1.0
-167.39633333333333 26.958633333333335 2183.94 0.0 0.0 1.0
-167.007 37.27493333333333 2183.94 0.0 0.0 1.0
-167.007 40.389266666666664 2183.94 0.0 0.0 1.0
-167.20166666666668 56.15573333333333 2183.94 0.0 0.0 1.0
-166.81266666666667 65.4988 2183.94 0.0 0.0 1.0
-150.79099999999997 62.86286666666666 1797.0 0.0 0.0 1.0
-166.61766666666668 98.9781 2183.94 0.0 0.0 1.0
-166.81233333333333 124.28233333333333 2183.94 0.0 0.0 1.0
-167.007 138.88066666666668 2183.94 0.0 0.0 1.0
-167.007 -161.84933333333333 2183.94 0.0 0.0 1.0
-166.81233333333333 -157.95600000000002 2183.94 0.0 0.0 1.0
-167.78566666666666 -146.66666666666666 2183.94 0.0 0.0 1.0
-168.17499999999998 -65.69343333333333 2183.94 0.0 0.0 1.0
-153.6196666666667 -49.48876666666666 1835.58 0.0 0.0 1.0
-153.78333333333333 -46.2168 1835.58 0.0 0.0 1.0
-154.33833333333334 -33.7231 1841.2300000000002 0.0 0.0 1.0
-166.61766666666668 -29.878366666666665 2183.94 0.0 0.0 1.0
-169.14833333333334 -17.420933333333334 2183.94 0.0 0.0 1.0
-169.14833333333334 -11.386866666666668 2183.94 0.0 0.0 1.0
-152.52033333333333 2.03252 1824.39 0.0 0.0 1.0
-167.20166666666668 35.523133333333334 2183.94 0.0 0.0 1.0
-167.007 40.389266666666664 2183.94 0.0 0.0 1.0
-169.53766666666664 43.698299999999996 2183.94 0.0 0.0 1.0
-169.343 48.3698 2183.94 0.0 0.0 1.0
-165.83933333333334 61.4112 2183.94 0.0 0.0 1.0
-167.98033333333333 70.36496666666666 2183.94 0.0 0.0 1.0
-168.56433333333334 107.34766666666667 2183.94 0.0 0.0 1.0
-167.98033333333333 135.18233333333333 2183.94 0.0 0.0 1.0
-167.39633333333333 147.83433333333332 2183.94 0.0 0.0 1.0
-151.34399999999997 129.137 1798.8033333333333 -0.15931011320278768 0.9548670610470764 0.2506973943993708
-148.2986666666667 130.149 1786.2699999999998 0.0 -1.0 0.0
-167.98033333333333 -156.39866666666668 2183.94 0.0 0.0 1.0
-168.75900000000001 -154.84166666666667 2183.94 0.0 0.0 1.0
-153.55766666666665 -67.6045 1829.97 0.0 0.0 1.0
-168.17499999999998 -65.69343333333333 2183.94 0.0 0.0 1.0
-168.17499999999998 -64.13626666666666 2183.94 0.0 0.0 1.0
-153.9466666666667 -47.1984 1835.58 0.0 0.0 1.0
-154.274 -40.3272 1835.58 0.0 0.0 1.0
-167.78600000000003 -5.547446666666667 2183.94 0.0 0.0 1.0
-153.212 8.646466666666667 1813.33 0.0 0.0 1.0
-168.3696666666667 34.9392 2183.94 0.0 0.0 1.0
-167.591 38.63746666666666 2183.94 0.0 0.0 1.0
-167.98033333333333 70.36496666666666 2183.94 0.0 0.0 1.0
-167.98033333333333 70.36496666666666 2183.94 0.0 0.0 1.0
-166.22833333333332 84.76886666666667 2183.94 0.0 0.0 1.0
-167.007 98.00486666666666 2183.94 0.0 0.0 1.0
-168.75900000000001 106.37433333333333 2183.94 0.0 0.0 1.0
-168.56433333333334 124.28233333333333 2183.94 0.0 0.0 1.0
-168.175 128.3696666666667 2183.94 0.0 0.0 1.0
-169.5376666666667 133.62566666666666 2183.94 0.0 0.0 1.0
-167.98033333333333 138.88066666666668 2183.94 0.0 0.0 1.0
-167.591 143.747 2183.94 0.0 0.0 1.0
-156.423 126.42266666666666 1824.39 0.0 0.0 1.0
-151.80733333333333 128.11266666666666 1802.41 0.0 0.0 1.0
-169.927 -127.00699999999999 2183.94 0.0 0.0 1.0
-169.927 -112.21433333333333 2183.94 0.0 0.0 1.0
-168.17499999999998 -109.87833333333333 2183.94 0.0 0.0 1.0
-168.17499999999998 -109.87833333333333 2183.94 0.0 0.0 1.0
-168.95366666666666 -103.64999999999999 2183.94 0.0 0.0 1.0
-168.95366666666666 -103.64999999999999 2183.94 0.0 0.0 1.0
-169.1483333333333 -94.11189999999999 2183.94 0.0 0.0 1.0
-153.55766666666665 -67.6045 1829.97 0.0 0.0 1.0
-168.175 -65.69343333333333 2183.94 0.0 0.0 1.0
-153.9466666666667 -47.1984 1835.58 0.0 0.0 1.0
-169.53766666666664 -54.987833333333334 2183.94 0.0 0.0 1.0
-168.759 -53.819966666666666 2183.94 0.0 0.0 1.0
-169.1483333333333 -52.65206666666666 2183.94 0.0 0.0 1.0
-169.14833333333334 -17.420933333333334 2183.94 0.0 0.0 1.0
-154.04666666666665 -2.364933333333333 1829.97 0.0 0.0 1.0
-153.17066666666668 1.2195113333333334 1824.39 0.0 0.0 1.0
-169.53766666666664 25.401466666666664 2183.94 0.0 0.0 1.0
-168.17499999999998 26.180066666666665 2183.94 0.0 0.0 1.0
-168.759 29.878333333333334 2183.94 0.0 0.0 1.0
-168.56433333333334 53.04136666666667 2183.94 0.0 0.0 1.0
-167.20166666666665 56.15573333333333 2183.94 0.0 0.0 1.0
-168.56433333333334 65.69343333333333 2183.94 0.0 0.0 1.0
