ply
format ascii 1.0
comment VCGLIB generated
element vertex 637
property float x
property float y
property float z
property float nx
property float ny
property float nz
element face 0
property list uchar int vertex_indices
end_header
-7.316276666666667 37.85123333333333 1784.4966666666667 0.920760633762756 -0.3683003978850116 -0.12866496116095533
-7.316276666666667 37.85123333333333 1784.4966666666667 0.9207606337627557 -0.36830039788501207 -0.12866496116095552
-7.46584 73.66743333333334 1820.6899999999998 0.7606355603021628 0.2925514907447319 0.5795232261668638
-7.03841 83.79676666666667 1815.1666666666667 0.8573596118644152 0.18371991682808875 0.48081336098779454
-6.56535 106.50466666666667 1818.84 0.0 0.0 1.0
-14.208999999999998 125.754 1594.3166666666668 0.15631562061622697 0.9371615662237662 0.3119192612590332
41.06666666666666 329.3333333333333 2992.0 0.0 0.0 1.0
42.13333333333333 334.1333333333333 2992.0 0.0 0.0 1.0
-13.916533333333334 205.95966666666666 1601.43 0.9876623329670765 -2.8261502150256237e-15 0.15659858249049277
44.0 420.8 2992.0 0.0 0.0 1.0
41.06666666666666 421.59999999999997 2992.0 0.0 0.0 1.0
37.6 -431.2 2992.0 0.0 0.0 1.0
37.333333333333336 -371.4666666666667 2992.0 0.0 0.0 1.0
41.6 -323.2 2992.0 0.0 0.0 1.0
41.6 -192.79999999999998 2992.0 0.0 0.0 1.0
-22.522199999999998 -67.0373 1469.07 0.7523926048898221 0.14107884675544252 0.6434299706302642
-20.063200000000002 -30.414066666666667 1433.8733333333332 -0.7957581425587559 -0.5787228860835567 0.17846232004139495
-12.512666666666666 -11.777700000000001 1632.0333333333335 0.442825849380986 -0.8841748322228027 0.14879560875169365
-5.396823333333333 16.825366666666664 1780.95 0.0 0.0 1.0
-8.039816666666667 23.24376666666667 1786.2699999999998 -8.311145610477067e-28 9.395249857927053e-28 1.0
-6.504066666666667 53.6585 1824.39 0.0 0.0 1.0
-6.8763000000000005 116.481 1815.1666666666667 0.6958597127329889 0.6970817804103181 0.17278961663000236
-14.208999999999998 125.754 1594.3166666666666 0.15631562061622697 0.9371615662237662 0.3119192612590332
-13.096733333333333 193.80633333333333 1580.2833333333335 -0.42384185431897275 -0.3390433667909669 0.8398855147950228
38.4 -398.6666666666667 2992.0 0.0 0.0 1.0
37.333333333333336 -366.9333333333334 2992.0 0.0 0.0 1.0
39.199999999999996 -306.6666666666667 2992.0 0.0 0.0 1.0
36.26666666666667 -275.4666666666667 2992.0 0.0 0.0 1.0
39.46666666666667 -218.4 2992.0 0.0 0.0 1.0
41.599999999999994 -192.79999999999998 2992.0 0.0 0.0 1.0
40.0 -190.4 2992.0 0.0 0.0 1.0
-9.132893333333334 -93.15629999999999 1736.17 0.20323163505724917 0.5588776844086297 0.8039605937992267
-23.38286666666667 -68.14923333333333 1453.6066666666668 -0.5396855066042966 0.17989516886809892 0.8224215963720687
-19.253633333333337 -15.345999999999998 1552.97 0.8229068354352536 -0.21299969843686878 0.5267404186691388
-6.851490000000001 36.65266666666667 1788.0533333333333 -0.8728737107647302 0.3491458292089079 0.3408645992206202
-6.56535 106.50466666666667 1818.84 0.0 0.0 1.0
-8.404036666666668 117.00999999999999 1813.33 0.0 0.0 1.0
39.199999999999996 -306.6666666666667 2992.0 0.0 0.0 1.0
43.46666666666667 -261.8666666666667 2992.0 0.0 0.0 1.0
43.20000000000001 -160.53333333333333 2992.0 0.0 0.0 1.0
-24.49213333333333 -31.5655 1399.2300000000002 -0.7369760235091114 -0.675587675922048 -0.021157337142076068
-6.504066666666667 53.6585 1824.39 0.0 0.0 1.0
-6.504066666666667 53.6585 1824.39 0.0 0.0 1.0
-7.362623333333334 88.33576666666666 1815.1666666666667 0.958229592138036 0.2053349126010071 0.19908194900118445
-17.244400000000002 156.743 1523.9466666666667 -0.5765652612446561 -0.6177744409247959 0.5347216469023274
40.53333333333333 -346.9333333333334 2992.0 0.0 0.0 1.0
39.199999999999996 -204.26666666666665 2992.0 0.0 0.0 1.0
38.13333333333333 -197.33333333333334 2992.0 0.0 0.0 1.0
-11.472900000000001 -99.53483333333334 1739.53 0.0 0.0 1.0
-11.472900000000001 -99.53483333333334 1739.53 0.0 0.0 1.0
36.53333333333333 -72.0 2992.0 0.0 0.0 1.0
-6.740306666666666 50.84733333333333 1822.54 0.5695960128103039 -0.5696018512278188 0.5925488277504614
-6.592576666666666 52.08323333333333 1826.25 0.673860886468254 -0.6738677936114121 -0.30300775967210225
-7.15447 58.37396666666666 1824.39 0.0 0.0 1.0
-7.804876666666668 63.414633333333335 1824.39 0.0 0.0 1.0
-6.56535 106.50466666666667 1818.84 0.0 0.0 1.0
-6.8763000000000005 116.481 1815.1666666666667 0.6958597127329892 0.6970817804103179 0.1727896166300024
37.6 348.8 2992.0 0.0 0.0 1.0
-13.995566666666667 198.587 1585.87 0.5612478060336413 0.6734973672403654 0.4810428219428294
38.4 -398.6666666666667 2992.0 0.0 0.0 1.0
-9.473103333333333 -192.35233333333335 1770.4233333333334 0.5529078887143236 -0.8287099065774527 -0.0867914588992429
38.4 -308.53333333333336 2992.0 0.0 0.0 1.0
38.93333333333333 -200.53333333333333 2992.0 0.0 0.0 1.0
-12.231033333333334 -5.766343333333334 1748.01 0.9478913603091498 -0.07290908525710325 0.3101390564541039
40.266666666666666 -1.5999999999999999 2992.0 0.0 0.0 1.0
-7.243480000000001 56.64353333333333 1826.25 0.9876907812078161 0.14109455093366116 0.06752220682058849
-6.478403333333333 78.05176666666667 1817.0033333333333 0.7852596054532114 0.30202225636899865 0.5405089348949244
-7.392693333333334 103.47073333333333 1822.54 0.8771503680694956 0.1253158198500883 0.4635765061894839
-16.87323333333333 136.941 1577.506666666667 -7.929693728642961e-16 0.9217440407572208 0.38779881811133804
41.06666666666666 329.3333333333333 2992.0 0.0 0.0 1.0
36.53333333333333 413.59999999999997 2992.0 0.0 0.0 1.0
41.06666666666666 421.59999999999997 2992.0 0.0 0.0 1.0
36.26666666666667 -408.0 2992.0 0.0 0.0 1.0
37.333333333333336 -350.13333333333327 2992.0 0.0 0.0 1.0
41.6 -323.2 2992.0 0.0 0.0 1.0
38.4 -193.6 2992.0 0.0 0.0 1.0
38.666666666666664 -174.66666666666666 2992.0 0.0 0.0 1.0
-16.964166666666667 -61.7888 1540.9866666666667 0.7616502242136438 0.6299349992550951 -0.1518908577524966
38.4 -92.8 2992.0 0.0 0.0 1.0
-21.329333333333334 -17.898533333333333 1509.84 0.6316695418749604 0.613092784075576 0.4744584575934302
-17.1721 120.35866666666668 1605.7333333333333 -0.9905039527501646 6.7019367494573765e-15 0.1374842521392881
-17.1721 120.35866666666668 1605.7333333333333 -0.9905039527501645 -1.0029454633674997e-14 0.13748425213928986
-16.87323333333333 136.941 1577.506666666667 -7.929693728642961e-16 0.9217440407572208 0.38779881811133804
-23.553300000000004 153.232 1518.78 0.0 0.0 1.0
37.6 348.8 2992.0 0.0 0.0 1.0
-14.830633333333333 205.918 1600.0 0.0 0.0 1.0
34.666666666666664 -431.46666666666664 2992.0 0.0 0.0 1.0
38.4 -308.53333333333336 2992.0 0.0 0.0 1.0
-10.062696666666666 -146.85166666666666 1736.17 0.22105689933615383 0.40195910109224753 0.8885734231367703
37.86666666666667 -194.66666666666666 2992.0 0.0 0.0 1.0
-12.533936666666667 -108.16233333333334 1736.18 0.7648647873422296 -0.6441144746264865 0.009919710710075452
-25.6311 -60.711999999999996 1452.43 0.0 0.0 1.0
34.666666666666664 -80.26666666666667 2992.0 0.0 0.0 1.0
34.93333333333333 -68.8 2992.0 0.0 0.0 1.0
34.13333333333333 16.8 2992.0 0.0 0.0 1.0
-8.039816666666667 23.24376666666667 1786.2699999999998 -8.311145610477067e-28 9.395249857927053e-28 1.0
-7.230090000000001 68.21903333333333 1822.54 0.8188393483162208 0.16376786966324403 0.5501656173508387
-10.85383 89.87873333333334 1817.0033333333333 0.4794280473967086 -0.7191460144084963 0.5029689427089452
-7.6279433333333335 107.09866666666666 1820.6899999999998 0.8791591749443897 -0.43964286885239495 0.18382952150929333
-11.19972 131.601 1820.6899999999998 0.44451955188336806 0.6665234892340501 0.5984553502916292
-19.406633333333335 165.166 1566.49 0.0 0.0 1.0
36.53333333333333 413.59999999999997 2992.0 0.0 0.0 1.0
37.333333333333336 -395.7333333333333 2992.0 0.0 0.0 1.0
37.333333333333336 -366.93333333333334 2992.0 0.0 0.0 1.0
37.333333333333336 -252.53333333333333 2992.0 0.0 0.0 1.0
33.6 -237.6 2992.0 0.0 0.0 1.0
37.86666666666667 -203.20000000000002 2992.0 0.0 0.0 1.0
34.13333333333333 -185.86666666666667 2992.0 0.0 0.0 1.0
35.199999999999996 -174.13333333333333 2992.0 0.0 0.0 1.0
-12.093033333333333 -98.29456666666665 1739.53 0.0 0.0 1.0
34.4 -156.0 2992.0 0.0 0.0 1.0
-22.522199999999998 -67.0373 1469.07 0.752392604889822 0.1410788467554425 0.6434299706302642
-11.20773 -64.92753333333333 1734.49 0.0 0.0 1.0
36.53333333333334 -72.0 2992.0 0.0 0.0 1.0
-9.403530000000002 23.427266666666668 1788.0533333333333 0.7366502655606952 -0.5524944469941485 0.38999522085531674
-10.15296 121.01266666666668 1822.54 0.6042574353906577 0.604009788900744 0.519658663631411
-15.233766666666666 123.41300000000001 1597.1533333333334 0.0949626103760997 0.5693308725124585 0.8166054495500014
-19.406633333333335 165.166 1566.49 0.0 0.0 1.0
37.6 348.8 2992.0 0.0 0.0 1.0
34.93333333333333 407.4666666666667 2992.0 0.0 0.0 1.0
34.93333333333334 -392.26666666666665 2992.0 0.0 0.0 1.0
34.666666666666664 -370.93333333333334 2992.0 0.0 0.0 1.0
34.666666666666664 -370.93333333333334 2992.0 0.0 0.0 1.0
33.06666666666667 -355.46666666666664 2992.0 0.0 0.0 1.0
34.4 -292.0 2992.0 0.0 0.0 1.0
34.93333333333333 -289.59999999999997 2992.0 0.0 0.0 1.0
-12.093033333333333 -98.29456666666665 1739.53 0.0 0.0 1.0
-21.569266666666667 -37.74306666666667 1406.8966666666668 0.37688642749456613 -0.86144856221816 0.340386538251218
-21.913633333333337 -22.308999999999997 1481.1933333333334 -0.7101777121804054 -0.6744687196263806 0.20184044036752405
-12.231033333333334 -5.766343333333334 1748.01 0.94789136030915 -0.07290908525710331 0.31013905645410367
34.13333333333333 16.8 2992.0 0.0 0.0 1.0
-10.8247 118.65500000000002 1826.25 0.6205993812237766 0.620345037215078 0.4796128051118829
-17.460733333333334 125.90500000000002 1548.9233333333334 -0.25988231376852816 -0.39852662293308855 0.879566776205118
29.600000000000005 284.8 2992.0 0.0 0.0 1.0
34.666666666666664 -431.46666666666664 2992.0 0.0 0.0 1.0
-9.473103333333333 -192.35233333333335 1770.4233333333334 0.5529078887143241 -0.828709906577452 -0.08679145889924235
-9.78666 -180.181 1754.8500000000001 0.2993536476473363 0.6651018164798941 0.6841249647216361
34.93333333333333 -289.59999999999997 2992.0 0.0 0.0 1.0
31.733333333333334 -274.66666666666663 2992.0 0.0 0.0 1.0
33.6 -237.6 2992.0 0.0 0.0 1.0
35.99999999999999 -219.20000000000002 2992.0 0.0 0.0 1.0
34.666666666666664 -80.26666666666667 2992.0 0.0 0.0 1.0
34.13333333333333 -69.86666666666666 2992.0 0.0 0.0 1.0
34.13333333333333 -69.86666666666666 2992.0 0.0 0.0 1.0
-22.666166666666665 -20.695433333333334 1478.75 -0.7307080479857374 -0.18267123199289073 0.6577970580742002
-12.231033333333334 -5.7663433333333325 1748.01 0.9478913603091498 -0.07290908525710336 0.3101390564541038
-11.19972 131.601 1820.6899999999998 0.44451955188336806 0.6665234892340501 0.5984553502916292
-21.744 130.32633333333334 1548.9233333333334 -0.6728821520246423 -0.31663750593570555 0.6685583739072467
-19.649133333333335 138.105 1574.74 0.0 0.0 1.0
-19.406633333333332 165.16600000000003 1566.49 0.0 0.0 1.0
-13.445509999999999 196.19333333333336 1555.6366666666665 -0.17790412697181424 -0.26162104990606677 0.9486329890175884
-19.2587 196.535 1570.61 0.5337026602375602 0.1789902493876848 0.8265131342449954
36.53333333333333 413.59999999999997 2992.0 0.0 0.0 1.0
33.333333333333336 -435.2 2992.0 0.0 0.0 1.0
33.333333333333336 -435.2 2992.0 0.0 0.0 1.0
32.53333333333334 -389.8666666666666 2992.0 0.0 0.0 1.0
34.66666666666667 -370.93333333333334 2992.0 0.0 0.0 1.0
33.06666666666667 -355.46666666666664 2992.0 0.0 0.0 1.0
34.13333333333333 -314.1333333333334 2992.0 0.0 0.0 1.0
32.26666666666667 -277.06666666666666 2992.0 0.0 0.0 1.0
31.73333333333333 -253.86666666666667 2992.0 0.0 0.0 1.0
32.8 -226.13333333333333 2992.0 0.0 0.0 1.0
34.13333333333333 -185.86666666666667 2992.0 0.0 0.0 1.0
34.4 -156.0 2992.0 0.0 0.0 1.0
34.4 -156.0 2992.0 0.0 0.0 1.0
-22.522199999999998 -67.0373 1469.07 0.7523926048898221 0.1410788467554424 0.6434299706302642
34.13333333333333 -69.86666666666666 2992.0 0.0 0.0 1.0
-9.73713 -8.229819999999998 1680.9366666666667 -0.4410723223556958 -0.86199723570419 0.24983188765665662
31.2 -3.1999999999999997 2992.0 0.0 0.0 1.0
-8.49799 23.447366666666667 1766.9533333333336 -0.575680440145315 0.5902199763632876 0.5658908113194775
-6.072076666666667 47.88876666666667 1974.9333333333334 -0.9799041569876055 -0.13360448474258058 0.14811375619799574
-27.49866666666667 127.05766666666666 1522.6733333333334 0.8061117388563401 -0.03523367430831401 0.5907135115034556
33.06666666666666 -432.0 2992.0 0.0 0.0 1.0
33.333333333333336 -411.73333333333335 2992.0 0.0 0.0 1.0
33.86666666666667 -372.8 2992.0 0.0 0.0 1.0
34.13333333333333 -292.0 2992.0 0.0 0.0 1.0
33.6 -222.4 2992.0 0.0 0.0 1.0
34.13333333333333 -185.86666666666667 2992.0 0.0 0.0 1.0
-26.150533333333332 -61.28113333333334 1438.5333333333335 -0.7341133552468061 -0.6776912815614643 0.04256886824731
34.666666666666664 -80.26666666666667 2992.0 0.0 0.0 1.0
-5.628586666666666 -13.85281 1706.4733333333334 -0.3947754123857556 0.6632282196983859 0.6358307183294672
-13.503086666666666 11.502726666666668 1722.8633333333335 -0.8858982225133336 -0.45332984949929256 0.09836862762418085
-6.044373333333334 41.01636666666667 1966.3 -0.9776703228890241 -0.18616743229494478 0.09748039236060807
-10.15296 121.01266666666668 1822.54 0.6042574353906577 0.6040097889007441 0.519658663631411
-20.500066666666665 140.35500000000002 1563.7766666666666 0.3136506954859575 0.9408180102942285 -0.1283928063685186
-21.780133333333335 155.81166666666664 1566.49 0.0 0.0 1.0
33.86666666666667 370.40000000000003 2992.0 0.0 0.0 1.0
33.06666666666666 -432.0 2992.0 0.0 0.0 1.0
-13.9627 -183.22400000000002 1760.01 0.876484118005532 -0.43863289045035647 -0.19843582917212815
-16.1327 -150.5583333333333 1739.5433333333333 0.3231081079853907 0.3664019677569334 0.8725541522323691
31.46666666666667 -228.53333333333333 2992.0 0.0 0.0 1.0
33.333333333333336 -171.46666666666667 2992.0 0.0 0.0 1.0
31.2 -168.79999999999998 2992.0 0.0 0.0 1.0
-23.38286666666667 -68.14923333333333 1453.6066666666668 -0.5396855066042967 0.1798951688680989 0.8224215963720686
-25.6311 -60.711999999999996 1452.43 0.0 0.0 1.0
-23.95526666666667 -64.04333333333334 1472.6899999999998 0.9809406992128601 0.18393320412910372 -0.06264120885317372
-12.734233333333334 93.88423333333333 1831.8400000000001 0.832261011598269 -0.31210186593562117 0.4581855888752168
-10.8247 118.65500000000002 1826.25 0.6205993812237763 0.6203450372150783 0.47961280511188303
-8.404036666666666 117.00999999999999 1813.33 0.0 0.0 1.0
-23.553300000000004 153.232 1518.78 0.0 0.0 1.0
34.93333333333333 407.4666666666667 2992.0 0.0 0.0 1.0
32.800000000000004 -310.40000000000003 2992.0 0.0 0.0 1.0
-26.150533333333332 -61.28113333333334 1438.5333333333335 -0.7341133552468061 -0.6776912815614643 0.04256886824731
31.73333333333333 -91.19999999999999 2992.0 0.0 0.0 1.0
-26.970066666666668 -26.182066666666667 1406.93 0.8865758039417492 -0.17754168373866414 0.4271560539197368
-23.807133333333336 -19.12796666666667 1479.9733333333334 -0.9609537244910565 -0.24023082984350103 0.13732111192190793
-13.503086666666666 11.502726666666668 1722.8633333333335 -0.8858982225133338 -0.4533298494992921 0.09836862762418135
-6.044373333333333 41.01636666666667 1966.3 -0.9776703228890241 -0.18616743229494478 0.09748039236060807
-6.072076666666667 47.88876666666667 1974.9333333333334 -0.9799041569876055 -0.13360448474258058 0.14811375619799574
-28.059166666666666 129.086 1562.4000000000003 -1.5974298381072441e-28 -4.5535582441842595e-28 1.0
33.06666666666666 325.3333333333333 2992.0 0.0 0.0 1.0
33.06666666666666 -355.4666666666667 2992.0 0.0 0.0 1.0
-16.033299999999997 -185.30633333333333 1763.46 0.39452398370193736 0.7100930193096225 0.5831969909144743
31.733333333333334 -313.06666666666666 2992.0 0.0 0.0 1.0
33.6 -237.60000000000002 2992.0 0.0 0.0 1.0
-17.274466666666665 -55.44363333333334 1737.8500000000001 0.20353151475197265 -0.3256451725320842 0.9233255894370721
34.13333333333333 16.8 2992.0 0.0 0.0 1.0
-12.339966666666667 99.86240000000002 1833.71 0.9615962350305072 0.24036232857294193 -0.13250898753725002
-10.918696666666667 110.79866666666668 1828.11 0.7963520318585715 -0.11375129154529234 0.5940404742326086
-22.05933333333333 154.55500000000004 1566.49 0.0 0.0 1.0
-21.780133333333335 155.81166666666667 1566.49 0.0 0.0 1.0
29.066666666666663 338.1333333333333 2992.0 0.0 0.0 1.0
29.599999999999998 343.2 2992.0 0.0 0.0 1.0
29.066666666666666 -411.73333333333335 2992.0 0.0 0.0 1.0
29.866666666666664 -264.0 2992.0 0.0 0.0 1.0
-19.37986666666667 -114.41833333333334 1739.53 0.0 0.0 1.0
28.8 -167.73333333333332 2992.0 0.0 0.0 1.0
-10.39784 33.33703333333333 1928.253333333333 -0.9509999513950433 0.27970943841787993 0.13176388923593402
-13.344766666666667 87.94543333333333 1837.4766666666667 -0.9800610798838196 0.16337669298354476 0.1130855246559949
-13.6188 130.96833333333333 1829.97 0.0 0.0 1.0
28.0 325.3333333333333 2992.0 0.0 0.0 1.0
29.600000000000005 343.2 2992.0 0.0 0.0 1.0
-31.66763333333333 191.61266666666666 1423.6866666666665 -0.5146991703905894 -0.8365287086142429 0.18789487396793447
28.8 -386.93333333333334 2992.0 0.0 0.0 1.0
28.26666666666667 -281.3333333333333 2992.0 0.0 0.0 1.0
27.73333333333333 -240.53333333333333 2992.0 0.0 0.0 1.0
29.333333333333332 -228.53333333333333 2992.0 0.0 0.0 1.0
26.400000000000002 -200.26666666666665 2992.0 0.0 0.0 1.0
30.400000000000002 -193.33333333333334 2992.0 0.0 0.0 1.0
29.066666666666666 -184.53333333333333 2992.0 0.0 0.0 1.0
26.666666666666668 -113.33333333333333 2992.0 0.0 0.0 1.0
-28.81436666666667 -20.73036666666667 1418.0166666666667 -0.9890801169481865 8.927582189006027e-05 0.1473788122071474
-27.05496666666667 -15.201166666666667 1470.29 -0.39264371788032204 -0.9161464257996363 0.08066372979022077
-10.714339999999998 38.91963333333333 1924.1299999999999 -0.9570326731271446 -0.27328962012496744 0.0969600232006106
-13.344766666666667 87.94543333333333 1837.4766666666667 -0.9800610798838196 0.16337669298354476 0.1130855246559949
22.133333333333336 136.0 2992.0 0.0 0.0 1.0
-12.666166666666667 104.91833333333334 1833.71 0.9149034029189913 0.22869090407570128 0.3326443051072545
-13.388133333333334 126.69033333333333 1831.8400000000001 0.9938392587160919 -0.11044414019754367 -0.009253093032848719
-22.05933333333333 154.55500000000004 1566.49 0.0 0.0 1.0
29.600000000000005 343.2 2992.0 0.0 0.0 1.0
-27.012533333333334 -59.5948 1453.6066666666668 0.7071031494677028 0.7071031494677029 0.0032050001109013584
26.666666666666668 -113.33333333333333 2992.0 0.0 0.0 1.0
-28.81436666666667 -20.73036666666667 1418.0166666666667 -0.9890801169481864 8.927582189100351e-05 0.14737881220714805
-13.673 76.98166666666667 1837.4766666666667 -0.9965138711651685 0.033216454319067786 0.07652954813586342
-12.898833333333334 121.96066666666667 1831.8400000000001 0.9687614169341822 0.19375228338683634 0.1547946050160103
-13.522799999999998 129.04166666666666 1828.11 -0.9741518231320329 0.10825629958176346 0.1982644675412111
-19.563 136.07866666666666 1551.6033333333332 -0.3482867641223803 -0.1638929670081205 0.9229493080892561
26.400000000000002 285.3333333333333 2992.0 0.0 0.0 1.0
-17.857833333333335 207.14333333333332 1602.86 -0.16296244342784438 -0.9776733630109294 0.13265759416982487
24.266666666666666 -439.4666666666667 2992.0 0.0 0.0 1.0
29.866666666666664 -415.2 2992.0 0.0 0.0 1.0
24.53333333333333 -334.6666666666667 2992.0 0.0 0.0 1.0
26.13333333333333 -274.93333333333334 2992.0 0.0 0.0 1.0
-21.639566666666667 -139.30100000000002 1746.3100000000002 0.46457543006695373 0.23227111712600676 0.854528991858756
29.333333333333332 -228.53333333333333 2992.0 0.0 0.0 1.0
-27.012533333333334 -59.5948 1453.6066666666666 0.7071031494677029 0.707103149467703 0.0032050001109014056
25.333333333333332 -87.19999999999999 2992.0 0.0 0.0 1.0
-28.81436666666667 -20.73036666666667 1418.0166666666667 -0.9890801169481864 8.927582189055942e-05 0.14737881220714782
-18.722333333333335 -13.227333333333334 1562.4666666666665 -0.4645436877220056 -0.8825708039464077 0.07258056364503904
-12.251096666666667 71.18753333333333 1831.8633333333335 0.1951801781801354 0.9760276144208684 -0.09630573157127759
-14.074866666666665 89.5259 1826.26 -0.9205919735345791 0.34522639977299124 0.1825627321319651
22.133333333333336 136.0 2992.0 0.0 0.0 1.0
-13.848999999999998 132.3033333333333 1828.11 -0.9416773193083438 -0.25683540264078697 0.21743827227651644
-26.108666666666664 153.87199999999999 1562.4066666666668 -0.10957571051941883 0.9867211765792171 0.1198936335019086
-27.78356666666667 182.61766666666668 1566.49 0.0 0.0 1.0
23.733333333333334 361.8666666666666 2992.0 0.0 0.0 1.0
-24.211299999999998 206.15733333333333 1588.676666666667 -0.9159459942991968 6.783763992283739e-16 0.4013015518625064
-14.49944 194.0043333333333 1478.7733333333333 0.06941060253907971 -0.9961734221055271 0.05311008704309709
31.733333333333334 402.1333333333334 2992.0 0.0 0.0 1.0
26.399999999999995 -347.4666666666667 2992.0 0.0 0.0 1.0
-18.294566666666668 -94.10853333333334 1739.53 0.0 0.0 1.0
-18.294566666666668 -94.10853333333334 1739.53 0.0 0.0 1.0
25.333333333333332 -87.2 2992.0 0.0 0.0 1.0
-29.1975 -24.90263333333333 1397.0433333333333 -0.7572961186048879 -0.4854478281175877 0.43685580564058984
-12.0633 27.54813333333333 1920.03 -0.9876458918680754 -0.1559310425817198 0.015527467130589227
-13.2808 102.29366666666668 1839.3566666666666 0.9591681358629152 0.23975539652738367 0.15004611618185085
-23.1579 136.2806666666667 1574.74 0.0 0.0 1.0
27.46666666666667 335.73333333333335 2992.0 0.0 0.0 1.0
24.53333333333333 417.3333333333333 2992.0 0.0 0.0 1.0
29.600000000000005 -258.93333333333334 2992.0 0.0 0.0 1.0
25.066666666666666 -201.33333333333334 2992.0 0.0 0.0 1.0
29.066666666666666 -184.53333333333333 2992.0 0.0 0.0 1.0
-18.294566666666668 -94.10853333333334 1739.53 0.0 0.0 1.0
26.400000000000002 -74.66666666666667 2992.0 0.0 0.0 1.0
-18.805133333333334 16.732166666666668 1788.0533333333333 0.4784521470772548 0.8372724749140992 0.2646853711643017
-10.39784 33.33703333333333 1928.2533333333333 -0.9509999513950432 0.27970943841787993 0.1317638892359339
-12.522433333333334 31.50843333333333 1911.8333333333333 -0.9930016368098531 -1.0200892253062305e-05 0.11810058928258624
-10.666806666666666 76.82116666666667 1953.7133333333331 -0.9916128645469271 -0.04829837124635911 0.11987991574899508
25.333333333333332 281.8666666666667 2992.0 0.0 0.0 1.0
26.400000000000002 285.3333333333333 2992.0 0.0 0.0 1.0
25.066666666666666 333.59999999999997 2992.0 0.0 0.0 1.0
28.0 344.0 2992.0 0.0 0.0 1.0
-29.0245 190.73366666666666 1408.0166666666667 -0.04265499787098474 0.7685197355139866 0.6384026686051197
25.333333333333332 420.0 2992.0 0.0 0.0 1.0
24.266666666666666 -439.4666666666667 2992.0 0.0 0.0 1.0
29.066666666666666 -411.73333333333335 2992.0 0.0 0.0 1.0
25.333333333333332 -369.06666666666666 2992.0 0.0 0.0 1.0
25.066666666666666 -201.33333333333334 2992.0 0.0 0.0 1.0
24.8 -200.79999999999998 2992.0 0.0 0.0 1.0
24.8 -200.79999999999998 2992.0 0.0 0.0 1.0
23.733333333333334 -172.5333333333333 2992.0 0.0 0.0 1.0
26.400000000000002 -169.33333333333334 2992.0 0.0 0.0 1.0
23.2 -145.33333333333334 2992.0 0.0 0.0 1.0
-20.89923333333333 -68.244 1736.17 0.44136215630408177 -0.3634753755598157 0.8204176365390143
-12.8643 37.662299999999995 1911.8333333333333 -0.9977522009105141 -0.04245559002456383 0.051846585749603644
-12.033700000000001 39.9552 1915.9333333333332 -0.9602347098755488 -0.24619254892619657 0.13167585505111737
-13.274633333333332 53.5956 1909.8166666666666 -0.9967236327788043 0.019559203551689247 0.07848208341173743
-10.85383 89.87873333333334 1817.0033333333333 0.4794280473967083 -0.7191460144084966 0.502968942708945
-24.845533333333332 142.77166666666668 1570.61 -0.016460672840865925 0.5698730496406257 0.8215678630173645
24.53333333333333 279.7333333333333 2992.0 0.0 0.0 1.0
23.46666666666667 -383.2 2992.0 0.0 0.0 1.0
24.53333333333333 -334.6666666666667 2992.0 0.0 0.0 1.0
24.266666666666666 -243.73333333333335 2992.0 0.0 0.0 1.0
-19.37986666666667 -114.41833333333334 1739.53 0.0 0.0 1.0
22.400000000000002 -138.66666666666666 2992.0 0.0 0.0 1.0
-14.132566666666667 58.411033333333336 1899.7333333333333 -0.9435671221367179 0.3149060669727716 0.10254391745185223
-30.427999999999997 138.79366666666667 1523.9533333333331 0.5877033076306046 0.45783123382017543 0.6670797430133393
-23.595100000000002 152.321 1566.49 0.0 0.0 1.0
-23.553299999999997 153.232 1518.78 0.0 0.0 1.0
20.533333333333335 370.6666666666667 2992.0 0.0 0.0 1.0
-23.535833333333333 198.35366666666664 1576.1366666666665 0.6889194839419358 -0.5933373741146281 0.41634205303324173
-24.211299999999998 206.15733333333333 1588.6766666666665 -0.915945994299197 -3.396655117537283e-16 0.40130155186250566
-26.338966666666664 207.434 1588.6766666666665 0.6812971470059943 -2.634198654279899e-17 0.7320069654596821
24.266666666666666 420.0 2992.0 0.0 0.0 1.0
23.46666666666667 -383.2 2992.0 0.0 0.0 1.0
22.666666666666668 -382.3999999999999 2992.0 0.0 0.0 1.0
-16.033299999999997 -185.30633333333333 1763.46 0.39452398370193736 0.7100930193096224 0.5831969909144743
19.999999999999996 -151.2 2992.0 0.0 0.0 1.0
26.666666666666668 -113.33333333333333 2992.0 0.0 0.0 1.0
20.8 -58.666666666666664 2992.0 0.0 0.0 1.0
-22.157433333333334 -28.143833333333333 1744.61 0.0 0.0 1.0
-27.05496666666667 -15.201166666666667 1470.29 -0.39264371788032204 -0.9161464257996363 0.08066372979022077
-29.690933333333334 -8.005106666666666 1521.3633333333335 0.42605064722399016 0.8520960486816819 0.30399534506482806
-15.775 117.44933333333334 1815.1666666666667 0.24463436720213474 0.7336761212657023 0.6339348353483389
-26.526300000000003 133.193 1574.74 0.0 0.0 1.0
24.53333333333333 279.7333333333333 2992.0 0.0 0.0 1.0
25.066666666666663 333.59999999999997 2992.0 0.0 0.0 1.0
-25.017333333333337 205.23333333333335 1585.8700000000001 -0.9909412438819927 -7.873852067703279e-16 0.1342961323851494
24.53333333333333 417.3333333333333 2992.0 0.0 0.0 1.0
22.133333333333336 -345.06666666666666 2992.0 0.0 0.0 1.0
21.866666666666664 -336.26666666666665 2992.0 0.0 0.0 1.0
19.733333333333334 -302.6666666666667 2992.0 0.0 0.0 1.0
23.2 -281.3333333333333 2992.0 0.0 0.0 1.0
22.13333333333333 -272.53333333333336 2992.0 0.0 0.0 1.0
-21.7955 -138.833 1746.3100000000002 0.4731701589164116 0.2365681744864684 0.848613869513784
26.133333333333336 -229.33333333333334 2992.0 0.0 0.0 1.0
23.2 -145.33333333333334 2992.0 0.0 0.0 1.0
23.2 -145.33333333333334 2992.0 0.0 0.0 1.0
25.333333333333332 -87.2 2992.0 0.0 0.0 1.0
-26.092366666666667 -11.850246666666669 1512.3966666666665 -0.3117766205047858 -0.8400865867879276 0.4439029912104944
-15.1484 35.0331 1889.7633333333333 -0.9929952845186366 3.94520254603802e-05 0.11815398159727798
-15.255466666666665 57.663333333333334 1891.6933333333334 -0.9436768774146012 0.3145693461068685 0.10256742915236189
-24.77876666666667 57.73846666666666 1765.1899999999998 1.7011981317781327e-28 -2.2025981858323545e-28 1.0
-19.93766666666667 95.13796666666667 1797.01 -0.9624997801927102 -0.1283616972791968 0.23899256850494052
-15.775 117.44933333333334 1815.1666666666667 0.24463436720213483 0.7336761212657023 0.633934835348339
-6.872986666666667 129.60366666666667 1795.2166666666665 0.2508696748693841 -0.9579484007515259 0.13928125404563027
21.866666666666664 274.4 2992.0 0.0 0.0 1.0
22.666666666666668 -382.40000000000003 2992.0 0.0 0.0 1.0
-31.53235666666667 -283.589 2142.246666666667 -0.05735837253738337 0.13519616300388856 0.9891572244132318
21.866666666666664 -197.86666666666667 2992.0 0.0 0.0 1.0
23.733333333333334 -172.5333333333333 2992.0 0.0 0.0 1.0
21.066666666666666 -55.46666666666667 2992.0 0.0 0.0 1.0
17.866666666666667 -1.8666666666666665 2992.0 0.0 0.0 1.0
-18.805133333333334 16.732166666666668 1788.0533333333333 0.47845214707725475 0.8372724749140991 0.26468537116430185
-15.963100000000003 85.5493 1915.9199999999998 -0.9052762235760176 -0.4023428018836415 0.1363643237814247
-29.29756666666667 127.04233333333333 1580.2833333333335 0.31436781746786496 0.9434759261209805 0.1050050102168894
-28.288 205.68633333333332 1503.5233333333333 -0.11899443237090432 0.7024303333098529 0.7017349584500798
19.2 -441.06666666666666 2992.0 0.0 0.0 1.0
19.2 -441.06666666666666 2992.0 0.0 0.0 1.0
-25.733733333333333 -156.579 1744.61 0.0 0.0 1.0
-19.167833333333334 -95.2878 1741.2233333333334 0.8547341960612672 4.073627802434617e-15 0.5190659438679244
21.333333333333332 -69.60000000000001 2992.0 0.0 0.0 1.0
-17.831866666666667 42.665400000000005 1870.01 -0.9693550007847309 -0.22816190191389912 0.09106606925011303
-15.255466666666665 57.663333333333334 1891.6933333333334 -0.9436768774146012 0.3145693461068684 0.10256742915236211
-15.963099999999999 85.5493 1915.92 -0.9052762235760176 -0.4023428018836415 0.1363643237814247
15.733333333333333 -350.93333333333334 2992.0 0.0 0.0 1.0
19.733333333333334 -302.6666666666667 2992.0 0.0 0.0 1.0
18.133333333333333 -246.9333333333333 2992.0 0.0 0.0 1.0
-23.100800000000003 -121.55033333333331 1739.53 0.0 0.0 1.0
-33.11603333333333 -18.0672 1399.2300000000002 0.9360053444349029 0.35096842125230254 0.026742521813863208
-31.8105 -6.09137 1518.78 0.0 0.0 1.0
-19.9801 16.0796 1786.2699999999998 3.957961876502735e-29 -1.1205519090720524e-28 1.0
-16.48653333333333 19.9995 1795.2166666666665 0.6776457689840271 -0.6776536278422615 0.28562523076624124
-21.626 26.341466666666665 1824.39 0.0 0.0 1.0
-18.359266666666667 33.06336666666667 1864.17 0.0 0.0 1.0
-29.401766666666663 118.50766666666668 1551.61 0.056658881535664465 0.7933879772582598 0.6060736660548572
20.0 273.8666666666666 2992.0 0.0 0.0 1.0
20.8 358.1333333333334 2992.0 0.0 0.0 1.0
18.933333333333334 -338.93333333333334 2992.0 0.0 0.0 1.0
-22.325599999999998 -117.67433333333334 1739.53 0.0 0.0 1.0
18.666666666666668 -198.13333333333335 2992.0 0.0 0.0 1.0
-22.15743333333333 -28.143833333333333 1744.61 0.0 0.0 1.0
16.0 -40.800000000000004 2992.0 0.0 0.0 1.0
-22.136466666666667 -9.941886666666667 1572.0100000000002 -0.5434648288638391 -0.8259727853298476 0.14971619044863368
-18.96 46.568533333333335 1866.1133333333335 -0.9802804900873227 -0.18672455299756419 0.06468463544009663
-23.828999999999997 90.88423333333333 1795.2166666666665 0.03863986571166785 -0.9658837314746488 0.256077289212442
-30.4656 165.84533333333334 1561.0433333333333 -0.5134786777932194 4.13803698036258e-18 0.8581023525499316
-30.6045 167.234 1561.0433333333333 -0.4911507627450252 6.509686921492662e-17 0.8710745824870451
-27.78356666666667 182.61766666666668 1566.49 0.0 0.0 1.0
20.53333333333333 370.6666666666667 2992.0 0.0 0.0 1.0
16.0 -420.8 2992.0 0.0 0.0 1.0
19.2 -376.5333333333333 2992.0 0.0 0.0 1.0
21.599999999999998 -333.06666666666666 2992.0 0.0 0.0 1.0
19.2 -278.93333333333334 2992.0 0.0 0.0 1.0
18.666666666666668 -252.79999999999998 2992.0 0.0 0.0 1.0
-22.42503333333333 -111.11566666666666 1741.2233333333334 0.7297525299567281 0.6736752846014684 0.1167169907891958
17.866666666666667 -132.53333333333333 2992.0 0.0 0.0 1.0
17.866666666666667 -132.53333333333333 2992.0 0.0 0.0 1.0
17.866666666666667 -54.666666666666664 2992.0 0.0 0.0 1.0
-17.831866666666667 42.665400000000005 1870.01 -0.9693550007847309 -0.2281619019138991 0.09106606925011294
-0.8589499999999998 105.4923 2791.9266666666667 0.652003509678195 0.7451383850398796 0.14021487263295432
-13.453166666666666 110.51933333333334 2384.1366666666668 0.3703911630790334 -0.9171122977074601 0.14736152722710197
-19.93766666666667 95.13796666666667 1797.01 -0.9624997801927101 -0.12836169727919686 0.23899256850494052
-21.0153 126.33066666666667 1774.01 -0.9893541939547424 -0.06585816171320286 0.1297728070125601
-26.904833333333332 120.036 1601.43 4.336712097005051e-19 -0.9850596947691581 0.1722132333512529
-30.104933333333335 125.652 1585.87 0.41982386375606734 0.8399445976573937 0.3438618854817818
-33.5541 162.49699999999999 1555.6366666666665 -0.18450665063877691 -0.8765842142652476 0.4444743087862769
20.53333333333333 370.6666666666667 2992.0 0.0 0.0 1.0
20.266666666666666 -370.93333333333334 2992.0 0.0 0.0 1.0
15.733333333333334 -345.06666666666666 2992.0 0.0 0.0 1.0
-24.010233333333336 -194.29666666666665 1789.8366666666668 0.6023837611488823 0.7530425807431133 0.2646897729264924
16.53333333333333 -297.59999999999997 2992.0 0.0 0.0 1.0
20.533333333333335 -256.26666666666665 2992.0 0.0 0.0 1.0
11.733333333333334 -101.06666666666666 2992.0 0.0 0.0 1.0
-24.451833333333337 -54.165 1741.2233333333334 0.47379455673700344 -0.7580590669774329 0.4481798399969483
17.599999999999998 -60.26666666666667 2992.0 0.0 0.0 1.0
17.866666666666667 -1.8666666666666665 2992.0 0.0 0.0 1.0
-18.359266666666667 33.06336666666667 1864.17 0.0 0.0 1.0
-15.963099999999999 85.5493 1915.92 -0.9052762235760173 -0.4023428018836415 0.1363643237814247
-23.10653333333333 126.93900000000001 1758.34 -0.9894850513325755 -0.0650827168836859 0.12916490681453763
20.266666666666666 276.2666666666667 2992.0 0.0 0.0 1.0
-35.12363333333334 200.62233333333333 1524.0733333333335 0.03888759573368991 -0.9969173291777212 0.0681439189011922
17.333333333333332 -300.53333333333336 2992.0 0.0 0.0 1.0
19.2 -273.8666666666666 2992.0 0.0 0.0 1.0
17.866666666666667 -132.53333333333333 2992.0 0.0 0.0 1.0
-19.665766666666666 44.63023333333333 1854.57 -0.9890996366696038 -0.05996727334605456 0.13448358586644468
-31.36863333333333 148.76200000000003 1536.9866666666667 -0.18098035115032704 0.3622249071928709 0.9143518081715705
15.733333333333333 347.2 2992.0 0.0 0.0 1.0
-27.6687 202.5146666666667 1548.9399999999998 -0.7538588595996635 -0.5769859373639717 0.3142992966700911
19.2 -441.06666666666666 2992.0 0.0 0.0 1.0
20.266666666666666 -383.20000000000005 2992.0 0.0 0.0 1.0
15.733333333333334 -244.0 2992.0 0.0 0.0 1.0
13.6 -218.13333333333333 2992.0 0.0 0.0 1.0
16.266666666666666 -136.0 2992.0 0.0 0.0 1.0
-21.832333333333334 -14.346953333333333 1749.71 0.0 0.0 1.0
-19.980100000000004 16.0796 1786.2699999999998 -1.4855416375941083e-28 6.683665387876817e-30 1.0
-19.852166666666665 50.50033333333334 1864.1866666666667 -0.9811381339687807 -0.1781910505854878 0.0749393859295568
-20.537933333333335 53.661833333333334 1858.3966666666668 0.003637165417201235 0.9746866031859712 0.22354596081683256
-31.13366666666667 151.472 1518.78 0.0 0.0 1.0
15.733333333333334 347.2 2992.0 0.0 0.0 1.0
12.799999999999999 -413.0666666666666 2992.0 0.0 0.0 1.0
15.200000000000001 -342.6666666666667 2992.0 0.0 0.0 1.0
16.533333333333335 -297.6 2992.0 0.0 0.0 1.0
18.666666666666668 -198.13333333333333 2992.0 0.0 0.0 1.0
15.199999999999998 -87.2 2992.0 0.0 0.0 1.0
-24.023299999999995 -29.698733333333333 1744.61 0.0 0.0 1.0
15.466666666666667 -49.599999999999994 2992.0 0.0 0.0 1.0
-21.626 26.341466666666665 1824.39 0.0 0.0 1.0
-20.537933333333335 53.661833333333334 1858.3966666666668 0.0036371654172024934 0.9746866031859712 0.22354596081683242
-24.77876666666667 57.73846666666666 1765.1899999999998 1.7011981317781327e-28 -2.2025981858323545e-28 1.0
0.4132166666666661 107.5148 2919.16 0.5940788059186156 -0.7579525193170398 0.26940369488792115
-7.1031 124.58366666666666 2400.16 0.8926368807945858 0.4506371220511385 -0.011206394370162326
-30.069366666666667 126.71566666666666 1569.2466666666667 -0.9994942949112494 -3.0151761924244227e-05 0.03179864039130682
-32.55403333333334 129.25333333333333 1561.0433333333333 -0.6310165723345298 -0.1802750371637887 0.7545323030956169
-28.587866666666667 130.07666666666665 1576.1233333333332 -0.4595897308233223 0.7657707010809607 0.4498583251288342
-31.36863333333333 148.76200000000003 1536.9866666666667 -0.1809803511503293 0.3622249071928703 0.9143518081715702
17.066666666666666 354.6666666666667 2992.0 0.0 0.0 1.0
-28.232 207.51633333333334 1591.4966666666667 0.11903551609747333 0.9494898901383779 0.2903437521842327
13.066666666666665 -423.4666666666667 2992.0 0.0 0.0 1.0
14.933333333333335 -348.2666666666667 2992.0 0.0 0.0 1.0
13.333333333333334 -320.26666666666665 2992.0 0.0 0.0 1.0
17.599999999999998 -236.26666666666665 2992.0 0.0 0.0 1.0
13.066666666666668 -210.9333333333333 2992.0 0.0 0.0 1.0
-23.100800000000003 -121.55033333333331 1739.53 0.0 0.0 1.0
-22.425033333333335 -111.11566666666666 1741.2233333333334 0.7297525299567281 0.6736752846014684 0.1167169907891958
16.533333333333335 -173.6 2992.0 0.0 0.0 1.0
20.0 -151.20000000000002 2992.0 0.0 0.0 1.0
14.133333333333333 -135.73333333333335 2992.0 0.0 0.0 1.0
-36.11363333333333 -11.033166666666668 1406.8999999999999 0.7060687754911371 0.7058807912591131 -0.05656140740694796
15.200000000000001 -1.8666666666666665 2992.0 0.0 0.0 1.0
-18.907733333333333 79.715 1858.493333333333 0.061443753062933676 -0.9113941944580386 0.40692172160960416
-5.2004166666666665 121.30799999999999 2343.7999999999997 -0.8942998497524064 -0.44720020679538613 -0.015483984467427225
-25.046233333333333 120.79933333333334 1746.3666666666666 -0.9837026984846139 0.05545239283840617 0.1710381043001359
-29.29756666666667 127.04233333333333 1580.2833333333335 0.314367817467865 0.9434759261209804 0.1050050102168895
10.133333333333333 264.2666666666667 2992.0 0.0 0.0 1.0
-32.04326666666667 156.681 1546.2600000000002 0.41896690195426406 0.41614175652678004 0.8070271206977199
-33.4976 161.50833333333333 1543.5966666666666 0.08472167142545566 0.45188772505902736 0.8880426354245915
15.733333333333334 347.2 2992.0 0.0 0.0 1.0
11.466666666666669 438.1333333333334 2992.0 0.0 0.0 1.0
-24.010233333333336 -194.29666666666665 1789.8366666666668 0.6023837611488821 0.7530425807431133 0.2646897729264924
16.533333333333335 -173.6 2992.0 0.0 0.0 1.0
11.733333333333334 -58.133333333333326 2992.0 0.0 0.0 1.0
-25.7337 -31.098133333333333 1744.61 0.0 0.0 1.0
12.533333333333331 -36.53333333333333 2992.0 0.0 0.0 1.0
-36.11363333333333 -11.033166666666668 1406.8999999999999 0.7060687754911381 0.7058807912591121 -0.056561407406947706
-27.116 -14.273226666666668 1483.6499999999999 0.7884354964949212 0.596304906766864 0.1509633267802779
-31.8105 -6.09137 1518.78 0.0 0.0 1.0
15.200000000000001 -1.8666666666666665 2992.0 0.0 0.0 1.0
13.866666666666667 0.5333333333333332 2992.0 0.0 0.0 1.0
-26.878133333333334 8.79774 1763.46 -0.3236527409888721 0.7120448076453149 0.6230899575147529
-5.2004166666666665 121.30799999999999 2343.7999999999997 -0.8942998497524006 -0.4472002067953975 -0.01548398446743062
-26.946366666666666 152.1966666666667 1562.4066666666668 0.20707858670254783 0.7761758309848076 0.5955413825455952
-35.28643333333333 157.26966666666667 1529.1466666666668 -0.46445551211015124 0.6847872814796981 0.5615580614630529
10.666666666666666 328.00000000000006 2992.0 0.0 0.0 1.0
12.266666666666666 -350.40000000000003 2992.0 0.0 0.0 1.0
15.733333333333334 -340.53333333333336 2992.0 0.0 0.0 1.0
13.333333333333334 -320.26666666666665 2992.0 0.0 0.0 1.0
12.0 -317.06666666666666 2992.0 0.0 0.0 1.0
11.466666666666669 -283.73333333333335 2992.0 0.0 0.0 1.0
12.0 -282.6666666666667 2992.0 0.0 0.0 1.0
13.066666666666668 -210.9333333333333 2992.0 0.0 0.0 1.0
15.466666666666667 -49.599999999999994 2992.0 0.0 0.0 1.0
-26.878133333333334 8.79774 1763.46 -0.3236527409888722 0.712044807645315 0.6230899575147529
-23.451066666666666 34.0264 1807.8633333333335 -0.27379819758442325 -0.40439551165363125 0.8726389958934445
-29.40166666666667 79.1728 2124.5399999999995 0.048249272435599254 -0.8783392328141758 0.47559667766800057
-19.526333333333334 75.10823333333333 1873.9833333333333 -0.9791344109738567 -0.1938717211269725 0.060906165485474645
-31.870733333333334 184.41166666666666 1565.1266666666668 -0.4753317210201752 -0.422589952452746 0.7716718778587077
-27.6157 205.99900000000002 1592.9033333333334 0.48221066242613714 0.8036424695211607 0.34875730562165447
11.733333333333334 -413.8666666666666 2992.0 0.0 0.0 1.0
-28.1858 -175.54633333333334 1761.7300000000002 0.5413391257499817 0.6314536877241527 0.5551740188371695
13.066666666666668 -210.9333333333333 2992.0 0.0 0.0 1.0
14.4 -134.13333333333333 2992.0 0.0 0.0 1.0
11.733333333333334 -58.133333333333326 2992.0 0.0 0.0 1.0
-38.212199999999996 -9.912883333333333 1408.0033333333333 -0.39488800324744466 -0.9114141963183274 0.11570491623376779
8.266666666666667 8.533333333333333 2992.0 0.0 0.0 1.0
-21.626 26.341466666666665 1824.39 0.0 0.0 1.0
-31.476566666666667 124.633 1587.2699999999998 -8.753621278059339e-29 -2.1385111981042513e-27 1.0
-31.931066666666663 127.01266666666668 1581.6766666666665 0.3921805241432474 -0.9156750787896258 0.08794081285921956
-33.62923333333333 131.03566666666669 1562.4000000000003 -4.672633960613875e-28 -8.066641002115217e-28 1.0
-33.95373333333333 137.24633333333335 1529.1466666666665 0.6698005094916545 0.32866860876519327 0.6658409893488627
-31.7249 153.015 1534.3633333333335 0.6923094709678744 0.46025834851049485 0.5557606040684908
-34.839333333333336 206.99033333333333 1550.2866666666666 0.5223231475576331 -0.5533948976278863 0.6487932003380646
10.4 -441.8666666666666 2992.0 0.0 0.0 1.0
10.666666666666666 -440.2666666666667 2992.0 0.0 0.0 1.0
10.4 -412.0 2992.0 0.0 0.0 1.0
-32.38783333333333 -180.311 1739.5633333333333 -0.02938740043008759 0.9986776022881635 0.04218325952230793
-29.0577 -152.36733333333333 1748.01 0.8423437213463818 -0.04680354200427168 0.5369045385952549
13.866666666666667 -240.0 2992.0 0.0 0.0 1.0
13.866666666666667 -137.86666666666667 2992.0 0.0 0.0 1.0
-31.8105 -6.09137 1518.78 0.0 0.0 1.0
-23.36283333333333 60.39506666666666 1760.03 -2.102891874861484e-16 -0.9955226586249233 0.09452320436995551
-27.131033333333335 99.0791 1739.5433333333333 -0.99840768521926 0.027771900701041113 0.049100057297017684
-27.131033333333335 106.03566666666666 1739.5433333333333 -0.9929223639967197 -0.11024461035736922 -0.04417357764905666
9.066666666666666 396.5333333333333 2992.0 0.0 0.0 1.0
11.466666666666669 438.1333333333334 2992.0 0.0 0.0 1.0
10.4 -441.8666666666666 2992.0 0.0 0.0 1.0
8.8 -336.8 2992.0 0.0 0.0 1.0
-28.037433333333336 -190.66966666666667 1782.7233333333334 0.321799849065653 0.8448407694031331 0.42742125765530753
-27.3978 -176.587 1756.57 -0.6006163766752063 -0.7005985858377441 0.38525522655987376
10.666666666666666 -282.1333333333334 2992.0 0.0 0.0 1.0
-28.226100000000002 -143.00199999999998 1749.71 0.0 0.0 1.0
10.133333333333333 -221.86666666666665 2992.0 0.0 0.0 1.0
9.333333333333334 -116.8 2992.0 0.0 0.0 1.0
-25.7337 -31.098133333333333 1744.61 0.0 0.0 1.0
10.933333333333332 117.60000000000001 2992.0 0.0 0.0 1.0
-27.5415 97.95276666666666 1736.1933333333334 -0.9957143317542779 -0.015597883319950009 0.09115742194176538
-27.593 108.05533333333334 1734.5 -0.9925768097021801 6.0099985185935465e-06 0.12161939321227597
10.4 -441.8666666666666 2992.0 0.0 0.0 1.0
12.266666666666666 -350.40000000000003 2992.0 0.0 0.0 1.0
-27.46506666666667 -192.41533333333334 1791.62 0.0 0.0 1.0
14.133333333333333 -294.93333333333334 2992.0 0.0 0.0 1.0
-30.054000000000002 -139.23733333333334 1751.42 0.5708635010296016 0.19020651408949157 0.7987091743495562
-26.666666666666668 -91.73953333333333 1744.61 0.0 0.0 1.0
8.533333333333333 -109.60000000000001 2992.0 0.0 0.0 1.0
9.333333333333334 -64.53333333333335 2992.0 0.0 0.0 1.0
11.733333333333334 -58.133333333333326 2992.0 0.0 0.0 1.0
-27.988333333333333 14.112833333333333 1779.1899999999998 -0.16434657242799625 0.98604492247801 0.02656341443611132
-34.275866666666666 18.985233333333337 1732.8400000000001 -0.6200209259695919 0.5655670972485312 0.5437903179256508
-30.7728 62.61546666666666 1688.8633333333335 -0.9555887481076353 -0.26130352088634534 0.13627404177788924
-27.797633333333334 104.402 1732.83 -0.9925769997222316 -2.32839182100527e-17 0.1216178425331306
-28.003466666666668 106.92900000000002 1731.1499999999999 -0.9925760930303797 9.339007135688711e-17 0.1216252422178347
-33.717733333333335 151.288 1550.2666666666667 0.7693256955131889 0.1284177315578342 0.6258169544241258
-35.36066666666667 154.082 1508.58 -0.6917838047634188 0.6918694215709409 0.20676525569384133
8.533333333333333 328.8 2992.0 0.0 0.0 1.0
-36.448100000000004 191.94299999999998 1433.89 0.5543590628757821 0.42326595662251976 0.7166114423953248
8.8 -317.06666666666666 2992.0 0.0 0.0 1.0
10.666666666666666 -282.1333333333334 2992.0 0.0 0.0 1.0
-29.211366666666667 -159.53166666666667 1748.01 -0.8407827582772472 -0.5254499140160677 0.13033319317891148
7.733333333333333 -108.0 2992.0 0.0 0.0 1.0
8.0 -91.46666666666665 2992.0 0.0 0.0 1.0
9.333333333333334 -64.53333333333335 2992.0 0.0 0.0 1.0
-35.8714 151.60733333333334 1518.78 0.0 0.0 1.0
9.066666666666668 326.40000000000003 2992.0 0.0 0.0 1.0
9.066666666666668 326.40000000000003 2992.0 0.0 0.0 1.0
9.066666666666666 396.5333333333333 2992.0 0.0 0.0 1.0
9.333333333333334 436.26666666666665 2992.0 0.0 0.0 1.0
10.4 -412.0 2992.0 0.0 0.0 1.0
14.666666666666666 -374.93333333333334 2992.0 0.0 0.0 1.0
6.400000000000001 -354.93333333333334 2992.0 0.0 0.0 1.0
6.933333333333334 -132.53333333333333 2992.0 0.0 0.0 1.0
9.333333333333334 -116.8 2992.0 0.0 0.0 1.0
6.933333333333333 -90.13333333333333 2992.0 0.0 0.0 1.0
-28.538 -20.428833333333333 1749.71 0.0 0.0 1.0
-27.988333333333333 14.112833333333333 1779.1899999999998 -0.16434657242799625 0.9860449224780099 0.026563414436111328
-19.377396666666666 42.84026666666667 1813.34 -0.2880443765099299 -0.40524698920382324 0.867643541382198
-9.210696666666665 110.25033333333333 2640.423333333333 0.8210172257418276 0.5361261249428739 0.19621287722504507
-29.626433333333335 109.62933333333335 1717.8966666666665 -0.9925930296099771 -8.582200458313383e-16 0.12148694402974773
-29.626433333333335 109.62933333333335 1717.8966666666665 -0.9925930296099771 -5.251531384437913e-16 0.12148694402974762
7.466666666666666 262.6666666666667 2992.0 0.0 0.0 1.0
7.466666666666666 262.6666666666667 2992.0 0.0 0.0 1.0
-34.126733333333334 147.45333333333335 1513.6666666666667 -0.8729229550460291 -1.0973447787327419e-17 0.487858088539801
-35.07566666666667 153.118 1513.6666666666667 -0.7005830554367324 0.7006697612604285 0.13507504614171567
-37.54743333333334 155.0283333333333 1507.3099999999997 0.19986163657349865 0.971014694295242 0.1310945829883155
-29.211366666666667 -159.53166666666667 1748.01 -0.8407827582772472 -0.5254499140160677 0.13033319317891148
-30.52 -113.015 1751.42 0.7486688885695139 2.6333388895646543e-16 0.6629441117380023
-30.52 -113.015 1751.42 0.7486688885695139 2.6333388895646543e-16 0.6629441117380023
7.733333333333334 -108.0 2992.0 0.0 0.0 1.0
7.733333333333334 -108.0 2992.0 0.0 0.0 1.0
6.933333333333334 -90.40000000000002 2992.0 0.0 0.0 1.0
-30.7728 62.61546666666666 1688.8633333333335 -0.9555887481076353 -0.26130352088634534 0.13627404177788924
-29.3261 95.51976666666667 1722.8533333333332 -0.9860648739061176 1.6969790905713207e-14 0.16636124683505046
-29.3261 95.51976666666667 1722.8533333333332 -0.9860648739061141 -7.718421187253957e-15 0.16636124683507164
-30.027533333333334 107.73933333333333 1714.62 -0.992588363480908 -6.218475519146569e-05 0.12152504604133627
-37.16186666666667 133.95966666666666 1570.61 -0.33326381924497905 0.7787595487530313 0.5314779318167642
7.466666666666666 331.2 2992.0 0.0 0.0 1.0
-45.09076666666667 189.1916666666667 1399.2299999999998 0.1806830723120941 -0.43576672526384624 0.8817374827763002
9.066666666666666 396.5333333333333 2992.0 0.0 0.0 1.0
8.799999999999999 414.1333333333334 2992.0 0.0 0.0 1.0
8.799999999999999 -441.6000000000001 2992.0 0.0 0.0 1.0
5.6000000000000005 -424.0 2992.0 0.0 0.0 1.0
5.6000000000000005 -424.0 2992.0 0.0 0.0 1.0
4.533333333333333 -321.59999999999997 2992.0 0.0 0.0 1.0
-29.129766666666665 -174.75966666666667 1761.7300000000002 0.5388601611943706 0.6285620598407818 0.560838179519093
3.466666666666667 -184.5333333333333 2992.0 0.0 0.0 1.0
4.0 -2.6666666666666665 2992.0 0.0 0.0 1.0
-27.721733333333333 18.6887 1777.43 -0.9761962663167139 -0.06972410859706941 0.20537623599056365
9.316783333333333 115.87466666666667 2948.2100000000005 0.7954139276186949 0.6060661226800161 0.0007339549124632845
