ply
format ascii 1.0
comment VCGLIB generated
element vertex 840
property float x
property float y
property float z
property float nx
property float ny
property float nz
element face 0
property list uchar int vertex_indices
end_header
-36.029266666666665 25.496333333333336 1875.86 0.0 0.0 1.0
-37.13996666666667 32.78953333333333 1807.8499999999997 -8.451212044473293e-27 -3.1497862690353114e-26 1.0
-37.679433333333336 54.0413 1765.1899999999998 0.0 -1.0 0.0
-39.7247 59.86233333333333 1765.1899999999998 0.0 0.0 1.0
-38.362566666666666 76.80310000000001 1749.71 0.0 0.0 1.0
-38.67446666666667 78.67446666666666 1749.71 0.0 0.0 1.0
-29.002399999999998 106.375 2183.94 0.0 0.0 1.0
-39.1423 101.44266666666665 1749.71 0.0 0.0 1.0
-38.67446666666667 104.56133333333332 1749.71 0.0 0.0 1.0
-38.67446666666667 104.56133333333332 1749.71 0.0 0.0 1.0
-38.8304 108.46 1749.71 0.0 0.0 1.0
-39.45419999999999 111.11099999999999 1749.71 0.0 0.0 1.0
-39.10593333333333 116.38466666666666 1744.61 0.0 0.0 1.0
-29.002433333333332 -133.431 2183.94 0.0 0.0 1.0
-29.002433333333332 -133.431 2183.94 0.0 0.0 1.0
-29.197066666666668 -125.839 2183.94 0.0 0.0 1.0
-29.19706666666666 -124.67166666666667 2183.94 0.0 0.0 1.0
-28.418499999999998 -118.832 2183.94 0.0 0.0 1.0
-29.586366666666663 -111.63033333333334 2183.94 0.0 0.0 1.0
-38.2467 -87.82869999999998 1829.97 0.0 0.0 1.0
-37.5943 -83.0989 1829.97 0.0 0.0 1.0
-38.014199999999995 -68.49036666666666 1818.84 0.0 0.0 1.0
-38.338433333333334 -64.5998 1818.84 0.0 0.0 1.0
-37.8521 -64.11346666666667 1818.84 0.0 0.0 1.0
-37.52786666666666 -51.14490000000001 1818.84 0.0 0.0 1.0
-37.52786666666666 -51.14490000000001 1818.84 0.0 0.0 1.0
-38.014199999999995 -48.38903333333334 1818.84 0.0 0.0 1.0
-28.418499999999998 -48.5645 2183.94 0.0 0.0 1.0
-28.418499999999998 -48.5645 2183.94 0.0 0.0 1.0
-37.010099999999994 -31.757566666666666 1813.33 0.0 0.0 1.0
-37.20363333333333 -22.776100000000003 1818.84 0.0 0.0 1.0
-38.014199999999995 12.563333333333333 1818.84 0.0 0.0 1.0
-29.39173333333333 20.53526666666667 2183.94 0.0 0.0 1.0
-29.39173333333333 20.53526666666667 2183.94 0.0 0.0 1.0
-36.364066666666666 21.240033333333333 1854.5500000000002 1.0397744811694498e-17 -0.9952688079913663 0.09715966158568459
-34.2857 22.277433333333335 1858.39 0.0 0.0 1.0
-38.2598 28.991500000000002 1822.54 0.5780139554707585 -0.7881861592984485 0.2113349132808125
-37.13996666666667 32.78953333333333 1807.8499999999997 -8.451212044473293e-27 -3.1497862690353114e-26 1.0
-38.938066666666664 46.96163333333333 1765.1899999999998 3.625904764015027e-27 -3.625904764015018e-27 1.0
-39.3353 64.35969999999999 1754.84 0.0 0.0 1.0
-38.67443333333333 71.9688 1749.71 0.0 0.0 1.0
-39.76606666666667 72.74853333333333 1749.71 0.0 0.0 1.0
-39.8045 87.6637 1754.84 0.0 0.0 1.0
-38.67443333333333 95.20466666666668 1749.71 0.0 0.0 1.0
-39.2982 95.6725 1749.71 0.0 0.0 1.0
-39.610099999999996 97.07599999999998 1749.71 0.0 0.0 1.0
-38.8304 108.46 1749.71 0.0 0.0 1.0
-39.1423 112.51433333333334 1749.71 0.0 0.0 1.0
-27.834533333333336 161.46 2183.94 0.0 0.0 1.0
-38.3699 -132.66466666666665 1875.86 0.0 0.0 1.0
-36.530833333333334 -127.649 1875.86 0.0 0.0 1.0
-36.530833333333334 -126.646 1875.86 0.0 0.0 1.0
-28.613133333333334 -130.12166666666667 2183.94 0.0 0.0 1.0
-29.975666666666665 -127.007 2183.94 0.0 0.0 1.0
-29.78103333333333 -126.423 2183.94 0.0 0.0 1.0
-29.197066666666668 -124.67166666666667 2183.94 0.0 0.0 1.0
-29.586366666666667 -119.80533333333334 2183.94 0.0 0.0 1.0
-38.2114 -77.6423 1824.39 0.0 0.0 1.0
-37.8862 -75.8537 1824.39 0.0 0.0 1.0
-38.824733333333334 -70.27356666666667 1818.84 0.0 0.0 1.0
-38.1763 -69.78723333333333 1818.84 0.0 0.0 1.0
-38.014199999999995 -68.49036666666666 1818.84 0.0 0.0 1.0
-38.50053333333333 -63.46503333333334 1818.84 0.0 0.0 1.0
-38.500499999999995 -49.03746666666667 1818.84 0.0 0.0 1.0
-38.014199999999995 -48.38903333333334 1818.84 0.0 0.0 1.0
-37.20363333333333 -42.39106666666667 1818.84 0.0 0.0 1.0
-38.01416666666666 -26.504566666666665 1818.84 0.0 0.0 1.0
-37.04153333333333 -17.91286666666667 1818.84 0.0 0.0 1.0
-37.3984 0.4065033333333334 1824.39 0.0 0.0 1.0
-37.3984 4.9593533333333335 1824.39 0.0 0.0 1.0
-29.39173333333333 20.53526666666667 2183.94 0.0 0.0 1.0
-36.029266666666665 25.496333333333336 1875.86 0.0 0.0 1.0
-39.19676666666667 36.546166666666664 1802.41 0.0 0.0 1.0
-38.07226666666667 37.0281 1802.41 0.0 0.0 1.0
-38.93803333333333 51.05213333333334 1765.1899999999998 2.095249468256587e-27 1.0637025310064928e-27 1.0
-39.41003333333333 53.25466666666667 1765.1899999999998 -4.079863135865821e-27 8.159582196049794e-27 1.0
-39.1423 67.60236666666667 1749.71 0.0 0.0 1.0
-39.6481 87.1945 1754.84 0.0 0.0 1.0
-39.1423 104.56133333333332 1749.71 0.0 0.0 1.0
-39.4542 111.11099999999999 1749.71 0.0 0.0 1.0
-39.4542 111.11099999999999 1749.71 0.0 0.0 1.0
-40.349866666666664 119.64999999999999 1744.61 0.0 0.0 1.0
-27.834533333333336 161.46 2183.94 0.0 0.0 1.0
-30.559633333333334 -137.12866666666665 2183.94 0.0 0.0 1.0
-30.559633333333334 -137.12866666666665 2183.94 0.0 0.0 1.0
-30.559633333333334 -136.35 2183.94 0.0 0.0 1.0
-29.975666666666665 -127.007 2183.94 0.0 0.0 1.0
-38.01626666666667 -97.9346 1854.5500000000002 -0.7046552202424686 -0.7047974886091606 -0.08198488052841361
-38.01626666666667 -97.9346 1854.5500000000002 -0.7046552202424694 -0.7047974886091595 -0.08198488052841314
-38.2467 -87.82870000000001 1829.97 0.0 0.0 1.0
-37.886199999999995 -73.90243333333332 1824.39 0.0 0.0 1.0
-39.47313333333333 -52.928066666666666 1818.84 0.0 0.0 1.0
-38.211400000000005 -8.861790000000001 1824.39 0.0 0.0 1.0
-38.3384 -3.3232 1818.84 0.0 0.0 1.0
-38.861799999999995 3.983743333333333 1824.39 0.0 0.0 1.0
-38.014199999999995 8.186426666666666 1818.84 0.0 0.0 1.0
-30.170333333333332 22.092466666666667 2183.94 0.0 0.0 1.0
-30.365 23.455 2183.94 0.0 0.0 1.0
-30.754266666666666 24.622866666666663 2183.94 0.0 0.0 1.0
-39.3574 44.25703333333333 1802.41 0.0 0.0 1.0
-39.3574 44.25703333333333 1802.41 0.0 0.0 1.0
-38.938066666666664 46.96163333333334 1765.1899999999998 -7.251809528030037e-27 1.0878226479742788e-26 1.0
-41.02563333333333 46.785000000000004 1770.41 0.0 0.0 1.0
-40.03933333333333 54.513299999999994 1765.1899999999998 -1.6182450992038377e-27 -1.3304910516581683e-26 1.0
-39.372566666666664 62.666666666666664 1760.0 0.0 0.0 1.0
-40.5865 66.7058 1754.84 0.0 0.0 1.0
-40.5865 66.7058 1754.84 0.0 0.0 1.0
-39.1423 67.60236666666667 1749.71 0.0 0.0 1.0
-40.07796666666667 78.20663333333333 1749.71 0.0 0.0 1.0
-41.01363333333334 82.2612 1749.71 0.0 0.0 1.0
-40.2737 87.0381 1754.84 0.0 0.0 1.0
-31.14356666666667 114.74433333333333 2183.94 0.0 0.0 1.0
-31.14356666666667 114.74433333333333 2183.94 0.0 0.0 1.0
-40.70173333333333 98.01166666666666 1749.71 0.0 0.0 1.0
-39.92203333333333 101.44266666666668 1749.71 0.0 0.0 1.0
-40.50536666666667 116.22933333333333 1744.61 0.0 0.0 1.0
-40.50536666666667 116.22933333333333 1744.61 0.0 0.0 1.0
-40.660833333333336 118.09533333333333 1744.61 0.0 0.0 1.0
-40.81633333333333 120.272 1744.61 0.0 0.0 1.0
-40.46853333333333 125.38966666666666 1753.1299999999999 -0.6793115651196645 0.6796012502220729 0.2769078153307833
-26.8613 -157.37233333333333 2183.94 0.0 0.0 1.0
-36.0 -137.91666666666666 1870.0 0.0 0.0 1.0
-30.559633333333334 -137.12866666666665 2183.94 0.0 0.0 1.0
-30.75423333333333 -119.61066666666666 2183.94 0.0 0.0 1.0
-38.01626666666667 -97.9346 1854.5500000000002 -0.7046552202424694 -0.7047974886091595 -0.08198488052841314
-38.2467 -87.82870000000001 1829.97 0.0 0.0 1.0
-38.5729 -82.7727 1829.97 0.0 0.0 1.0
-39.6748 -79.75609999999999 1824.39 0.0 0.0 1.0
-38.5366 -74.55286666666666 1824.39 0.0 0.0 1.0
-38.500499999999995 -52.279633333333344 1818.84 0.0 0.0 1.0
-38.3384 -50.01013333333333 1818.84 0.0 0.0 1.0
-40.56563333333333 -37.41416666666667 1813.33 0.0 0.0 1.0
-40.0808 -34.02023333333333 1813.33 0.0 0.0 1.0
-39.14893333333333 -26.828766666666667 1818.84 0.0 0.0 1.0
-38.8618 -8.048783333333335 1824.39 0.0 0.0 1.0
-39.6748 -7.560980000000001 1824.39 0.0 0.0 1.0
-33.61066666666667 26.81226666666667 1885.743333333333 -0.35598252741468983 -0.9111160918739704 0.20771111502216807
-40.2014 31.822733333333332 1807.8499999999997 -4.994362874523191e-27 -5.378092242493933e-27 1.0
-41.02563333333333 46.785000000000004 1770.41 0.0 0.0 1.0
-40.66863333333333 52.7827 1765.1899999999998 0.0 0.0 1.0
-39.7247 59.86233333333333 1765.1899999999998 0.0 0.0 1.0
-40.9833 60.334333333333326 1765.1899999999998 -2.7195726181710956e-27 -1.087771429204492e-26 1.0
-40.78433333333333 63.29413333333334 1760.0 0.0 0.0 1.0
-40.4301 64.67253333333333 1754.84 0.0 0.0 1.0
-40.701766666666664 73.6842 1749.71 0.0 0.0 1.0
-40.7429 87.9765 1754.84 0.0 0.0 1.0
-40.7429 87.9765 1754.84 0.0 0.0 1.0
-40.54583333333333 101.91066666666667 1749.71 0.0 0.0 1.0
-41.013666666666666 103.002 1749.71 0.0 0.0 1.0
-40.857733333333336 111.891 1749.71 0.0 0.0 1.0
-40.971833333333336 117.47333333333334 1744.61 0.0 0.0 1.0
-40.349866666666664 118.87266666666669 1744.61 0.0 0.0 1.0
-29.39173333333333 155.2313333333333 2183.94 0.0 0.0 1.0
-40.46853333333333 125.38966666666666 1753.1299999999999 -0.6793115651196661 0.6796012502220716 0.27690781533078285
-41.44263333333333 126.048 1751.42 3.4975218668455114e-16 0.9595083379267668 0.28168022552002786
-31.3382 -139.07533333333333 2183.94 0.0 0.0 1.0
-31.143533333333334 -127.59100000000001 2183.94 0.0 0.0 1.0
-31.143533333333334 -127.59100000000001 2183.94 0.0 0.0 1.0
-30.36493333333333 -125.25533333333333 2183.94 0.0 0.0 1.0
-39.17693333333333 -104.27966666666667 1846.91 0.0 0.0 1.0
-39.17693333333333 -104.27966666666667 1846.91 0.0 0.0 1.0
-30.75423333333333 -119.61066666666666 2183.94 0.0 0.0 1.0
-32.11676666666667 -111.825 2183.94 0.0 0.0 1.0
-39.4274 -90.55213333333332 1835.58 0.0 0.0 1.0
-39.7974 -64.27556666666668 1818.84 0.0 0.0 1.0
-39.14896666666667 -63.46503333333334 1818.84 0.0 0.0 1.0
-38.1763 -43.0395 1818.84 0.0 0.0 1.0
-40.24243333333333 -39.35353333333334 1813.33 0.0 0.0 1.0
-40.0808 -34.02023333333333 1813.33 0.0 0.0 1.0
-40.44583333333333 -13.860166666666666 1818.84 0.0 0.0 1.0
-37.8862 -11.625996666666666 1824.39 0.0 0.0 1.0
-39.6353 -12.725433333333333 1818.84 0.0 0.0 1.0
-40.2837 -11.914899999999998 1818.84 0.0 0.0 1.0
-39.79736666666667 -3.48531 1818.84 0.0 0.0 1.0
-41.094233333333335 14.832833333333333 1818.84 0.0 0.0 1.0
-31.532833333333333 26.18003333333333 2183.94 0.0 0.0 1.0
-32.50606666666666 28.710466666666672 2183.94 0.0 0.0 1.0
-39.839333333333336 44.25703333333333 1802.41 0.0 0.0 1.0
-41.09806666666666 65.17646666666667 1760.0 0.0 0.0 1.0
-41.32553333333333 76.3353 1749.71 0.0 0.0 1.0
-41.32553333333333 76.3353 1749.71 0.0 0.0 1.0
-41.32553333333333 81.1696 1749.71 0.0 0.0 1.0
-41.32553333333333 81.1696 1749.71 0.0 0.0 1.0
-40.7429 87.9765 1754.84 0.0 0.0 1.0
-39.205833333333324 -133.66766666666666 1875.86 0.0 0.0 1.0
-32.8954 -142.77366666666668 2183.94 0.0 0.0 1.0
-31.3382 -139.07533333333333 2183.94 0.0 0.0 1.0
-31.14356666666666 -136.73933333333332 2183.94 0.0 0.0 1.0
-39.8354 -105.926 1846.91 0.0 0.0 1.0
-39.17693333333333 -104.27966666666667 1846.91 0.0 0.0 1.0
-39.50616666666667 -103.12766666666666 1846.91 0.0 0.0 1.0
-32.31143333333333 -113.96600000000001 2183.94 0.0 0.0 1.0
-32.11676666666667 -111.825 2183.94 0.0 0.0 1.0
-37.66153333333334 -92.14359999999999 1841.2300000000002 2.592265298953319e-27 -2.7775308065666124e-26 1.0
-40.5301 -84.2406 1829.97 0.0 0.0 1.0
-39.6748 -79.75609999999999 1824.39 0.0 0.0 1.0
-39.8374 -77.9675 1824.39 0.0 0.0 1.0
-40.6079 -70.27356666666667 1818.84 0.0 0.0 1.0
-39.473166666666664 -69.62513333333334 1818.84 0.0 0.0 1.0
-40.1216 -65.41033333333333 1818.84 0.0 0.0 1.0
-40.4458 -59.898666666666664 1818.84 0.0 0.0 1.0
-40.4458 -54.5491 1818.84 0.0 0.0 1.0
-39.79736666666667 -27.801433333333332 1818.84 0.0 0.0 1.0
-39.79736666666667 -27.801433333333332 1818.84 0.0 0.0 1.0
-41.094233333333335 -4.944276666666667 1818.84 0.0 0.0 1.0
-38.861799999999995 3.983743333333333 1824.39 0.0 0.0 1.0
-40.77 8.51064 1818.84 0.0 0.0 1.0
-37.333333333333336 27.75 1870.0 0.0 0.0 1.0
-40.2014 31.822733333333332 1807.8499999999997 -4.994362874523201e-27 -5.378092242493944e-27 1.0
-39.19676666666667 36.546166666666664 1802.41 0.0 0.0 1.0
-39.839333333333336 43.935766666666666 1802.41 0.0 0.0 1.0
-41.368500000000004 66.2366 1754.84 0.0 0.0 1.0
-41.32553333333333 76.3353 1749.71 0.0 0.0 1.0
-41.32553333333333 81.1696 1749.71 0.0 0.0 1.0
-41.01363333333333 82.26119999999999 1749.71 0.0 0.0 1.0
-42.41713333333333 93.95710000000001 1749.71 0.0 0.0 1.0
-40.701766666666664 104.24933333333333 1749.71 0.0 0.0 1.0
-41.6374 107.83600000000001 1749.71 0.0 0.0 1.0
-41.6374 107.836 1749.71 0.0 0.0 1.0
-41.6374 107.836 1749.71 0.0 0.0 1.0
-40.97183333333333 116.69566666666667 1744.61 0.0 0.0 1.0
-39.54023333333333 -135.507 1875.86 0.0 0.0 1.0
-40.04176666666667 -131.15966666666668 1875.86 0.0 0.0 1.0
-40.32923333333333 -115.967 1846.91 0.0 0.0 1.0
-40.32923333333333 -113.827 1846.91 0.0 0.0 1.0
-40.32923333333333 -113.827 1846.91 0.0 0.0 1.0
-40.0 -102.30433333333333 1846.91 0.0 0.0 1.0
-32.31143333333333 -113.96600000000001 2183.94 0.0 0.0 1.0
-32.7007 -111.241 2183.94 0.0 0.0 1.0
-40.2039 -83.262 1829.97 0.0 0.0 1.0
-40.77 -65.89666666666666 1818.84 0.0 0.0 1.0
-40.77 -60.5471 1818.84 0.0 0.0 1.0
-40.4458 -59.898666666666664 1818.84 0.0 0.0 1.0
-40.4458 -54.5491 1818.84 0.0 0.0 1.0
-40.4458 -54.5491 1818.84 0.0 0.0 1.0
-40.6079 -54.0628 1818.84 0.0 0.0 1.0
-42.666666666666664 -44.8485 1813.33 0.0 0.0 1.0
-40.4458 -23.748733333333334 1818.84 0.0 0.0 1.0
-40.6079 -19.37183333333333 1818.84 0.0 0.0 1.0
-40.6079 -19.371833333333335 1818.84 0.0 0.0 1.0
-40.6079 -19.371833333333335 1818.84 0.0 0.0 1.0
-41.094233333333335 -17.426533333333335 1818.84 0.0 0.0 1.0
-32.50606666666666 28.710466666666672 2183.94 0.0 0.0 1.0
-37.333333333333336 27.75 1870.0 0.0 0.0 1.0
-35.23113333333333 34.74453333333334 2183.94 0.0 0.0 1.0
-40.2014 31.822733333333332 1807.8499999999997 -4.994362874523201e-27 -5.378092242493944e-27 1.0
-42.2419 53.56933333333333 1765.1899999999998 0.0 0.0 1.0
-41.09806666666666 65.17646666666667 1760.0 0.0 0.0 1.0
-42.72906666666666 70.8772 1749.71 0.0 0.0 1.0
-42.72906666666666 70.8772 1749.71 0.0 0.0 1.0
-41.4815 74.61986666666667 1749.71 0.0 0.0 1.0
-41.637433333333334 80.85773333333333 1749.71 0.0 0.0 1.0
-31.92213333333333 112.60333333333334 2183.94 0.0 0.0 1.0
-31.92213333333333 112.60333333333334 2183.94 0.0 0.0 1.0
-43.196866666666665 91.9298 1749.71 0.0 0.0 1.0
-42.5731 97.6998 1749.71 0.0 0.0 1.0
-41.949333333333335 110.17533333333331 1749.71 0.0 0.0 1.0
-41.63746666666666 112.35866666666668 1749.71 0.0 0.0 1.0
-41.63746666666666 112.35866666666668 1749.71 0.0 0.0 1.0
-42.682199999999995 120.42766666666667 1744.61 0.0 0.0 1.0
-40.04176666666667 -131.15966666666668 1875.86 0.0 0.0 1.0
-39.8354 -105.926 1846.91 0.0 0.0 1.0
-40.823033333333335 -101.646 1846.91 0.0 0.0 1.0
-41.90476666666667 -57.1429 1818.84 0.0 0.0 1.0
-40.56563333333333 -37.41416666666667 1813.33 0.0 0.0 1.0
-40.56563333333333 -37.41416666666667 1813.33 0.0 0.0 1.0
-41.2121 -34.505066666666664 1813.33 0.0 0.0 1.0
-39.6748 -7.560980000000001 1824.39 0.0 0.0 1.0
-40.77 -2.9989866666666667 1818.84 0.0 0.0 1.0
-42.439 17.642300000000002 1824.39 0.0 0.0 1.0
-33.28466666666667 29.294433333333334 2183.94 0.0 0.0 1.0
-41.606433333333335 46.0241 1802.41 0.0 0.0 1.0
-43.185833333333335 50.10816666666667 1765.1899999999998 -4.801759659341352e-32 2.7194285755545748e-27 1.0
-42.87120000000001 52.94003333333333 1765.1899999999998 -4.835222602283688e-27 1.2086775855586734e-27 1.0
-41.769933333333334 60.649 1765.1899999999998 0.0 1.0 0.0
-41.368500000000004 66.2366 1754.84 0.0 0.0 1.0
-41.793366666666664 76.95906666666667 1749.71 0.0 0.0 1.0
-43.040933333333335 94.7368 1749.71 0.0 0.0 1.0
-42.72903333333333 98.47953333333334 1749.71 0.0 0.0 1.0
-42.5731 98.94736666666665 1749.71 0.0 0.0 1.0
-42.5731 98.94736666666665 1749.71 0.0 0.0 1.0
-41.593799999999995 115.60733333333333 1744.61 0.0 0.0 1.0
-42.682199999999995 121.20533333333333 1744.61 0.0 0.0 1.0
-42.9932 122.60433333333333 1744.61 0.0 0.0 1.0
-40.20896666666666 -136.67733333333334 1875.86 0.0 0.0 1.0
-41.25786666666667 -129.22433333333333 1881.76 0.0 0.0 1.0
-42.3522 -120.78633333333333 1852.6433333333334 0.21527416714133688 0.9674689634777215 0.13289408440162592
-40.98766666666666 -116.62533333333334 1846.91 0.0 0.0 1.0
-40.98766666666666 -114.15633333333334 1846.91 0.0 0.0 1.0
-32.89536666666667 -111.43566666666668 2183.94 0.0 0.0 1.0
-42.3242 -86.524 1829.97 0.0 0.0 1.0
-41.1825 -83.0989 1829.97 0.0 0.0 1.0
-41.9512 -77.1545 1824.39 0.0 0.0 1.0
-41.580533333333335 -70.43566666666668 1818.84 0.0 0.0 1.0
-41.580533333333335 -66.22089999999999 1818.84 0.0 0.0 1.0
-41.580533333333335 -60.8713 1818.84 0.0 0.0 1.0
-41.0942 -47.90273333333334 1818.84 0.0 0.0 1.0
-40.8889 -39.35353333333334 1813.33 0.0 0.0 1.0
-41.41843333333333 -11.428566666666667 1818.84 0.0 0.0 1.0
-41.90473333333333 -2.8368800000000003 1818.84 0.0 0.0 1.0
-43.089400000000005 5.934959999999999 1824.39 0.0 0.0 1.0
-42.39106666666667 15.157033333333333 1818.84 0.0 0.0 1.0
-42.439 17.642300000000002 1824.39 0.0 0.0 1.0
-42.87120000000001 52.94003333333333 1765.1899999999998 -4.835222602283688e-27 1.2086775855586737e-27 1.0
-43.18586666666667 60.8063 1765.1899999999998 -1.450361905605992e-26 -6.527704283357858e-26 1.0
-42.884966666666664 94.26896666666666 1749.71 0.0 0.0 1.0
-43.040933333333335 94.7368 1749.71 0.0 0.0 1.0
-42.72903333333333 98.47953333333334 1749.71 0.0 0.0 1.0
-34.2579 120.77833333333332 2183.94 0.0 0.0 1.0
-42.9932 120.11666666666667 1744.61 0.0 0.0 1.0
-42.9932 122.60433333333334 1744.61 0.0 0.0 1.0
-42.9932 122.60433333333333 1744.61 0.0 0.0 1.0
-41.21209999999999 -136.84466666666665 1875.86 0.0 0.0 1.0
-41.2121 -130.82533333333333 1875.86 0.0 0.0 1.0
-41.25786666666667 -129.22433333333333 1881.76 0.0 0.0 1.0
-34.45256666666666 -143.94166666666666 2183.94 0.0 0.0 1.0
-41.1825 -83.0989 1829.97 0.0 0.0 1.0
-41.9512 -77.1545 1824.39 0.0 0.0 1.0
-42.06686666666666 -66.54509999999999 1818.84 0.0 0.0 1.0
-41.90476666666667 -57.1429 1818.84 0.0 0.0 1.0
-42.828300000000006 -32.40403333333334 1813.33 0.0 0.0 1.0
-41.74266666666667 -17.264433333333333 1818.84 0.0 0.0 1.0
-41.58056666666666 -16.129666666666665 1818.84 0.0 0.0 1.0
-41.094233333333335 -4.944276666666667 1818.84 0.0 0.0 1.0
-42.5532 13.698066666666668 1818.84 0.0 0.0 1.0
-33.673966666666665 25.790733333333332 2183.94 0.0 0.0 1.0
-42.4572 33.595166666666664 1807.8499999999997 -2.5718111328317365e-28 -1.0572229604751249e-27 1.0
-42.730933333333326 41.04416666666667 1802.41 0.0 0.0 1.0
-42.76133333333333 47.10060000000001 1770.41 0.0 0.0 1.0
-43.185833333333335 50.10816666666667 1765.1899999999998 -4.8017596593402256e-32 2.7194285755545748e-27 1.0
-43.185833333333335 55.457233333333335 1765.1899999999998 -4.0290676047767964e-28 7.113969215027004e-33 1.0
-43.1969 70.09750000000001 1749.71 0.0 0.0 1.0
-43.352833333333336 80.85773333333333 1749.71 0.0 0.0 1.0
-43.04093333333333 94.7368 1749.71 0.0 0.0 1.0
-42.261199999999995 105.80866666666667 1749.71 0.0 0.0 1.0
-43.92613333333333 112.96433333333334 1744.61 0.0 0.0 1.0
-44.081633333333336 117.94000000000001 1744.61 0.0 0.0 1.0
-43.77066666666667 119.65033333333334 1744.61 0.0 0.0 1.0
-42.6086 126.58233333333334 1748.01 2.668560670976814e-16 0.9998191763163812 0.01901616864758693
-43.61516666666666 124.159 1744.61 0.0 0.0 1.0
-41.2121 -130.82533333333333 1875.86 0.0 0.0 1.0
-41.2121 -130.82533333333333 1875.86 0.0 0.0 1.0
-41.97533333333333 -116.29633333333334 1846.91 0.0 0.0 1.0
-41.97533333333333 -114.48566666666666 1846.91 0.0 0.0 1.0
-40.658433333333335 -107.243 1846.91 0.0 0.0 1.0
-42.46913333333333 -103.29199999999999 1846.91 0.0 0.0 1.0
-42.46913333333333 -101.15233333333333 1846.91 0.0 0.0 1.0
-42.46913333333333 -96.54323333333333 1846.91 0.0 0.0 1.0
-42.3242 -86.524 1829.97 0.0 0.0 1.0
-42.6016 -76.9919 1824.39 0.0 0.0 1.0
-42.06686666666666 -66.54509999999999 1818.84 0.0 0.0 1.0
-42.39106666666667 -61.19553333333334 1818.84 0.0 0.0 1.0
-42.391099999999994 -57.6292 1818.84 0.0 0.0 1.0
-42.391099999999994 -57.6292 1818.84 0.0 0.0 1.0
-42.828300000000006 -32.40403333333334 1813.33 0.0 0.0 1.0
-43.15153333333333 -30.78786666666667 1813.33 0.0 0.0 1.0
-42.5532 -17.91286666666667 1818.84 0.0 0.0 1.0
-42.36393333333333 -8.228786666666666 1828.11 0.5225330435060896 0.7837461692808513 0.3357099351849064
-42.71529999999999 12.401199999999998 1818.84 0.0 0.0 1.0
-42.71529999999999 12.401199999999998 1818.84 0.0 0.0 1.0
-35.4258 26.18003333333333 2183.94 0.0 0.0 1.0
-34.45256666666666 29.878366666666665 2183.94 0.0 0.0 1.0
-34.45256666666666 29.878366666666665 2183.94 0.0 0.0 1.0
-42.730933333333326 41.04416666666667 1802.41 0.0 0.0 1.0
-42.730933333333326 41.044166666666676 1802.41 0.0 0.0 1.0
-43.185833333333335 52.468066666666665 1765.1899999999998 0.0 0.0 1.0
-43.34316666666667 52.7827 1765.1899999999998 0.0 0.0 1.0
-43.1969 70.09750000000001 1749.71 0.0 0.0 1.0
-43.196866666666665 98.0117 1749.71 0.0 0.0 1.0
-44.081633333333336 117.94 1744.61 0.0 0.0 1.0
-43.459666666666664 122.60433333333333 1744.61 0.0 0.0 1.0
-42.63373333333333 -101.646 1846.91 0.0 0.0 1.0
-42.46913333333333 -100.3294 1846.91 0.0 0.0 1.0
-43.5174 -90.38850000000001 1835.58 0.0 0.0 1.0
-43.600033333333336 -74.01233333333333 1815.1666666666667 1.7808880129750934e-15 -0.8986080417063032 0.43875230755035693
-42.71526666666667 -70.27353333333333 1818.84 0.0 0.0 1.0
-43.36373333333333 -61.51976666666667 1818.84 0.0 0.0 1.0
-42.666666666666664 -44.8485 1813.33 0.0 0.0 1.0
-43.31313333333333 -34.18183333333334 1813.33 0.0 0.0 1.0
-43.31313333333333 -34.18183333333334 1813.33 0.0 0.0 1.0
-44.01213333333333 -24.883466666666667 1818.84 0.0 0.0 1.0
-43.52583333333333 -18.399200000000004 1818.84 0.0 0.0 1.0
-43.68796666666666 -10.942233333333334 1818.84 0.0 0.0 1.0
-43.201600000000006 -2.18845 1818.84 0.0 0.0 1.0
-43.36373333333333 -0.40526700000000004 1818.84 0.0 0.0 1.0
-42.71529999999999 12.401199999999998 1818.84 0.0 0.0 1.0
-42.5532 13.698066666666668 1818.84 0.0 0.0 1.0
-36.98296666666667 34.54986666666667 2183.94 0.0 0.0 1.0
-43.0522 46.345400000000005 1802.41 0.0 0.0 1.0
-44.12976666666666 50.10816666666667 1765.1899999999998 5.440201720125189e-27 -5.440585860899015e-27 1.0
-45.17646666666667 62.509800000000006 1760.0 0.0 0.0 1.0
-44.132533333333335 81.32556666666666 1749.71 0.0 0.0 1.0
-44.60036666666667 81.7934 1749.71 0.0 0.0 1.0
-44.912266666666675 83.6647 1749.71 0.0 0.0 1.0
-45.22416666666667 91.30603333333333 1749.71 0.0 0.0 1.0
-44.392599999999995 118.56200000000001 1744.61 0.0 0.0 1.0
-44.392599999999995 118.56200000000001 1744.61 0.0 0.0 1.0
-31.532833333333333 161.46 2183.94 0.0 0.0 1.0
-40.45923333333334 -137.72633333333332 1871.9533333333331 0.10919247895199823 -0.9827323105679843 0.14937941058267856
-42.3824 -136.17566666666667 1875.86 0.0 0.0 1.0
-42.4045 -121.658 1858.3966666666668 0.44090138315103355 0.8750001547676391 0.19995174290841572
-42.30453333333333 -115.30866666666668 1846.91 0.0 0.0 1.0
-41.97533333333333 -113.66266666666667 1846.91 0.0 0.0 1.0
-43.2922 -104.44433333333335 1846.91 0.0 0.0 1.0
-42.46913333333333 -100.3294 1846.91 0.0 0.0 1.0
-42.46913333333333 -96.54323333333333 1846.91 0.0 0.0 1.0
-43.13966666666666 -86.85016666666667 1829.97 0.0 0.0 1.0
-43.7398 -77.1545 1824.39 0.0 0.0 1.0
-43.600033333333336 -74.01233333333333 1815.1666666666667 -6.360314332053907e-16 -0.8986080417063033 0.4387523075503567
-32.89536666666667 -88.46716666666667 2183.94 0.0 0.0 1.0
-43.85003333333333 -69.46300000000001 1818.84 0.0 0.0 1.0
-43.525800000000004 -48.71326666666666 1818.84 0.0 0.0 1.0
-43.31313333333333 -34.18183333333334 1813.33 0.0 0.0 1.0
-43.15153333333333 -32.8889 1813.33 0.0 0.0 1.0
-44.01213333333333 -24.883466666666667 1818.84 0.0 0.0 1.0
-44.66056666666666 -21.965533333333337 1818.84 0.0 0.0 1.0
-45.52846666666667 -0.08130199999999999 1824.39 0.0 0.0 1.0
-44.33636666666666 8.672746666666667 1818.84 0.0 0.0 1.0
-44.012166666666666 14.994900000000001 1818.84 0.0 0.0 1.0
-44.44446666666666 54.6706 1765.1899999999998 7.656708295363568e-27 1.0477468255049471e-26 1.0
-44.129799999999996 60.8063 1765.1899999999998 1.160486208728117e-27 1.7410981898273032e-27 1.0
-45.17646666666667 62.509800000000006 1760.0 0.0 0.0 1.0
-45.747800000000005 64.35969999999999 1754.84 0.0 0.0 1.0
-45.278600000000004 65.29813333333333 1754.84 0.0 0.0 1.0
-46.217000000000006 68.5826 1754.84 0.0 0.0 1.0
-37.17763333333334 89.24576666666667 2183.94 0.0 0.0 1.0
-44.912266666666675 82.26123333333334 1749.71 0.0 0.0 1.0
-45.3801 84.28846666666666 1749.71 0.0 0.0 1.0
-45.22416666666667 91.30603333333333 1749.71 0.0 0.0 1.0
-44.75636666666667 94.42493333333334 1749.71 0.0 0.0 1.0
-45.17006666666666 122.13800000000002 1744.61 0.0 0.0 1.0
-42.935 -131.57233333333332 1881.76 0.0 0.0 1.0
-42.09643333333333 -130.3983333333333 1881.76 0.0 0.0 1.0
-43.6979 -125.632 1885.72 0.7565431562440742 -0.6303360724374943 -0.17412319927088565
-38.345499999999994 -143.74733333333333 2183.94 0.0 0.0 1.0
-43.786 -119.259 1846.91 0.0 0.0 1.0
-42.96296666666667 -101.48133333333332 1846.91 0.0 0.0 1.0
-44.008199999999995 -90.71570000000001 1835.58 0.0 0.0 1.0
-43.13966666666666 -86.85016666666667 1829.97 0.0 0.0 1.0
-43.7398 -77.1545 1824.39 0.0 0.0 1.0
-43.7398 -77.1545 1824.39 0.0 0.0 1.0
-32.89536666666667 -88.46716666666667 2183.94 0.0 0.0 1.0
-43.52583333333333 -70.59773333333334 1818.84 0.0 0.0 1.0
-44.012166666666666 -67.0314 1818.84 0.0 0.0 1.0
-43.85006666666666 -56.818666666666665 1818.84 0.0 0.0 1.0
-44.121199999999995 -43.39393333333334 1813.33 0.0 0.0 1.0
-43.47476666666666 -31.9192 1813.33 0.0 0.0 1.0
-44.012166666666666 -11.752766666666666 1818.84 0.0 0.0 1.0
-43.68796666666666 -10.942233333333334 1818.84 0.0 0.0 1.0
-44.08373333333333 -8.571446666666667 1831.8400000000001 0.5301282663808086 0.7951382274614267 0.294481273451435
-44.8227 1.3779130000000002 1818.84 0.0 0.0 1.0
-44.55283333333333 5.284556666666666 1824.39 0.0 0.0 1.0
-44.71543333333333 6.74797 1824.39 0.0 0.0 1.0
-44.012166666666666 14.994900000000001 1818.84 0.0 0.0 1.0
-35.62043333333333 27.737233333333336 2183.94 0.0 0.0 1.0
-44.229600000000005 34.4008 1807.8499999999997 -6.914841533203453e-28 -2.0745061041366438e-27 1.0
-45.140566666666665 38.313266666666664 1802.41 0.0 0.0 1.0
-44.819266666666664 42.65056666666667 1802.41 0.0 0.0 1.0
-44.01603333333333 45.2209 1802.41 0.0 0.0 1.0
-42.76133333333333 47.10060000000001 1770.41 0.0 0.0 1.0
-44.12976666666666 50.10816666666667 1765.1899999999998 5.440201720125189e-27 -5.440585860899015e-27 1.0
-45.3884 60.334300000000006 1765.1899999999998 -2.503789067630673e-11 2.5037890676306706e-11 1.0
-45.3801 79.45416666666667 1749.71 0.0 0.0 1.0
-44.912266666666675 82.26123333333334 1749.71 0.0 0.0 1.0
-45.792 98.3479 1744.61 0.0 0.0 1.0
-45.636500000000005 98.6589 1744.61 0.0 0.0 1.0
-45.636500000000005 99.43643333333334 1744.61 0.0 0.0 1.0
-45.32556666666667 112.498 1744.61 0.0 0.0 1.0
-42.935 -131.57233333333332 1881.76 0.0 0.0 1.0
-41.42556666666667 -127.21166666666666 1881.76 0.0 0.0 1.0
-39.830999999999996 -122.74 1862.2433333333336 0.18416183844982856 0.9672238894158965 0.17482095126718875
-43.786 -119.259 1846.91 0.0 0.0 1.0
-43.786 -119.259 1846.91 0.0 0.0 1.0
-44.008199999999995 -90.71570000000001 1835.58 0.0 0.0 1.0
-44.008199999999995 -90.71570000000001 1835.58 0.0 0.0 1.0
-44.17426666666666 -62.3303 1818.84 0.0 0.0 1.0
-38.54013333333333 -1.8491466666666667 2183.94 0.0 0.0 1.0
-44.55283333333333 5.284556666666666 1824.39 0.0 0.0 1.0
-44.33636666666666 8.672746666666667 1818.84 0.0 0.0 1.0
-44.33636666666666 11.590666666666666 1818.84 0.0 0.0 1.0
-44.660599999999995 14.670700000000002 1818.84 0.0 0.0 1.0
-36.98296666666667 34.54986666666667 2183.94 0.0 0.0 1.0
-45.140566666666665 38.313266666666664 1802.41 0.0 0.0 1.0
-44.819266666666664 42.65056666666667 1802.41 0.0 0.0 1.0
-44.44446666666667 70.25343333333333 1749.71 0.0 0.0 1.0
-37.17763333333334 89.24576666666667 2183.94 0.0 0.0 1.0
-44.75636666666667 94.42493333333334 1749.71 0.0 0.0 1.0
-45.792 98.3479 1744.61 0.0 0.0 1.0
-45.792 98.3479 1744.61 0.0 0.0 1.0
-43.664733333333324 104.56133333333332 1749.71 0.0 0.0 1.0
-46.103 119.18366666666667 1744.61 0.0 0.0 1.0
-46.103 119.18366666666667 1744.61 0.0 0.0 1.0
-44.05429999999999 -135.67399999999998 1875.86 0.0 0.0 1.0
-44.82973333333334 -96.18163333333332 1852.63 0.0 0.0 1.0
-45.423 -82.4465 1829.97 0.0 0.0 1.0
-45.36586666666667 -73.73983333333332 1824.39 0.0 0.0 1.0
-45.4711 -67.84193333333333 1818.84 0.0 0.0 1.0
-44.17426666666666 -62.3303 1818.84 0.0 0.0 1.0
-45.14693333333333 -57.14286666666666 1818.84 0.0 0.0 1.0
-45.957433333333334 -51.63116666666667 1818.84 0.0 0.0 1.0
-35.0365 -54.0146 2183.94 0.0 0.0 1.0
-35.0365 -54.0146 2183.94 0.0 0.0 1.0
-44.92929999999999 -41.45453333333333 1813.33 0.0 0.0 1.0
-44.7677 -36.28286666666667 1813.33 0.0 0.0 1.0
-45.63323333333333 -28.44983333333333 1818.84 0.0 0.0 1.0
-45.63323333333333 -28.44983333333333 1818.84 0.0 0.0 1.0
-45.146899999999995 -18.7234 1818.84 0.0 0.0 1.0
-45.146899999999995 -18.7234 1818.84 0.0 0.0 1.0
-45.146899999999995 -13.211766666666668 1818.84 0.0 0.0 1.0
-44.8227 -12.563333333333333 1818.84 0.0 0.0 1.0
-44.498466666666666 -2.674773333333333 1818.84 0.0 0.0 1.0
-44.33636666666666 8.672746666666667 1818.84 0.0 0.0 1.0
-44.17426666666666 15.643333333333333 1818.84 0.0 0.0 1.0
-43.902433333333335 19.593500000000002 1824.39 0.0 0.0 1.0
-45.691066666666664 24.308933333333332 1824.39 0.0 0.0 1.0
-36.98296666666667 34.54986666666667 2183.94 0.0 0.0 1.0
-45.94376666666667 41.6867 1802.41 0.0 0.0 1.0
-46.175033333333324 54.98526666666667 1765.1899999999998 8.880841898932555e-28 -1.4802448535546916e-28 1.0
-45.278600000000004 66.86216666666667 1754.84 0.0 0.0 1.0
-37.17763333333334 89.24576666666667 2183.94 0.0 0.0 1.0
-46.00390000000001 78.05066666666666 1749.71 0.0 0.0 1.0
-46.00390000000001 78.05066666666666 1749.71 0.0 0.0 1.0
-46.00390000000001 85.22413333333334 1749.71 0.0 0.0 1.0
-46.15983333333333 91.61793333333333 1749.71 0.0 0.0 1.0
-45.9475 98.0369 1744.61 0.0 0.0 1.0
-46.56946666666667 118.71733333333334 1744.61 0.0 0.0 1.0
-46.103033333333336 121.51633333333335 1744.61 0.0 0.0 1.0
-45.76133333333333 -109.71199999999999 1846.91 0.0 0.0 1.0
-45.59673333333333 -105.76133333333333 1846.91 0.0 0.0 1.0
-44.82973333333334 -96.18163333333332 1852.63 0.0 0.0 1.0
-47.5077 -92.47179999999999 1841.2300000000002 -2.7997548442847185e-27 -7.599334577344236e-27 1.0
-45.423 -82.4465 1829.97 0.0 0.0 1.0
-45.20326666666667 -78.7805 1824.39 0.0 0.0 1.0
-44.390233333333335 -76.5041 1824.39 0.0 0.0 1.0
-45.146899999999995 -67.3556 1818.84 0.0 0.0 1.0
-44.66056666666666 -50.334333333333326 1818.84 0.0 0.0 1.0
-45.899 -40.80806666666667 1813.33 0.0 0.0 1.0
-45.41416666666667 -38.060633333333335 1813.33 0.0 0.0 1.0
-44.984766666666665 -24.721366666666665 1818.84 0.0 0.0 1.0
-45.63323333333333 -18.2371 1818.84 0.0 0.0 1.0
-45.63323333333333 -13.536000000000001 1818.84 0.0 0.0 1.0
-38.345499999999994 -5.74209 2183.94 0.0 0.0 1.0
-45.79533333333333 -2.674773333333333 1818.84 0.0 0.0 1.0
-44.55283333333333 5.284556666666666 1824.39 0.0 0.0 1.0
-45.471133333333334 11.104333333333335 1818.84 0.0 0.0 1.0
-45.309 14.184400000000002 1818.84 0.0 0.0 1.0
-45.691066666666664 23.333299999999998 1824.39 0.0 0.0 1.0
-45.94376666666667 41.6867 1802.41 0.0 0.0 1.0
-46.17503333333334 59.5477 1765.1899999999998 -9.333743206875545e-19 9.33412349178219e-19 1.0
-45.17646666666667 62.509800000000006 1760.0 0.0 0.0 1.0
-47.095499999999994 81.63743333333333 1749.71 0.0 0.0 1.0
-47.095499999999994 81.63743333333333 1749.71 0.0 0.0 1.0
-46.62766666666666 84.28846666666666 1749.71 0.0 0.0 1.0
-47.65756666666667 86.01486666666666 1753.1299999999999 0.49612748496134945 -0.8682495334375268 -0.0005160924755090947
-37.9562 120.0 2183.94 0.0 0.0 1.0
-47.03596666666667 113.12 1744.61 0.0 0.0 1.0
-46.413999999999994 120.89433333333334 1744.61 0.0 0.0 1.0
-39.9027 -143.942 2183.94 0.0 0.0 1.0
-38.345499999999994 -143.74733333333333 2183.94 0.0 0.0 1.0
-46.41976666666667 -116.46066666666667 1846.91 0.0 0.0 1.0
-45.76133333333333 -109.71199999999999 1846.91 0.0 0.0 1.0
-45.59673333333333 -105.76133333333333 1846.91 0.0 0.0 1.0
-45.1029 -100.16473333333333 1846.91 0.0 0.0 1.0
-44.82973333333334 -96.18163333333332 1852.63 0.0 0.0 1.0
-46.17886666666667 -72.9268 1824.39 0.0 0.0 1.0
-45.4711 -67.84193333333333 1818.84 0.0 0.0 1.0
-46.44376666666667 -59.088166666666666 1818.84 0.0 0.0 1.0
-47.030300000000004 -34.1818 1813.33 0.0 0.0 1.0
-45.957433333333334 -25.2077 1818.84 0.0 0.0 1.0
-38.345499999999994 -5.74209 2183.94 0.0 0.0 1.0
-46.341499999999996 1.2195113333333334 1824.39 0.0 0.0 1.0
-46.0163 6.74797 1824.39 0.0 0.0 1.0
-45.309 14.184400000000002 1818.84 0.0 0.0 1.0
-46.605866666666664 23.5866 1818.84 0.0 0.0 1.0
-46.002 34.239666666666665 1807.8499999999997 -3.3492594996715695e-28 -3.109651928311764e-28 1.0
-45.94379999999999 39.75903333333333 1802.41 0.0 0.0 1.0
-44.658633333333334 46.50606666666667 1802.41 0.0 0.0 1.0
-48.062966666666675 52.7827 1765.1899999999998 -1.2186359350654928e-26 -1.4798301700829211e-26 1.0
-47.27633333333333 58.761066666666665 1765.1899999999998 0.0 0.0 1.0
-47.8134 96.793 1744.61 0.0 0.0 1.0
-47.8134 103.01266666666668 1744.61 0.0 0.0 1.0
-47.8134 103.01266666666668 1744.61 0.0 0.0 1.0
-47.03593333333333 118.71733333333333 1744.61 0.0 0.0 1.0
-47.03593333333333 118.71733333333333 1744.61 0.0 0.0 1.0
-48.90183333333332 124.15933333333334 1744.61 0.0 0.0 1.0
-47.96886666666666 126.49166666666667 1744.61 0.0 0.0 1.0
-43.77356666666666 -131.06933333333333 1881.76 0.0 0.0 1.0
-46.519466666666666 -128.95933333333332 1887.7 0.0 0.0 1.0
-46.25513333333333 -111.68733333333334 1846.91 0.0 0.0 1.0
-46.41976666666667 -102.63366666666667 1846.91 0.0 0.0 1.0
-45.423 -82.4465 1829.97 0.0 0.0 1.0
-46.5041 -79.43090000000001 1824.39 0.0 0.0 1.0
-46.9301 -58.43973333333333 1818.84 0.0 0.0 1.0
-47.8384 -49.37373333333333 1813.33 0.0 0.0 1.0
-45.471133333333334 -29.4225 1818.84 0.0 0.0 1.0
-46.119566666666664 -27.8014 1818.84 0.0 0.0 1.0
-46.281666666666666 -18.075000000000003 1818.84 0.0 0.0 1.0
-46.768 -14.508600000000001 1818.84 0.0 0.0 1.0
-46.119566666666664 -13.698100000000002 1818.84 0.0 0.0 1.0
-45.8448 -8.417103333333333 1833.71 -1.4952833856522446e-16 0.9958035783112773 0.09151630140284388
-46.3415 1.2195113333333334 1824.39 0.0 0.0 1.0
-40.4866 5.158153333333334 2183.94 0.0 0.0 1.0
-40.4866 5.158153333333334 2183.94 0.0 0.0 1.0
-46.44376666666667 11.266433333333334 1818.84 0.0 0.0 1.0
-46.605866666666664 23.5866 1818.84 0.0 0.0 1.0
-45.94376666666667 41.6867 1802.41 0.0 0.0 1.0
-46.58636666666666 43.4538 1802.41 0.0 0.0 1.0
-47.46823333333333 64.2033 1754.84 0.0 0.0 1.0
-48.87583333333333 69.6774 1754.84 0.0 0.0 1.0
-38.345499999999994 91.9708 2183.94 0.0 0.0 1.0
-47.095499999999994 81.63743333333333 1749.71 0.0 0.0 1.0
-46.3158 91.30603333333333 1749.71 0.0 0.0 1.0
-46.72496666666666 98.5034 1744.61 0.0 0.0 1.0
-46.2278 -135.17233333333334 1875.86 0.0 0.0 1.0
-46.96016666666666 -135.09400000000002 1881.76 0.0 0.0 1.0
-46.9136 -118.60066666666667 1846.91 0.0 0.0 1.0
-46.41976666666667 -116.95466666666668 1846.91 0.0 0.0 1.0
-46.41976666666667 -105.432 1846.91 0.0 0.0 1.0
-44.60753333333333 -86.85016666666667 1829.97 0.0 0.0 1.0
-45.957433333333334 -68.49036666666666 1818.84 0.0 0.0 1.0
-46.44376666666667 -59.088166666666666 1818.84 0.0 0.0 1.0
-46.8687 -40.64646666666667 1813.33 0.0 0.0 1.0
-46.70706666666666 -33.0505 1813.33 0.0 0.0 1.0
-46.70706666666666 -33.0505 1813.33 0.0 0.0 1.0
-47.41643333333334 -27.639300000000002 1818.84 0.0 0.0 1.0
-47.0922 -18.2371 1818.84 0.0 0.0 1.0
-46.768 -14.508600000000001 1818.84 0.0 0.0 1.0
-46.768 -14.508600000000001 1818.84 0.0 0.0 1.0
-46.767966666666666 -3.3232033333333333 1818.84 0.0 0.0 1.0
-46.3415 1.2195113333333334 1824.39 0.0 0.0 1.0
-46.0163 6.74797 1824.39 0.0 0.0 1.0
-46.829299999999996 22.0325 1824.39 0.0 0.0 1.0
-47.6423 25.2846 1824.39 0.0 0.0 1.0
-47.8049 27.886200000000002 1824.39 0.0 0.0 1.0
-46.93556666666666 34.11196666666667 1809.6766666666665 -0.544894820774901 0.8173422311623535 0.18719324627569894
-48.2578 38.429 1807.8499999999997 -4.148969291600979e-27 9.680356178039364e-27 1.0
-48.3776 53.56933333333333 1765.1899999999998 0.0 0.0 1.0
-48.56303333333333 73.9003 1754.84 0.0 0.0 1.0
-47.56333333333333 83.50876666666666 1749.71 0.0 0.0 1.0
-48.90186666666667 110.47633333333333 1744.61 0.0 0.0 1.0
-46.2278 -135.1723333333333 1875.86 0.0 0.0 1.0
-46.2278 -135.1723333333333 1875.86 0.0 0.0 1.0
-47.967066666666675 -118.84966666666666 1843.1233333333332 1.7191080899950633e-18 -0.9997501277808184 0.022353567997915103
-46.74896666666667 -109.21833333333332 1846.91 0.0 0.0 1.0
-46.9136 -100.3294 1846.91 0.0 0.0 1.0
-35.81506666666667 -111.43566666666668 2183.94 0.0 0.0 1.0
-47.8049 -78.29270000000001 1824.39 0.0 0.0 1.0
-46.44376666666667 -73.83993333333332 1818.84 0.0 0.0 1.0
-47.7406 -64.43766666666667 1818.84 0.0 0.0 1.0
-47.2543 -57.6292 1818.84 0.0 0.0 1.0
-45.957433333333334 -51.63116666666667 1818.84 0.0 0.0 1.0
-49.2683 -12.276426666666666 1824.39 0.0 0.0 1.0
-48.22696666666667 -0.08105366666666665 1818.84 0.0 0.0 1.0
-47.90273333333334 1.0536973333333333 1818.84 0.0 0.0 1.0
-47.5785 8.834853333333333 1818.84 0.0 0.0 1.0
-47.5785 8.834853333333333 1818.84 0.0 0.0 1.0
-47.740633333333335 11.590666666666666 1818.84 0.0 0.0 1.0
-47.90273333333334 15.319133333333333 1818.84 0.0 0.0 1.0
-46.605866666666664 23.5866 1818.84 0.0 0.0 1.0
-47.6423 25.2846 1824.39 0.0 0.0 1.0
-47.45216666666666 35.0453 1807.8499999999997 1.29633834023921e-27 6.481691701196051e-28 1.0
-47.93553333333333 39.39576666666667 1807.8499999999997 1.004880909761458e-27 -3.5887826106557163e-28 1.0
-48.062966666666675 52.7827 1765.1899999999998 -1.2186359350654927e-26 -1.4798301700829206e-26 1.0
-48.3776 57.974466666666665 1765.1899999999998 0.0 0.0 1.0
-48.40663333333333 68.5826 1754.84 0.0 0.0 1.0
-48.56303333333333 73.9003 1754.84 0.0 0.0 1.0
-48.56303333333333 74.6823 1754.84 0.0 0.0 1.0
-49.05733333333333 102.07966666666668 1744.61 0.0 0.0 1.0
-49.36833333333334 110.00966666666666 1744.61 0.0 0.0 1.0
-48.124433333333336 113.74166666666667 1744.61 0.0 0.0 1.0
-48.90186666666667 114.83 1744.61 0.0 0.0 1.0
-46.519466666666666 -128.95933333333332 1887.7 0.0 0.0 1.0
-39.9027 -143.942 2183.94 0.0 0.0 1.0
-47.0782 -116.79 1846.91 0.0 0.0 1.0
-47.90123333333333 -116.62533333333334 1846.91 0.0 0.0 1.0
-48.297200000000004 -104.43766666666666 1852.63 0.0 0.0 1.0
-47.4797 -79.2683 1824.39 0.0 0.0 1.0
-46.44376666666667 -73.83993333333332 1818.84 0.0 0.0 1.0
-47.154500000000006 -73.0894 1824.39 0.0 0.0 1.0
-47.154500000000006 -73.0894 1824.39 0.0 0.0 1.0
-47.7406 -64.43766666666667 1818.84 0.0 0.0 1.0
-48.38903333333334 -64.11346666666667 1818.84 0.0 0.0 1.0
-47.2543 -57.6292 1818.84 0.0 0.0 1.0
-48.161633333333334 -48.24243333333333 1813.33 0.0 0.0 1.0
-46.8687 -40.64646666666667 1813.33 0.0 0.0 1.0
-47.838366666666666 -34.34343333333334 1813.33 0.0 0.0 1.0
-47.0922 -18.2371 1818.84 0.0 0.0 1.0
-47.740633333333335 -12.239133333333333 1818.84 0.0 0.0 1.0
-45.8448 -8.417103333333333 1833.71 4.272238244720699e-17 0.9958035783112771 0.09151630140284397
-48.06483333333333 -3.8095233333333334 1818.84 0.0 0.0 1.0
-47.5785 8.834853333333333 1818.84 0.0 0.0 1.0
-47.90273333333334 15.319133333333333 1818.84 0.0 0.0 1.0
-48.06483333333333 16.129666666666665 1818.84 0.0 0.0 1.0
-47.71086666666667 42.16863333333333 1802.41 0.0 0.0 1.0
-47.71086666666667 42.97186666666666 1802.41 0.0 0.0 1.0
-49.13946666666667 50.40553333333333 1775.67 0.0 0.0 1.0
-49.13946666666667 50.40553333333333 1775.67 0.0 0.0 1.0
-48.3776 53.56933333333333 1765.1899999999998 0.0 0.0 1.0
-49.69586666666667 56.291066666666666 1761.7300000000002 -0.31271744518100186 -0.9380858847471625 0.1490056116983532
-49.8143 66.2366 1754.84 0.0 0.0 1.0
-49.18866666666667 73.9003 1754.84 0.0 0.0 1.0
-49.122800000000005 78.67446666666666 1749.71 0.0 0.0 1.0
-49.122800000000005 78.67446666666667 1749.71 0.0 0.0 1.0
-48.343066666666665 80.07796666666667 1749.71 0.0 0.0 1.0
-37.5669 115.134 2183.94 0.0 0.0 1.0
-48.435366666666674 116.54033333333332 1744.61 0.0 0.0 1.0
-49.83476666666667 121.827 1744.61 0.0 0.0 1.0
-49.212799999999994 126.80266666666667 1744.61 0.0 0.0 1.0
-46.96016666666667 -135.09400000000002 1881.76 0.0 0.0 1.0
-48.23043333333334 -118.10700000000001 1846.91 0.0 0.0 1.0
-47.407399999999996 -112.18133333333333 1846.91 0.0 0.0 1.0
-47.73663333333334 -109.383 1846.91 0.0 0.0 1.0
-46.58436666666666 -105.926 1846.91 0.0 0.0 1.0
-47.967000000000006 -97.33746666666667 1852.63 0.0 0.0 1.0
-47.967000000000006 -97.33746666666667 1852.63 0.0 0.0 1.0
-46.7894 -89.73413333333333 1835.58 0.0 0.0 1.0
-49.40696666666667 -88.75256666666667 1835.58 0.0 0.0 1.0
-47.8049 -78.29269999999998 1824.39 0.0 0.0 1.0
-48.38906666666667 -61.84396666666667 1818.84 0.0 0.0 1.0
-49.361700000000006 -24.721333333333334 1818.84 0.0 0.0 1.0
-49.261 -1.536091 1815.1666666666667 -0.18971516430880447 -0.9485953858592038 0.25332775283792264
-48.22696666666667 -0.08105366666666665 1818.84 0.0 0.0 1.0
-41.45983333333333 6.13139 2183.94 0.0 0.0 1.0
-47.90273333333334 15.319133333333333 1818.84 0.0 0.0 1.0
-49.2683 21.544700000000002 1824.39 0.0 0.0 1.0
-48.25783333333334 36.01206666666666 1807.8499999999997 -1.296414327323297e-26 -3.457215129855044e-27 1.0
-48.2578 38.429 1807.8499999999997 -4.148969291600979e-27 9.680356178039364e-27 1.0
-49.9707 82.81523333333332 1754.84 0.0 0.0 1.0
-48.90183333333332 95.0826 1744.61 0.0 0.0 1.0
-48.27986666666666 97.2595 1744.61 0.0 0.0 1.0
-49.36833333333333 110.00966666666666 1744.61 0.0 0.0 1.0
-49.8348 110.32066666666667 1744.61 0.0 0.0 1.0
-49.834799999999994 123.07066666666667 1744.61 0.0 0.0 1.0
-49.8348 123.07066666666668 1744.61 0.0 0.0 1.0
-49.67929999999999 123.53733333333334 1744.61 0.0 0.0 1.0
-47.631 -136.268 1881.76 0.0 0.0 1.0
-46.96016666666667 -135.09400000000002 1881.76 0.0 0.0 1.0
-48.370133333333335 -133.165 1887.7 0.0 0.0 1.0
-47.69716666666667 -129.96866666666668 1887.7 0.0 0.0 1.0
-43.7956 -146.6663333333333 2183.94 0.0 0.0 1.0
-48.230466666666665 -111.52266666666667 1846.91 0.0 0.0 1.0
-48.7243 -109.87666666666667 1846.91 0.0 0.0 1.0
-48.7243 -109.87666666666667 1846.91 0.0 0.0 1.0
-48.2972 -104.43766666666666 1852.63 0.0 0.0 1.0
-47.0782 -101.31700000000001 1846.91 0.0 0.0 1.0
-48.46233333333333 -97.66770000000001 1852.63 0.0 0.0 1.0
-47.5077 -92.47179999999999 1841.2300000000002 -2.7997548442847185e-27 -7.599334577344236e-27 1.0
-48.87539999999999 -60.385 1818.84 0.0 0.0 1.0
-50.42423333333334 -50.020199999999996 1813.33 0.0 0.0 1.0
-49.45453333333333 -44.20203333333333 1813.33 0.0 0.0 1.0
-48.38906666666667 -27.4772 1818.84 0.0 0.0 1.0
-47.90273333333334 -17.91286666666667 1818.84 0.0 0.0 1.0
-49.03746666666666 -11.752799999999999 1818.84 0.0 0.0 1.0
-49.1996 0.40526999999999996 1818.84 0.0 0.0 1.0
-42.43306666666666 7.299273333333333 2183.94 0.0 0.0 1.0
-42.43306666666666 7.299273333333333 2183.94 0.0 0.0 1.0
-48.4553 24.959366666666668 1824.39 0.0 0.0 1.0
-49.38570000000001 38.26786666666667 1807.8499999999997 -7.685183301487479e-28 8.449569878405624e-27 1.0
-49.84126666666666 49.603166666666674 1780.95 0.0 0.0 1.0
-48.69223333333333 56.55853333333332 1765.1899999999998 2.1688287105287342e-27 -4.675614393931331e-28 1.0
-50.89476666666667 60.8063 1765.1899999999998 -1.6117408674278965e-27 -4.030035254336821e-27 1.0
-50.127100000000006 65.45456666666666 1754.84 0.0 0.0 1.0
-49.8143 66.2366 1754.84 0.0 0.0 1.0
-49.9707 74.05669999999999 1754.84 0.0 0.0 1.0
-50.59629999999999 83.91006666666667 1754.84 0.0 0.0 1.0
-49.9903 110.78733333333332 1744.61 0.0 0.0 1.0
-49.9903 110.78733333333332 1744.61 0.0 0.0 1.0
-49.834799999999994 123.07066666666667 1744.61 0.0 0.0 1.0
-44.9635 -160.48666666666668 2183.94 0.0 0.0 1.0
-48.4609 -118.68533333333333 1843.1233333333332 -2.321637574282437e-16 -0.9940953134574861 0.10851040393373665
-48.8889 -117.11933333333333 1846.91 0.0 0.0 1.0
-48.13213333333334 -96.677 1852.63 0.0 0.0 1.0
-49.64103333333333 -91.48719999999999 1841.2300000000002 -6.784004113843765e-27 -9.781968910601158e-27 1.0
-49.826699999999995 -82.2834 1829.97 0.0 0.0 1.0
-48.78050000000001 -75.85366666666665 1824.39 0.0 0.0 1.0
-49.361700000000006 -68.32826666666666 1818.84 0.0 0.0 1.0
-49.03746666666667 -64.27560000000001 1818.84 0.0 0.0 1.0
-48.71326666666667 -58.92603333333333 1818.84 0.0 0.0 1.0
-49.45453333333334 -44.525266666666674 1813.33 0.0 0.0 1.0
-49.93936666666667 -37.41413333333333 1813.33 0.0 0.0 1.0
-48.1616 -34.020199999999996 1813.33 0.0 0.0 1.0
-49.361700000000006 -26.828766666666667 1818.84 0.0 0.0 1.0
-48.78050000000001 -9.512186666666667 1824.39 0.0 0.0 1.0
-48.87536666666667 -4.78217 1818.84 0.0 0.0 1.0
-48.87536666666667 -4.78217 1818.84 0.0 0.0 1.0
-48.87536666666667 11.10436 1818.84 0.0 0.0 1.0
-49.593500000000006 22.8455 1824.39 0.0 0.0 1.0
-49.105700000000006 24.146333333333335 1824.39 0.0 0.0 1.0
-49.43090000000001 30.9756 1824.39 0.0 0.0 1.0
-49.7561 32.764199999999995 1824.39 0.0 0.0 1.0
-49.84126666666666 49.603166666666674 1780.95 0.0 0.0 1.0
-49.84126666666666 49.603166666666674 1780.95 0.0 0.0 1.0
-49.93076666666667 51.98813333333334 1775.67 0.0 0.0 1.0
-49.69586666666667 56.291066666666666 1761.7300000000002 -0.31271744518100186 -0.9380858847471627 0.14900561169835297
-50.127100000000006 65.45456666666666 1754.84 0.0 0.0 1.0
-48.87583333333333 69.6774 1754.84 0.0 0.0 1.0
-50.9091 81.8768 1754.84 0.0 0.0 1.0
-51.1501 91.61793333333333 1749.71 0.0 0.0 1.0
-51.1501 91.61793333333333 1749.71 0.0 0.0 1.0
-50.923233333333336 121.98233333333333 1744.61 0.0 0.0 1.0
-49.21136666666666 -133.838 1887.7 0.0 0.0 1.0
-48.87486666666666 -130.13666666666666 1887.7 0.0 0.0 1.0
-43.7956 -146.6663333333333 2183.94 0.0 0.0 1.0
-49.21809999999999 -118.10700000000001 1846.91 0.0 0.0 1.0
-49.87653333333333 -109.71199999999999 1846.91 0.0 0.0 1.0
-49.2879 -104.43766666666666 1852.63 0.0 0.0 1.0
-49.948366666666665 -100.3096 1852.63 0.0 0.0 1.0
-49.2879 -97.8328 1852.63 0.0 0.0 1.0
-49.679833333333335 -94.99573333333332 1848.8166666666668 7.778309176734504e-17 0.9757374520885381 0.21894388457266364
-49.9898 -82.1203 1829.97 0.0 0.0 1.0
-49.4309 -78.2927 1824.39 0.0 0.0 1.0
-49.9187 -74.22763333333333 1824.39 0.0 0.0 1.0
-50.17223333333334 -64.27560000000001 1818.84 0.0 0.0 1.0
-51.07070000000001 -47.43436666666667 1813.33 0.0 0.0 1.0
-49.77776666666667 -44.525266666666674 1813.33 0.0 0.0 1.0
-49.616166666666665 -44.20203333333333 1813.33 0.0 0.0 1.0
-50.424233333333326 -37.73736666666667 1813.33 0.0 0.0 1.0
-50.17223333333334 -26.180333333333333 1818.84 0.0 0.0 1.0
-49.68593333333333 -23.9108 1818.84 0.0 0.0 1.0
-48.78050000000001 -9.512186666666667 1824.39 0.0 0.0 1.0
-50.26263333333333 2.3434333333333335 1813.33 0.0 0.0 1.0
-50.71946666666667 4.124896666666667 1815.1666666666667 0.9204240985784945 7.908317551896399e-15 0.39092132041622596
-50.496433333333336 8.996960000000001 1818.84 0.0 0.0 1.0
-48.6179 29.837400000000002 1824.39 0.0 0.0 1.0
-49.95986666666666 43.93573333333333 1802.41 0.0 0.0 1.0
-50.752700000000004 73.7439 1754.84 0.0 0.0 1.0
-51.234199999999994 100.83566666666668 1744.61 0.0 0.0 1.0
-51.234199999999994 100.83566666666667 1744.61 0.0 0.0 1.0
-44.76883333333333 135.96099999999998 2183.94 0.0 0.0 1.0
-51.3897 112.65333333333335 1744.61 0.0 0.0 1.0
-51.0787 120.11666666666667 1744.61 0.0 0.0 1.0
-50.612233333333336 124.93666666666667 1744.61 0.0 0.0 1.0
-51.3897 125.55866666666667 1744.61 0.0 0.0 1.0
-50.37036666666666 -120.41166666666668 1846.91 0.0 0.0 1.0
-49.547333333333334 -113.33333333333333 1846.91 0.0 0.0 1.0
-50.37036666666666 -110.20566666666667 1846.91 0.0 0.0 1.0
-49.4309 -78.2927 1824.39 0.0 0.0 1.0
-51.306966666666675 -55.03543333333334 1818.84 0.0 0.0 1.0
-50.2626 -36.929300000000005 1813.33 0.0 0.0 1.0
-50.496433333333336 -20.020233333333334 1818.84 0.0 0.0 1.0
