ply
format ascii 1.0
comment VCGLIB generated
element vertex 934
property float x
property float y
property float z
property float nx
property float ny
property float nz
element face 0
property list uchar int vertex_indices
end_header
-66.66666666666667 23.066666666666666 2992.0 0.0 0.0 1.0
-67.46666666666667 31.333333333333332 2992.0 0.0 0.0 1.0
-68.50576666666666 35.05746666666666 2579.31 0.0 0.0 1.0
-68.50576666666666 35.05746666666666 2579.31 0.0 0.0 1.0
-66.39999999999999 46.53333333333333 2992.0 0.0 0.0 1.0
-66.13333333333334 51.86666666666667 2992.0 0.0 0.0 1.0
-66.13333333333334 51.86666666666667 2992.0 0.0 0.0 1.0
-66.39999999999999 57.199999999999996 2992.0 0.0 0.0 1.0
-68.39606666666667 54.11436666666666 2503.77 0.0 0.0 1.0
-68.39606666666667 54.11436666666666 2503.77 0.0 0.0 1.0
-66.13333333333334 84.93333333333334 2992.0 0.0 0.0 1.0
-66.13333333333334 84.93333333333334 2992.0 0.0 0.0 1.0
-68.38709999999999 83.33333333333333 2412.9 0.0 0.0 1.0
-69.46236666666667 98.38709999999999 2412.9 0.0 0.0 1.0
-69.03226666666667 100.32279999999999 2412.9 0.0 0.0 1.0
-68.3871 101.82799999999999 2412.9 0.0 0.0 1.0
-66.93333333333334 132.93333333333334 2992.0 0.0 0.0 1.0
-68.0 135.6 2992.0 0.0 0.0 1.0
-68.64793333333334 110.629 2403.21 0.0 0.0 1.0
-68.64793333333334 110.629 2403.21 0.0 0.0 1.0
-69.54666666666667 112.32000000000001 2393.6 0.0 0.0 1.0
-68.84846666666668 -128.12099999999998 2720.0 0.0 0.0 1.0
-68.84846666666668 -128.121 2720.0 0.0 0.0 1.0
-68.1212 -125.93933333333332 2720.0 0.0 0.0 1.0
-68.84846666666667 -120.84833333333331 2720.0 0.0 0.0 1.0
-67.87876666666666 -108.0 2720.0 0.0 0.0 1.0
-67.6923 -99.54733333333333 2707.69 0.0 0.0 1.0
-67.2 -97.2 2992.0 0.0 0.0 1.0
-67.2 -92.66666666666667 2992.0 0.0 0.0 1.0
-67.46666666666668 -77.2 2992.0 0.0 0.0 1.0
-66.93333333333334 -73.46666666666665 2992.0 0.0 0.0 1.0
-66.93333333333334 -73.46666666666667 2992.0 0.0 0.0 1.0
-66.93333333333334 -69.73333333333333 2992.0 0.0 0.0 1.0
-66.93333333333334 -69.73333333333333 2992.0 0.0 0.0 1.0
-67.73333333333333 -68.4 2992.0 0.0 0.0 1.0
-67.46666666666667 -64.66666666666667 2992.0 0.0 0.0 1.0
-67.2 -60.13333333333333 2992.0 0.0 0.0 1.0
-68.26666666666667 -50.79999999999999 2992.0 0.0 0.0 1.0
-66.93333333333332 -46.79999999999999 2992.0 0.0 0.0 1.0
-67.46666666666668 -44.13333333333333 2992.0 0.0 0.0 1.0
-68.538 -19.2982 2624.56 0.0 0.0 1.0
-66.93333333333334 -15.066666666666668 2992.0 0.0 0.0 1.0
-67.46666666666667 -13.733333333333334 2992.0 0.0 0.0 1.0
-67.46666666666667 -0.9333333333333332 2992.0 0.0 0.0 1.0
-68.82096666666668 7.802033333333333 2613.1 0.0 0.0 1.0
-69.0539 10.13101 2613.1 0.0 0.0 1.0
-66.66666666666667 23.066666666666666 2992.0 0.0 0.0 1.0
-66.93333333333332 33.733333333333334 2992.0 0.0 0.0 1.0
-67.2 38.8 2992.0 0.0 0.0 1.0
-68.96553333333333 35.97703333333333 2579.31 0.0 0.0 1.0
-66.13333333333334 47.866666666666674 2992.0 0.0 0.0 1.0
-67.46666666666668 58.79999999999999 2992.0 0.0 0.0 1.0
-67.46666666666665 67.06666666666668 2992.0 0.0 0.0 1.0
-67.73333333333333 68.93333333333334 2992.0 0.0 0.0 1.0
-67.73333333333333 68.93333333333334 2992.0 0.0 0.0 1.0
-68.0 74.53333333333335 2992.0 0.0 0.0 1.0
-68.0 79.86666666666666 2992.0 0.0 0.0 1.0
-66.39999999999999 80.13333333333334 2992.0 0.0 0.0 1.0
-70.32256666666666 76.4516 2412.9 0.0 0.0 1.0
-70.10753333333334 81.82796666666667 2412.9 0.0 0.0 1.0
-69.24730000000001 85.48386666666669 2412.9 0.0 0.0 1.0
-69.24730000000001 86.12903333333334 2412.9 0.0 0.0 1.0
-71.22083333333335 94.04666666666667 2462.55 0.0 0.0 1.0
-69.24730000000001 96.23656666666666 2412.9 0.0 0.0 1.0
-69.46236666666668 97.31183333333335 2412.9 0.0 0.0 1.0
-69.03226666666667 99.89260000000002 2412.9 0.0 0.0 1.0
-68.90666666666667 111.46666666666668 2393.6 0.0 0.0 1.0
-68.90666666666667 113.17333333333333 2393.6 0.0 0.0 1.0
-67.73333333333333 148.4 2992.0 0.0 0.0 1.0
-69.33333333333333 -121.33333333333333 2720.0 0.0 0.0 1.0
-68.36363333333334 -119.87866666666667 2720.0 0.0 0.0 1.0
-70.30303333333335 -115.27266666666667 2720.0 0.0 0.0 1.0
-69.09089999999999 -108.24266666666666 2720.0 0.0 0.0 1.0
-68.89896666666665 -101.23633333333333 2707.69 0.0 0.0 1.0
-70.13333333333333 -108.66666666666667 2992.0 0.0 0.0 1.0
-68.53333333333333 -103.06666666666666 2992.0 0.0 0.0 1.0
-68.26666666666667 -102.53333333333335 2992.0 0.0 0.0 1.0
-67.46666666666667 -98.0 2992.0 0.0 0.0 1.0
-67.73333333333333 -97.46666666666668 2992.0 0.0 0.0 1.0
-67.46666666666665 -73.2 2992.0 0.0 0.0 1.0
-68.0 -69.73333333333333 2992.0 0.0 0.0 1.0
-68.26666666666667 -61.73333333333333 2992.0 0.0 0.0 1.0
-67.73333333333333 -56.4 2992.0 0.0 0.0 1.0
-68.26666666666667 -50.800000000000004 2992.0 0.0 0.0 1.0
-68.8 -45.73333333333333 2992.0 0.0 0.0 1.0
-67.46666666666665 -31.599999999999998 2992.0 0.0 0.0 1.0
-67.73333333333333 -28.133333333333336 2992.0 0.0 0.0 1.0
-69.47366666666666 -19.766066666666667 2624.56 0.0 0.0 1.0
-68.8 -12.133333333333333 2992.0 0.0 0.0 1.0
-68.0 -5.733333333333333 2992.0 0.0 0.0 1.0
-69.2868 11.9942 2613.1 0.0 0.0 1.0
-69.5197 13.158666666666667 2613.1 0.0 0.0 1.0
-69.5197 13.158666666666667 2613.1 0.0 0.0 1.0
-67.73333333333333 21.733333333333334 2992.0 0.0 0.0 1.0
-67.46666666666667 31.333333333333332 2992.0 0.0 0.0 1.0
-68.53333333333333 31.866666666666664 2992.0 0.0 0.0 1.0
-68.96553333333333 35.97703333333333 2579.31 0.0 0.0 1.0
-68.8573 28.203166666666664 2605.56 0.9961632550067372 1.1641220327645242e-16 0.08751439524091072
-66.93333333333334 51.86666666666667 2992.0 0.0 0.0 1.0
-68.53333333333335 62.0 2992.0 0.0 0.0 1.0
-68.26666666666667 62.800000000000004 2992.0 0.0 0.0 1.0
-67.46666666666665 67.06666666666668 2992.0 0.0 0.0 1.0
-68.0 74.53333333333333 2992.0 0.0 0.0 1.0
-67.46666666666667 85.46666666666665 2992.0 0.0 0.0 1.0
-68.26666666666667 86.0 2992.0 0.0 0.0 1.0
-68.26666666666667 87.06666666666666 2992.0 0.0 0.0 1.0
-70.96773333333333 74.73116666666665 2412.9 0.0 0.0 1.0
-70.7527 76.88170000000001 2412.9 0.0 0.0 1.0
-70.10753333333334 81.82796666666667 2412.9 0.0 0.0 1.0
-70.10753333333334 81.82796666666665 2412.9 0.0 0.0 1.0
-64.53333333333333 121.73333333333333 2992.0 0.0 0.0 1.0
-67.46666666666667 124.66666666666667 2992.0 0.0 0.0 1.0
-66.93333333333334 132.93333333333334 2992.0 0.0 0.0 1.0
-65.97606666666665 115.697 2384.06 0.0 0.0 1.0
-67.73333333333333 148.4 2992.0 0.0 0.0 1.0
-67.73333333333333 148.4 2992.0 0.0 0.0 1.0
-69.6 -147.33333333333334 2992.0 0.0 0.0 1.0
-68.84846666666668 -128.121 2720.0 0.0 0.0 1.0
-70.06060000000001 -108.96999999999998 2720.0 0.0 0.0 1.0
-69.14030000000001 -103.64966666666668 2707.69 0.0 0.0 1.0
-69.8643 -102.92566666666666 2707.69 0.0 0.0 1.0
-69.62296666666667 -101.96033333333332 2707.69 0.0 0.0 1.0
-68.26666666666667 -102.53333333333335 2992.0 0.0 0.0 1.0
-68.8 -89.73333333333333 2992.0 0.0 0.0 1.0
-69.33333333333333 -83.6 2992.0 0.0 0.0 1.0
-69.06666666666666 -76.93333333333334 2992.0 0.0 0.0 1.0
-69.06666666666666 -76.93333333333334 2992.0 0.0 0.0 1.0
-68.53333333333333 -69.2 2992.0 0.0 0.0 1.0
-68.26666666666667 -68.93333333333334 2992.0 0.0 0.0 1.0
-64.35553333333333 -47.525933333333334 2659.56 0.0 0.0 1.0
-67.73333333333333 -57.46666666666667 2992.0 0.0 0.0 1.0
-69.06666666666668 -55.86666666666667 2992.0 0.0 0.0 1.0
-68.8 -45.73333333333333 2992.0 0.0 0.0 1.0
-68.53333333333332 -44.666666666666664 2992.0 0.0 0.0 1.0
-69.6 -39.6 2992.0 0.0 0.0 1.0
-69.06666666666666 -29.46666666666667 2992.0 0.0 0.0 1.0
-68.53333333333335 -28.666666666666668 2992.0 0.0 0.0 1.0
-70.40933333333334 -20.9357 2624.56 0.0 0.0 1.0
-70.40933333333334 -20.9357 2624.56 0.0 0.0 1.0
-69.9415 -17.660800000000002 2624.56 0.0 0.0 1.0
-70.64323333333333 -16.0234 2624.56 0.0 0.0 1.0
-68.8 -12.133333333333333 2992.0 0.0 0.0 1.0
-70.6841 2.44541 2613.1 0.0 0.0 1.0
-68.8 21.733333333333334 2992.0 0.0 0.0 1.0
-68.26666666666667 38.53333333333333 2992.0 0.0 0.0 1.0
-68.26666666666667 38.53333333333333 2992.0 0.0 0.0 1.0
-69.33333333333333 40.666666666666664 2992.0 0.0 0.0 1.0
-70.6553 42.96296666666667 2557.26 0.0 0.0 1.0
-70.6553 42.96296666666666 2557.26 0.0 0.0 1.0
-67.9498 49.42816666666667 2503.77 0.0 0.0 1.0
-68.53333333333335 62.0 2992.0 0.0 0.0 1.0
-68.26666666666667 62.800000000000004 2992.0 0.0 0.0 1.0
-69.06666666666666 69.46666666666665 2992.0 0.0 0.0 1.0
-69.06666666666666 69.46666666666665 2992.0 0.0 0.0 1.0
-69.06666666666666 73.46666666666668 2992.0 0.0 0.0 1.0
-68.53333333333335 74.26666666666667 2992.0 0.0 0.0 1.0
-68.26666666666667 86.0 2992.0 0.0 0.0 1.0
-70.96773333333333 74.73116666666665 2412.9 0.0 0.0 1.0
-69.06666666666666 103.33333333333333 2992.0 0.0 0.0 1.0
-69.06666666666666 103.33333333333333 2992.0 0.0 0.0 1.0
-72.04299999999999 88.92473333333334 2412.9 0.0 0.0 1.0
-72.07496666666667 99.7054 2403.21 0.0 0.0 1.0
-69.06666666666666 135.6 2992.0 0.0 0.0 1.0
-69.06666666666666 135.6 2992.0 0.0 0.0 1.0
-69.60000000000001 -147.33333333333334 2992.0 0.0 0.0 1.0
-69.57576666666667 -120.84833333333331 2720.0 0.0 0.0 1.0
-70.30303333333333 -115.27266666666667 2720.0 0.0 0.0 1.0
-69.06666666666666 -103.86666666666667 2992.0 0.0 0.0 1.0
-69.06666666666666 -103.86666666666667 2992.0 0.0 0.0 1.0
-69.60000000000001 -96.66666666666667 2992.0 0.0 0.0 1.0
-69.86666666666666 -93.46666666666665 2992.0 0.0 0.0 1.0
-70.66666666666667 -86.53333333333332 2992.0 0.0 0.0 1.0
-69.33333333333333 -83.60000000000001 2992.0 0.0 0.0 1.0
-69.33333333333333 -83.6 2992.0 0.0 0.0 1.0
-70.13333333333334 -79.6 2992.0 0.0 0.0 1.0
-69.06666666666666 -76.93333333333334 2992.0 0.0 0.0 1.0
-69.60000000000001 -75.86666666666666 2992.0 0.0 0.0 1.0
-69.86666666666666 -75.06666666666666 2992.0 0.0 0.0 1.0
-70.13333333333334 -63.866666666666674 2992.0 0.0 0.0 1.0
-70.13333333333334 -63.333333333333336 2992.0 0.0 0.0 1.0
-69.60000000000001 -51.06666666666666 2992.0 0.0 0.0 1.0
-69.06666666666666 -45.199999999999996 2992.0 0.0 0.0 1.0
-69.6 -43.86666666666667 2992.0 0.0 0.0 1.0
-69.6 -39.6 2992.0 0.0 0.0 1.0
-69.33333333333333 -39.06666666666666 2992.0 0.0 0.0 1.0
-70.40933333333332 -20.9357 2624.56 0.0 0.0 1.0
-70.39999999999999 -15.6 2992.0 0.0 0.0 1.0
-68.8 -12.133333333333333 2992.0 0.0 0.0 1.0
-70.13333333333334 -8.133333333333335 2992.0 0.0 0.0 1.0
-69.60000000000001 -5.2 2992.0 0.0 0.0 1.0
-70.13333333333333 0.1333333333333333 2992.0 0.0 0.0 1.0
-69.86666666666666 0.6666666666666666 2992.0 0.0 0.0 1.0
-70.6841 2.44541 2613.1 0.0 0.0 1.0
-71.1499 3.1441 2613.1 0.0 0.0 1.0
-71.3828 5.938860000000001 2613.1 0.0 0.0 1.0
-71.3828 6.63755 2613.1 0.0 0.0 1.0
-69.33333333333333 22.0 2992.0 0.0 0.0 1.0
-69.06666666666666 22.266666666666666 2992.0 0.0 0.0 1.0
-70.93333333333334 27.333333333333332 2992.0 0.0 0.0 1.0
-69.06666666666666 32.13333333333333 2992.0 0.0 0.0 1.0
-69.06666666666666 32.13333333333333 2992.0 0.0 0.0 1.0
-69.60000000000001 36.4 2992.0 0.0 0.0 1.0
-70.6553 42.96296666666666 2557.26 0.0 0.0 1.0
-69.06666666666666 69.46666666666667 2992.0 0.0 0.0 1.0
-69.86666666666666 73.2 2992.0 0.0 0.0 1.0
-69.06666666666666 79.6 2992.0 0.0 0.0 1.0
-69.06666666666666 84.39999999999999 2992.0 0.0 0.0 1.0
-68.8 85.73333333333333 2992.0 0.0 0.0 1.0
-70.96773333333333 74.73116666666665 2412.9 0.0 0.0 1.0
-69.06666666666666 103.33333333333333 2992.0 0.0 0.0 1.0
-71.22083333333333 94.04666666666667 2462.55 0.0 0.0 1.0
-69.06666666666666 135.6 2992.0 0.0 0.0 1.0
-70.39999999999999 138.0 2992.0 0.0 0.0 1.0
-71.46666666666665 111.68 2393.6 0.0 0.0 1.0
-72.53333333333332 114.24000000000001 2393.6 0.0 0.0 1.0
-68.53333333333333 147.33333333333334 2992.0 0.0 0.0 1.0
-70.66666666666667 -148.4 2992.0 0.0 0.0 1.0
-70.4 -147.6 2992.0 0.0 0.0 1.0
-71.51516666666667 -116.0 2720.0 0.0 0.0 1.0
-71.0303 -109.21233333333333 2720.0 0.0 0.0 1.0
-71.2 -98.8 2992.0 0.0 0.0 1.0
-70.4 -91.60000000000001 2992.0 0.0 0.0 1.0
-70.13333333333334 -81.46666666666668 2992.0 0.0 0.0 1.0
-70.66666666666667 -80.4 2992.0 0.0 0.0 1.0
-70.4 -79.33333333333333 2992.0 0.0 0.0 1.0
-70.13333333333334 -76.39999999999999 2992.0 0.0 0.0 1.0
-70.13333333333334 -75.86666666666666 2992.0 0.0 0.0 1.0
-70.13333333333334 -67.86666666666666 2992.0 0.0 0.0 1.0
-71.2 -61.73333333333333 2992.0 0.0 0.0 1.0
-70.39999999999999 -55.6 2992.0 0.0 0.0 1.0
-69.60000000000001 -48.4 2992.0 0.0 0.0 1.0
-69.60000000000001 -44.666666666666664 2992.0 0.0 0.0 1.0
-69.60000000000001 -39.6 2992.0 0.0 0.0 1.0
-71.2 -34.800000000000004 2992.0 0.0 0.0 1.0
-70.66666666666667 -31.333333333333332 2992.0 0.0 0.0 1.0
-70.66666666666667 -30.53333333333333 2992.0 0.0 0.0 1.0
-70.39999999999999 -26.53333333333333 2992.0 0.0 0.0 1.0
-70.64323333333333 -16.0234 2624.56 0.0 0.0 1.0
-70.4 -15.6 2992.0 0.0 0.0 1.0
-70.4 1.2 2992.0 0.0 0.0 1.0
-71.6157 3.6098933333333334 2613.1 0.0 0.0 1.0
-71.3828 5.938859999999999 2613.1 0.0 0.0 1.0
-71.3828 6.63755 2613.1 0.0 0.0 1.0
-70.66666666666667 20.133333333333333 2992.0 0.0 0.0 1.0
-70.93333333333334 35.6 2992.0 0.0 0.0 1.0
-70.13333333333334 41.2 2992.0 0.0 0.0 1.0
-69.86666666666667 47.86666666666667 2992.0 0.0 0.0 1.0
-70.93333333333334 64.39999999999999 2992.0 0.0 0.0 1.0
-70.4 67.60000000000001 2992.0 0.0 0.0 1.0
-70.93333333333334 74.8 2992.0 0.0 0.0 1.0
-70.66666666666667 79.6 2992.0 0.0 0.0 1.0
-72.04299999999999 76.4516 2412.9 0.0 0.0 1.0
-72.68816666666666 78.60213333333333 2412.9 0.0 0.0 1.0
-69.6 104.93333333333334 2992.0 0.0 0.0 1.0
-72.04299999999999 88.92473333333334 2412.9 0.0 0.0 1.0
-73.14593333333333 93.0656 2403.21 0.0 0.0 1.0
-72.07496666666667 99.7054 2403.21 0.0 0.0 1.0
-70.10756666666667 101.82799999999999 2412.9 0.0 0.0 1.0
-70.4 138.0 2992.0 0.0 0.0 1.0
-73.14593333333333 111.91466666666668 2403.21 0.0 0.0 1.0
-71.2 148.93333333333334 2992.0 0.0 0.0 1.0
-71.2 -147.6 2992.0 0.0 0.0 1.0
-72.96966666666667 -131.75766666666667 2720.0 0.0 0.0 1.0
-72.72726666666667 -125.93933333333332 2720.0 0.0 0.0 1.0
-72.53333333333333 -121.2 2992.0 0.0 0.0 1.0
-71.0303 -109.21233333333333 2720.0 0.0 0.0 1.0
-71.0303 -107.27266666666667 2720.0 0.0 0.0 1.0
-71.55356666666667 -103.16699999999999 2707.69 0.0 0.0 1.0
-71.46666666666667 -108.66666666666667 2992.0 0.0 0.0 1.0
-71.46666666666667 -108.66666666666667 2992.0 0.0 0.0 1.0
-71.2 -107.59999999999998 2992.0 0.0 0.0 1.0
-71.2 -107.59999999999998 2992.0 0.0 0.0 1.0
-70.13333333333334 -103.59999999999998 2992.0 0.0 0.0 1.0
-71.2 -98.8 2992.0 0.0 0.0 1.0
-71.46666666666665 -98.0 2992.0 0.0 0.0 1.0
-70.93333333333334 -89.73333333333333 2992.0 0.0 0.0 1.0
-70.93333333333332 -87.06666666666666 2992.0 0.0 0.0 1.0
-71.73333333333333 -85.73333333333333 2992.0 0.0 0.0 1.0
-70.66666666666667 -79.6 2992.0 0.0 0.0 1.0
-71.46666666666668 -67.06666666666666 2992.0 0.0 0.0 1.0
-70.66666666666667 -63.866666666666674 2992.0 0.0 0.0 1.0
-70.66666666666667 -63.333333333333336 2992.0 0.0 0.0 1.0
-72.0 -58.26666666666667 2992.0 0.0 0.0 1.0
-72.26666666666667 -51.86666666666667 2992.0 0.0 0.0 1.0
-71.73333333333333 -36.93333333333334 2992.0 0.0 0.0 1.0
-71.46666666666667 -32.666666666666664 2992.0 0.0 0.0 1.0
-71.46666666666665 -32.666666666666664 2992.0 0.0 0.0 1.0
-71.2 -30.266666666666666 2992.0 0.0 0.0 1.0
-72.0468 -20.233933333333333 2624.56 0.0 0.0 1.0
-70.93333333333334 -15.066666666666668 2992.0 0.0 0.0 1.0
-70.93333333333334 -15.066666666666668 2992.0 0.0 0.0 1.0
-69.86666666666667 -11.600000000000001 2992.0 0.0 0.0 1.0
-71.2 -5.733333333333333 2992.0 0.0 0.0 1.0
-71.46666666666665 0.1333333333333333 2992.0 0.0 0.0 1.0
-71.46666666666668 1.2 2992.0 0.0 0.0 1.0
-71.6157 3.6098933333333334 2613.1 0.0 0.0 1.0
-72.54729999999999 10.363900000000001 2613.1 0.0 0.0 1.0
-72.54729999999999 10.5968 2613.1 0.0 0.0 1.0
-70.13333333333334 29.2 2992.0 0.0 0.0 1.0
-71.46666666666668 40.4 2992.0 0.0 0.0 1.0
-71.73333333333333 43.86666666666667 2992.0 0.0 0.0 1.0
-71.73333333333333 58.26666666666667 2992.0 0.0 0.0 1.0
-70.13333333333334 63.333333333333336 2992.0 0.0 0.0 1.0
-70.66666666666667 66.0 2992.0 0.0 0.0 1.0
-70.93333333333334 74.8 2992.0 0.0 0.0 1.0
-71.46666666666668 75.33333333333333 2992.0 0.0 0.0 1.0
-74.19356666666667 72.36560000000001 2412.9 0.0 0.0 1.0
-72.68816666666667 77.52686666666666 2412.9 0.0 0.0 1.0
-72.68816666666667 78.60213333333334 2412.9 0.0 0.0 1.0
-72.90323333333333 89.1398 2412.9 0.0 0.0 1.0
-73.19613333333332 93.16873333333335 2462.55 0.0 0.0 1.0
-73.14593333333333 93.0656 2403.21 0.0 0.0 1.0
-73.3601 100.77633333333334 2403.21 0.0 0.0 1.0
-70.4 138.0 2992.0 0.0 0.0 1.0
-72.53333333333333 112.53333333333335 2393.6 0.0 0.0 1.0
-72.96 113.59999999999998 2393.6 0.0 0.0 1.0
-72.96 114.88 2393.6 0.0 0.0 1.0
-72.53333333333333 115.09333333333332 2393.6 0.0 0.0 1.0
-71.2 148.93333333333334 2992.0 0.0 0.0 1.0
-72.0 -147.86666666666667 2992.0 0.0 0.0 1.0
-73.45453333333334 -126.66666666666667 2720.0 0.0 0.0 1.0
-71.51516666666667 -116.0 2720.0 0.0 0.0 1.0
-71.55356666666667 -103.16699999999999 2707.69 0.0 0.0 1.0
-71.46666666666665 -108.66666666666667 2992.0 0.0 0.0 1.0
-71.73333333333333 -98.53333333333335 2992.0 0.0 0.0 1.0
-71.73333333333333 -98.53333333333335 2992.0 0.0 0.0 1.0
-71.73333333333333 -86.53333333333332 2992.0 0.0 0.0 1.0
-71.73333333333333 -85.73333333333333 2992.0 0.0 0.0 1.0
-72.0 -75.06666666666666 2992.0 0.0 0.0 1.0
-71.73333333333333 -60.93333333333334 2992.0 0.0 0.0 1.0
-72.26666666666667 -60.4 2992.0 0.0 0.0 1.0
-71.46666666666667 -55.333333333333336 2992.0 0.0 0.0 1.0
-71.46666666666667 -55.333333333333336 2992.0 0.0 0.0 1.0
-73.06666666666666 -43.86666666666667 2992.0 0.0 0.0 1.0
-71.73333333333333 -36.93333333333334 2992.0 0.0 0.0 1.0
-71.73333333333333 -36.93333333333333 2992.0 0.0 0.0 1.0
-71.46666666666665 -32.666666666666664 2992.0 0.0 0.0 1.0
-71.73333333333333 -31.066666666666663 2992.0 0.0 0.0 1.0
-72.0 -28.400000000000002 2992.0 0.0 0.0 1.0
-73.2164 -19.766066666666667 2624.56 0.0 0.0 1.0
-71.46666666666665 0.1333333333333333 2992.0 0.0 0.0 1.0
-72.7802 10.363900000000001 2613.1 0.0 0.0 1.0
-72.7802 10.5968 2613.1 0.0 0.0 1.0
-72.0 26.0 2992.0 0.0 0.0 1.0
-71.73333333333333 48.93333333333334 2992.0 0.0 0.0 1.0
-72.26666666666667 57.199999999999996 2992.0 0.0 0.0 1.0
-71.73333333333333 58.26666666666667 2992.0 0.0 0.0 1.0
-72.0 80.13333333333333 2992.0 0.0 0.0 1.0
-71.46666666666667 84.93333333333334 2992.0 0.0 0.0 1.0
-74.19356666666668 74.5161 2412.9 0.0 0.0 1.0
-73.76343333333334 89.5699 2412.9 0.0 0.0 1.0
-73.19613333333332 93.16873333333335 2462.55 0.0 0.0 1.0
-73.19613333333332 93.16873333333335 2462.55 0.0 0.0 1.0
-73.3601 100.77633333333334 2403.21 0.0 0.0 1.0
-73.7885 101.20466666666665 2403.21 0.0 0.0 1.0
-71.46666666666667 135.33333333333334 2992.0 0.0 0.0 1.0
-73.14593333333333 111.91466666666668 2403.21 0.0 0.0 1.0
-73.14593333333333 111.91466666666668 2403.21 0.0 0.0 1.0
-72.26666666666667 148.93333333333334 2992.0 0.0 0.0 1.0
-72.8 -148.13333333333333 2992.0 0.0 0.0 1.0
-72.96966666666667 -131.75766666666667 2720.0 0.0 0.0 1.0
-72.96966666666667 -131.75766666666667 2720.0 0.0 0.0 1.0
-73.45453333333334 -126.66666666666667 2720.0 0.0 0.0 1.0
-73.69693333333333 -119.394 2720.0 0.0 0.0 1.0
-73.69693333333333 -119.394 2720.0 0.0 0.0 1.0
-73.6 -126.0 2992.0 0.0 0.0 1.0
-72.53333333333333 -121.2 2992.0 0.0 0.0 1.0
-73.6 -117.73333333333333 2992.0 0.0 0.0 1.0
-72.53333333333332 -110.53333333333332 2992.0 0.0 0.0 1.0
-73.06666666666666 -96.13333333333333 2992.0 0.0 0.0 1.0
-72.53333333333333 -83.60000000000001 2992.0 0.0 0.0 1.0
-73.60000000000001 -82.53333333333333 2992.0 0.0 0.0 1.0
-71.73333333333333 -66.0 2992.0 0.0 0.0 1.0
-72.8 -60.4 2992.0 0.0 0.0 1.0
-73.6 -57.46666666666667 2992.0 0.0 0.0 1.0
-72.26666666666667 -51.86666666666667 2992.0 0.0 0.0 1.0
-72.26666666666667 -51.86666666666667 2992.0 0.0 0.0 1.0
-73.33333333333333 -45.199999999999996 2992.0 0.0 0.0 1.0
-73.33333333333333 -27.600000000000005 2992.0 0.0 0.0 1.0
-73.33333333333333 -7.333333333333333 2992.0 0.0 0.0 1.0
-73.33333333333333 -7.333333333333333 2992.0 0.0 0.0 1.0
-72.53333333333332 1.4666666666666668 2992.0 0.0 0.0 1.0
-73.7118 9.43231 2613.1 0.0 0.0 1.0
-72.0 18.8 2992.0 0.0 0.0 1.0
-72.0 18.8 2992.0 0.0 0.0 1.0
-74.13333333333333 32.13333333333333 2992.0 0.0 0.0 1.0
-72.0 35.86666666666667 2992.0 0.0 0.0 1.0
-72.8 36.93333333333333 2992.0 0.0 0.0 1.0
-72.8 39.86666666666667 2992.0 0.0 0.0 1.0
-73.06666666666666 49.73333333333333 2992.0 0.0 0.0 1.0
-73.60000000000001 55.333333333333336 2992.0 0.0 0.0 1.0
-72.53333333333335 56.133333333333326 2992.0 0.0 0.0 1.0
-72.53333333333332 75.6 2992.0 0.0 0.0 1.0
-71.46666666666667 84.93333333333334 2992.0 0.0 0.0 1.0
-74.40863333333334 73.22579999999999 2412.9 0.0 0.0 1.0
-74.62366666666668 77.31183333333334 2412.9 0.0 0.0 1.0
-72.53333333333333 102.0 2992.0 0.0 0.0 1.0
-74.21686666666666 93.0656 2403.21 0.0 0.0 1.0
-74.64523333333334 97.1352 2403.21 0.0 0.0 1.0
-74.0027 102.06166666666667 2403.21 0.0 0.0 1.0
-74.00269999999999 102.06166666666667 2403.21 0.0 0.0 1.0
-73.06666666666668 135.60000000000002 2992.0 0.0 0.0 1.0
-73.33333333333333 -148.9333333333333 2992.0 0.0 0.0 1.0
-73.6 -148.4 2992.0 0.0 0.0 1.0
-73.86666666666666 -147.86666666666667 2992.0 0.0 0.0 1.0
-74.66666666666667 -128.36366666666666 2720.0 0.0 0.0 1.0
-73.93936666666667 -126.182 2720.0 0.0 0.0 1.0
-73.93936666666667 -126.182 2720.0 0.0 0.0 1.0
-74.42423333333333 -119.15133333333334 2720.0 0.0 0.0 1.0
-74.13333333333334 -125.2 2992.0 0.0 0.0 1.0
-73.6 -120.39999999999999 2992.0 0.0 0.0 1.0
-73.60000000000001 -117.73333333333335 2992.0 0.0 0.0 1.0
-74.13333333333333 -111.06666666666666 2992.0 0.0 0.0 1.0
-72.0 -104.66666666666667 2992.0 0.0 0.0 1.0
-72.53333333333333 -98.53333333333335 2992.0 0.0 0.0 1.0
-74.66666666666667 -93.2 2992.0 0.0 0.0 1.0
-73.33333333333333 -85.73333333333333 2992.0 0.0 0.0 1.0
-73.33333333333333 -75.33333333333333 2992.0 0.0 0.0 1.0
-74.13333333333333 -68.4 2992.0 0.0 0.0 1.0
-74.13333333333333 -68.4 2992.0 0.0 0.0 1.0
-74.39999999999999 -63.333333333333336 2992.0 0.0 0.0 1.0
-73.60000000000001 -60.93333333333334 2992.0 0.0 0.0 1.0
-73.6 -57.46666666666667 2992.0 0.0 0.0 1.0
-73.33333333333333 -45.199999999999996 2992.0 0.0 0.0 1.0
-73.33333333333333 -44.4 2992.0 0.0 0.0 1.0
-73.06666666666666 -43.86666666666667 2992.0 0.0 0.0 1.0
-74.85379999999999 -19.0643 2624.56 0.0 0.0 1.0
-73.06666666666666 -14.533333333333333 2992.0 0.0 0.0 1.0
-73.86666666666666 2.266666666666667 2992.0 0.0 0.0 1.0
-73.7118 9.43231 2613.1 0.0 0.0 1.0
-74.1776 11.5284 2613.1 0.0 0.0 1.0
-74.66666666666667 23.066666666666666 2992.0 0.0 0.0 1.0
-74.39999999999999 40.93333333333333 2992.0 0.0 0.0 1.0
-74.13333333333334 45.46666666666667 2992.0 0.0 0.0 1.0
-74.93333333333334 72.4 2992.0 0.0 0.0 1.0
-73.86666666666666 75.6 2992.0 0.0 0.0 1.0
-74.13333333333334 80.93333333333334 2992.0 0.0 0.0 1.0
-75.05376666666668 76.02146666666665 2412.9 0.0 0.0 1.0
-74.62366666666667 76.4516 2412.9 0.0 0.0 1.0
-74.83873333333334 77.95700000000001 2412.9 0.0 0.0 1.0
-75.05376666666668 82.68816666666666 2412.9 0.0 0.0 1.0
-75.05376666666668 82.68816666666666 2412.9 0.0 0.0 1.0
-73.76343333333334 89.5699 2412.9 0.0 0.0 1.0
-74.64523333333334 97.1352 2403.21 0.0 0.0 1.0
-74.64523333333334 97.1352 2403.21 0.0 0.0 1.0
-75.0736 97.99196666666667 2403.21 0.0 0.0 1.0
-74.00266666666666 112.12866666666667 2403.21 0.0 0.0 1.0
-75.52 113.81333333333332 2393.6 0.0 0.0 1.0
-73.60000000000001 148.66666666666666 2992.0 0.0 0.0 1.0
-74.66666666666667 -148.13333333333333 2992.0 0.0 0.0 1.0
-74.13333333333334 -147.86666666666667 2992.0 0.0 0.0 1.0
-74.4 -126.0 2992.0 0.0 0.0 1.0
-74.66666666666667 -124.66666666666667 2992.0 0.0 0.0 1.0
-74.4 -118.8 2992.0 0.0 0.0 1.0
-74.4 -99.60000000000001 2992.0 0.0 0.0 1.0
-74.66666666666667 -93.2 2992.0 0.0 0.0 1.0
-74.39999999999999 -85.73333333333333 2992.0 0.0 0.0 1.0
-74.66666666666667 -85.2 2992.0 0.0 0.0 1.0
-74.66666666666667 -77.46666666666667 2992.0 0.0 0.0 1.0
-74.66666666666667 -77.46666666666667 2992.0 0.0 0.0 1.0
-74.66666666666667 -61.46666666666667 2992.0 0.0 0.0 1.0
-74.66666666666667 -61.46666666666667 2992.0 0.0 0.0 1.0
-73.60000000000001 -57.46666666666667 2992.0 0.0 0.0 1.0
-74.4 -46.800000000000004 2992.0 0.0 0.0 1.0
-75.2 -37.46666666666667 2992.0 0.0 0.0 1.0
-75.32163333333334 -20.233933333333333 2624.56 0.0 0.0 1.0
-75.32163333333334 -20.233933333333333 2624.56 0.0 0.0 1.0
-75.08773333333333 -18.596466666666668 2624.56 0.0 0.0 1.0
-75.2 -12.933333333333332 2992.0 0.0 0.0 1.0
-73.86666666666667 -6.533333333333334 2992.0 0.0 0.0 1.0
-74.4 -5.733333333333334 2992.0 0.0 0.0 1.0
-74.4 -4.666666666666667 2992.0 0.0 0.0 1.0
-74.4 -3.3333333333333335 2992.0 0.0 0.0 1.0
-74.93333333333334 -2.2666666666666666 2992.0 0.0 0.0 1.0
-75.1092 12.692866666666665 2613.1 0.0 0.0 1.0
-75.2 24.133333333333336 2992.0 0.0 0.0 1.0
-74.13333333333334 32.13333333333333 2992.0 0.0 0.0 1.0
-74.4 40.93333333333333 2992.0 0.0 0.0 1.0
-74.66666666666667 44.4 2992.0 0.0 0.0 1.0
-74.4 45.199999999999996 2992.0 0.0 0.0 1.0
-74.13333333333334 45.46666666666667 2992.0 0.0 0.0 1.0
-74.13333333333333 51.06666666666666 2992.0 0.0 0.0 1.0
-74.93333333333334 66.26666666666667 2992.0 0.0 0.0 1.0
-74.93333333333334 66.26666666666667 2992.0 0.0 0.0 1.0
-74.66666666666667 80.66666666666667 2992.0 0.0 0.0 1.0
-74.13333333333334 80.93333333333334 2992.0 0.0 0.0 1.0
-75.26883333333335 71.72043333333333 2412.9 0.0 0.0 1.0
-75.05376666666668 76.02146666666665 2412.9 0.0 0.0 1.0
-74.83873333333334 77.95700000000001 2412.9 0.0 0.0 1.0
-75.48386666666669 82.9032 2412.9 0.0 0.0 1.0
-75.502 93.49396666666667 2403.21 0.0 0.0 1.0
-75.502 98.42033333333335 2403.21 0.0 0.0 1.0
-76.0 132.13333333333333 2992.0 0.0 0.0 1.0
-74.39999999999999 136.4 2992.0 0.0 0.0 1.0
-75.52 113.81333333333332 2393.6 0.0 0.0 1.0
-75.2 -148.66666666666666 2992.0 0.0 0.0 1.0
-75.63636666666666 -128.606 2720.0 0.0 0.0 1.0
-76.1212 -119.394 2720.0 0.0 0.0 1.0
-76.1212 -117.45466666666668 2720.0 0.0 0.0 1.0
-75.46666666666668 -126.0 2992.0 0.0 0.0 1.0
-75.2 -121.73333333333335 2992.0 0.0 0.0 1.0
-74.4 -119.59999999999998 2992.0 0.0 0.0 1.0
-75.46666666666668 -99.60000000000001 2992.0 0.0 0.0 1.0
-74.66666666666667 -95.86666666666667 2992.0 0.0 0.0 1.0
-76.53333333333333 -88.13333333333333 2992.0 0.0 0.0 1.0
-74.66666666666667 -85.2 2992.0 0.0 0.0 1.0
-74.93333333333334 -82.26666666666667 2992.0 0.0 0.0 1.0
-75.46666666666668 -78.26666666666667 2992.0 0.0 0.0 1.0
-75.2 -70.26666666666667 2992.0 0.0 0.0 1.0
-75.46666666666665 -66.8 2992.0 0.0 0.0 1.0
-75.46666666666665 -66.8 2992.0 0.0 0.0 1.0
-74.66666666666667 -64.66666666666667 2992.0 0.0 0.0 1.0
-74.66666666666667 -61.46666666666667 2992.0 0.0 0.0 1.0
-75.46666666666667 -58.26666666666667 2992.0 0.0 0.0 1.0
-76.0 -49.46666666666667 2992.0 0.0 0.0 1.0
-74.4 -46.800000000000004 2992.0 0.0 0.0 1.0
-75.46666666666667 -38.0 2992.0 0.0 0.0 1.0
-74.93333333333334 -38.0 2992.0 0.0 0.0 1.0
-74.66666666666667 -27.600000000000005 2992.0 0.0 0.0 1.0
-75.46666666666667 -26.53333333333333 2992.0 0.0 0.0 1.0
-75.32163333333334 -20.233933333333333 2624.56 0.0 0.0 1.0
-75.78946666666667 -18.362566666666666 2624.56 0.0 0.0 1.0
-75.2 -12.933333333333332 2992.0 0.0 0.0 1.0
-75.2 -8.4 2992.0 0.0 0.0 1.0
-75.73333333333333 3.866666666666667 2992.0 0.0 0.0 1.0
-75.73333333333333 3.866666666666667 2992.0 0.0 0.0 1.0
-77.43813333333333 5.705963333333333 2613.1 0.0 0.0 1.0
-76.27366666666667 14.556000000000003 2613.1 0.0 0.0 1.0
-76.27366666666667 14.556000000000003 2613.1 0.0 0.0 1.0
-75.46666666666667 23.333333333333332 2992.0 0.0 0.0 1.0
-75.46666666666665 23.333333333333332 2992.0 0.0 0.0 1.0
-74.93333333333334 27.066666666666666 2992.0 0.0 0.0 1.0
-76.26666666666667 28.133333333333336 2992.0 0.0 0.0 1.0
-74.93333333333334 32.666666666666664 2992.0 0.0 0.0 1.0
-74.93333333333334 32.666666666666664 2992.0 0.0 0.0 1.0
-75.46666666666667 38.266666666666666 2992.0 0.0 0.0 1.0
-75.46666666666667 38.266666666666666 2992.0 0.0 0.0 1.0
-75.2 40.666666666666664 2992.0 0.0 0.0 1.0
-75.2 43.86666666666667 2992.0 0.0 0.0 1.0
-74.93333333333334 52.4 2992.0 0.0 0.0 1.0
-74.39999999999999 54.0 2992.0 0.0 0.0 1.0
-75.2 62.79999999999999 2992.0 0.0 0.0 1.0
-76.26666666666667 70.53333333333333 2992.0 0.0 0.0 1.0
-75.73333333333333 73.73333333333333 2992.0 0.0 0.0 1.0
-75.2 74.53333333333332 2992.0 0.0 0.0 1.0
-74.66666666666667 75.33333333333333 2992.0 0.0 0.0 1.0
-74.66666666666667 80.66666666666667 2992.0 0.0 0.0 1.0
-76.77416666666666 69.78493333333334 2412.9 0.0 0.0 1.0
-76.77416666666666 69.78493333333334 2412.9 0.0 0.0 1.0
-75.73333333333333 87.33333333333333 2992.0 0.0 0.0 1.0
-74.93333333333334 100.39999999999999 2992.0 0.0 0.0 1.0
-75.91396666666667 82.68816666666666 2412.9 0.0 0.0 1.0
-75.91396666666667 82.68816666666666 2412.9 0.0 0.0 1.0
-74.39999999999999 102.8 2992.0 0.0 0.0 1.0
-77.41933333333333 85.69893333333334 2412.9 0.0 0.0 1.0
-77.58573333333332 93.3882 2462.55 0.0 0.0 1.0
-76.14456666666666 93.92233333333333 2403.21 0.0 0.0 1.0
-75.7162 97.77776666666666 2403.21 0.0 0.0 1.0
-76.35876666666665 98.6345 2403.21 0.0 0.0 1.0
-76.15999999999998 113.81333333333333 2393.6 0.0 0.0 1.0
-74.66666666666667 147.86666666666665 2992.0 0.0 0.0 1.0
-74.66666666666667 147.86666666666665 2992.0 0.0 0.0 1.0
-76.26666666666667 -149.73333333333332 2992.0 0.0 0.0 1.0
-75.73333333333333 -149.20000000000002 2992.0 0.0 0.0 1.0
-76.84846666666668 -123.27266666666667 2720.0 0.0 0.0 1.0
-76.84846666666668 -123.27266666666667 2720.0 0.0 0.0 1.0
-76.1212 -120.84833333333334 2720.0 0.0 0.0 1.0
-76.1212 -117.45466666666668 2720.0 0.0 0.0 1.0
-76.1212 -117.45466666666668 2720.0 0.0 0.0 1.0
-76.53333333333335 -124.66666666666667 2992.0 0.0 0.0 1.0
-76.8 -113.2 2992.0 0.0 0.0 1.0
-75.2 -110.26666666666665 2992.0 0.0 0.0 1.0
-76.8 -108.93333333333332 2992.0 0.0 0.0 1.0
-75.73333333333333 -101.73333333333335 2992.0 0.0 0.0 1.0
-76.26666666666667 -95.60000000000001 2992.0 0.0 0.0 1.0
-75.46666666666667 -92.66666666666667 2992.0 0.0 0.0 1.0
-75.46666666666667 -92.66666666666667 2992.0 0.0 0.0 1.0
-75.46666666666665 -66.8 2992.0 0.0 0.0 1.0
-76.0 -49.46666666666667 2992.0 0.0 0.0 1.0
-75.46666666666667 -44.13333333333333 2992.0 0.0 0.0 1.0
-76.69616666666667 -37.16813333333334 2647.79 0.0 0.0 1.0
-76.69616666666667 -37.16813333333334 2647.79 0.0 0.0 1.0
-75.2 -37.46666666666667 2992.0 0.0 0.0 1.0
-74.66666666666667 -27.600000000000005 2992.0 0.0 0.0 1.0
-76.49123333333334 -18.8304 2624.56 0.0 0.0 1.0
-76.72513333333335 -17.660833333333333 2624.56 0.0 0.0 1.0
-75.2 -12.933333333333332 2992.0 0.0 0.0 1.0
-75.2 -8.4 2992.0 0.0 0.0 1.0
-76.0 -1.7333333333333334 2992.0 0.0 0.0 1.0
-76.8 19.066666666666666 2992.0 0.0 0.0 1.0
-75.46666666666665 23.333333333333332 2992.0 0.0 0.0 1.0
-75.46666666666665 38.266666666666666 2992.0 0.0 0.0 1.0
-75.2 40.666666666666664 2992.0 0.0 0.0 1.0
-75.73333333333333 44.13333333333333 2992.0 0.0 0.0 1.0
-75.46666666666667 44.666666666666664 2992.0 0.0 0.0 1.0
-76.0 60.133333333333326 2992.0 0.0 0.0 1.0
-76.53333333333335 66.8 2992.0 0.0 0.0 1.0
-75.46666666666665 71.60000000000001 2992.0 0.0 0.0 1.0
-76.0 94.53333333333335 2992.0 0.0 0.0 1.0
-76.0 94.53333333333335 2992.0 0.0 0.0 1.0
-76.53333333333335 96.93333333333334 2992.0 0.0 0.0 1.0
-75.04503333333334 90.0271 2419.44 1.915589136847474e-16 -0.9999914148577268 0.004143695312330939
-76.14456666666666 93.92233333333333 2403.21 0.0 0.0 1.0
-76.57296666666667 103.98933333333333 2403.21 0.0 0.0 1.0
-76.8 133.73333333333332 2992.0 0.0 0.0 1.0
-76.26666666666667 136.9333333333333 2992.0 0.0 0.0 1.0
-76.8 113.81333333333333 2393.6 0.0 0.0 1.0
-78.08 115.94666666666666 2393.6 0.0 0.0 1.0
-76.26666666666667 -149.73333333333332 2992.0 0.0 0.0 1.0
-76.0 -148.66666666666666 2992.0 0.0 0.0 1.0
-77.8182 -127.63633333333333 2720.0 0.0 0.0 1.0
-76.53333333333333 -124.66666666666667 2992.0 0.0 0.0 1.0
-76.53333333333335 -124.66666666666667 2992.0 0.0 0.0 1.0
-76.26666666666667 -123.06666666666666 2992.0 0.0 0.0 1.0
-77.06666666666668 -103.06666666666668 2992.0 0.0 0.0 1.0
-76.0 -98.26666666666665 2992.0 0.0 0.0 1.0
-76.53333333333332 -88.13333333333333 2992.0 0.0 0.0 1.0
-76.26666666666667 -84.13333333333333 2992.0 0.0 0.0 1.0
-76.26666666666667 -83.06666666666666 2992.0 0.0 0.0 1.0
-76.53333333333333 -79.06666666666668 2992.0 0.0 0.0 1.0
-75.73333333333333 -69.73333333333333 2992.0 0.0 0.0 1.0
-76.26666666666667 -58.53333333333333 2992.0 0.0 0.0 1.0
-76.8 -58.0 2992.0 0.0 0.0 1.0
-76.8 -58.0 2992.0 0.0 0.0 1.0
-77.6 -54.800000000000004 2992.0 0.0 0.0 1.0
-76.0 -49.46666666666667 2992.0 0.0 0.0 1.0
-76.0 -45.20000000000001 2992.0 0.0 0.0 1.0
-76.69616666666667 -37.16813333333334 2647.79 0.0 0.0 1.0
-76.49123333333334 -18.8304 2624.56 0.0 0.0 1.0
-77.19296666666666 -16.95906666666667 2624.56 0.0 0.0 1.0
-77.6608 -14.6199 2624.56 0.0 0.0 1.0
-77.6 2.7999999999999994 2992.0 0.0 0.0 1.0
-77.90390000000001 11.9942 2613.1 0.0 0.0 1.0
-76.73943333333334 14.090233333333336 2613.1 0.0 0.0 1.0
-76.73943333333334 14.090233333333336 2613.1 0.0 0.0 1.0
-76.8 19.066666666666666 2992.0 0.0 0.0 1.0
-77.06666666666666 56.4 2992.0 0.0 0.0 1.0
-76.53333333333333 66.8 2992.0 0.0 0.0 1.0
-76.53333333333333 66.8 2992.0 0.0 0.0 1.0
-76.0 72.66666666666667 2992.0 0.0 0.0 1.0
-78.49463333333334 64.19356666666668 2412.9 0.0 0.0 1.0
-76.53333333333335 96.93333333333334 2992.0 0.0 0.0 1.0
-76.53333333333333 96.93333333333334 2992.0 0.0 0.0 1.0
-76.55913333333335 82.25806666666666 2412.9 0.0 0.0 1.0
-77.42973333333333 96.70683333333334 2403.21 0.0 0.0 1.0
-76.57296666666666 98.20613333333334 2403.21 0.0 0.0 1.0
-76.8 133.73333333333332 2992.0 0.0 0.0 1.0
-76.8 113.81333333333332 2393.6 0.0 0.0 1.0
-77.86666666666666 -147.60000000000002 2992.0 0.0 0.0 1.0
-76.8485 -128.606 2720.0 0.0 0.0 1.0
-77.57576666666667 -124.0 2720.0 0.0 0.0 1.0
-76.53333333333333 -94.8 2992.0 0.0 0.0 1.0
-76.53333333333332 -88.13333333333333 2992.0 0.0 0.0 1.0
-77.06666666666666 -80.66666666666667 2992.0 0.0 0.0 1.0
-77.33333333333333 -73.46666666666667 2992.0 0.0 0.0 1.0
-77.60000000000001 -65.2 2992.0 0.0 0.0 1.0
-77.06666666666666 -55.866666666666674 2992.0 0.0 0.0 1.0
-77.86666666666666 -32.13333333333333 2992.0 0.0 0.0 1.0
-77.86666666666666 -32.13333333333333 2992.0 0.0 0.0 1.0
-77.19296666666666 -16.95906666666667 2624.56 0.0 0.0 1.0
-78.59649999999999 -13.684233333333333 2624.56 0.0 0.0 1.0
-77.60000000000001 -0.9333333333333335 2992.0 0.0 0.0 1.0
-77.6 2.7999999999999994 2992.0 0.0 0.0 1.0
-78.3697 5.938859999999999 2613.1 0.0 0.0 1.0
-77.90390000000001 11.9942 2613.1 0.0 0.0 1.0
-77.86666666666666 19.333333333333336 2992.0 0.0 0.0 1.0
-77.06666666666666 23.333333333333332 2992.0 0.0 0.0 1.0
-77.06666666666666 23.333333333333332 2992.0 0.0 0.0 1.0
-77.06666666666666 32.666666666666664 2992.0 0.0 0.0 1.0
-76.26666666666667 70.53333333333333 2992.0 0.0 0.0 1.0
-77.06666666666666 75.6 2992.0 0.0 0.0 1.0
-78.49463333333334 64.19356666666668 2412.9 0.0 0.0 1.0
-77.84943333333332 69.78493333333334 2412.9 0.0 0.0 1.0
-78.49463333333334 85.48386666666669 2412.9 0.0 0.0 1.0
-78.49463333333334 86.12903333333334 2412.9 0.0 0.0 1.0
-77.58573333333334 93.3882 2462.55 0.0 0.0 1.0
-78.92906666666666 101.205 2403.21 0.0 0.0 1.0
-77.06666666666666 132.9333333333333 2992.0 0.0 0.0 1.0
-77.33333333333333 134.26666666666668 2992.0 0.0 0.0 1.0
-77.33333333333333 134.26666666666668 2992.0 0.0 0.0 1.0
-77.4297 113.19966666666666 2403.21 0.0 0.0 1.0
-78.93333333333334 -143.86666666666665 2992.0 0.0 0.0 1.0
-78.06063333333334 -126.18166666666666 2720.0 0.0 0.0 1.0
-78.30306666666667 -124.72733333333333 2720.0 0.0 0.0 1.0
-78.30303333333335 -116.24233333333332 2720.0 0.0 0.0 1.0
-78.66666666666667 -119.33333333333333 2992.0 0.0 0.0 1.0
-78.4 -118.26666666666665 2992.0 0.0 0.0 1.0
-78.4 -118.26666666666665 2992.0 0.0 0.0 1.0
-77.60000000000001 -115.33333333333333 2992.0 0.0 0.0 1.0
-78.93333333333334 -106.8 2992.0 0.0 0.0 1.0
-78.4 -106.0 2992.0 0.0 0.0 1.0
-78.66666666666667 -104.93333333333334 2992.0 0.0 0.0 1.0
-80.0 -86.40003333333333 2659.56 0.0 0.0 1.0
-77.33333333333333 -66.53333333333335 2992.0 0.0 0.0 1.0
-79.2 -62.26666666666667 2992.0 0.0 0.0 1.0
-78.13333333333334 -54.53333333333333 2992.0 0.0 0.0 1.0
-78.66666666666667 -33.46666666666667 2992.0 0.0 0.0 1.0
-78.66666666666667 -33.46666666666667 2992.0 0.0 0.0 1.0
-78.13333333333334 -32.666666666666664 2992.0 0.0 0.0 1.0
-78.5965 -18.362566666666666 2624.56 0.0 0.0 1.0
-78.13333333333334 -12.666666666666666 2992.0 0.0 0.0 1.0
-77.60000000000001 2.7999999999999994 2992.0 0.0 0.0 1.0
-78.3697 5.938860000000001 2613.1 0.0 0.0 1.0
-78.3697 6.63755 2613.1 0.0 0.0 1.0
-78.8355 7.33624 2613.1 0.0 0.0 1.0
-78.36970000000001 10.131006666666666 2613.1 0.0 0.0 1.0
-77.90390000000001 11.9942 2613.1 0.0 0.0 1.0
-77.67099999999999 14.556033333333332 2613.1 0.0 0.0 1.0
-76.26666666666667 28.133333333333336 2992.0 0.0 0.0 1.0
-79.2 34.266666666666666 2992.0 0.0 0.0 1.0
-77.60000000000001 38.0 2992.0 0.0 0.0 1.0
-78.4 38.800000000000004 2992.0 0.0 0.0 1.0
-77.60000000000001 39.86666666666667 2992.0 0.0 0.0 1.0
-78.66666666666667 44.666666666666664 2992.0 0.0 0.0 1.0
-78.4 45.199999999999996 2992.0 0.0 0.0 1.0
-78.4 45.199999999999996 2992.0 0.0 0.0 1.0
-79.46666666666665 50.53333333333334 2992.0 0.0 0.0 1.0
-79.46666666666668 53.199999999999996 2992.0 0.0 0.0 1.0
-77.60000000000001 74.8 2992.0 0.0 0.0 1.0
-78.93333333333334 97.2 2992.0 0.0 0.0 1.0
-78.49463333333334 85.48386666666669 2412.9 0.0 0.0 1.0
-78.49463333333334 86.12903333333334 2412.9 0.0 0.0 1.0
-79.12206666666667 93.82716666666666 2462.55 0.0 0.0 1.0
-78.92906666666666 95.85006666666668 2403.21 0.0 0.0 1.0
-78.92906666666666 101.205 2403.21 0.0 0.0 1.0
-78.28646666666667 103.98933333333332 2403.21 0.0 0.0 1.0
-78.93333333333334 138.26666666666665 2992.0 0.0 0.0 1.0
-78.93333333333334 115.73333333333333 2393.6 0.0 0.0 1.0
-78.93333333333334 115.94666666666667 2393.6 0.0 0.0 1.0
-78.66666666666667 -146.53333333333333 2992.0 0.0 0.0 1.0
-78.4 -145.2 2992.0 0.0 0.0 1.0
-79.46666666666668 -143.06666666666666 2992.0 0.0 0.0 1.0
-79.73333333333333 -142.26666666666668 2992.0 0.0 0.0 1.0
-79.2 -119.86666666666667 2992.0 0.0 0.0 1.0
-80.53333333333333 -109.46666666666665 2992.0 0.0 0.0 1.0
-79.46666666666668 -104.66666666666667 2992.0 0.0 0.0 1.0
-81.42856666666667 -85.83333333333333 2671.43 0.0 0.0 1.0
-80.26666666666667 -92.13333333333333 2992.0 0.0 0.0 1.0
-78.66666666666667 -78.53333333333335 2992.0 0.0 0.0 1.0
-79.46666666666667 -74.8 2992.0 0.0 0.0 1.0
-79.46666666666667 -63.06666666666666 2992.0 0.0 0.0 1.0
-79.46666666666665 -63.06666666666666 2992.0 0.0 0.0 1.0
-78.4 -54.800000000000004 2992.0 0.0 0.0 1.0
-80.0 -47.86666666666667 2992.0 0.0 0.0 1.0
-78.66666666666667 -33.46666666666667 2992.0 0.0 0.0 1.0
-78.93333333333334 -32.4 2992.0 0.0 0.0 1.0
-80.0 0.4000000000000001 2992.0 0.0 0.0 1.0
-78.93333333333334 1.4666666666666668 2992.0 0.0 0.0 1.0
-79.3013 4.075686666666667 2613.1 0.0 0.0 1.0
-79.0684 8.03493 2613.1 0.0 0.0 1.0
-79.0684 8.03493 2613.1 0.0 0.0 1.0
-78.93333333333332 19.6 2992.0 0.0 0.0 1.0
-79.2 34.266666666666666 2992.0 0.0 0.0 1.0
-78.66666666666667 44.666666666666664 2992.0 0.0 0.0 1.0
-79.46666666666668 53.199999999999996 2992.0 0.0 0.0 1.0
-79.73333333333333 58.0 2992.0 0.0 0.0 1.0
-78.66666666666667 67.60000000000001 2992.0 0.0 0.0 1.0
-79.13976666666667 69.78493333333334 2412.9 0.0 0.0 1.0
-80.26666666666667 88.66666666666667 2992.0 0.0 0.0 1.0
-78.93333333333334 97.2 2992.0 0.0 0.0 1.0
-78.93333333333334 98.0 2992.0 0.0 0.0 1.0
-78.93333333333334 98.0 2992.0 0.0 0.0 1.0
-79.13976666666667 83.76343333333334 2412.9 0.0 0.0 1.0
-79.7858 103.56099999999999 2403.21 0.0 0.0 1.0
-78.93333333333334 137.20000000000002 2992.0 0.0 0.0 1.0
-78.93333333333334 137.20000000000002 2992.0 0.0 0.0 1.0
-79.2 139.6 2992.0 0.0 0.0 1.0
-80.0 113.628 2403.21 0.0 0.0 1.0
-79.14666666666666 115.73333333333333 2393.6 0.0 0.0 1.0
-79.14666666666666 115.94666666666667 2393.6 0.0 0.0 1.0
-80.26666666666667 147.6 2992.0 0.0 0.0 1.0
-78.7879 -123.27266666666667 2720.0 0.0 0.0 1.0
-80.9697 -117.93966666666667 2720.0 0.0 0.0 1.0
-79.2 -119.86666666666667 2992.0 0.0 0.0 1.0
-79.73333333333333 -106.53333333333332 2992.0 0.0 0.0 1.0
-80.94813333333333 -92.08890000000001 2659.56 0.0 0.0 1.0
-80.26666666666667 -92.13333333333333 2992.0 0.0 0.0 1.0
-80.26666666666667 -79.06666666666668 2992.0 0.0 0.0 1.0
-79.46666666666665 -63.06666666666666 2992.0 0.0 0.0 1.0
-80.26666666666667 -58.0 2992.0 0.0 0.0 1.0
-80.26666666666667 -58.0 2992.0 0.0 0.0 1.0
-79.73333333333333 -49.199999999999996 2992.0 0.0 0.0 1.0
-80.0 -47.86666666666667 2992.0 0.0 0.0 1.0
-79.29203333333334 -36.93213333333333 2647.79 0.0 0.0 1.0
-80.8 -36.666666666666664 2992.0 0.0 0.0 1.0
-80.26666666666667 -31.066666666666666 2992.0 0.0 0.0 1.0
-79.7661 -17.660833333333333 2624.56 0.0 0.0 1.0
-80.23393333333333 -15.321633333333333 2624.56 0.0 0.0 1.0
-80.0 -12.133333333333333 2992.0 0.0 0.0 1.0
-80.8 -3.866666666666667 2992.0 0.0 0.0 1.0
-79.3013 4.075686666666667 2613.1 0.0 0.0 1.0
-79.0684 5.938859999999999 2613.1 0.0 0.0 1.0
-81.06666666666666 10.533333333333333 2992.0 0.0 0.0 1.0
-80.8 14.0 2992.0 0.0 0.0 1.0
-80.0 19.866666666666667 2992.0 0.0 0.0 1.0
-80.26666666666667 20.4 2992.0 0.0 0.0 1.0
-80.0 34.53333333333333 2992.0 0.0 0.0 1.0
-79.73333333333333 58.0 2992.0 0.0 0.0 1.0
-80.53333333333333 58.53333333333333 2992.0 0.0 0.0 1.0
-79.46666666666667 69.46666666666667 2992.0 0.0 0.0 1.0
-78.49463333333334 64.19356666666667 2412.9 0.0 0.0 1.0
-79.13976666666667 69.78493333333334 2412.9 0.0 0.0 1.0
-80.26666666666667 88.66666666666667 2992.0 0.0 0.0 1.0
-80.53333333333333 89.46666666666665 2992.0 0.0 0.0 1.0
-79.73333333333333 93.73333333333333 2992.0 0.0 0.0 1.0
-80.64256666666667 78.5007 2403.21 0.0 0.0 1.0
-80.0 82.90323333333333 2412.9 0.0 0.0 1.0
-79.1398 85.91396666666667 2412.9 0.0 0.0 1.0
-79.35483333333333 87.63440000000001 2412.9 0.0 0.0 1.0
-80.0 101.63333333333333 2403.21 0.0 0.0 1.0
-78.39999999999999 132.66666666666666 2992.0 0.0 0.0 1.0
-80.26666666666667 140.4 2992.0 0.0 0.0 1.0
-80.26666666666667 147.6 2992.0 0.0 0.0 1.0
-80.53333333333332 -143.06666666666666 2992.0 0.0 0.0 1.0
-80.9697 -117.93966666666667 2720.0 0.0 0.0 1.0
-80.53333333333332 -122.8 2992.0 0.0 0.0 1.0
-80.8 -118.0 2992.0 0.0 0.0 1.0
-80.53333333333332 -109.46666666666665 2992.0 0.0 0.0 1.0
-80.0 -105.46666666666665 2992.0 0.0 0.0 1.0
-80.94813333333333 -92.08890000000001 2659.56 0.0 0.0 1.0
-80.0 -86.40003333333333 2659.56 0.0 0.0 1.0
-80.0 -63.6 2992.0 0.0 0.0 1.0
-80.53333333333335 -59.06666666666666 2992.0 0.0 0.0 1.0
-80.26666666666667 -58.0 2992.0 0.0 0.0 1.0
-80.53333333333333 -47.06666666666666 2992.0 0.0 0.0 1.0
-80.8 -45.73333333333333 2992.0 0.0 0.0 1.0
-81.33333333333333 -44.4 2992.0 0.0 0.0 1.0
-81.17996666666666 -36.696133333333336 2647.79 0.0 0.0 1.0
-80.8 -36.666666666666664 2992.0 0.0 0.0 1.0
-80.9357 -17.4269 2624.56 0.0 0.0 1.0
-80.70176666666667 -13.918133333333332 2624.56 0.0 0.0 1.0
-81.33333333333333 -2.266666666666667 2992.0 0.0 0.0 1.0
-80.93159999999999 1.9796166666666668 2613.1 0.0 0.0 1.0
-80.8 12.933333333333332 2992.0 0.0 0.0 1.0
-80.0 19.066666666666666 2992.0 0.0 0.0 1.0
-80.26666666666667 20.400000000000002 2992.0 0.0 0.0 1.0
-80.0 34.53333333333333 2992.0 0.0 0.0 1.0
-81.06666666666666 42.53333333333333 2992.0 0.0 0.0 1.0
-81.06666666666666 42.53333333333333 2992.0 0.0 0.0 1.0
-81.6 48.93333333333334 2992.0 0.0 0.0 1.0
-80.8 52.666666666666664 2992.0 0.0 0.0 1.0
-81.9355 50.21503333333334 2412.9 0.0 0.0 1.0
-81.33333333333333 69.73333333333333 2992.0 0.0 0.0 1.0
-81.07093333333334 77.42970000000001 2403.21 0.0 0.0 1.0
-80.64256666666667 78.5007 2403.21 0.0 0.0 1.0
-80.0 82.90323333333333 2412.9 0.0 0.0 1.0
-78.93333333333334 108.66666666666667 2992.0 0.0 0.0 1.0
-82.66666666666667 111.06666666666668 2992.0 0.0 0.0 1.0
-79.12206666666667 93.82716666666666 2462.55 0.0 0.0 1.0
-81.28513333333335 94.56493333333333 2403.21 0.0 0.0 1.0
-81.28000000000002 114.88 2393.6 0.0 0.0 1.0
-80.53333333333332 -143.06666666666666 2992.0 0.0 0.0 1.0
-82.66666666666666 -125.2 2992.0 0.0 0.0 1.0
-81.33333333333333 -116.39999999999999 2992.0 0.0 0.0 1.0
-82.13333333333333 -115.59999999999998 2992.0 0.0 0.0 1.0
-80.53333333333332 -109.46666666666665 2992.0 0.0 0.0 1.0
-80.26666666666667 -92.13333333333333 2992.0 0.0 0.0 1.0
-83.46666666666665 -87.33333333333333 2992.0 0.0 0.0 1.0
-82.39999999999999 -81.2 2992.0 0.0 0.0 1.0
-82.66666666666667 -76.13333333333333 2992.0 0.0 0.0 1.0
-82.39999999999999 -68.66666666666667 2992.0 0.0 0.0 1.0
-81.33333333333333 -66.8 2992.0 0.0 0.0 1.0
-81.6519 -45.899699999999996 2647.79 0.0 0.0 1.0
-81.6519 -45.899699999999996 2647.79 0.0 0.0 1.0
-82.3599 -34.80826666666667 2647.79 0.0 0.0 1.0
-81.6 -36.93333333333333 2992.0 0.0 0.0 1.0
-80.26666666666667 -31.066666666666666 2992.0 0.0 0.0 1.0
-82.13333333333333 -27.86666666666667 2992.0 0.0 0.0 1.0
-82.13333333333333 -27.86666666666667 2992.0 0.0 0.0 1.0
-81.63743333333333 -13.450299999999999 2624.56 0.0 0.0 1.0
-81.06666666666666 -11.333333333333334 2992.0 0.0 0.0 1.0
-81.86666666666666 -10.0 2992.0 0.0 0.0 1.0
-80.8 -3.866666666666667 2992.0 0.0 0.0 1.0
-80.53333333333332 -0.6666666666666666 2992.0 0.0 0.0 1.0
-81.06666666666666 9.200000000000001 2992.0 0.0 0.0 1.0
-81.06666666666666 10.533333333333333 2992.0 0.0 0.0 1.0
-81.33333333333333 11.6 2992.0 0.0 0.0 1.0
-82.13333333333334 14.799999999999999 2992.0 0.0 0.0 1.0
-81.86666666666666 24.666666666666668 2992.0 0.0 0.0 1.0
-82.13333333333333 25.46666666666667 2992.0 0.0 0.0 1.0
-82.13333333333334 30.266666666666666 2992.0 0.0 0.0 1.0
-82.13333333333333 37.73333333333333 2992.0 0.0 0.0 1.0
-81.6 39.06666666666666 2992.0 0.0 0.0 1.0
-81.33333333333333 40.4 2992.0 0.0 0.0 1.0
-81.06666666666666 42.53333333333333 2992.0 0.0 0.0 1.0
-81.6 48.93333333333334 2992.0 0.0 0.0 1.0
-80.53333333333333 58.53333333333333 2992.0 0.0 0.0 1.0
-83.73333333333333 83.06666666666666 2992.0 0.0 0.0 1.0
-81.33333333333333 89.46666666666668 2992.0 0.0 0.0 1.0
-81.9277 75.93036666666666 2403.21 0.0 0.0 1.0
-81.07093333333334 76.57293333333332 2403.21 0.0 0.0 1.0
-81.28513333333335 78.2865 2403.21 0.0 0.0 1.0
-81.49933333333334 95.63586666666667 2403.21 0.0 0.0 1.0
-81.7135 96.49263333333333 2403.21 0.0 0.0 1.0
-81.28513333333333 101.84733333333332 2403.21 0.0 0.0 1.0
-81.7135 104.632 2403.21 0.0 0.0 1.0
-81.7135 105.48866666666667 2403.21 0.0 0.0 1.0
-80.0 136.66666666666666 2992.0 0.0 0.0 1.0
-81.60000000000001 140.4 2992.0 0.0 0.0 1.0
-81.28000000000002 114.88 2393.6 0.0 0.0 1.0
-81.86666666666666 146.79999999999998 2992.0 0.0 0.0 1.0
-84.0 -149.46666666666667 2992.0 0.0 0.0 1.0
-82.18183333333333 -118.42433333333334 2720.0 0.0 0.0 1.0
-82.93333333333332 -110.8 2992.0 0.0 0.0 1.0
-82.13333333333334 -92.8 2659.56 0.0 0.0 1.0
-82.85713333333332 -89.40473333333334 2671.43 0.0 0.0 1.0
-81.42856666666667 -85.83333333333333 2671.43 0.0 0.0 1.0
-82.4 -81.2 2992.0 0.0 0.0 1.0
-81.6519 -45.899699999999996 2647.79 0.0 0.0 1.0
-82.1239 -44.247800000000005 2647.79 0.0 0.0 1.0
-82.1239 -44.247800000000005 2647.79 0.0 0.0 1.0
-82.39999999999999 -43.6 2992.0 0.0 0.0 1.0
-82.93333333333334 -37.199999999999996 2992.0 0.0 0.0 1.0
-81.87136666666667 -17.192966666666667 2624.56 0.0 0.0 1.0
-81.86666666666666 -10.0 2992.0 0.0 0.0 1.0
-82.93333333333334 14.0 2992.0 0.0 0.0 1.0
-82.4 15.066666666666668 2992.0 0.0 0.0 1.0
-82.39999999999999 24.666666666666668 2992.0 0.0 0.0 1.0
-82.93333333333334 29.46666666666667 2992.0 0.0 0.0 1.0
-82.39999999999999 31.066666666666666 2992.0 0.0 0.0 1.0
-82.39999999999999 34.8 2992.0 0.0 0.0 1.0
-82.66666666666667 46.800000000000004 2992.0 0.0 0.0 1.0
-82.4 49.46666666666667 2992.0 0.0 0.0 1.0
-82.13333333333333 52.93333333333334 2992.0 0.0 0.0 1.0
-82.15056666666668 50.64516666666666 2412.9 0.0 0.0 1.0
-82.13333333333333 65.73333333333333 2992.0 0.0 0.0 1.0
-82.36560000000001 53.010766666666676 2412.9 0.0 0.0 1.0
-81.33333333333333 90.26666666666667 2992.0 0.0 0.0 1.0
-81.28513333333335 77.8581 2403.21 0.0 0.0 1.0
-82.1419 93.0656 2403.21 0.0 0.0 1.0
-82.1419 93.27980000000001 2403.21 0.0 0.0 1.0
-81.27999999999999 114.88 2393.6 0.0 0.0 1.0
-84.26666666666667 -147.33333333333334 2992.0 0.0 0.0 1.0
-117.42363333333333 -102.90129999999999 2849.6533333333336 -0.6217607477606517 6.10818532400671e-13 0.7832072347368321
