ply
format ascii 1.0
comment VCGLIB generated
element vertex 768
property float x
property float y
property float z
property float nx
property float ny
property float nz
element face 0
property list uchar int vertex_indices
end_header
-120.33933333333334 -49.7455 2176.0 0.0 0.0 1.0
-118.069 -35.954 2063.45 0.0 0.0 1.0
-123.89766666666667 -26.769233333333332 2301.54 0.0 0.0 1.0
-106.60366666666665 -13.427866666666667 1414.66 0.0 0.0 1.0
-112.66266666666665 11.282066666666665 1770.41 0.0 0.0 1.0
-112.68833333333333 33.5484 1754.84 0.0 0.0 1.0
-111.87566666666667 47.813433333333336 1744.61 0.0 0.0 1.0
-112.18666666666667 56.20993333333333 1744.61 0.0 0.0 1.0
-112.342 67.56073333333335 1744.61 0.0 0.0 1.0
-122.05133333333333 108.205 2301.54 0.0 0.0 1.0
-112.403 86.58913333333334 1739.53 0.0 0.0 1.0
-112.403 86.58913333333334 1739.53 0.0 0.0 1.0
-111.69099999999999 103.34333333333332 1734.49 0.0 0.0 1.0
-110.82166666666667 104.476 1695.18 0.0 0.0 1.0
-111.93933333333332 106.74233333333332 1690.4000000000003 -7.90776066005876e-27 1.5815521320117524e-26 1.0
-111.786 115.14800000000001 1714.61 0.0 0.0 1.0
-113.89566666666667 -132.771 1802.41 0.0 0.0 1.0
-123.077 -135.69233333333332 2301.54 0.0 0.0 1.0
-122.46166666666666 -133.02533333333335 2301.54 0.0 0.0 1.0
-123.89766666666667 -122.15366666666667 2301.54 0.0 0.0 1.0
-115.55533333333334 -94.303 1813.33 0.0 0.0 1.0
-107.879 -52.38666666666666 1482.4133333333332 0.7911325596601787 -0.5273773144102891 0.30981033115589396
-107.879 -46.80136666666667 1511.11 0.0 0.0 1.0
-107.259 -45.49793333333333 1477.53 0.0 0.0 1.0
-113.13600000000001 -33.372800000000005 1770.41 0.0 0.0 1.0
-107.71133333333334 -6.05744 1562.4000000000003 0.0 1.0 0.0
-112.62733333333334 1.6470599999999997 1760.0 0.0 0.0 1.0
-113.13600000000001 10.6509 1770.41 0.0 0.0 1.0
-113.038 17.384433333333334 1765.1899999999998 -1.5227878168668368e-26 2.1755428584089446e-26 1.0
-113.53666666666668 20.44966666666667 1758.28 8.657161887147663e-17 0.9674837324268969 0.25293324710152393
-113.15733333333333 21.9746 1754.84 0.0 0.0 1.0
-112.56599999999999 23.048199999999998 1765.1899999999998 1.196617724790463e-25 -5.440332471273247e-25 1.0
-112.964 47.03596666666667 1744.61 0.0 0.0 1.0
-112.74866666666667 60.5848 1749.71 0.0 0.0 1.0
-112.90466666666667 63.547733333333326 1749.71 0.0 0.0 1.0
-112.964 74.09136666666666 1744.61 0.0 0.0 1.0
-112.964 75.1798 1744.61 0.0 0.0 1.0
-112.18666666666667 78.13413333333334 1744.61 0.0 0.0 1.0
-123.077 106.56400000000001 2301.54 0.0 0.0 1.0
-112.093 88.91473333333333 1739.53 0.0 0.0 1.0
-113.08233333333334 93.29466666666667 1734.49 0.0 0.0 1.0
-112.87866666666667 101.28766666666665 1700.0 0.0 0.0 1.0
-111.93900000000001 114.68933333333332 1714.61 0.0 0.0 1.0
-110.62833333333333 122.89533333333334 1709.71 0.0 0.0 1.0
-111.63333333333333 122.94166666666666 1714.61 0.0 0.0 1.0
-114.37766666666666 -123.13233333333335 1802.41 0.0 0.0 1.0
-126.359 -107.795 2301.54 0.0 0.0 1.0
-114.81033333333333 -81.83633333333331 1791.62 0.0 0.0 1.0
-113.75100000000002 -72.83579999999999 1786.2699999999998 -6.988785264750059e-27 1.750621048062524e-26 1.0
-117.53833333333334 -92.61539999999998 2301.54 0.0 0.0 1.0
-108.16033333333333 -56.76703333333333 1436.1599999999999 4.8474663464875994e-17 -0.888142285099819 0.45956858184352833
-107.259 -45.49793333333333 1477.53 0.0 0.0 1.0
-114.004 -20.531399999999998 1977.1000000000001 -0.6156992966263188 -0.7698427432961431 0.16809677786360078
-102.79366666666668 -6.18018 1272.29 3.5988462719030336e-17 0.9915581526635906 0.12966275442997327
-113.27533333333334 -2.876576666666667 1744.61 0.0 0.0 1.0
-112.80866666666668 -1.9436333333333333 1744.61 0.0 0.0 1.0
-113.60933333333332 10.335313333333334 1770.41 0.0 0.0 1.0
-115.50333333333333 14.310899999999998 1754.84 0.0 0.0 1.0
-112.97833333333334 15.226799999999999 1770.41 0.0 0.0 1.0
-113.66733333333333 23.362866666666665 1765.1899999999998 0.0 0.0 1.0
-113.41199999999999 27.5294 1760.0 0.0 0.0 1.0
-113.72566666666667 30.196066666666667 1760.0 0.0 0.0 1.0
-113.72566666666667 30.196066666666667 1760.0 0.0 0.0 1.0
-112.59100000000001 43.3765 1741.2233333333334 -0.1901325191717315 -0.9502538845104902 0.2467127482035233
-113.58600000000001 51.85616666666667 1744.61 0.0 0.0 1.0
-113.21633333333334 61.05263333333334 1749.71 0.0 0.0 1.0
-114.77566666666667 79.45416666666667 1749.71 0.0 0.0 1.0
-123.077 106.56400000000001 2301.54 0.0 0.0 1.0
-113.17833333333333 87.2093 1739.53 0.0 0.0 1.0
-113.08233333333334 93.29466666666667 1734.49 0.0 0.0 1.0
-112.464 97.4686 1734.49 0.0 0.0 1.0
-113.23666666666668 99.1691 1734.49 0.0 0.0 1.0
-112.87866666666667 101.28766666666665 1700.0 0.0 0.0 1.0
-111.69099999999999 103.96166666666666 1734.49 0.0 0.0 1.0
-112.39133333333332 107.04366666666665 1690.4000000000003 -1.1861640990088143e-25 4.7446563960352577e-26 1.0
-112.24066666666666 109.15233333333333 1690.4000000000003 -9.489312792070513e-26 -7.910677576569283e-27 1.0
-112.39733333333334 115.45366666666666 1714.61 0.0 0.0 1.0
-112.09166666666665 120.802 1714.61 0.0 0.0 1.0
-111.93900000000001 121.872 1714.61 0.0 0.0 1.0
-113.00333333333333 124.33566666666667 1706.4633333333331 -0.7010668617690803 0.701066861769086 -0.1304243484112486
-111.08566666666667 124.72366666666669 1709.71 0.0 0.0 1.0
-113.89566666666667 -132.771 1802.41 0.0 0.0 1.0
-115.39566666666667 -115.55566666666668 1797.0 0.0 0.0 1.0
-121.61166666666666 -132.161 2191.94 0.0 0.0 1.0
-123.48733333333332 -135.077 2301.54 0.0 0.0 1.0
-124.10266666666666 -133.02533333333335 2301.54 0.0 0.0 1.0
-123.89766666666667 -129.94866666666667 2301.54 0.0 0.0 1.0
-124.718 -124.0 2301.54 0.0 0.0 1.0
-124.308 -122.97433333333333 2301.54 0.0 0.0 1.0
-123.89766666666667 -122.15366666666667 2301.54 0.0 0.0 1.0
-116.56566666666667 -114.242 2266.67 0.0 0.0 1.0
-114.81033333333333 -81.83633333333333 1791.62 0.0 0.0 1.0
-114.38799999999999 -75.54230000000001 1786.2699999999998 1.5735045416777443e-27 -1.0624121010021691e-26 1.0
-113.35033333333332 -56.847566666666665 1546.25 0.0 0.0 1.0
-107.43566666666668 -51.25106666666667 1472.6899999999998 0.799986721543681 0.5999688438413462 -0.007657138726135213
-108.72800000000001 -43.424800000000005 1492.2699999999998 -4.142080263039678e-28 -1.5222144966670676e-26 1.0
-118.92933333333333 -50.51096666666667 2183.94 0.0 0.0 1.0
-113.71600000000001 -37.45626666666667 1784.4966666666667 -1.3894738372835353e-16 0.9604918991142781 0.2783079440760672
-120.45966666666668 -35.954 2063.45 0.0 0.0 1.0
-124.923 -25.948733333333337 2301.54 0.0 0.0 1.0
-114.35300000000001 -11.843133333333334 1760.0 0.0 0.0 1.0
-113.27533333333334 -2.876576666666667 1744.61 0.0 0.0 1.0
-113.60933333333332 10.335313333333334 1770.41 0.0 0.0 1.0
-112.97833333333334 15.226799999999999 1770.41 0.0 0.0 1.0
-113.88233333333334 30.98036666666667 1760.0 0.0 0.0 1.0
-113.58600000000001 51.85616666666667 1744.61 0.0 0.0 1.0
-113.52833333333335 60.428866666666664 1749.71 0.0 0.0 1.0
-113.74133333333333 73.78036666666667 1744.61 0.0 0.0 1.0
-112.964 76.8902 1744.61 0.0 0.0 1.0
-113.23666666666668 99.1691 1734.49 0.0 0.0 1.0
-113.23666666666668 99.1691 1734.49 0.0 0.0 1.0
-112.741 104.16899999999998 1732.82 -0.8942863315370256 -0.44738421329722683 0.00996608842379589
-112.39133333333332 107.04366666666665 1690.4000000000003 -1.1861640990088145e-25 4.7446563960352594e-26 1.0
-112.39133333333332 107.04366666666665 1690.4000000000003 -1.1861640990088143e-25 4.7446563960352577e-26 1.0
-114.85666666666667 110.94033333333334 1722.8466666666666 0.4460282604309254 0.8918147711272024 0.07566508373284363
-112.39133333333332 109.15233333333333 1690.4000000000003 -9.489312792070513e-26 7.910677576569283e-27 1.0
-113.31433333333332 115.60633333333334 1714.61 0.0 0.0 1.0
-115.39533333333333 -117.95766666666667 1797.0 0.0 0.0 1.0
-116.036 -117.47733333333333 1797.0 0.0 0.0 1.0
-121.61166666666666 -132.161 2191.94 0.0 0.0 1.0
-124.718 -131.99966666666668 2301.54 0.0 0.0 1.0
-124.718 -131.17933333333335 2301.54 0.0 0.0 1.0
-124.923 -125.231 2301.54 0.0 0.0 1.0
-115.55533333333334 -94.303 1813.33 0.0 0.0 1.0
-126.15366666666667 -116.82066666666667 2301.54 0.0 0.0 1.0
-115.928 -86.62676666666668 1791.62 0.0 0.0 1.0
-126.359 -107.795 2301.54 0.0 0.0 1.0
-107.879 -52.38666666666666 1482.4133333333332 0.7911325596601787 -0.527377314410289 0.30981033115589396
-107.879 -46.80136666666667 1511.11 0.0 0.0 1.0
-111.776 -40.3478 1563.7633333333333 5.2050457508163324e-17 -0.9626762412269004 0.27065560141487294
-111.776 -40.3478 1563.7633333333335 -2.6025228754081668e-17 -0.9626762412269004 0.27065560141487305
-122.08466666666665 -49.3576 2176.0 0.0 0.0 1.0
-120.45966666666668 -35.954 2063.45 0.0 0.0 1.0
-125.33333333333333 -36.6154 2301.54 0.0 0.0 1.0
-125.33333333333333 -36.6154 2301.54 0.0 0.0 1.0
-125.33333333333333 -26.769233333333332 2301.54 0.0 0.0 1.0
-114.353 -11.843133333333334 1760.0 0.0 0.0 1.0
-114.99466666666667 1.9679659999999999 1768.67 -1.5763704619464245e-15 0.810404944086167 0.5858701448279272
-115.24066666666666 5.270403333333333 1765.1899999999998 8.417260102406268e-27 -4.403113260469632e-27 1.0
-114.61133333333333 23.834833333333332 1765.1899999999998 0.0 0.0 1.0
-113.72566666666667 30.196066666666667 1760.0 0.0 0.0 1.0
-114.72133333333333 34.799600000000005 1754.84 0.0 0.0 1.0
-113.21633333333334 41.87133333333333 1749.71 0.0 0.0 1.0
-113.21633333333334 41.87133333333333 1749.71 0.0 0.0 1.0
-114.82966666666668 43.92616666666667 1744.61 0.0 0.0 1.0
-113.74133333333334 47.03596666666667 1744.61 0.0 0.0 1.0
-114.51866666666668 50.923233333333336 1744.61 0.0 0.0 1.0
-113.74133333333334 51.07873333333333 1744.61 0.0 0.0 1.0
-113.52833333333335 60.428866666666664 1749.71 0.0 0.0 1.0
-113.74133333333333 67.87170000000002 1744.61 0.0 0.0 1.0
-125.53833333333334 122.359 2301.54 0.0 0.0 1.0
-113.08233333333334 93.29466666666667 1734.49 0.0 0.0 1.0
-114.53833333333334 -132.12833333333333 1802.41 0.0 0.0 1.0
-116.62666666666667 -124.25666666666666 1802.41 0.0 0.0 1.0
-124.923 -125.231 2301.54 0.0 0.0 1.0
-115.449 -78.80239999999999 1791.62 0.0 0.0 1.0
-109.74366666666667 -55.5769 1438.46 0.0 0.0 1.0
-114.06933333333332 -67.90046666666666 1786.2699999999998 3.4402242504229074e-27 2.313672888789597e-28 1.0
-110.28833333333334 -48.39503333333334 1477.53 0.0 0.0 1.0
-111.20233333333333 -48.72296666666667 1795.2066666666667 0.0 0.7697413277733335 0.6383559260457645
-104.121 -33.757600000000004 1360.0 0.0 0.0 1.0
-115.238 -35.952400000000004 1780.95 0.0 0.0 1.0
-124.923 -25.948733333333337 2301.54 0.0 0.0 1.0
-107.48633333333333 -13.049633333333333 1414.66 0.0 0.0 1.0
-114.353 -11.843133333333334 1760.0 0.0 0.0 1.0
-111.18933333333332 -5.847953333333334 1749.71 0.0 0.0 1.0
-116.923 0.7100589999999999 1770.41 0.0 0.0 1.0
-114.872 10.966466666666667 1770.41 0.0 0.0 1.0
-115.50333333333333 14.310899999999998 1754.84 0.0 0.0 1.0
-114.38766666666668 19.705 1761.7300000000002 2.120019078238276e-16 0.9857709885307747 0.16809389688819437
-114.25233333333334 21.6618 1754.84 0.0 0.0 1.0
-114.72133333333333 34.799600000000005 1754.84 0.0 0.0 1.0
-114.67433333333334 47.03596666666667 1744.61 0.0 0.0 1.0
-114.152 60.740766666666666 1749.71 0.0 0.0 1.0
-115.39966666666665 64.01556666666666 1749.71 0.0 0.0 1.0
-114.77566666666667 79.45416666666667 1749.71 0.0 0.0 1.0
-116.17933333333333 83.5088 1749.71 0.0 0.0 1.0
-113.95366666666666 87.05426666666666 1739.53 0.0 0.0 1.0
-113.95366666666666 87.05426666666666 1739.53 0.0 0.0 1.0
-125.94866666666667 122.97466666666666 2301.54 0.0 0.0 1.0
-117.56366666666668 110.74766666666666 1756.61 -0.8321147071234666 -0.5545454391735146 -0.008029326290642116
-116.62666666666667 -123.93533333333335 1802.41 0.0 0.0 1.0
-116.036 -117.47733333333333 1797.0 0.0 0.0 1.0
-125.74366666666667 -135.487 2301.54 0.0 0.0 1.0
-115.928 -86.62676666666668 1791.62 0.0 0.0 1.0
-116.24733333333332 -81.35726666666666 1791.62 0.0 0.0 1.0
-115.98033333333335 -74.74626666666667 1786.2699999999998 -8.01332289701407e-26 1.100520459862832e-26 1.0
-115.98033333333335 -74.74626666666667 1786.2699999999998 -8.013322897014064e-26 1.1005204598628303e-26 1.0
-109.54433333333334 -57.3621 1435.01 0.0 0.0 1.0
-110.96066666666667 -56.176966666666665 1418.0266666666666 3.9076893117013656e-17 0.9999979801551248 0.00200989693041063
-122.08466666666665 -49.3576 2176.0 0.0 0.0 1.0
-120.45966666666668 -35.954 2063.45 0.0 0.0 1.0
-125.33333333333333 -36.6154 2301.54 0.0 0.0 1.0
-107.48633333333333 -13.049633333333333 1414.66 0.0 0.0 1.0
-117.427 -14.892766666666667 1749.71 0.0 0.0 1.0
-115.87 4.955753333333333 1765.1899999999998 -1.0273349883549833e-26 -6.0434648295670076e-27 1.0
-114.872 10.966466666666667 1770.41 0.0 0.0 1.0
-115.39799999999998 16.755133333333333 1765.1899999999998 8.702171433635985e-28 0.0 1.0
-114.76866666666666 18.64303333333333 1765.1899999999998 4.240043166038188e-25 5.146265904686074e-25 1.0
-114.25233333333334 21.6618 1754.84 0.0 0.0 1.0
-115.34733333333334 34.0176 1754.84 0.0 0.0 1.0
-115.19066666666667 34.4868 1754.84 0.0 0.0 1.0
-114.82966666666668 43.92616666666667 1744.61 0.0 0.0 1.0
-114.98533333333334 53.255599999999994 1744.61 0.0 0.0 1.0
-115.039 55.5814 1739.53 0.0 0.0 1.0
-114.30799999999999 59.4932 1749.71 0.0 0.0 1.0
-115.14066666666668 65.69486666666667 1744.61 0.0 0.0 1.0
-114.985 66.00583333333333 1744.61 0.0 0.0 1.0
-114.985 66.00583333333333 1744.61 0.0 0.0 1.0
-115.55566666666668 66.35476666666666 1749.71 0.0 0.0 1.0
-115.66000000000001 71.71066666666667 1754.84 0.0 0.0 1.0
-114.51866666666666 73.46936666666666 1744.61 0.0 0.0 1.0
-114.51866666666666 73.46936666666666 1744.61 0.0 0.0 1.0
-114.14333333333333 77.36166666666666 1741.2233333333334 -1.8143654983069642e-17 0.9988793648146219 0.04732879195096196
-125.74366666666667 122.359 2301.54 0.0 0.0 1.0
-125.94866666666667 122.97466666666666 2301.54 0.0 0.0 1.0
-115.24933333333333 112.41366666666666 1719.54 0.0 0.0 1.0
-115.24933333333333 112.41366666666666 1719.54 0.0 0.0 1.0
-114.23133333333334 115.60633333333334 1714.61 0.0 0.0 1.0
-116.01566666666666 119.00366666666666 1719.54 0.0 0.0 1.0
-114.384 122.02499999999999 1714.61 0.0 0.0 1.0
-112.851 123.269 1706.4633333333331 -0.656659914813514 0.6566599148135192 0.3709386910989609
-116.62666666666667 -126.024 1802.41 0.0 0.0 1.0
-116.51666666666667 -114.43466666666667 1797.0 0.0 0.0 1.0
-125.74366666666667 -135.487 2301.54 0.0 0.0 1.0
-127.17933333333333 -131.17966666666666 2301.54 0.0 0.0 1.0
-127.17933333333333 -130.76933333333332 2301.54 0.0 0.0 1.0
-127.17933333333333 -116.82066666666667 2301.54 0.0 0.0 1.0
-127.17933333333333 -116.82066666666667 2301.54 0.0 0.0 1.0
-116.56666666666666 -78.6427 1791.62 0.0 0.0 1.0
-116.45800000000001 -75.5423 1786.2699999999998 -9.19216782820829e-26 1.2021415835761413e-25 1.0
-115.359 -75.1173 1795.2066666666667 -4.768331505051402e-17 -0.7960410015535464 0.6052426983001338
-108.10366666666665 -18.5973 1324.8700000000001 -1.3857040544141272e-17 -0.9445175984488031 0.32846081382792897
-126.56400000000001 -27.384599999999995 2301.54 0.0 0.0 1.0
-115.87 4.955753333333334 1765.1899999999998 -9.366841683256573e-27 -4.230333187562584e-27 1.0
-116.342 18.64303333333333 1765.1899999999998 1.7458028350547867e-27 -1.880187286543025e-27 1.0
-115.55533333333334 24.149466666666665 1765.1899999999998 -1.2086349213383027e-27 -2.4172698426767705e-27 1.0
-116.02733333333333 25.5654 1765.1899999999998 2.9007238112120663e-26 3.6260968242281815e-27 1.0
-116.23533333333334 28.3137 1760.0 0.0 0.0 1.0
-115.29433333333333 29.568600000000004 1760.0 0.0 0.0 1.0
-115.34733333333334 34.0176 1754.84 0.0 0.0 1.0
-115.60733333333333 43.92616666666667 1744.61 0.0 0.0 1.0
-115.91833333333334 46.725 1744.61 0.0 0.0 1.0
-115.45166666666667 51.5452 1744.61 0.0 0.0 1.0
-115.39966666666668 64.01556666666666 1749.71 0.0 0.0 1.0
-115.14066666666668 65.69486666666667 1744.61 0.0 0.0 1.0
-115.55566666666668 66.35476666666666 1749.71 0.0 0.0 1.0
-115.66000000000001 71.71066666666667 1754.84 0.0 0.0 1.0
-114.00933333333334 99.1691 1734.49 0.0 0.0 1.0
-114.24233333333332 100.37853333333334 1700.0 0.0 0.0 1.0
-115.35433333333333 105.23133333333334 1695.18 0.0 0.0 1.0
-116.01566666666666 118.08399999999999 1719.54 0.0 0.0 1.0
-117.157 -118.278 1797.0 0.0 0.0 1.0
-117.31733333333334 -113.63366666666667 1797.0 0.0 0.0 1.0
-117.63766666666668 -108.34833333333331 1797.0 0.0 0.0 1.0
-115.55533333333334 -94.303 1813.33 0.0 0.0 1.0
-116.88600000000001 -86.30739999999999 1791.62 0.0 0.0 1.0
-110.972 -55.3253 1441.93 0.0 0.0 1.0
-110.28833333333334 -48.39503333333334 1477.53 0.0 0.0 1.0
-112.51533333333333 -42.69483333333333 1513.6633333333332 5.029376296712415e-17 -0.5407561641254537 0.8411793928528715
-118.18566666666668 -33.5306 1770.41 0.0 0.0 1.0
-112.84466666666667 -9.775179999999999 1754.84 0.0 0.0 1.0
-115.08766666666666 -0.233918 1749.71 0.0 0.0 1.0
-116.392 1.17647 1760.0 0.0 0.0 1.0
-116.34199999999998 4.798426666666667 1765.1899999999998 6.091685946499377e-25 -3.916281375252682e-25 1.0
-116.29199999999999 10.335323333333333 1770.41 0.0 0.0 1.0
-116.923 12.071033333333332 1770.41 0.0 0.0 1.0
-116.65666666666665 24.3068 1765.1899999999998 9.137280005317935e-27 1.1892967625969418e-26 1.0
-116.02733333333333 25.5654 1765.1899999999998 2.9007238112120663e-26 3.6260968242281815e-27 1.0
-115.91833333333334 46.725 1744.61 0.0 0.0 1.0
-115.39966666666668 64.01556666666666 1749.71 0.0 0.0 1.0
-116.28533333333333 71.8671 1754.84 0.0 0.0 1.0
-115.14066666666668 76.89020000000001 1744.61 0.0 0.0 1.0
-115.14066666666668 76.89020000000001 1744.61 0.0 0.0 1.0
-116.17933333333333 83.5088 1749.71 0.0 0.0 1.0
-126.56433333333332 122.359 2301.54 0.0 0.0 1.0
-114.628 97.77776666666666 1734.49 0.0 0.0 1.0
-115.35433333333333 105.23133333333334 1695.18 0.0 0.0 1.0
-115.14800000000001 115.45366666666666 1714.61 0.0 0.0 1.0
-117.42966666666666 -126.024 1802.41 0.0 0.0 1.0
-127.58966666666667 -131.38466666666667 2301.54 0.0 0.0 1.0
-128.0 -130.769 2301.54 0.0 0.0 1.0
-127.58966666666667 -130.15366666666668 2301.54 0.0 0.0 1.0
-128.82066666666665 -120.51299999999999 2301.54 0.0 0.0 1.0
-128.0 -117.43599999999999 2301.54 0.0 0.0 1.0
-117.68433333333333 -87.26546666666667 1791.62 0.0 0.0 1.0
-117.254 -75.54230000000001 1786.2699999999998 0.0 -1.0624121010021681e-26 1.0
-113.70333333333333 -56.02493333333333 1427.0333333333335 -1.0392663021078405e-17 -0.9973584059741293 0.07263752496295493
-110.641 -55.5769 1438.46 0.0 0.0 1.0
-118.801 -49.89713333333333 1791.6299999999999 -0.5792331762806462 -0.7555593177687128 0.30597229421748523
-128.205 -26.974333333333334 2301.54 0.0 0.0 1.0
-117.16233333333332 -2.87658 1744.61 0.0 0.0 1.0
-116.97133333333333 4.4837766666666665 1765.1899999999998 -3.372073300343463e-27 1.2328100750678998e-27 1.0
-117.081 11.439866666666667 1770.41 0.0 0.0 1.0
-115.81633333333332 34.799600000000005 1754.84 0.0 0.0 1.0
-117.11500000000001 39.06433333333334 1749.71 0.0 0.0 1.0
-116.54033333333332 44.5481 1744.61 0.0 0.0 1.0
-116.38466666666666 46.725 1744.61 0.0 0.0 1.0
-115.91833333333334 47.9689 1744.61 0.0 0.0 1.0
-116.07366666666667 53.10013333333333 1744.61 0.0 0.0 1.0
-116.02333333333333 63.703700000000005 1749.71 0.0 0.0 1.0
-116.49133333333333 79.61013333333334 1749.71 0.0 0.0 1.0
-116.63766666666668 80.77293333333334 1734.49 0.0 0.0 1.0
-117.51933333333334 84.57363333333333 1739.53 0.0 0.0 1.0
-117.76466666666666 90.8671 1729.4800000000002 0.0 -1.0 0.0
-115.60633333333334 114.99533333333333 1714.61 0.0 0.0 1.0
-115.60633333333334 114.99533333333333 1714.61 0.0 0.0 1.0
-132.923 170.154 2301.54 0.0 0.0 1.0
-117.91133333333335 -124.89933333333333 1802.41 0.0 0.0 1.0
-117.42966666666666 -123.93533333333335 1802.41 0.0 0.0 1.0
-117.63766666666668 -108.34833333333331 1797.0 0.0 0.0 1.0
-117.63766666666668 -108.34833333333334 1797.0 0.0 0.0 1.0
-129.846 -123.79466666666667 2301.54 0.0 0.0 1.0
-118.16333333333331 -85.98803333333335 1791.62 0.0 0.0 1.0
-118.64233333333333 -81.0379 1791.62 0.0 0.0 1.0
-110.972 -55.3253 1441.93 0.0 0.0 1.0
-113.35033333333332 -56.847566666666665 1546.25 0.0 0.0 1.0
-111.07833333333333 -48.6584 1477.53 0.0 0.0 1.0
-111.22733333333333 -43.12356666666667 1491.0333333333335 0.1394611182558846 0.976227827791193 0.16592114012658862
-121.747 -35.954 2063.45 0.0 0.0 1.0
-122.80033333333334 -35.54606666666666 2061.0866666666666 -0.23938163458383832 0.9576133179744895 0.16022848143154583
-108.97266666666667 -19.0983 1326.83 0.0 0.0 1.0
-129.641 -23.282066666666665 2301.54 0.0 0.0 1.0
-112.42266666666667 -6.782356666666666 1567.8966666666668 1.67132135048088e-16 0.9914152680171517 0.13075077951002437
-117.16233333333332 -2.87658 1744.61 0.0 0.0 1.0
-117.39633333333335 12.544399999999998 1770.41 0.0 0.0 1.0
-117.01966666666665 27.68626666666667 1760.0 0.0 0.0 1.0
-117.115 39.06433333333334 1749.71 0.0 0.0 1.0
-116.38466666666666 46.725 1744.61 0.0 0.0 1.0
-116.22933333333333 52.32266666666666 1744.61 0.0 0.0 1.0
-116.28533333333333 71.8671 1754.84 0.0 0.0 1.0
-115.60700000000001 73.62486666666666 1744.61 0.0 0.0 1.0
-116.63766666666668 80.77293333333334 1734.49 0.0 0.0 1.0
-114.24233333333332 100.37853333333332 1700.0 0.0 0.0 1.0
-115.254 107.19433333333332 1690.4000000000003 -9.149475143869712e-28 7.254226721210932e-26 1.0
-116.52333333333333 122.02499999999999 1714.61 0.0 0.0 1.0
-118.59833333333334 -118.75866666666666 1797.0 0.0 0.0 1.0
-119.39933333333333 -113.31366666666668 1797.0 0.0 0.0 1.0
-128.41033333333334 -130.15366666666668 2301.54 0.0 0.0 1.0
-119.11766666666666 -101.4019 1798.8033333333333 -0.9557496036743222 -0.21239862385380825 0.2035424271776888
-128.61533333333333 -122.359 2301.54 0.0 0.0 1.0
-129.84633333333332 -119.077 2301.54 0.0 0.0 1.0
-129.436 -118.66666666666667 2301.54 0.0 0.0 1.0
-128.0 -115.795 2301.54 0.0 0.0 1.0
-118.323 -86.46706666666667 1791.62 0.0 0.0 1.0
-118.48266666666666 -85.66866666666668 1791.62 0.0 0.0 1.0
-118.64233333333334 -81.0379 1791.62 0.0 0.0 1.0
-117.25400000000002 -75.54230000000001 1786.2699999999998 -5.3142856847980194e-27 -1.0624121010021682e-26 1.0
-110.641 -55.5769 1438.46 0.0 0.0 1.0
-111.07833333333333 -48.6584 1477.53 0.0 0.0 1.0
-118.57133333333333 -36.269866666666665 1780.95 0.0 0.0 1.0
-130.25666666666666 -37.2308 2301.54 0.0 0.0 1.0
-117.89466666666665 -0.3898633333333333 1749.71 0.0 0.0 1.0
-116.97133333333333 4.4837766666666665 1765.1899999999998 -3.372073300343463e-27 1.2328100750679002e-27 1.0
-118.18566666666668 7.652863333333333 1770.41 0.0 0.0 1.0
-117.712 11.597666666666667 1770.41 0.0 0.0 1.0
-116.342 17.541766666666664 1765.1899999999998 -1.588974535818139e-29 -2.2250357560257213e-28 1.0
-118.54466666666667 25.093433333333333 1765.1899999999998 -3.2230264569021652e-27 -8.058419788419348e-28 1.0
-119.92200000000001 29.2398 1749.71 0.0 0.0 1.0
-118.38133333333333 80.53953333333332 1729.4800000000002 1.360145914595943e-27 2.9468343996666584e-27 1.0
-116.63766666666668 80.77293333333334 1734.49 0.0 0.0 1.0
-117.51933333333334 84.57363333333333 1739.53 0.0 0.0 1.0
-117.76466666666666 90.8671 1729.4800000000002 0.0 -1.0 0.0
-115.62299999999999 111.70666666666666 1722.8466666666666 0.430395525183913 0.8605577736604113 0.2723967879661952
-115.24933333333333 112.41366666666666 1719.54 0.0 0.0 1.0
-116.676 116.37066666666668 1714.61 0.0 0.0 1.0
-119.67866666666667 -131.48566666666667 1802.41 0.0 0.0 1.0
-118.919 -103.70356666666667 1797.0 0.0 0.0 1.0
-129.84633333333332 -119.077 2301.54 0.0 0.0 1.0
-118.96166666666666 -86.46706666666667 1791.62 0.0 0.0 1.0
-110.641 -55.5769 1438.46 0.0 0.0 1.0
-120.718 -49.75496666666667 2134.6066666666666 -5.007938392546297e-17 0.7910194045081991 0.6117910604867434
-127.32099999999998 -48.96970000000001 2176.0 0.0 0.0 1.0
-108.97266666666667 -19.0983 1326.83 0.0 0.0 1.0
-129.23066666666668 -26.153833333333335 2301.54 0.0 0.0 1.0
-130.05133333333333 -24.717933333333335 2301.54 0.0 0.0 1.0
-117.86966666666667 12.228833333333332 1770.41 0.0 0.0 1.0
-117.01966666666665 27.68626666666667 1760.0 0.0 0.0 1.0
-117.115 39.06433333333334 1749.71 0.0 0.0 1.0
-116.85133333333334 45.481033333333336 1744.61 0.0 0.0 1.0
-116.803 63.85966666666667 1749.71 0.0 0.0 1.0
-117.58266666666667 83.35283333333332 1749.71 0.0 0.0 1.0
-132.30766666666668 139.38466666666667 2301.54 0.0 0.0 1.0
-115.35433333333333 105.23133333333334 1695.18 0.0 0.0 1.0
-113.82866666666666 124.41933333333334 1709.71 0.0 0.0 1.0
-132.923 170.154 2301.54 0.0 0.0 1.0
-119.67866666666667 -131.48566666666667 1802.41 0.0 0.0 1.0
-120.03966666666668 -117.63766666666668 1797.0 0.0 0.0 1.0
-131.48733333333334 -136.10233333333335 2301.54 0.0 0.0 1.0
-131.48733333333334 -136.10233333333335 2301.54 0.0 0.0 1.0
-129.84633333333332 -119.077 2301.54 0.0 0.0 1.0
-119.12133333333333 -85.66866666666668 1791.62 0.0 0.0 1.0
-130.46166666666667 -108.0 2301.54 0.0 0.0 1.0
-119.12166666666667 -79.12173333333334 1791.62 0.0 0.0 1.0
-117.73133333333332 -73.79103333333333 1786.2699999999998 1.180526553650407e-27 3.9338526782321365e-28 1.0
-113.13933333333334 -55.3398 1452.43 0.0 0.0 1.0
-114.28133333333334 -40.57556666666667 1520.08 -1.4190715059951685e-16 -0.9996637191556407 0.025931613985879228
-114.813 -40.7311 1562.4000000000003 0.0 1.0 0.0
-123.29866666666665 -44.730533333333334 2122.0066666666667 0.05848222906972276 0.9935621441495919 0.09702625724978885
-122.08066666666666 -44.0572 2116.99 -6.798637474835944e-18 0.9953894579957857 0.09591572817247432
-119.29 -33.5306 1770.41 0.0 0.0 1.0
-130.25666666666666 -37.2308 2301.54 0.0 0.0 1.0
-129.641 -23.282066666666665 2301.54 0.0 0.0 1.0
-118.98633333333333 -14.269 1749.71 0.0 0.0 1.0
-117.33333333333333 -11.686266666666667 1760.0 0.0 0.0 1.0
-117.33333333333333 -11.686266666666667 1760.0 0.0 0.0 1.0
-118.09533333333333 -2.87658 1744.61 0.0 0.0 1.0
-117.758 2.9105226666666666 1765.1899999999998 5.439111816288347e-29 -2.719691316504219e-29 1.0
-119.13233333333334 10.650913333333333 1770.41 0.0 0.0 1.0
-118.16199999999999 14.9365 1754.84 0.0 0.0 1.0
-119.45433333333334 20.8187 1749.71 0.0 0.0 1.0
-118.54466666666667 25.093433333333333 1765.1899999999998 -3.2230264569021652e-27 -8.05841978841935e-28 1.0
-119.02833333333335 43.615199999999994 1744.61 0.0 0.0 1.0
-117.22366666666666 71.8671 1754.84 0.0 0.0 1.0
-119.18366666666668 77.20116666666667 1744.61 0.0 0.0 1.0
-118.05066666666666 79.61013333333334 1749.71 0.0 0.0 1.0
-117.25600000000001 80.61836666666666 1734.49 0.0 0.0 1.0
-118.38133333333333 80.53953333333332 1729.4800000000002 1.360145914595943e-27 2.9468343996666584e-27 1.0
-119.22500000000001 89.84496666666666 1739.53 0.0 0.0 1.0
-118.63733333333334 113.33866666666667 1748.01 0.7998359783258331 0.5330339556198526 0.275929719189163
-118.63733333333334 113.33866666666665 1748.01 0.7998359783258331 0.5330339556198526 0.275929719189163
-118.05166666666668 118.20433333333334 1714.61 0.0 0.0 1.0
-119.51799999999999 -127.46999999999998 1802.41 0.0 0.0 1.0
-119.67866666666667 -123.45366666666666 1802.41 0.0 0.0 1.0
-119.39933333333333 -113.31366666666668 1797.0 0.0 0.0 1.0
-120.20033333333333 -112.83300000000001 1797.0 0.0 0.0 1.0
-119.11766666666665 -101.4019 1798.8033333333333 -0.955749603674322 -0.2123986238538083 0.20354242717768858
-119.76033333333334 -85.82833333333333 1791.62 0.0 0.0 1.0
-119.76033333333334 -81.51693333333333 1791.62 0.0 0.0 1.0
-113.21766666666667 -44.40033333333333 1484.86 0.0 0.0 1.0
-113.21766666666667 -44.40033333333333 1484.86 0.0 0.0 1.0
-116.38233333333334 -40.7235 1546.25 0.0 0.0 1.0
-119.29 -33.5306 1770.41 0.0 0.0 1.0
-130.25666666666666 -37.23080000000001 2301.54 0.0 0.0 1.0
-108.33999999999999 -19.188599999999997 1324.8700000000001 0.0 0.9688496090235316 0.24764982353102952
-118.98633333333333 -14.269 1749.71 0.0 0.0 1.0
-110.63566666666667 -6.05744 1562.4000000000003 0.0 1.0 0.0
-117.91533333333332 4.641103333333334 1765.1899999999998 4.061296062264795e-25 6.67246378146243e-25 1.0
-118.702 24.464133333333336 1765.1899999999998 2.0143915355638428e-27 1.208634921338354e-27 1.0
-119.01666666666667 24.77876666666667 1765.1899999999998 7.613555016804011e-26 -1.812798741975091e-26 1.0
-117.64733333333334 30.196066666666667 1760.0 0.0 0.0 1.0
-119.49466666666667 68.33816666666667 1744.61 0.0 0.0 1.0
-119.14233333333334 83.19686666666665 1749.71 0.0 0.0 1.0
-120.42766666666667 93.6832 1744.61 0.0 0.0 1.0
-116.91133333333333 108.098 1690.4000000000003 0.0 0.0 1.0
-117.66466666666666 109.303 1690.4000000000003 0.0 0.0 1.0
-118.51 118.66266666666667 1714.61 0.0 0.0 1.0
-120.48200000000001 -131.48566666666667 1802.41 0.0 0.0 1.0
-120.36 -118.91866666666665 1797.0 0.0 0.0 1.0
-120.52033333333334 -117.157 1797.0 0.0 0.0 1.0
-131.28166666666667 -125.43566666666668 2301.54 0.0 0.0 1.0
-119.76033333333334 -85.82833333333333 1791.62 0.0 0.0 1.0
-121.198 -82.47503333333333 1791.62 0.0 0.0 1.0
-119.76033333333334 -79.44109999999999 1791.62 0.0 0.0 1.0
-114.00233333333334 -48.8297 1478.75 -0.9574655299206091 -8.310289736327164e-16 0.28854767199519593
-113.77466666666668 -42.0533 1486.0933333333332 -3.9808065295926006e-16 0.9909140688396063 0.1344964987489855
-119.29 -33.5306 1770.41 0.0 0.0 1.0
-105.305 -6.29787 1273.19 0.0 0.0 1.0
-118.873 -2.5655966666666665 1744.61 0.0 0.0 1.0
-118.873 -2.5655966666666665 1744.61 0.0 0.0 1.0
-119.45433333333334 20.8187 1749.71 0.0 0.0 1.0
-121.44666666666666 33.861200000000004 1754.84 0.0 0.0 1.0
-120.77533333333334 42.713166666666666 1739.53 0.0 0.0 1.0
-119.10799999999999 43.06553333333333 1741.2233333333334 0.9997482970598621 -4.901704129136202e-16 0.022435296430084798
-119.02833333333335 43.615199999999994 1744.61 0.0 0.0 1.0
-119.766 79.7661 1749.71 0.0 0.0 1.0
-118.91466666666668 85.03873333333333 1739.53 0.0 0.0 1.0
-119.96133333333334 91.6811 1724.5 0.0 0.0 1.0
-120.42766666666667 93.6832 1744.61 0.0 0.0 1.0
-118.63733333333334 113.33866666666667 1748.01 0.7998359783258332 0.5330339556198526 0.275929719189163
-117.66466666666666 109.303 1690.4000000000003 0.0 0.0 1.0
-119.38733333333333 118.084 1719.54 0.0 0.0 1.0
-118.51 118.66266666666667 1714.61 0.0 0.0 1.0
-118.774 118.85033333333332 1719.54 0.0 0.0 1.0
-120.48200000000001 -128.91566666666668 1802.41 0.0 0.0 1.0
-120.64266666666667 -122.65066666666667 1802.41 0.0 0.0 1.0
-120.64266666666667 -122.65066666666667 1802.41 0.0 0.0 1.0
-120.20033333333333 -112.83300000000001 1797.0 0.0 0.0 1.0
-133.74366666666666 -129.53833333333333 2301.54 0.0 0.0 1.0
-121.83666666666666 -87.7445 1791.62 0.0 0.0 1.0
-111.56400000000001 -56.806000000000004 1433.8666666666668 -2.5999900003767874e-17 0.8992710442229083 0.437391802646369
-110.972 -55.3253 1441.93 0.0 0.0 1.0
-114.37 -46.15636666666666 1477.53 0.0 0.0 1.0
-113.21766666666667 -44.40033333333333 1484.86 0.0 0.0 1.0
-113.61466666666668 -42.547599999999996 1484.86 0.0 0.0 1.0
-108.97266666666667 -19.0983 1326.83 0.0 0.0 1.0
-118.07600000000001 -20.274933333333337 1542.2699999999998 4.7506900202540895e-27 -6.650198058032655e-26 1.0
-118.98633333333333 -14.269 1749.71 0.0 0.0 1.0
-120.0 1.9607833333333333 1760.0 0.0 0.0 1.0
-121.18333333333334 7.6528599999999996 1770.41 0.0 0.0 1.0
-120.55233333333332 12.071033333333332 1770.41 0.0 0.0 1.0
-119.92200000000001 29.2398 1749.71 0.0 0.0 1.0
-119.02833333333335 43.615199999999994 1744.61 0.0 0.0 1.0
-120.11666666666667 49.523799999999994 1744.61 0.0 0.0 1.0
-119.80566666666668 68.96013333333333 1744.61 0.0 0.0 1.0
-120.11666666666667 69.58210000000001 1744.61 0.0 0.0 1.0
-119.18366666666668 77.20116666666667 1744.61 0.0 0.0 1.0
-120.11666666666667 77.66763333333334 1744.61 0.0 0.0 1.0
-119.26566666666668 80.61836666666666 1734.49 0.0 0.0 1.0
-119.22500000000001 89.84496666666666 1739.53 0.0 0.0 1.0
-119.58833333333332 99.9431 1682.4766666666667 0.24112016094720443 -0.9655546756861375 -0.09780202577366072
-118.81566666666667 118.968 1714.61 0.0 0.0 1.0
-118.774 118.85033333333332 1719.54 0.0 0.0 1.0
-118.05133333333333 120.955 1714.61 0.0 0.0 1.0
-122.08866666666665 -132.44966666666664 1802.41 0.0 0.0 1.0
-121.32100000000001 -119.71966666666667 1797.0 0.0 0.0 1.0
-121.677 -81.67663333333333 1791.62 0.0 0.0 1.0
-113.13933333333334 -55.3398 1452.43 0.0 0.0 1.0
-115.69033333333334 -46.936033333333334 1511.11 0.0 0.0 1.0
-113.61466666666668 -42.547599999999996 1484.86 0.0 0.0 1.0
-119.93533333333333 -24.849700000000002 1588.6833333333334 0.4288815931321488 0.8577631862643021 0.2833776550156026
-114.89966666666665 -17.919833333333333 1506.04 0.8154326067144116 0.5435767769512975 0.19898228932791726
-114.89966666666665 -17.919833333333333 1506.04 0.8154326067144116 0.5435767769512977 0.19898228932791748
-115.53933333333335 -17.0924 1516.2233333333334 3.3999755121622734e-15 -0.9695567292648901 0.24486679794771807
-117.89466666666665 -0.3898633333333333 1749.71 0.0 0.0 1.0
-120.86766666666666 11.124266666666665 1770.41 0.0 0.0 1.0
-120.55233333333332 12.071033333333332 1770.41 0.0 0.0 1.0
-120.27533333333332 18.485733333333332 1765.1899999999998 8.923481381546086e-28 9.34915361802262e-28 1.0
-123.45100000000001 20.0 1760.0 0.0 0.0 1.0
-120.11666666666667 49.523799999999994 1744.61 0.0 0.0 1.0
-120.89433333333334 52.9446 1744.61 0.0 0.0 1.0
-119.53500000000001 55.42636666666667 1739.53 0.0 0.0 1.0
-119.96133333333334 68.1827 1744.61 0.0 0.0 1.0
-119.884 84.9662 1741.2233333333334 0.5547812200819922 0.8319929069172063 -0.002366576386487389
-120.31 89.84496666666666 1739.53 0.0 0.0 1.0
-133.333 131.59 2301.54 0.0 0.0 1.0
-132.30766666666668 139.38466666666667 2301.54 0.0 0.0 1.0
-118.96833333333335 118.66266666666667 1714.61 0.0 0.0 1.0
-121.48133333333334 -117.31733333333334 1797.0 0.0 0.0 1.0
-134.564 -135.692 2301.54 0.0 0.0 1.0
-134.359 -127.282 2301.54 0.0 0.0 1.0
-135.17933333333335 -116.82066666666667 2301.54 0.0 0.0 1.0
-121.83666666666666 -81.19760000000001 1791.62 0.0 0.0 1.0
-111.56400000000001 -56.806000000000004 1433.8666666666668 -2.07999200030143e-16 0.899271044222908 0.4373918026463692
-112.29199999999999 -51.51443333333333 1472.6899999999998 0.5403651989527576 -0.6753562719714787 0.5018957637493393
-113.44833333333334 -49.316833333333335 1477.53 0.0 0.0 1.0
-113.44833333333334 -49.316833333333335 1477.53 0.0 0.0 1.0
-120.86766666666666 -33.215 1770.41 0.0 0.0 1.0
-134.56366666666668 -25.743566666666666 2301.54 0.0 0.0 1.0
-117.396 -17.003466666666668 1520.07 -8.476164649896914e-16 0.9181345546966957 0.3962687717596483
-132.51266666666666 -24.717933333333335 2301.54 0.0 0.0 1.0
-121.16966666666666 -3.5087713333333332 1749.71 0.0 0.0 1.0
-120.98733333333332 0.5520353333333333 1768.67 6.771564090516564e-17 -0.9959013639832311 0.09044596849135866
-121.18333333333332 7.65286 1770.41 0.0 0.0 1.0
-121.34100000000001 10.966466666666667 1770.41 0.0 0.0 1.0
-120.43266666666666 15.024566666666667 1765.1899999999998 -4.892389878734967e-28 6.496171389033999e-28 1.0
-120.71 13.333333333333334 1770.41 0.0 0.0 1.0
-119.45433333333334 20.8187 1749.71 0.0 0.0 1.0
-122.43599999999999 35.917633333333335 1763.46 -1.408370306711454e-16 -0.6400994777898512 0.7682920398736146
-121.01400000000001 38.44056666666666 1749.71 0.0 0.0 1.0
-120.11666666666667 49.523799999999994 1744.61 0.0 0.0 1.0
-119.26566666666668 80.61836666666666 1734.49 0.0 0.0 1.0
-119.61466666666666 80.69366666666666 1729.4800000000002 -1.4108835835089035e-27 4.164842127604323e-27 1.0
-121.01366666666667 83.19686666666666 1749.71 0.0 0.0 1.0
-120.31 85.03873333333333 1739.53 0.0 0.0 1.0
-117.76466666666666 90.8671 1729.4800000000002 0.0 -1.0 0.0
-119.96133333333334 91.6811 1724.5 0.0 0.0 1.0
-133.333 131.59 2301.54 0.0 0.0 1.0
-133.333 131.59 2301.54 0.0 0.0 1.0
-134.97433333333333 148.0 2301.54 0.0 0.0 1.0
-121.41366666666666 115.45366666666666 1714.61 0.0 0.0 1.0
-122.57066666666667 -132.289 1802.41 0.0 0.0 1.0
-122.57066666666667 -132.289 1802.41 0.0 0.0 1.0
-121.96166666666666 -119.39933333333333 1797.0 0.0 0.0 1.0
-122.122 -118.43833333333333 1797.0 0.0 0.0 1.0
-122.122 -113.31333333333333 1797.0 0.0 0.0 1.0
-134.15366666666668 -128.51266666666666 2301.54 0.0 0.0 1.0
-134.76933333333332 -121.74366666666667 2301.54 0.0 0.0 1.0
-121.83666666666666 -87.7445 1791.62 0.0 0.0 1.0
-121.677 -86.46703333333333 1791.62 0.0 0.0 1.0
-121.99633333333333 -81.8363 1791.62 0.0 0.0 1.0
-114.30433333333333 -55.3398 1452.43 0.0 0.0 1.0
-116.38233333333334 -40.7235 1546.25 0.0 0.0 1.0
-130.03633333333332 -48.969699999999996 2176.0 0.0 0.0 1.0
-121.97233333333334 -33.215 1770.41 0.0 0.0 1.0
-118.92833333333334 -26.2617 1605.7266666666667 1.446267264143529e-15 0.9775027098478487 0.2109228585054559
-114.89966666666665 -17.919833333333333 1506.04 0.8154326067144116 0.5435767769512976 0.19898228932791734
-122.22866666666668 -11.652 1754.84 0.0 0.0 1.0
-121.29033333333332 15.562100000000001 1754.84 0.0 0.0 1.0
-122.00600000000001 25.5654 1765.1899999999998 -1.1281275534176691e-26 -9.67061598806486e-27 1.0
-122.00600000000001 25.5654 1765.1899999999998 -1.1281275534176691e-26 -9.67061598806486e-27 1.0
-121.01400000000001 38.44056666666666 1749.71 0.0 0.0 1.0
-121.01400000000001 38.44056666666666 1749.71 0.0 0.0 1.0
-120.89433333333334 52.9446 1744.61 0.0 0.0 1.0
-121.79333333333334 62.92396666666667 1749.71 0.0 0.0 1.0
-120.73899999999999 68.80466666666668 1744.61 0.0 0.0 1.0
-120.58333333333333 69.42663333333333 1744.61 0.0 0.0 1.0
-121.51633333333332 73.93586666666666 1744.61 0.0 0.0 1.0
-120.11666666666667 77.66763333333334 1744.61 0.0 0.0 1.0
-121.46433333333334 80.07709999999999 1729.4800000000002 -1.1511151960481833e-27 5.125222869128869e-27 1.0
-120.075 99.13616666666667 1684.0533333333333 0.8201618874183222 0.5465319581124924 0.16922558077353514
-132.30766666666668 139.38466666666667 2301.54 0.0 0.0 1.0
-134.564 149.02566666666667 2301.54 0.0 0.0 1.0
-122.57066666666667 -132.289 1802.41 0.0 0.0 1.0
-136.205 -140.82066666666665 2301.54 0.0 0.0 1.0
-134.564 -135.692 2301.54 0.0 0.0 1.0
-133.74366666666666 -129.53833333333333 2301.54 0.0 0.0 1.0
-134.76933333333332 -121.74366666666667 2301.54 0.0 0.0 1.0
-134.97433333333333 -119.89733333333334 2301.54 0.0 0.0 1.0
-122.31566666666667 -87.10576666666667 1791.62 0.0 0.0 1.0
-122.79466666666667 -81.03793333333333 1791.62 0.0 0.0 1.0
-115.69033333333334 -46.93603333333334 1511.11 0.0 0.0 1.0
-114.37 -46.15636666666666 1477.53 0.0 0.0 1.0
-130.03633333333332 -48.969699999999996 2176.0 0.0 0.0 1.0
-121.90466666666667 -36.269866666666665 1780.95 0.0 0.0 1.0
-118.92833333333334 -26.2617 1605.7266666666667 -1.9427470712375764e-16 0.9775027098478489 0.21092285850545484
-122.13 7.65286 1770.41 0.0 0.0 1.0
-121.97233333333332 11.755433333333334 1770.41 0.0 0.0 1.0
-122.54166666666667 21.8182 1754.84 0.0 0.0 1.0
-121.36066666666666 49.834799999999994 1744.61 0.0 0.0 1.0
-120.89433333333334 52.9446 1744.61 0.0 0.0 1.0
-113.82866666666666 56.0 1709.71 0.0 0.0 1.0
-121.79333333333334 62.92396666666667 1749.71 0.0 0.0 1.0
-120.73866666666667 75.49076666666666 1744.61 0.0 0.0 1.0
-121.793 79.61013333333334 1749.71 0.0 0.0 1.0
-121.24000000000001 85.81393333333334 1739.53 0.0 0.0 1.0
-121.705 87.2093 1739.53 0.0 0.0 1.0
-121.705 90.0 1739.53 0.0 0.0 1.0
-119.96133333333334 91.6811 1724.5 0.0 0.0 1.0
-122.49333333333334 98.25476666666667 1721.1933333333334 0.6342107591152353 0.7608984137984234 0.13715070871679855
-120.89866666666667 100.29933333333334 1680.9000000000003 -3.2683330080529485e-28 -2.5022583770204242e-26 1.0
-120.61333333333333 117.31766666666665 1719.54 0.0 0.0 1.0
-123.855 -128.91600000000003 1802.41 0.0 0.0 1.0
-123.53366666666666 -128.11266666666666 1802.41 0.0 0.0 1.0
-123.56333333333333 -114.27433333333333 1797.0 0.0 0.0 1.0
-134.564 -135.692 2301.54 0.0 0.0 1.0
-134.76933333333332 -125.43599999999999 2301.54 0.0 0.0 1.0
-135.59 -122.97466666666666 2301.54 0.0 0.0 1.0
-135.17966666666666 -122.56433333333332 2301.54 0.0 0.0 1.0
-122.47533333333335 -80.3992 1791.62 0.0 0.0 1.0
-124.09966666666668 -74.10946666666666 1786.2699999999998 -3.638130570998581e-27 -6.88777110187869e-28 1.0
-117.793 -56.206500000000005 1547.5866666666668 -5.546421054628838e-17 -0.9858111311601534 0.16785831430328044
-117.32000000000001 -53.39953333333333 1484.86 0.0 0.0 1.0
-116.74966666666667 -52.3383 1488.5600000000002 0.0 1.0 0.0
-116.76800000000001 -46.80136666666667 1511.11 0.0 0.0 1.0
-117.27666666666666 -18.2344 1509.84 -0.10838998923426853 0.9752685000143533 0.1926212945485221
-122.729 -14.113066666666667 1749.71 0.0 0.0 1.0
-122.22866666666668 -11.652 1754.84 0.0 0.0 1.0
-123.10733333333333 14.552599999999998 1765.1899999999998 -1.7123235003299646e-27 -3.9788447593687166e-27 1.0
-122.478 19.115033333333333 1765.1899999999998 6.043601474995441e-28 -1.2089764159813529e-27 1.0
-123.13733333333333 28.15686666666667 1760.0 0.0 0.0 1.0
-122.54166666666667 34.0176 1754.84 0.0 0.0 1.0
-122.29366666666668 47.34693333333333 1744.61 0.0 0.0 1.0
-122.44933333333334 48.1244 1744.61 0.0 0.0 1.0
-121.98266666666667 50.45676666666666 1744.61 0.0 0.0 1.0
-122.29366666666668 65.85033333333334 1744.61 0.0 0.0 1.0
-121.361 72.06996666666667 1744.61 0.0 0.0 1.0
-121.86033333333332 86.89923333333333 1739.53 0.0 0.0 1.0
-121.705 87.2093 1739.53 0.0 0.0 1.0
-121.705 90.0 1739.53 0.0 0.0 1.0
-121.705 90.0 1739.53 0.0 0.0 1.0
-122.63533333333334 92.9457 1739.53 0.0 0.0 1.0
-121.01400000000001 100.28183333333334 1685.63 0.0 0.0 1.0
-120.955 116.37066666666668 1714.61 0.0 0.0 1.0
-123.05233333333335 -132.44966666666664 1802.41 0.0 0.0 1.0
-124.17633333333333 -127.46999999999998 1802.41 0.0 0.0 1.0
-136.20533333333333 -137.12800000000001 2301.54 0.0 0.0 1.0
-135.59 -122.97466666666666 2301.54 0.0 0.0 1.0
-136.0 -119.69233333333334 2301.54 0.0 0.0 1.0
-137.23066666666668 -108.41000000000001 2301.54 0.0 0.0 1.0
-115.21066666666667 -55.3398 1452.43 0.0 0.0 1.0
-118.86333333333334 -56.4341 1546.25 0.0 0.0 1.0
-116.74966666666667 -52.3383 1488.5600000000002 0.0 1.0 0.0
-115.99666666666667 -44.40033333333333 1484.86 0.0 0.0 1.0
-114.80499999999999 -42.69483333333333 1513.6633333333332 -7.796232011892237e-17 -0.5407561641254537 0.8411793928528715
-125.988 -46.2275 1791.62 0.0 0.0 1.0
-113.57566666666666 -33.757600000000004 1360.0 0.0 0.0 1.0
-122.66666666666667 -38.10626666666667 1734.49 0.0 0.0 1.0
-122.76133333333333 -33.0572 1770.41 0.0 0.0 1.0
-123.353 -5.068226666666667 1749.71 0.0 0.0 1.0
-122.44566666666667 2.7613426666666663 1770.41 0.0 0.0 1.0
-122.13 7.6528599999999996 1770.41 0.0 0.0 1.0
-124.36599999999999 6.057026666666666 1765.1899999999998 9.960547865246543e-27 -8.721965219785317e-27 1.0
-121.97233333333332 12.071 1770.41 0.0 0.0 1.0
-122.54166666666667 21.8182 1754.84 0.0 0.0 1.0
-122.63533333333334 25.880033333333333 1765.1899999999998 0.0 0.0 1.0
-123.13733333333333 28.15686666666667 1760.0 0.0 0.0 1.0
-122.573 29.2398 1749.71 0.0 0.0 1.0
-122.82366666666667 30.196066666666667 1760.0 0.0 0.0 1.0
-122.54166666666667 34.0176 1754.84 0.0 0.0 1.0
-122.54166666666667 34.0176 1754.84 0.0 0.0 1.0
-122.57333333333334 40.0 1749.71 0.0 0.0 1.0
-121.82733333333334 51.389700000000005 1744.61 0.0 0.0 1.0
-122.44900000000001 56.8319 1744.61 0.0 0.0 1.0
-121.79333333333334 62.92396666666667 1749.71 0.0 0.0 1.0
-122.88466666666666 78.36256666666667 1749.71 0.0 0.0 1.0
-122.01533333333333 87.05426666666666 1739.53 0.0 0.0 1.0
-122.82133333333333 96.54106666666667 1734.49 0.0 0.0 1.0
-122.82133333333333 96.54106666666667 1734.49 0.0 0.0 1.0
-135.795 149.846 2301.54 0.0 0.0 1.0
-122.02499999999999 117.746 1714.61 0.0 0.0 1.0
-121.41333333333334 122.17733333333332 1714.61 0.0 0.0 1.0
-124.36433333333333 -116.67666666666666 1797.0 0.0 0.0 1.0
-124.36433333333333 -116.19633333333333 1797.0 0.0 0.0 1.0
-136.205 -140.82066666666665 2301.54 0.0 0.0 1.0
-137.846 -131.38466666666667 2301.54 0.0 0.0 1.0
-124.23166666666667 -81.1976 1791.62 0.0 0.0 1.0
-113.75433333333335 -56.176966666666665 1418.0266666666666 9.345118649546882e-17 0.9999979801551246 0.0020098969304108063
-122.66666666666667 -38.10626666666667 1734.49 0.0 0.0 1.0
-122.76133333333333 -33.0572 1770.41 0.0 0.0 1.0
-112.00166666666667 -19.306566666666665 1324.8700000000001 -0.11009739289383604 0.9908454262980061 0.07812749363894331
-138.25633333333334 -25.333333333333332 2301.54 0.0 0.0 1.0
-122.729 -14.113066666666667 1749.71 0.0 0.0 1.0
-122.729 -14.113066666666667 1749.71 0.0 0.0 1.0
-125.80399999999999 -11.686266666666668 1760.0 0.0 0.0 1.0
-122.22866666666668 -11.652 1754.84 0.0 0.0 1.0
-124.00366666666667 -1.7881433333333334 1744.61 0.0 0.0 1.0
-124.00366666666667 -1.7881433333333334 1744.61 0.0 0.0 1.0
-122.54166666666667 21.8182 1754.84 0.0 0.0 1.0
-122.63533333333334 25.880033333333333 1765.1899999999998 0.0 0.0 1.0
-122.82366666666667 30.196066666666667 1760.0 0.0 0.0 1.0
-122.43599999999999 35.917633333333335 1763.46 -4.6945676890381795e-17 -0.6400994777898513 0.7682920398736145
-122.76 46.72496666666667 1744.61 0.0 0.0 1.0
-121.83933333333334 116.245 1719.54 0.0 0.0 1.0
-121.83933333333334 116.245 1719.54 0.0 0.0 1.0
-123.60866666666668 122.849 1704.84 0.0 0.0 1.0
-124.819 -129.07666666666668 1802.41 0.0 0.0 1.0
-123.884 -119.87966666666667 1797.0 0.0 0.0 1.0
-124.685 -118.91866666666668 1797.0 0.0 0.0 1.0
-124.68466666666667 -116.83699999999999 1797.0 0.0 0.0 1.0
-124.68466666666667 -115.55566666666668 1797.0 0.0 0.0 1.0
-126.767 -110.59066666666666 1797.0 0.0 0.0 1.0
-136.20533333333333 -137.12800000000001 2301.54 0.0 0.0 1.0
-137.02566666666667 -120.30766666666666 2301.54 0.0 0.0 1.0
-138.05166666666665 -115.79466666666667 2301.54 0.0 0.0 1.0
-124.577 -75.2239 1786.2699999999998 4.7238094975982496e-27 -1.0233931609335275e-26 1.0
-115.21066666666667 -55.3398 1452.43 0.0 0.0 1.0
-118.86333333333334 -56.4341 1546.25 0.0 0.0 1.0
-119.13866666666667 -40.7235 1546.25 0.0 0.0 1.0
-124.05799999999999 -40.11593333333333 1734.49 0.0 0.0 1.0
-118.07600000000001 -20.274933333333333 1542.2699999999998 -3.959079029597407e-27 5.0670528389866297e-26 1.0
-124.392 2.7450966666666665 1760.0 0.0 0.0 1.0
-123.894 23.834833333333332 1765.1899999999998 -2.9007238112120784e-26 7.252321697641662e-27 1.0
-124.28833333333334 38.440566666666676 1749.71 0.0 0.0 1.0
-123.53733333333334 45.17006666666666 1744.61 0.0 0.0 1.0
-123.38166666666667 45.94753333333333 1744.61 0.0 0.0 1.0
-124.004 48.90186666666667 1744.61 0.0 0.0 1.0
-122.44900000000001 56.8319 1744.61 0.0 0.0 1.0
-123.693 68.80466666666668 1744.61 0.0 0.0 1.0
-123.693 68.96013333333333 1744.61 0.0 0.0 1.0
-125.51299999999999 71.24146666666667 1754.84 0.0 0.0 1.0
-122.72933333333333 83.19686666666665 1749.71 0.0 0.0 1.0
-123.411 83.64343333333333 1739.53 0.0 0.0 1.0
-123.411 83.64343333333333 1739.53 0.0 0.0 1.0
-122.75999999999999 93.6832 1744.61 0.0 0.0 1.0
-122.49333333333334 98.25476666666667 1721.1933333333334 0.6342107591152352 0.7608984137984236 0.13715070871679858
-135.795 149.846 2301.54 0.0 0.0 1.0
-125.14033333333333 -127.63066666666667 1802.41 0.0 0.0 1.0
-124.84500000000001 -116.35666666666667 1797.0 0.0 0.0 1.0
-124.68466666666667 -115.55566666666668 1797.0 0.0 0.0 1.0
-138.46166666666667 -130.359 2301.54 0.0 0.0 1.0
-138.46166666666667 -125.23066666666666 2301.54 0.0 0.0 1.0
-137.02566666666667 -120.30766666666666 2301.54 0.0 0.0 1.0
-138.05133333333333 -108.41000000000001 2301.54 0.0 0.0 1.0
-138.05133333333333 -108.41000000000001 2301.54 0.0 0.0 1.0
-125.50900000000001 -78.00396666666667 1791.62 0.0 0.0 1.0
-124.89566666666667 -73.47263333333333 1786.2699999999998 -6.867582315538426e-28 -1.9515648606683407e-27 1.0
-117.71066666666667 -46.6667 1511.11 0.0 0.0 1.0
-117.21866666666666 -44.7027 1486.0933333333332 -0.3559239666735278 0.8898099166838225 0.2855808854221696
-116.79066666666667 -40.9595 1484.86 0.0 0.0 1.0
-117.99833333333333 -40.5089 1522.6500000000003 0.0 1.0 0.0
-128.64466666666667 -49.118100000000005 2165.5266666666666 0.233332107681945 0.9721890627946095 0.02011352050834608
-124.392 2.7450966666666665 1760.0 0.0 0.0 1.0
-122.85433333333333 18.064533333333333 1754.84 0.0 0.0 1.0
-124.99533333333333 19.115033333333333 1765.1899999999998 -5.4394334233216e-27 -5.440393897357971e-27 1.0
-124.99533333333333 23.048199999999998 1765.1899999999998 -3.9893404396622706e-26 -2.2490138246985316e-25 1.0
-124.07833333333333 27.84313333333333 1760.0 0.0 0.0 1.0
-123.82066666666667 40.77973333333333 1749.71 0.0 0.0 1.0
