ply
format ascii 1.0
comment VCGLIB generated
element vertex 915
property float x
property float y
property float z
property float nx
property float ny
property float nz
element face 0
property list uchar int vertex_indices
end_header
-70.72466666666666 -51.82606666666667 2601.74 0.0 0.0 1.0
-70.26089999999999 -51.1304 2601.74 0.0 0.0 1.0
-70.72466666666666 -50.66663333333333 2601.74 0.0 0.0 1.0
-71.4203 -47.4203 2601.74 0.0 0.0 1.0
-70.72466666666666 -41.855066666666666 2601.74 0.0 0.0 1.0
-70.72466666666666 -41.855066666666666 2601.74 0.0 0.0 1.0
-70.9044 -17.467699999999997 2319.38 0.0 0.0 1.0
-70.73356666666666 -10.399000000000001 2310.42 0.0 0.0 1.0
-71.35133333333333 -7.72201 2310.42 0.0 0.0 1.0
-71.55726666666668 -4.4272800000000005 2310.42 0.0 0.0 1.0
-71.35133333333333 -1.7503203333333335 2310.42 0.0 0.0 1.0
-70.9395 14.517366666666666 2310.42 0.0 0.0 1.0
-64.69563333333333 16.347833333333337 2601.74 0.0 0.0 1.0
-71.41763333333333 24.8276 2292.72 0.0 0.0 1.0
-71.65396666666668 30.229033333333334 2283.97 0.0 0.0 1.0
-70.17540000000001 30.57643333333333 2249.62 0.0 0.0 1.0
-70.8002 33.5006 2244.0066666666667 2.0562163759885948e-16 -0.9962972935112568 0.08597501347568556
-70.77690000000001 34.1855 2249.62 0.0 0.0 1.0
-71.27636666666668 49.46713333333333 2224.54 0.0 0.0 1.0
-71.87116666666667 50.656733333333335 2224.54 0.0 0.0 1.0
-71.14390000000002 52.8413 2208.12 0.0 0.0 1.0
-73.4537 59.783366666666666 2160.29 0.0 0.0 1.0
-73.5006 64.70729999999999 2144.8 0.0 0.0 1.0
-72.16250000000001 80.19113333333333 2144.8 0.0 0.0 1.0
-71.97133333333333 83.24973333333334 2144.8 0.0 0.0 1.0
-71.97133333333333 89.94026666666666 2144.8 0.0 0.0 1.0
-72.5448 97.20429999999999 2144.8 0.0 0.0 1.0
-72.1905 99.1429 2137.14 0.0 0.0 1.0
-72.0 100.66666666666667 2137.14 0.0 0.0 1.0
-72.32 -115.51999999999998 2393.6 0.0 0.0 1.0
-71.68 -96.74666666666667 2393.6 0.0 0.0 1.0
-72.1381 -87.01196666666665 2384.06 0.0 0.0 1.0
-70.72463333333333 -70.84056666666667 2601.74 0.0 0.0 1.0
-70.02896666666668 -68.05793333333332 2601.74 0.0 0.0 1.0
-71.63396666666667 -59.084966666666666 2346.67 0.0 0.0 1.0
-71.63396666666667 -59.084966666666666 2346.67 0.0 0.0 1.0
-71.65216666666667 -62.72466666666667 2601.74 0.0 0.0 1.0
-72.91666666666667 -53.4375 2337.5 0.0 0.0 1.0
-71.66666666666667 -28.854166666666668 2337.5 0.0 0.0 1.0
-72.08333333333333 -26.5625 2337.5 0.0 0.0 1.0
-71.6991 -23.76133333333333 2328.4 0.0 0.0 1.0
-71.938 -13.3333 2319.38 0.0 0.0 1.0
-71.35133333333333 -7.72201 2310.42 0.0 0.0 1.0
-71.35133333333333 -1.7503203333333335 2310.42 0.0 0.0 1.0
-71.96909999999998 1.5444003333333332 2310.42 0.0 0.0 1.0
-71.14543333333333 8.33977 2310.42 0.0 0.0 1.0
-72.61540000000001 10.974333333333334 2301.54 0.0 0.0 1.0
-72.61540000000001 10.974333333333334 2301.54 0.0 0.0 1.0
-72.38093333333333 13.4878 2310.42 0.0 0.0 1.0
-72.175 14.311466666666666 2310.42 0.0 0.0 1.0
-72.6154 17.7436 2301.54 0.0 0.0 1.0
-71.41763333333333 24.8276 2292.72 0.0 0.0 1.0
-72.49683333333334 30.519666666666666 2275.29 0.0 0.0 1.0
-70.9565 50.43476666666667 2601.74 0.0 0.0 1.0
-71.87116666666667 50.656733333333335 2224.54 0.0 0.0 1.0
-71.34070000000001 54.02213333333333 2208.12 0.0 0.0 1.0
-72.51800000000001 65.13186666666667 2152.52 0.0 0.0 1.0
-72.90166666666667 76.6427 2152.52 0.0 0.0 1.0
-72.35366666666665 81.52923333333332 2144.8 0.0 0.0 1.0
-71.97133333333333 83.24973333333334 2144.8 0.0 0.0 1.0
-71.97133333333333 89.55793333333334 2144.8 0.0 0.0 1.0
-72.78770000000002 104.67366666666668 2129.54 0.0 0.0 1.0
-72.32 -115.51999999999998 2393.6 0.0 0.0 1.0
-73.17333333333333 -103.78666666666668 2393.6 0.0 0.0 1.0
-71.92559999999999 -101.03566666666666 2384.06 0.0 0.0 1.0
-72.10666666666667 -96.10666666666667 2393.6 0.0 0.0 1.0
-72.10666666666667 -96.10666666666667 2393.6 0.0 0.0 1.0
-73.17333333333333 -93.33333333333333 2393.6 0.0 0.0 1.0
-72.35056666666667 -88.92430000000002 2384.06 0.0 0.0 1.0
-71.50066666666667 -78.3001 2384.06 0.0 0.0 1.0
-74.14376666666668 -68.2876 2346.67 0.0 0.0 1.0
-73.27536666666667 -73.6232 2601.74 0.0 0.0 1.0
-70.72463333333333 -70.84056666666667 2601.74 0.0 0.0 1.0
-72.34783333333333 -65.27536666666667 2601.74 0.0 0.0 1.0
-71.65216666666667 -62.72466666666667 2601.74 0.0 0.0 1.0
-72.88889999999999 -53.856233333333336 2346.67 0.0 0.0 1.0
-72.88889999999999 -52.81046666666666 2346.67 0.0 0.0 1.0
-72.88889999999999 -51.555566666666664 2346.67 0.0 0.0 1.0
-72.88889999999999 -50.509800000000006 2346.67 0.0 0.0 1.0
-71.18843333333332 -51.82606666666667 2601.74 0.0 0.0 1.0
-71.18843333333332 -51.362300000000005 2601.74 0.0 0.0 1.0
-71.4203 -47.4203 2601.74 0.0 0.0 1.0
-73.125 -30.729166666666668 2337.5 0.0 0.0 1.0
-73.125 -30.729166666666668 2337.5 0.0 0.0 1.0
-71.6991 -23.76133333333333 2328.4 0.0 0.0 1.0
-73.20463333333333 -4.633203333333333 2310.42 0.0 0.0 1.0
-72.38093333333332 -0.5148003333333334 2310.42 0.0 0.0 1.0
-73.02566666666667 17.128233333333334 2301.54 0.0 0.0 1.0
-71.79486666666666 20.41026666666667 2301.54 0.0 0.0 1.0
-73.2308 24.102566666666664 2301.54 0.0 0.0 1.0
-72.49683333333334 30.519666666666666 2275.29 0.0 0.0 1.0
-72.26463333333334 31.4504 2283.97 0.0 0.0 1.0
-73.10520000000001 31.533599999999996 2275.29 0.0 0.0 1.0
-74.34343333333334 36.46463333333333 2266.67 0.0 0.0 1.0
-73.06076666666667 39.95043333333333 2224.54 0.0 0.0 1.0
-73.65553333333332 40.7435 2224.54 0.0 0.0 1.0
-72.11596666666667 56.69566666666666 2601.74 0.0 0.0 1.0
-71.88406666666667 57.6232 2601.74 0.0 0.0 1.0
-73.4537 59.783366666666666 2160.29 0.0 0.0 1.0
-74.45639999999999 66.04539999999999 2144.8 0.0 0.0 1.0
-73.09353333333334 66.8585 2152.52 0.0 0.0 1.0
-73.30946666666667 73.5006 2144.8 0.0 0.0 1.0
-73.30946666666667 73.5006 2144.8 0.0 0.0 1.0
-72.90166666666667 76.6427 2152.52 0.0 0.0 1.0
-72.90166666666667 76.6427 2152.52 0.0 0.0 1.0
-73.30943333333333 80.95576666666666 2144.8 0.0 0.0 1.0
-73.30946666666667 91.08723333333334 2144.8 0.0 0.0 1.0
-73.30946666666667 91.27836666666667 2144.8 0.0 0.0 1.0
-73.11829999999999 93.95459999999999 2144.8 0.0 0.0 1.0
-73.14286666666668 98.9524 2137.14 0.0 0.0 1.0
-72.9524 101.238 2137.14 0.0 0.0 1.0
-72.4081 104.10433333333333 2129.54 0.0 0.0 1.0
-72.32 -115.52 2393.6 0.0 0.0 1.0
-73.17333333333333 -108.05333333333334 2393.6 0.0 0.0 1.0
-72.32 -107.2 2393.6 0.0 0.0 1.0
-72.5797 -63.65219999999999 2601.74 0.0 0.0 1.0
-73.54166666666667 -53.229166666666664 2337.5 0.0 0.0 1.0
-75.20833333333333 -45.729166666666664 2337.5 0.0 0.0 1.0
-71.4203 -47.4203 2601.74 0.0 0.0 1.0
-74.16666666666667 -40.729166666666664 2337.5 0.0 0.0 1.0
-74.2119 -14.780366666666666 2319.38 0.0 0.0 1.0
-73.38499999999999 -11.8863 2319.38 0.0 0.0 1.0
-73.38499999999999 -11.8863 2319.38 0.0 0.0 1.0
-73.41053333333333 -8.95753 2310.42 0.0 0.0 1.0
-72.79276666666667 -8.33977 2310.42 0.0 0.0 1.0
-73.20463333333333 -4.633203333333333 2310.42 0.0 0.0 1.0
-73.41056666666667 -0.5148003333333334 2310.42 0.0 0.0 1.0
-74.02833333333334 9.163466666666666 2310.42 0.0 0.0 1.0
-72.38093333333333 13.4878 2310.42 0.0 0.0 1.0
-73.02566666666667 17.128233333333338 2301.54 0.0 0.0 1.0
-73.02566666666667 17.128233333333338 2301.54 0.0 0.0 1.0
-73.4359 23.897433333333336 2301.54 0.0 0.0 1.0
-73.68956666666668 31.4504 2283.97 0.0 0.0 1.0
-73.65553333333332 40.7435 2224.54 0.0 0.0 1.0
-71.88403333333333 50.2029 2601.74 0.0 0.0 1.0
-71.88403333333333 50.2029 2601.74 0.0 0.0 1.0
-72.11593333333333 51.82606666666667 2601.74 0.0 0.0 1.0
-72.34783333333333 56.0 2601.74 0.0 0.0 1.0
-72.5797 57.855066666666666 2601.74 0.0 0.0 1.0
-73.50723333333333 62.028999999999996 2601.74 0.0 0.0 1.0
-72.8116 68.28983333333333 2601.74 0.0 0.0 1.0
-72.5797 68.98546666666665 2601.74 0.0 0.0 1.0
-73.2854 64.55633333333334 2152.52 0.0 0.0 1.0
-73.2854 64.55633333333334 2152.52 0.0 0.0 1.0
-71.1884 80.81156666666668 2601.74 0.0 0.0 1.0
-72.70983333333334 68.00959999999999 2152.52 0.0 0.0 1.0
-73.88293333333333 73.1183 2144.8 0.0 0.0 1.0
-73.88293333333333 85.54360000000001 2144.8 0.0 0.0 1.0
-73.6918 86.4994 2144.8 0.0 0.0 1.0
-73.6918 86.4994 2144.8 0.0 0.0 1.0
-73.50063333333334 90.70493333333333 2144.8 0.0 0.0 1.0
-73.50063333333334 91.08723333333334 2144.8 0.0 0.0 1.0
-73.50063333333334 91.27836666666667 2144.8 0.0 0.0 1.0
-73.7143 101.80933333333333 2137.14 0.0 0.0 1.0
-74.88 -112.74666666666667 2393.6 0.0 0.0 1.0
-73.17333333333333 -108.05333333333334 2393.6 0.0 0.0 1.0
-73.17333333333333 -103.78666666666668 2393.6 0.0 0.0 1.0
-73.17333333333333 -103.78666666666668 2393.6 0.0 0.0 1.0
-73.38666666666667 -97.38666666666666 2393.6 0.0 0.0 1.0
-72.3506 -75.75033333333333 2384.06 0.0 0.0 1.0
-73.73913333333333 -79.65216666666667 2601.74 0.0 0.0 1.0
-72.8116 -65.73913333333333 2601.74 0.0 0.0 1.0
-72.88889999999999 -53.856233333333336 2346.67 0.0 0.0 1.0
-73.75 -53.4375 2337.5 0.0 0.0 1.0
-73.95833333333333 -53.229166666666664 2337.5 0.0 0.0 1.0
-74.35293333333333 -50.71896666666667 2346.67 0.0 0.0 1.0
-72.34783333333333 -49.50723333333334 2601.74 0.0 0.0 1.0
-74.375 -34.6875 2337.5 0.0 0.0 1.0
-74.16666666666667 -27.1875 2337.5 0.0 0.0 1.0
-74.41856666666666 -20.361733333333333 2319.38 0.0 0.0 1.0
-74.41856666666666 -20.361733333333333 2319.38 0.0 0.0 1.0
-73.38499999999999 -11.8863 2319.38 0.0 0.0 1.0
-74.0283 -9.369370000000002 2310.42 0.0 0.0 1.0
-73.8224 -4.633203333333333 2310.42 0.0 0.0 1.0
-74.44016666666668 0.9266403333333333 2310.42 0.0 0.0 1.0
-73.4359 11.179466666666665 2301.54 0.0 0.0 1.0
-74.6461 15.341033333333334 2310.42 0.0 0.0 1.0
-74.2564 24.71796666666667 2301.54 0.0 0.0 1.0
-74.34343333333334 36.46463333333333 2266.67 0.0 0.0 1.0
-73.92153333333333 39.117666666666665 2200.0 0.0 0.0 1.0
-73.27536666666667 52.057966666666665 2601.74 0.0 0.0 1.0
-73.04346666666667 56.0 2601.74 0.0 0.0 1.0
-72.8116 68.28983333333333 2601.74 0.0 0.0 1.0
-72.8116 68.28983333333333 2601.74 0.0 0.0 1.0
-73.04346666666667 71.07243333333334 2601.74 0.0 0.0 1.0
-74.07406666666667 79.80883333333334 2144.8 0.0 0.0 1.0
-73.30943333333333 81.7204 2144.8 0.0 0.0 1.0
-73.88293333333333 85.54360000000001 2144.8 0.0 0.0 1.0
-73.88293333333333 91.46953333333333 2144.8 0.0 0.0 1.0
-71.55876666666667 95.05996666666668 2152.52 0.0 0.0 1.0
-74.2652 97.39546666666666 2144.8 0.0 0.0 1.0
-74.09523333333334 98.9524 2137.14 0.0 0.0 1.0
-74.66666666666667 102.19033333333334 2137.14 0.0 0.0 1.0
-74.87543333333333 105.053 2129.54 0.0 0.0 1.0
-78.14493333333333 129.739 2601.74 0.0 0.0 1.0
-74.88 -119.14666666666666 2393.6 0.0 0.0 1.0
-71.92559999999999 -101.03566666666666 2384.06 0.0 0.0 1.0
-73.62546666666667 -88.49936666666667 2384.06 0.0 0.0 1.0
-74.90036666666667 -87.8619 2384.06 0.0 0.0 1.0
-73.413 -84.24966666666667 2384.06 0.0 0.0 1.0
-73.413 -84.24966666666667 2384.06 0.0 0.0 1.0
-72.56306666666666 -78.5126 2384.06 0.0 0.0 1.0
-73.73913333333333 -79.65216666666667 2601.74 0.0 0.0 1.0
-74.14376666666668 -68.2876 2346.67 0.0 0.0 1.0
-74.43476666666668 -73.15943333333333 2601.74 0.0 0.0 1.0
-73.04346666666667 -65.0435 2601.74 0.0 0.0 1.0
-73.95833333333333 -53.229166666666664 2337.5 0.0 0.0 1.0
-74.35293333333333 -50.71896666666667 2346.67 0.0 0.0 1.0
-72.34783333333333 -51.5942 2601.74 0.0 0.0 1.0
-74.79166666666667 -41.770833333333336 2337.5 0.0 0.0 1.0
-74.375 -34.6875 2337.5 0.0 0.0 1.0
-74.375 -30.3125 2337.5 0.0 0.0 1.0
-74.16666666666667 -27.1875 2337.5 0.0 0.0 1.0
-74.16666666666667 -27.1875 2337.5 0.0 0.0 1.0
-74.83206666666666 -17.261 2319.38 0.0 0.0 1.0
-74.2119 -14.780366666666666 2319.38 0.0 0.0 1.0
-74.6461 -4.4272800000000005 2310.42 0.0 0.0 1.0
-75.05793333333334 -0.7207203333333334 2310.42 0.0 0.0 1.0
-74.44016666666668 0.9266403333333333 2310.42 0.0 0.0 1.0
-74.85203333333334 8.33977 2310.42 0.0 0.0 1.0
-74.85203333333334 8.33977 2310.42 0.0 0.0 1.0
-73.4359 11.384599999999999 2301.54 0.0 0.0 1.0
-74.6461 15.341033333333334 2310.42 0.0 0.0 1.0
-75.07690000000001 23.28203333333333 2301.54 0.0 0.0 1.0
-74.2564 24.71796666666667 2301.54 0.0 0.0 1.0
-74.2564 24.71796666666667 2301.54 0.0 0.0 1.0
-75.13306666666666 32.9531 2275.29 0.0 0.0 1.0
-74.64683333333333 40.54523333333333 2224.54 0.0 0.0 1.0
-73.50723333333333 56.69566666666666 2601.74 0.0 0.0 1.0
-73.97099999999999 57.391333333333336 2601.74 0.0 0.0 1.0
-73.7391 62.72463333333334 2601.74 0.0 0.0 1.0
-73.97099999999999 66.43476666666668 2601.74 0.0 0.0 1.0
-73.50723333333333 67.13043333333333 2601.74 0.0 0.0 1.0
-73.04346666666667 71.07243333333334 2601.74 0.0 0.0 1.0
-75.4122 66.23656666666666 2144.8 0.0 0.0 1.0
-71.1884 80.81156666666668 2601.74 0.0 0.0 1.0
-75.22103333333332 71.97133333333333 2144.8 0.0 0.0 1.0
-74.83873333333334 73.1183 2144.8 0.0 0.0 1.0
-74.26523333333334 76.17683333333333 2144.8 0.0 0.0 1.0
-74.64753333333334 78.08843333333334 2144.8 0.0 0.0 1.0
-75.77933333333333 86.23496666666665 2152.52 0.0 0.0 1.0
-75.77933333333333 86.23496666666665 2152.52 0.0 0.0 1.0
-74.0741 90.32260000000001 2144.8 0.0 0.0 1.0
-74.07406666666667 95.48386666666666 2144.8 0.0 0.0 1.0
-74.85713333333335 99.14286666666665 2137.14 0.0 0.0 1.0
-74.87543333333333 105.053 2129.54 0.0 0.0 1.0
-74.88 -119.14666666666666 2393.6 0.0 0.0 1.0
-74.66666666666666 -97.38666666666666 2393.6 0.0 0.0 1.0
-75.09333333333332 -92.48 2393.6 0.0 0.0 1.0
-75.09333333333332 -92.48 2393.6 0.0 0.0 1.0
-75.13043333333333 -87.7681 2601.74 0.0 0.0 1.0
-74.66666666666667 -87.30433333333333 2601.74 0.0 0.0 1.0
-73.73913333333333 -79.65216666666667 2601.74 0.0 0.0 1.0
-74.43476666666668 -73.15943333333333 2601.74 0.0 0.0 1.0
-75.13043333333333 -63.1884 2601.74 0.0 0.0 1.0
-74.66666666666667 -62.260866666666665 2601.74 0.0 0.0 1.0
-74.35293333333334 -50.71896666666667 2346.67 0.0 0.0 1.0
-65.10156666666667 -43.25903333333334 2284.0366666666664 -0.6493975454533496 0.6493975454533616 0.39568378273352817
-74.79166666666667 -41.770833333333336 2337.5 0.0 0.0 1.0
-74.79166666666667 -41.770833333333336 2337.5 0.0 0.0 1.0
-75.0 -34.479166666666664 2337.5 0.0 0.0 1.0
-75.64203333333333 -24.383933333333335 2328.4 0.0 0.0 1.0
-74.83206666666666 -17.261 2319.38 0.0 0.0 1.0
-74.83206666666666 -17.261 2319.38 0.0 0.0 1.0
-75.65893333333334 -15.193800000000001 2319.38 0.0 0.0 1.0
-74.00516666666665 -11.472866666666667 2319.38 0.0 0.0 1.0
-75.26383333333332 -9.369370000000002 2310.42 0.0 0.0 1.0
-74.6461 0.10296000000000001 2310.42 0.0 0.0 1.0
-75.88156666666667 6.28057 2310.42 0.0 0.0 1.0
-75.89743333333332 21.230766666666668 2301.54 0.0 0.0 1.0
-74.66663333333334 23.6923 2301.54 0.0 0.0 1.0
-74.91093333333333 31.043266666666668 2283.97 0.0 0.0 1.0
-75.13306666666666 32.9531 2275.29 0.0 0.0 1.0
-76.2226 37.6637 2230.0733333333333 1.5520351766954664e-16 0.9920794948465761 0.12561160736557136
-73.97103333333332 52.28986666666666 2601.74 0.0 0.0 1.0
-73.97103333333332 52.28986666666666 2601.74 0.0 0.0 1.0
-73.73913333333333 56.231899999999996 2601.74 0.0 0.0 1.0
-74.89853333333333 58.08696666666666 2601.74 0.0 0.0 1.0
-75.13043333333333 61.56523333333333 2601.74 0.0 0.0 1.0
-74.43476666666668 65.50723333333333 2601.74 0.0 0.0 1.0
-74.994 58.4356 2160.29 0.0 0.0 1.0
-75.4122 66.23656666666666 2144.8 0.0 0.0 1.0
-75.7945 67.57466666666667 2144.8 0.0 0.0 1.0
-75.98566666666666 87.07286666666668 2144.8 0.0 0.0 1.0
-76.1768 91.27836666666667 2144.8 0.0 0.0 1.0
-74.85713333333335 99.14286666666665 2137.14 0.0 0.0 1.0
-75.255 104.294 2129.54 0.0 0.0 1.0
-74.87543333333333 105.053 2129.54 0.0 0.0 1.0
-75.52 -118.93333333333334 2393.6 0.0 0.0 1.0
-76.58666666666666 -115.94666666666666 2393.6 0.0 0.0 1.0
-75.73333333333333 -112.53333333333332 2393.6 0.0 0.0 1.0
-75.73333333333333 -112.53333333333332 2393.6 0.0 0.0 1.0
-75.94666666666667 -108.05333333333334 2393.6 0.0 0.0 1.0
-76.58666666666666 -101.22666666666667 2393.6 0.0 0.0 1.0
-75.73333333333333 -96.74666666666667 2393.6 0.0 0.0 1.0
-75.73333333333333 -93.97333333333334 2393.6 0.0 0.0 1.0
-74.66666666666667 -87.30433333333333 2601.74 0.0 0.0 1.0
-76.0261 -70.16993333333333 2346.67 0.0 0.0 1.0
-75.13043333333333 -72.92756666666666 2601.74 0.0 0.0 1.0
-75.82606666666666 -67.13043333333333 2601.74 0.0 0.0 1.0
-74.66663333333332 -66.4348 2601.74 0.0 0.0 1.0
-75.13043333333333 -63.1884 2601.74 0.0 0.0 1.0
-75.20833333333333 -35.9375 2337.5 0.0 0.0 1.0
-75.83333333333333 -35.729166666666664 2337.5 0.0 0.0 1.0
-76.05706666666667 -25.214 2328.4 0.0 0.0 1.0
-75.86563333333334 -19.328166666666664 2319.38 0.0 0.0 1.0
-75.86563333333334 -19.328166666666668 2319.38 0.0 0.0 1.0
-75.65893333333334 -15.193800000000001 2319.38 0.0 0.0 1.0
-75.6757 -4.633203333333333 2310.42 0.0 0.0 1.0
-75.05793333333334 -0.7207203333333334 2310.42 0.0 0.0 1.0
-75.46976666666667 7.72201 2310.42 0.0 0.0 1.0
-76.49936666666667 11.016733333333335 2310.42 0.0 0.0 1.0
-76.08750000000002 13.281866666666666 2310.42 0.0 0.0 1.0
-76.08750000000002 14.9292 2310.42 0.0 0.0 1.0
-74.05130000000001 17.128233333333334 2301.54 0.0 0.0 1.0
-76.10256666666668 22.666633333333333 2301.54 0.0 0.0 1.0
-75.48716666666667 23.0769 2301.54 0.0 0.0 1.0
-75.48716666666667 25.333333333333332 2301.54 0.0 0.0 1.0
-75.13306666666666 32.9531 2275.29 0.0 0.0 1.0
-76.03466666666667 40.1487 2224.54 0.0 0.0 1.0
-75.13043333333333 50.666666666666664 2601.74 0.0 0.0 1.0
-74.43476666666668 57.6232 2601.74 0.0 0.0 1.0
-74.89853333333333 58.08696666666666 2601.74 0.0 0.0 1.0
-75.59416666666665 63.1884 2601.74 0.0 0.0 1.0
-75.1304 63.652166666666666 2601.74 0.0 0.0 1.0
-75.36229999999999 64.34783333333333 2601.74 0.0 0.0 1.0
-74.89853333333333 70.1449 2601.74 0.0 0.0 1.0
-75.4122 66.23656666666666 2144.8 0.0 0.0 1.0
-75.60336666666666 71.97133333333333 2144.8 0.0 0.0 1.0
-75.60336666666666 72.73596666666667 2144.8 0.0 0.0 1.0
-76.17683333333333 86.4994 2144.8 0.0 0.0 1.0
-76.17683333333333 86.4994 2144.8 0.0 0.0 1.0
-76.38093333333332 102.0 2137.14 0.0 0.0 1.0
-77.68116666666667 -130.435 2601.74 0.0 0.0 1.0
-76.16000000000001 -118.93333333333334 2393.6 0.0 0.0 1.0
-75.73333333333333 -112.53333333333332 2393.6 0.0 0.0 1.0
-76.37333333333333 -108.90666666666668 2393.6 0.0 0.0 1.0
-76.37333333333333 -107.84000000000002 2393.6 0.0 0.0 1.0
-75.9628 -87.43693333333333 2384.06 0.0 0.0 1.0
-75.13043333333333 -87.7681 2601.74 0.0 0.0 1.0
-76.05796666666667 -72.6957 2601.74 0.0 0.0 1.0
-75.82606666666668 -63.4203 2601.74 0.0 0.0 1.0
-77.08333333333333 -47.604166666666664 2337.5 0.0 0.0 1.0
-77.08333333333333 -47.604166666666664 2337.5 0.0 0.0 1.0
-76.45833333333333 -43.4375 2337.5 0.0 0.0 1.0
-75.625 -34.895833333333336 2337.5 0.0 0.0 1.0
-76.04166666666667 -30.729166666666668 2337.5 0.0 0.0 1.0
-77.29166666666667 -26.979166666666668 2337.5 0.0 0.0 1.0
-76.05706666666667 -25.214 2328.4 0.0 0.0 1.0
-76.05706666666667 -24.59143333333333 2328.4 0.0 0.0 1.0
-75.84956666666666 -24.1764 2328.4 0.0 0.0 1.0
-75.86563333333334 -19.328166666666664 2319.38 0.0 0.0 1.0
-75.65893333333332 -15.193800000000001 2319.38 0.0 0.0 1.0
-77.11713333333334 -6.8983300000000005 2310.42 0.0 0.0 1.0
-75.88156666666667 6.28057 2310.42 0.0 0.0 1.0
-76.08750000000002 6.8983300000000005 2310.42 0.0 0.0 1.0
-76.08750000000002 11.634500000000001 2310.42 0.0 0.0 1.0
-76.08750000000002 12.4582 2310.42 0.0 0.0 1.0
-76.08750000000002 13.281866666666666 2310.42 0.0 0.0 1.0
-76.0875 15.752899999999999 2310.42 0.0 0.0 1.0
-76.70526666666667 16.164766666666665 2310.42 0.0 0.0 1.0
-76.51283333333333 25.538466666666665 2301.54 0.0 0.0 1.0
-74.91093333333333 31.043266666666668 2283.97 0.0 0.0 1.0
-76.56563333333334 36.46463333333333 2266.67 0.0 0.0 1.0
-76.2226 37.6637 2230.0733333333333 1.5520351766954664e-16 0.9920794948465761 0.12561160736557136
-75.13043333333333 50.666666666666664 2601.74 0.0 0.0 1.0
-75.8261 55.30433333333334 2601.74 0.0 0.0 1.0
-75.5942 61.33336666666667 2601.74 0.0 0.0 1.0
-75.82606666666668 64.5797 2601.74 0.0 0.0 1.0
-74.994 58.4356 2160.29 0.0 0.0 1.0
-74.66666666666667 69.21736666666668 2601.74 0.0 0.0 1.0
-76.36796666666666 87.83749999999999 2144.8 0.0 0.0 1.0
-76.75026666666666 90.70493333333333 2144.8 0.0 0.0 1.0
-76.75026666666666 91.08723333333334 2144.8 0.0 0.0 1.0
-76.5591 91.46953333333333 2144.8 0.0 0.0 1.0
-76.5591 91.46953333333333 2144.8 0.0 0.0 1.0
-77.13260000000001 97.39546666666666 2144.8 0.0 0.0 1.0
-77.13260000000001 97.58663333333334 2144.8 0.0 0.0 1.0
-76.38093333333332 102.0 2137.14 0.0 0.0 1.0
-76.38093333333332 102.0 2137.14 0.0 0.0 1.0
-76.95236666666666 102.952 2137.14 0.0 0.0 1.0
-76.3938 105.43299999999999 2129.54 0.0 0.0 1.0
-77.68116666666667 -130.435 2601.74 0.0 0.0 1.0
-76.8 -118.93333333333332 2393.6 0.0 0.0 1.0
-76.58666666666666 -115.94666666666666 2393.6 0.0 0.0 1.0
-76.37333333333333 -113.17333333333333 2393.6 0.0 0.0 1.0
-76.58666666666666 -112.96 2393.6 0.0 0.0 1.0
-76.58666666666666 -101.22666666666667 2393.6 0.0 0.0 1.0
-77.22666666666667 -96.10666666666667 2393.6 0.0 0.0 1.0
-77.22666666666667 -96.10666666666667 2393.6 0.0 0.0 1.0
-75.52 -89.92 2393.6 0.0 0.0 1.0
-78.32676666666667 -79.79086666666667 2346.67 0.0 0.0 1.0
-77.44923333333332 -76.4058 2601.74 0.0 0.0 1.0
-77.44923333333332 -76.4058 2601.74 0.0 0.0 1.0
-76.28983333333333 -63.188433333333336 2601.74 0.0 0.0 1.0
-76.28983333333333 -63.188433333333336 2601.74 0.0 0.0 1.0
-76.88716666666667 -23.3463 2328.4 0.0 0.0 1.0
-77.52896666666668 -8.13385 2310.42 0.0 0.0 1.0
-77.52896666666668 -5.4568900000000005 2310.42 0.0 0.0 1.0
-68.86956666666667 -0.5797100000000001 2601.74 0.0 0.0 1.0
-76.9231 20.0 2301.54 0.0 0.0 1.0
-76.9231 20.0 2301.54 0.0 0.0 1.0
-77.12823333333334 20.615399999999998 2301.54 0.0 0.0 1.0
-76.92306666666667 22.666633333333333 2301.54 0.0 0.0 1.0
-80.46376666666667 29.565233333333328 2601.74 0.0 0.0 1.0
-77.62079999999999 39.35563333333334 2224.54 0.0 0.0 1.0
-76.5217 59.0145 2601.74 0.0 0.0 1.0
-76.28983333333333 62.028999999999996 2601.74 0.0 0.0 1.0
-76.05793333333332 62.72463333333334 2601.74 0.0 0.0 1.0
-76.52173333333333 64.8116 2601.74 0.0 0.0 1.0
-77.13263333333333 67.0012 2144.8 0.0 0.0 1.0
-76.94146666666667 74.26523333333333 2144.8 0.0 0.0 1.0
-78.0884 79.6177 2144.8 0.0 0.0 1.0
-77.32376666666666 87.83749999999999 2144.8 0.0 0.0 1.0
-76.75026666666666 91.08723333333334 2144.8 0.0 0.0 1.0
-76.3938 105.43299999999999 2129.54 0.0 0.0 1.0
-76.8 -118.93333333333332 2393.6 0.0 0.0 1.0
-77.44 -115.73333333333333 2393.6 0.0 0.0 1.0
-78.08 -109.97333333333334 2393.6 0.0 0.0 1.0
-77.01333333333334 -109.12 2393.6 0.0 0.0 1.0
-77.44 -101.44 2393.6 0.0 0.0 1.0
-77.4502 -87.6494 2384.06 0.0 0.0 1.0
-78.32676666666667 -79.79086666666667 2346.67 0.0 0.0 1.0
-77.2174 -72.4638 2601.74 0.0 0.0 1.0
-77.68113333333334 -67.36229999999999 2601.74 0.0 0.0 1.0
-77.08333333333333 -53.854166666666664 2337.5 0.0 0.0 1.0
-77.69933333333334 -51.76473333333334 2346.67 0.0 0.0 1.0
-77.69933333333334 -51.76473333333333 2346.67 0.0 0.0 1.0
-77.08333333333333 -33.020833333333336 2337.5 0.0 0.0 1.0
-77.70833333333333 -31.5625 2337.5 0.0 0.0 1.0
-77.91666666666667 -28.4375 2337.5 0.0 0.0 1.0
-77.70833333333333 -27.604166666666668 2337.5 0.0 0.0 1.0
-76.88716666666667 -23.3463 2328.4 0.0 0.0 1.0
-78.7597 -11.472900000000001 2319.38 0.0 0.0 1.0
-77.94080000000001 -7.516090000000001 2310.42 0.0 0.0 1.0
-77.52896666666668 -5.4568900000000005 2310.42 0.0 0.0 1.0
-77.52896666666668 -4.839126666666666 2310.42 0.0 0.0 1.0
-77.11713333333334 -0.30887966666666666 2310.42 0.0 0.0 1.0
-77.32303333333334 5.66281 2310.42 0.0 0.0 1.0
-77.7349 9.987143333333334 2310.42 0.0 0.0 1.0
-77.529 11.016733333333335 2310.42 0.0 0.0 1.0
-77.11713333333334 11.428566666666669 2310.42 0.0 0.0 1.0
-76.70526666666667 16.164766666666665 2310.42 0.0 0.0 1.0
-77.12823333333334 21.4359 2301.54 0.0 0.0 1.0
-77.53846666666666 23.0769 2301.54 0.0 0.0 1.0
-77.53846666666668 26.153833333333335 2301.54 0.0 0.0 1.0
-77.36373333333334 32.14196666666667 2275.29 0.0 0.0 1.0
-78.37766666666667 34.981 2275.29 0.0 0.0 1.0
-78.37766666666667 34.981 2275.29 0.0 0.0 1.0
-77.62079999999999 39.35563333333333 2224.54 0.0 0.0 1.0
-75.8261 54.3768 2601.74 0.0 0.0 1.0
-77.68113333333334 59.942033333333335 2601.74 0.0 0.0 1.0
-76.52173333333333 64.8116 2601.74 0.0 0.0 1.0
-78.85306666666666 57.44323333333333 2144.8 0.0 0.0 1.0
-78.2796 60.310633333333335 2144.8 0.0 0.0 1.0
-77.7061 75.02986666666666 2144.8 0.0 0.0 1.0
-77.89726666666667 82.10273333333333 2144.8 0.0 0.0 1.0
-78.2796 82.67623333333333 2144.8 0.0 0.0 1.0
-77.51493333333333 87.07286666666666 2144.8 0.0 0.0 1.0
-75.77933333333333 86.23496666666666 2152.52 0.0 0.0 1.0
-77.32376666666667 92.61650000000002 2144.8 0.0 0.0 1.0
-77.89726666666667 93.38113333333332 2144.8 0.0 0.0 1.0
-76.57143333333333 100.28586666666666 2137.14 0.0 0.0 1.0
-77.33333333333333 102.38066666666667 2137.14 0.0 0.0 1.0
-77.33333333333333 102.38066666666667 2137.14 0.0 0.0 1.0
-77.44 -114.66666666666667 2393.6 0.0 0.0 1.0
-78.08 -109.97333333333334 2393.6 0.0 0.0 1.0
-77.44 -101.44 2393.6 0.0 0.0 1.0
-78.29333333333334 -97.17333333333333 2393.6 0.0 0.0 1.0
-78.29333333333334 -96.74666666666666 2393.6 0.0 0.0 1.0
-78.29333333333334 -96.74666666666666 2393.6 0.0 0.0 1.0
-78.72000000000001 -94.18666666666667 2393.6 0.0 0.0 1.0
-78.08763333333333 -88.49933333333333 2384.06 0.0 0.0 1.0
-78.32676666666667 -73.9346 2346.67 0.0 0.0 1.0
-78.32676666666667 -73.9346 2346.67 0.0 0.0 1.0
-77.68113333333334 -67.3623 2601.74 0.0 0.0 1.0
-77.68113333333334 -67.36229999999999 2601.74 0.0 0.0 1.0
-77.44923333333332 -65.27536666666667 2601.74 0.0 0.0 1.0
-77.69933333333334 -51.76473333333333 2346.67 0.0 0.0 1.0
-78.75 -43.854166666666664 2337.5 0.0 0.0 1.0
-78.125 -30.3125 2337.5 0.0 0.0 1.0
-77.29166666666667 -26.979166666666668 2337.5 0.0 0.0 1.0
-77.9328 -20.155033333333332 2319.38 0.0 0.0 1.0
-77.9328 -14.780366666666666 2319.38 0.0 0.0 1.0
-77.94080000000001 -7.516090000000001 2310.42 0.0 0.0 1.0
-77.9408 -7.516090000000001 2310.42 0.0 0.0 1.0
-77.52896666666668 -5.4568900000000005 2310.42 0.0 0.0 1.0
-81.65373333333332 -3.2041333333333335 2319.38 0.0 0.0 1.0
-78.55856666666666 0.7207203333333334 2310.42 0.0 0.0 1.0
-81.43586666666666 2.1538456666666668 2301.54 0.0 0.0 1.0
-78.14673333333333 5.4568900000000005 2310.42 0.0 0.0 1.0
-78.55856666666666 9.369386666666665 2310.42 0.0 0.0 1.0
-78.14673333333333 13.075933333333333 2310.42 0.0 0.0 1.0
-77.53846666666666 23.0769 2301.54 0.0 0.0 1.0
-78.61213333333333 39.75216666666666 2224.54 0.0 0.0 1.0
-78.46523333333333 46.52276666666666 2152.52 0.0 0.0 1.0
-78.46523333333333 46.52276666666666 2152.52 0.0 0.0 1.0
-77.68113333333334 59.942033333333335 2601.74 0.0 0.0 1.0
-77.68113333333334 59.942033333333335 2601.74 0.0 0.0 1.0
-76.98546666666665 62.72463333333334 2601.74 0.0 0.0 1.0
-78.2796 60.31063333333333 2144.8 0.0 0.0 1.0
-78.6619 63.94266666666667 2144.8 0.0 0.0 1.0
-78.6619 63.94266666666667 2144.8 0.0 0.0 1.0
-78.27956666666667 67.3835 2144.8 0.0 0.0 1.0
-77.31413333333334 75.4916 2152.52 0.0 0.0 1.0
-78.2796 75.02986666666666 2144.8 0.0 0.0 1.0
-78.2796 82.67623333333333 2144.8 0.0 0.0 1.0
-78.47073333333333 84.01433333333334 2144.8 0.0 0.0 1.0
-77.7061 87.45516666666667 2144.8 0.0 0.0 1.0
-78.08843333333333 90.13143333333333 2144.8 0.0 0.0 1.0
-78.08843333333334 94.14576666666666 2144.8 0.0 0.0 1.0
-78.47076666666668 94.9104 2144.8 0.0 0.0 1.0
-78.47076666666668 97.01313333333333 2144.8 0.0 0.0 1.0
-78.47076666666668 97.39546666666666 2144.8 0.0 0.0 1.0
-78.47076666666668 97.58663333333334 2144.8 0.0 0.0 1.0
-78.93333333333334 -111.68 2393.6 0.0 0.0 1.0
-78.93333333333334 -111.68 2393.6 0.0 0.0 1.0
-78.72000000000001 -110.18666666666668 2393.6 0.0 0.0 1.0
-79.57333333333334 -104.85333333333334 2393.6 0.0 0.0 1.0
-78.29333333333334 -96.74666666666667 2393.6 0.0 0.0 1.0
-78.29333333333334 -95.25333333333333 2393.6 0.0 0.0 1.0
-78.30013333333333 -87.86186666666667 2384.06 0.0 0.0 1.0
-78.30013333333333 -87.86186666666667 2384.06 0.0 0.0 1.0
-78.32676666666667 -73.9346 2346.67 0.0 0.0 1.0
-78.1449 -77.33333333333333 2601.74 0.0 0.0 1.0
-78.3768 -72.2319 2601.74 0.0 0.0 1.0
-79.375 -61.979166666666664 2337.5 0.0 0.0 1.0
-79.375 -47.604166666666664 2337.5 0.0 0.0 1.0
-78.95833333333333 -43.229166666666664 2337.5 0.0 0.0 1.0
-78.75 -42.8125 2337.5 0.0 0.0 1.0
-78.75 -42.8125 2337.5 0.0 0.0 1.0
-79.58333333333333 -35.104166666666664 2337.5 0.0 0.0 1.0
-78.125 -29.270833333333332 2337.5 0.0 0.0 1.0
-79.37743333333333 -23.9689 2328.4 0.0 0.0 1.0
-78.7597 -11.472900000000001 2319.38 0.0 0.0 1.0
-78.76446666666668 5.25097 2310.42 0.0 0.0 1.0
-78.9704 5.868729999999999 2310.42 0.0 0.0 1.0
-78.76446666666668 14.311466666666666 2310.42 0.0 0.0 1.0
-79.38459999999999 19.794866666666667 2301.54 0.0 0.0 1.0
-78.76923333333333 26.358966666666664 2301.54 0.0 0.0 1.0
-78.78326666666668 32.14196666666667 2275.29 0.0 0.0 1.0
-73.92153333333333 39.117666666666665 2200.0 0.0 0.0 1.0
-78.65706666666667 47.673833333333334 2152.52 0.0 0.0 1.0
-79.42443333333334 47.8657 2152.52 0.0 0.0 1.0
-78.84056666666667 61.333333333333336 2601.74 0.0 0.0 1.0
-79.42653333333334 56.86976666666666 2144.8 0.0 0.0 1.0
-79.04423333333334 60.119466666666675 2144.8 0.0 0.0 1.0
-79.6177 70.05973333333333 2144.8 0.0 0.0 1.0
-78.66193333333332 74.45639999999999 2144.8 0.0 0.0 1.0
-78.66193333333332 74.45639999999999 2144.8 0.0 0.0 1.0
-78.2796 82.67623333333333 2144.8 0.0 0.0 1.0
-79.6177 89.17559999999999 2144.8 0.0 0.0 1.0
-78.47076666666668 95.67503333333332 2144.8 0.0 0.0 1.0
-78.66193333333332 97.39546666666666 2144.8 0.0 0.0 1.0
-78.66193333333332 97.58663333333334 2144.8 0.0 0.0 1.0
-78.66666666666667 103.14266666666667 2137.14 0.0 0.0 1.0
-78.14493333333333 129.739 2601.74 0.0 0.0 1.0
-79.78666666666668 -117.01333333333332 2393.6 0.0 0.0 1.0
-79.14666666666666 -111.04 2393.6 0.0 0.0 1.0
-79.14666666666666 -110.39999999999999 2393.6 0.0 0.0 1.0
-79.14666666666666 -109.75999999999999 2393.6 0.0 0.0 1.0
-79.14666666666666 -102.29333333333334 2393.6 0.0 0.0 1.0
-78.71999999999998 -97.59999999999998 2393.6 0.0 0.0 1.0
-78.72 -94.18666666666667 2393.6 0.0 0.0 1.0
-79.79086666666666 -76.0261 2346.67 0.0 0.0 1.0
-80.0 -75.2464 2601.74 0.0 0.0 1.0
-78.3768 -72.2319 2601.74 0.0 0.0 1.0
-79.58333333333333 -62.604166666666664 2337.5 0.0 0.0 1.0
-79.375 -54.6875 2337.5 0.0 0.0 1.0
-79.375 -47.604166666666664 2337.5 0.0 0.0 1.0
-79.375 -44.0625 2337.5 0.0 0.0 1.0
-79.375 -44.0625 2337.5 0.0 0.0 1.0
-79.16666666666667 -43.645833333333336 2337.5 0.0 0.0 1.0
-80.41666666666667 -38.229166666666664 2337.5 0.0 0.0 1.0
-79.37743333333333 -23.9689 2328.4 0.0 0.0 1.0
-79.1699 -23.553833333333333 2328.4 0.0 0.0 1.0
-80.20673333333333 -19.53486666666667 2319.38 0.0 0.0 1.0
-79.17309999999999 -14.160199999999998 2319.38 0.0 0.0 1.0
-80.0 -9.781226666666667 2310.42 0.0 0.0 1.0
-79.17630000000001 5.4568900000000005 2310.42 0.0 0.0 1.0
-79.1763 5.868729999999999 2310.42 0.0 0.0 1.0
-78.55856666666666 15.341066666666665 2310.42 0.0 0.0 1.0
-79.58973333333334 19.384600000000002 2301.54 0.0 0.0 1.0
-79.58973333333334 19.384600000000002 2301.54 0.0 0.0 1.0
-79.58973333333334 21.230766666666668 2301.54 0.0 0.0 1.0
-78.97433333333333 22.2564 2301.54 0.0 0.0 1.0
-79.58973333333334 29.230766666666668 2301.54 0.0 0.0 1.0
-79.79486666666666 29.84613333333333 2301.54 0.0 0.0 1.0
-79.79796666666667 36.666666666666664 2266.67 0.0 0.0 1.0
-79.80883333333334 55.91400000000001 2144.8 0.0 0.0 1.0
-79.23536666666666 56.105133333333335 2144.8 0.0 0.0 1.0
-79.0442 64.70729999999999 2144.8 0.0 0.0 1.0
-79.4265 65.66306666666667 2144.8 0.0 0.0 1.0
-79.4265 66.61886666666668 2144.8 0.0 0.0 1.0
-79.0442 67.19233333333334 2144.8 0.0 0.0 1.0
-78.85303333333333 79.23539999999998 2144.8 0.0 0.0 1.0
-78.85306666666666 82.2939 2144.8 0.0 0.0 1.0
-79.23536666666666 84.77896666666668 2144.8 0.0 0.0 1.0
-79.23536666666666 86.30823333333332 2144.8 0.0 0.0 1.0
-80.95576666666666 100.83623333333333 2144.8 0.0 0.0 1.0
-79.42856666666667 103.71433333333334 2137.14 0.0 0.0 1.0
-80.21333333333332 -117.44 2393.6 0.0 0.0 1.0
-80.21333333333334 -116.8 2393.6 0.0 0.0 1.0
-79.36 -115.09333333333332 2393.6 0.0 0.0 1.0
-80.0 -101.44 2393.6 0.0 0.0 1.0
-78.95423333333332 -73.098 2346.67 0.0 0.0 1.0
-80.69566666666667 -75.01453333333335 2601.74 0.0 0.0 1.0
-79.375 -61.979166666666664 2337.5 0.0 0.0 1.0
-80.20833333333333 -59.270833333333336 2337.5 0.0 0.0 1.0
-80.20833333333333 -59.270833333333336 2337.5 0.0 0.0 1.0
-79.375 -47.604166666666664 2337.5 0.0 0.0 1.0
-79.375 -43.020833333333336 2337.5 0.0 0.0 1.0
-79.79166666666667 -41.354166666666664 2337.5 0.0 0.0 1.0
-80.20833333333333 -37.604166666666664 2337.5 0.0 0.0 1.0
-80.0 -35.9375 2337.5 0.0 0.0 1.0
-80.0 -34.479166666666664 2337.5 0.0 0.0 1.0
-79.37743333333333 -23.9689 2328.4 0.0 0.0 1.0
-80.62016666666666 -17.0543 2319.38 0.0 0.0 1.0
-80.0 -13.333333333333334 2319.38 0.0 0.0 1.0
-79.7933 -11.266166666666669 2319.38 0.0 0.0 1.0
-80.0 -9.781226666666667 2310.42 0.0 0.0 1.0
-80.41183333333333 -3.8095233333333334 2310.42 0.0 0.0 1.0
-79.17633333333333 -3.39768 2310.42 0.0 0.0 1.0
-79.79406666666667 2.162160333333333 2310.42 0.0 0.0 1.0
-80.0 5.25097 2310.42 0.0 0.0 1.0
-80.0 8.95753 2310.42 0.0 0.0 1.0
-79.38459999999999 19.794866666666667 2301.54 0.0 0.0 1.0
-80.20513333333334 26.358966666666664 2301.54 0.0 0.0 1.0
-80.20513333333334 26.358966666666664 2301.54 0.0 0.0 1.0
-79.79486666666666 28.0 2301.54 0.0 0.0 1.0
-80.61303333333333 30.753533333333337 2292.72 0.0 0.0 1.0
-80.61303333333333 30.753533333333337 2292.72 0.0 0.0 1.0
-79.79723333333334 32.14196666666667 2275.29 0.0 0.0 1.0
-80.20280000000001 32.9531 2275.29 0.0 0.0 1.0
-80.20203333333333 36.8687 2266.67 0.0 0.0 1.0
-80.20203333333333 36.8687 2266.67 0.0 0.0 1.0
-80.19826666666667 38.56256666666667 2224.54 0.0 0.0 1.0
-80.0 39.5539 2224.54 0.0 0.0 1.0
-79.4052 40.1487 2224.54 0.0 0.0 1.0
-78.84056666666667 62.260866666666665 2601.74 0.0 0.0 1.0
-80.3823 54.0024 2144.8 0.0 0.0 1.0
-80.38233333333334 57.06093333333333 2144.8 0.0 0.0 1.0
-79.80886666666667 60.5018 2144.8 0.0 0.0 1.0
-80.19116666666666 62.03106666666667 2144.8 0.0 0.0 1.0
-80.19116666666666 62.03106666666667 2144.8 0.0 0.0 1.0
-79.42653333333332 68.7216 2144.8 0.0 0.0 1.0
-79.80886666666667 71.01553333333334 2144.8 0.0 0.0 1.0
-79.61766666666666 80.19116666666666 2144.8 0.0 0.0 1.0
-79.61766666666666 85.35243333333334 2144.8 0.0 0.0 1.0
-80.19116666666666 89.17559999999999 2144.8 0.0 0.0 1.0
-80.57346666666666 89.55793333333334 2144.8 0.0 0.0 1.0
-79.6177 93.57226666666668 2144.8 0.0 0.0 1.0
-80.0 104.09533333333333 2137.14 0.0 0.0 1.0
-77.68116666666667 -130.435 2601.74 0.0 0.0 1.0
-81.49333333333334 -105.70666666666666 2393.6 0.0 0.0 1.0
-81.39133333333332 -97.04346666666667 2601.74 0.0 0.0 1.0
-81.6232 -95.1884 2601.74 0.0 0.0 1.0
-81.2549 -80.00003333333335 2346.67 0.0 0.0 1.0
-80.69566666666667 -75.01453333333335 2601.74 0.0 0.0 1.0
-80.625 -63.020833333333336 2337.5 0.0 0.0 1.0
-80.20833333333333 -59.270833333333336 2337.5 0.0 0.0 1.0
-82.08696666666667 -63.42026666666667 2601.74 0.0 0.0 1.0
-80.625 -44.479166666666664 2337.5 0.0 0.0 1.0
-80.20833333333333 -41.5625 2337.5 0.0 0.0 1.0
-80.625 -31.145833333333332 2337.5 0.0 0.0 1.0
-80.625 -31.145833333333332 2337.5 0.0 0.0 1.0
-80.625 -31.145833333333332 2337.5 0.0 0.0 1.0
-80.82690000000001 -20.154999999999998 2319.38 0.0 0.0 1.0
-80.82690000000001 -18.9147 2319.38 0.0 0.0 1.0
-80.62016666666666 -17.0543 2319.38 0.0 0.0 1.0
-80.82690000000001 -16.434133333333335 2319.38 0.0 0.0 1.0
-80.62016666666666 -13.333333333333334 2319.38 0.0 0.0 1.0
-81.03359999999999 -11.059433333333333 2319.38 0.0 0.0 1.0
-80.0 -9.781226666666667 2310.42 0.0 0.0 1.0
-81.0296 -6.074650000000001 2310.42 0.0 0.0 1.0
-80.0 5.25097 2310.42 0.0 0.0 1.0
-80.20593333333333 13.075933333333333 2310.42 0.0 0.0 1.0
-80.0 23.897433333333336 2301.54 0.0 0.0 1.0
-80.82053333333333 26.7692 2301.54 0.0 0.0 1.0
-80.0 29.84613333333333 2301.54 0.0 0.0 1.0
-79.79723333333334 32.14196666666667 2275.29 0.0 0.0 1.0
-80.20203333333333 36.8687 2266.67 0.0 0.0 1.0
-80.19826666666667 38.56256666666667 2224.54 0.0 0.0 1.0
-81.72043333333333 42.15056666666667 2144.8 0.0 0.0 1.0
-80.38366666666667 46.90646666666667 2152.52 0.0 0.0 1.0
-80.38233333333334 57.06093333333333 2144.8 0.0 0.0 1.0
-80.38233333333334 57.06093333333333 2144.8 0.0 0.0 1.0
-80.19116666666666 61.26643333333334 2144.8 0.0 0.0 1.0
-80.9558 71.39786666666667 2144.8 0.0 0.0 1.0
-77.31413333333334 75.4916 2152.52 0.0 0.0 1.0
-80.19183333333334 85.27573333333333 2152.52 0.0 0.0 1.0
-80.57346666666666 89.55793333333334 2144.8 0.0 0.0 1.0
-81.14693333333332 90.89606666666667 2144.8 0.0 0.0 1.0
-80.76463333333334 92.61646666666667 2144.8 0.0 0.0 1.0
-79.80886666666667 94.9104 2144.8 0.0 0.0 1.0
-80.76190000000001 102.952 2137.14 0.0 0.0 1.0
-80.38093333333332 104.66699999999999 2137.14 0.0 0.0 1.0
-80.38093333333333 104.66699999999999 2137.14 0.0 0.0 1.0
-78.10199999999999 105.623 2129.54 0.0 0.0 1.0
-81.06666666666666 -118.50666666666666 2393.6 0.0 0.0 1.0
-81.06666666666666 -117.86666666666666 2393.6 0.0 0.0 1.0
-81.49333333333334 -105.70666666666666 2393.6 0.0 0.0 1.0
-81.6232 -96.5797 2601.74 0.0 0.0 1.0
-81.2549 -80.00003333333333 2346.67 0.0 0.0 1.0
-81.25493333333333 -77.07186666666666 2346.67 0.0 0.0 1.0
-81.6798 -75.48553333333332 2355.91 0.0 0.0 1.0
-82.08696666666667 -77.33333333333333 2601.74 0.0 0.0 1.0
-81.6232 -75.94206666666668 2601.74 0.0 0.0 1.0
-82.30066666666666 -61.5948 2346.67 0.0 0.0 1.0
-81.39133333333332 -64.5797 2601.74 0.0 0.0 1.0
-81.04166666666667 -56.354166666666664 2337.5 0.0 0.0 1.0
-82.09150000000001 -51.346399999999996 2346.67 0.0 0.0 1.0
-82.09150000000001 -51.346399999999996 2346.67 0.0 0.0 1.0
-81.04166666666667 -36.354166666666664 2337.5 0.0 0.0 1.0
-81.04166666666667 -34.270833333333336 2337.5 0.0 0.0 1.0
-81.875 -27.1875 2337.5 0.0 0.0 1.0
-81.0376 -24.3839 2328.4 0.0 0.0 1.0
-81.86046666666665 -21.602033333333328 2319.38 0.0 0.0 1.0
-81.03359999999999 -17.261 2319.38 0.0 0.0 1.0
-81.03359999999999 -17.261 2319.38 0.0 0.0 1.0
-81.03359999999999 -16.43413333333333 2319.38 0.0 0.0 1.0
-81.44703333333332 -13.333333333333334 2319.38 0.0 0.0 1.0
-81.23553333333332 -6.8983300000000005 2310.42 0.0 0.0 1.0
-80.61776666666667 -5.045046666666667 2310.42 0.0 0.0 1.0
-80.61776666666667 4.839126666666666 2310.42 0.0 0.0 1.0
-81.23553333333332 7.10425 2310.42 0.0 0.0 1.0
-81.85329999999999 12.870033333333334 2310.42 0.0 0.0 1.0
-84.6377 27.246399999999998 2601.74 0.0 0.0 1.0
-80.95576666666666 43.29749999999999 2144.8 0.0 0.0 1.0
-81.7204 45.0179 2144.8 0.0 0.0 1.0
-79.99996666666667 65.0896 2144.8 0.0 0.0 1.0
-80.57343333333334 81.91156666666666 2144.8 0.0 0.0 1.0
-80.57343333333334 81.91156666666666 2144.8 0.0 0.0 1.0
-80.95576666666666 89.7491 2144.8 0.0 0.0 1.0
-80.95576666666666 90.32260000000001 2144.8 0.0 0.0 1.0
-81.91156666666667 99.49813333333333 2144.8 0.0 0.0 1.0
-81.14286666666665 100.2856 2137.14 0.0 0.0 1.0
-81.49333333333333 -118.29333333333334 2393.6 0.0 0.0 1.0
-82.13333333333334 -100.37333333333333 2393.6 0.0 0.0 1.0
-82.13333333333334 -100.37333333333333 2393.6 0.0 0.0 1.0
-81.8551 -97.04346666666667 2601.74 0.0 0.0 1.0
-82.30066666666666 -83.55556666666666 2346.67 0.0 0.0 1.0
-81.2549 -80.00003333333335 2346.67 0.0 0.0 1.0
-82.72966666666666 -76.32543333333332 2355.91 0.0 0.0 1.0
-81.6798 -75.48553333333332 2355.91 0.0 0.0 1.0
-82.08696666666667 -77.33333333333333 2601.74 0.0 0.0 1.0
-86.82666666666667 -66.66666666666667 2393.6 0.0 0.0 1.0
-81.6232 -72.69566666666667 2601.74 0.0 0.0 1.0
-82.5 -63.020833333333336 2337.5 0.0 0.0 1.0
-82.55073333333333 -65.971 2601.74 0.0 0.0 1.0
-81.66666666666667 -58.4375 2337.5 0.0 0.0 1.0
-81.875 -44.479166666666664 2337.5 0.0 0.0 1.0
-82.5 -37.8125 2337.5 0.0 0.0 1.0
-81.66666666666667 -37.1875 2337.5 0.0 0.0 1.0
-82.08333333333333 -34.270833333333336 2337.5 0.0 0.0 1.0
-81.875 -27.1875 2337.5 0.0 0.0 1.0
-81.0376 -24.3839 2328.4 0.0 0.0 1.0
-81.86046666666665 -21.602033333333328 2319.38 0.0 0.0 1.0
-81.86046666666665 -16.84756666666667 2319.38 0.0 0.0 1.0
-81.86046666666665 -15.193800000000001 2319.38 0.0 0.0 1.0
-82.05919999999999 -7.31017 2310.42 0.0 0.0 1.0
-81.0296 8.33977 2310.42 0.0 0.0 1.0
-83.0888 15.752900000000002 2310.42 0.0 0.0 1.0
-82.8718 17.538466666666668 2301.54 0.0 0.0 1.0
-80.41026666666667 20.820533333333334 2301.54 0.0 0.0 1.0
-81.64103333333334 26.974333333333334 2301.54 0.0 0.0 1.0
-80.61303333333333 30.753533333333337 2292.72 0.0 0.0 1.0
-83.24640000000001 41.62323333333333 2601.74 0.0 0.0 1.0
-82.68583333333333 43.64509999999999 2152.52 0.0 0.0 1.0
-80.38366666666667 46.90646666666667 2152.52 0.0 0.0 1.0
-82.2939 48.267599999999995 2144.8 0.0 0.0 1.0
-82.10273333333333 51.708499999999994 2144.8 0.0 0.0 1.0
-82.10273333333333 52.855466666666665 2144.8 0.0 0.0 1.0
-81.52926666666666 57.82556666666667 2144.8 0.0 0.0 1.0
-81.14693333333334 90.89606666666667 2144.8 0.0 0.0 1.0
-81.91156666666667 99.49813333333333 2144.8 0.0 0.0 1.0
-81.7143 100.2856 2137.14 0.0 0.0 1.0
-83.21286666666667 -117.48333333333335 2403.21 0.0 0.0 1.0
-83.21286666666667 -117.48333333333335 2403.21 0.0 0.0 1.0
-82.78450000000001 -115.98366666666668 2403.21 0.0 0.0 1.0
-81.49333333333334 -105.70666666666666 2393.6 0.0 0.0 1.0
-82.13333333333334 -100.37333333333333 2393.6 0.0 0.0 1.0
-82.77333333333333 -99.30666666666666 2393.6 0.0 0.0 1.0
-82.31883333333333 -96.11593333333333 2601.74 0.0 0.0 1.0
-82.31883333333333 -96.11593333333333 2601.74 0.0 0.0 1.0
-82.30066666666666 -83.55556666666666 2346.67 0.0 0.0 1.0
-82.30066666666666 -83.55556666666666 2346.67 0.0 0.0 1.0
-82.08696666666667 -77.33333333333333 2601.74 0.0 0.0 1.0
-82.5 -63.020833333333336 2337.5 0.0 0.0 1.0
-82.30066666666666 -61.5948 2346.67 0.0 0.0 1.0
-81.66666666666667 -58.4375 2337.5 0.0 0.0 1.0
-82.70833333333333 -47.395833333333336 2337.5 0.0 0.0 1.0
-82.91666666666667 -46.770833333333336 2337.5 0.0 0.0 1.0
-82.91666666666667 -29.0625 2337.5 0.0 0.0 1.0
-82.70833333333333 -27.604166666666668 2337.5 0.0 0.0 1.0
-81.86046666666665 -21.602033333333328 2319.38 0.0 0.0 1.0
-82.48063333333333 -16.640833333333333 2319.38 0.0 0.0 1.0
-82.4806 -13.540033333333334 2319.38 0.0 0.0 1.0
-83.30746666666667 -11.266133333333334 2319.38 0.0 0.0 1.0
-83.92763333333333 -3.2041333333333335 2319.38 0.0 0.0 1.0
-83.6923 1.1282050000000001 2301.54 0.0 0.0 1.0
-82.46153333333332 25.333333333333332 2301.54 0.0 0.0 1.0
-82.66666666666667 27.179466666666666 2301.54 0.0 0.0 1.0
-83.71016666666667 37.913 2601.74 0.0 0.0 1.0
-83.47826666666667 44.637699999999995 2601.74 0.0 0.0 1.0
-82.7826 45.797133333333335 2601.74 0.0 0.0 1.0
-83.94203333333333 47.6522 2601.74 0.0 0.0 1.0
-85.2132 37.09589999999999 2162.9199999999996 0.8085169532744075 -0.5880111770232516 -0.023306479004770297
-82.2939 49.605733333333326 2144.8 0.0 0.0 1.0
-82.48506666666667 58.01673333333334 2144.8 0.0 0.0 1.0
-82.2939 60.69296666666667 2144.8 0.0 0.0 1.0
-83.2497 71.20673333333333 2144.8 0.0 0.0 1.0
-80.19183333333334 85.27573333333333 2152.52 0.0 0.0 1.0
-82.86736666666667 86.88170000000001 2144.8 0.0 0.0 1.0
-82.67623333333333 88.411 2144.8 0.0 0.0 1.0
-82.10276666666667 93.18996666666665 2144.8 0.0 0.0 1.0
-82.67623333333333 101.40966666666667 2144.8 0.0 0.0 1.0
-81.90473333333334 102.57099999999998 2137.14 0.0 0.0 1.0
-78.14493333333333 129.739 2601.74 0.0 0.0 1.0
-82.78450000000001 -115.98366666666668 2403.21 0.0 0.0 1.0
-84.06963333333334 -104.846 2403.21 0.0 0.0 1.0
-82.98666666666668 -101.01333333333334 2393.6 0.0 0.0 1.0
-83.2 -98.66666666666667 2393.6 0.0 0.0 1.0
-84.17393333333332 -101.68133333333333 2601.74 0.0 0.0 1.0
-83.13726666666666 -84.39216666666667 2346.67 0.0 0.0 1.0
-83.76473333333333 -77.49016666666667 2346.67 0.0 0.0 1.0
-82.71896666666667 -71.8431 2346.67 0.0 0.0 1.0
-83.24640000000001 -74.55076666666668 2601.74 0.0 0.0 1.0
-83.125 -63.020833333333336 2337.5 0.0 0.0 1.0
-82.30066666666666 -61.5948 2346.67 0.0 0.0 1.0
-87.68 -64.10666666666667 2393.6 0.0 0.0 1.0
-83.33333333333333 -47.8125 2337.5 0.0 0.0 1.0
-82.91666666666667 -45.520833333333336 2337.5 0.0 0.0 1.0
-82.70833333333333 -44.6875 2337.5 0.0 0.0 1.0
-82.08333333333333 -34.270833333333336 2337.5 0.0 0.0 1.0
-83.54166666666667 -30.729166666666668 2337.5 0.0 0.0 1.0
-88.8116 -27.246399999999998 2601.74 0.0 0.0 1.0
-83.32033333333334 -23.761333333333337 2328.4 0.0 0.0 1.0
-83.5142 -20.981866666666665 2319.38 0.0 0.0 1.0
-82.48063333333333 -16.640833333333333 2319.38 0.0 0.0 1.0
-83.50066666666667 -8.33977 2310.42 0.0 0.0 1.0
-82.8829 -7.516090000000001 2310.42 0.0 0.0 1.0
-85.33333333333333 -2.358974 2301.54 0.0 0.0 1.0
-81.64736666666666 -5.045046666666667 2310.42 0.0 0.0 1.0
-82.67696666666667 4.22136 2310.42 0.0 0.0 1.0
-83.91246666666666 15.135133333333334 2310.42 0.0 0.0 1.0
-82.8718 17.538466666666668 2301.54 0.0 0.0 1.0
-83.48716666666667 24.71796666666667 2301.54 0.0 0.0 1.0
-84.17393333333334 33.04346666666667 2601.74 0.0 0.0 1.0
-83.71016666666667 37.913 2601.74 0.0 0.0 1.0
-83.632 46.54716666666667 2144.8 0.0 0.0 1.0
-82.2939 50.56153333333333 2144.8 0.0 0.0 1.0
-83.24973333333334 54.19356666666667 2144.8 0.0 0.0 1.0
-83.24973333333334 65.6631 2144.8 0.0 0.0 1.0
-83.05856666666666 66.6189 2144.8 0.0 0.0 1.0
-83.44086666666668 79.0442 2144.8 0.0 0.0 1.0
-82.29390000000001 82.2939 2144.8 0.0 0.0 1.0
-83.44086666666666 82.86739999999999 2144.8 0.0 0.0 1.0
-82.67623333333333 88.411 2144.8 0.0 0.0 1.0
-82.8674 88.98446666666666 2144.8 0.0 0.0 1.0
-82.8674 88.98446666666666 2144.8 0.0 0.0 1.0
-82.67623333333334 101.40966666666668 2144.8 0.0 0.0 1.0
-82.67623333333333 101.40966666666667 2144.8 0.0 0.0 1.0
-83.0476 102.38066666666667 2137.14 0.0 0.0 1.0
-83.23810000000002 104.85733333333333 2137.14 0.0 0.0 1.0
-84.48 -108.26666666666667 2393.6 0.0 0.0 1.0
-84.06963333333334 -104.846 2403.21 0.0 0.0 1.0
-83.83999999999999 -102.29333333333334 2393.6 0.0 0.0 1.0
-83.62666666666667 -100.8 2393.6 0.0 0.0 1.0
-83.41333333333334 -100.37333333333333 2393.6 0.0 0.0 1.0
-83.62666666666667 -98.24 2393.6 0.0 0.0 1.0
-83.62666666666667 -98.24 2393.6 0.0 0.0 1.0
-84.17393333333332 -101.68133333333333 2601.74 0.0 0.0 1.0
-83.97386666666667 -84.39216666666667 2346.67 0.0 0.0 1.0
-83.76473333333333 -77.07186666666666 2346.67 0.0 0.0 1.0
-83.95833333333333 -62.8125 2337.5 0.0 0.0 1.0
-84.4058 -67.5942 2601.74 0.0 0.0 1.0
-84.63766666666668 -62.72463333333334 2601.74 0.0 0.0 1.0
-84.63766666666668 -62.72463333333334 2601.74 0.0 0.0 1.0
-84.39216666666667 -51.76473333333333 2346.67 0.0 0.0 1.0
-84.60133333333333 -49.88236666666666 2346.67 0.0 0.0 1.0
-83.54166666666667 -46.979166666666664 2337.5 0.0 0.0 1.0
-83.95833333333333 -38.645833333333336 2337.5 0.0 0.0 1.0
-83.95833333333333 -38.645833333333336 2337.5 0.0 0.0 1.0
-83.75 -29.270833333333332 2337.5 0.0 0.0 1.0
-83.54166666666667 -27.8125 2337.5 0.0 0.0 1.0
-84.13433333333334 -12.919866666666666 2319.38 0.0 0.0 1.0
-83.7209 -12.093000000000002 2319.38 0.0 0.0 1.0
-83.30746666666666 -11.266133333333334 2319.38 0.0 0.0 1.0
-83.50066666666667 -8.33977 2310.42 0.0 0.0 1.0
-83.50066666666667 -7.72201 2310.42 0.0 0.0 1.0
-82.47106666666666 1.95624 2310.42 0.0 0.0 1.0
-83.6923 1.1282050000000001 2301.54 0.0 0.0 1.0
-84.1184 4.4272800000000005 2310.42 0.0 0.0 1.0
-84.32433333333331 7.927930000000001 2310.42 0.0 0.0 1.0
-83.08883333333334 9.781206666666668 2310.42 0.0 0.0 1.0
-83.7066 11.222663333333335 2310.42 0.0 0.0 1.0
-84.1184 13.899633333333334 2310.42 0.0 0.0 1.0
-83.6923 18.35896666666667 2301.54 0.0 0.0 1.0
-85.10856666666668 21.762466666666665 2292.72 0.0 0.0 1.0
-82.66666666666667 27.179466666666666 2301.54 0.0 0.0 1.0
-84.17393333333332 33.04346666666667 2601.74 0.0 0.0 1.0
-83.63203333333333 42.53286666666666 2144.8 0.0 0.0 1.0
-83.63203333333333 42.53286666666667 2144.8 0.0 0.0 1.0
-83.24973333333334 54.19356666666667 2144.8 0.0 0.0 1.0
-83.24973333333334 54.19356666666667 2144.8 0.0 0.0 1.0
-83.82316666666667 57.82556666666667 2144.8 0.0 0.0 1.0
-83.24973333333334 65.6631 2144.8 0.0 0.0 1.0
-83.24973333333334 65.6631 2144.8 0.0 0.0 1.0
-83.2497 71.20673333333333 2144.8 0.0 0.0 1.0
-83.8232 72.92713333333334 2144.8 0.0 0.0 1.0
-83.63203333333333 78.47073333333334 2144.8 0.0 0.0 1.0
-83.63203333333333 78.47073333333334 2144.8 0.0 0.0 1.0
-84.01433333333334 93.76343333333334 2144.8 0.0 0.0 1.0
-83.2381 104.85733333333333 2137.14 0.0 0.0 1.0
