ply
format ascii 1.0
comment VCGLIB generated
element vertex 782
property float x
property float y
property float z
property float nx
property float ny
property float nz
element face 0
property list uchar int vertex_indices
end_header
-1.3613600000000001 -45.725699999999996 1797.0 0.0 0.0 1.0
-2.3084566666666664 -23.801 1786.2699999999998 1.475481740503798e-27 1.6231275391349955e-27 1.0
-1.9900499999999999 -23.005 1786.2699999999998 -2.827364868555582e-17 2.827440982186795e-17 1.0
-2.467663333333333 -20.4577 1786.2699999999998 3.5411512343320985e-27 2.2133400071895495e-27 1.0
-1.42857 -14.682566666666666 1780.95 0.0 0.0 1.0
-2.467663333333333 -14.726366666666665 1786.2699999999998 -1.770464386909193e-27 8.852321981118256e-28 1.0
-1.661723 -3.87735 1775.67 0.0 0.0 1.0
-1.5034619999999999 0.07912966666666667 1775.67 0.0 0.0 1.0
-2.051282 10.335323333333333 1770.41 0.0 0.0 1.0
-3.0498533333333335 36.98926666666667 1754.84 0.0 0.0 1.0
-3.36266 40.899300000000004 1754.84 0.0 0.0 1.0
11.094896666666665 61.41116666666667 2183.94 0.0 0.0 1.0
-5.606063333333334 81.59089999999999 1700.0 0.0 0.0 1.0
-5.909093333333334 84.01516666666667 1700.0 0.0 0.0 1.0
-5.60606 100.22713333333333 1700.0 0.0 0.0 1.0
-6.666666666666667 111.13600000000001 1700.0 0.0 0.0 1.0
2.7760233333333333 -130.64133333333334 1887.7 0.0 0.0 1.0
1.7665626666666665 -119.53766666666667 1887.7 0.0 0.0 1.0
0.6708583333333333 -106.75033333333333 1881.76 0.0 0.0 1.0
1.8448633333333333 -91.48846666666667 1881.76 0.0 0.0 1.0
2.271293333333333 -78.14933333333333 1887.7 0.0 0.0 1.0
-1.7670666666666666 -59.03613333333333 1802.41 0.0 0.0 1.0
-1.7670666666666666 -59.03613333333333 1802.41 0.0 0.0 1.0
-1.68168 -49.2492 1797.0 0.0 0.0 1.0
-2.55489 -41.9162 1791.62 0.0 0.0 1.0
-2.5548900000000003 -41.11776666666667 1791.62 0.0 0.0 1.0
-2.55489 -39.2016 1791.62 0.0 0.0 1.0
-1.916168 -38.722566666666665 1791.62 0.0 0.0 1.0
-2.5548933333333337 -33.772466666666666 1791.62 0.0 0.0 1.0
-2.3084566666666664 -23.801 1786.2699999999998 1.4754817405037978e-27 1.6231275391349955e-27 1.0
-2.467663333333333 -20.4577 1786.2699999999998 3.5411512343320985e-27 2.2133400071895495e-27 1.0
-2.467663333333333 -20.4577 1786.2699999999998 3.5411512343320985e-27 2.2133400071895495e-27 1.0
-2.9452766666666665 -15.5224 1786.2699999999998 -2.6559746416461303e-27 3.5413736700072805e-27 1.0
-2.9452766666666665 -15.5224 1786.2699999999998 -2.6559746416461303e-27 3.5413736700072805e-27 1.0
-2.453017 4.826906666666667 1775.67 0.0 0.0 1.0
-4.102563333333333 16.331366666666668 1770.41 0.0 0.0 1.0
-4.235293333333334 34.90196666666666 1760.0 0.0 0.0 1.0
-5.823753333333333 65.51723333333334 1719.54 0.0 0.0 1.0
-5.909093333333334 84.01516666666667 1700.0 0.0 0.0 1.0
-6.666666666666667 111.13600000000001 1700.0 0.0 0.0 1.0
13.235999999999999 -161.65466666666669 2183.94 0.0 0.0 1.0
1.4300726666666665 -132.997 1887.7 0.0 0.0 1.0
1.2618313333333333 -117.855 1887.7 0.0 0.0 1.0
0.503145 -105.409 1881.76 0.0 0.0 1.0
0.6708599999999999 -103.22833333333334 1881.76 0.0 0.0 1.0
-1.2012003333333334 -55.655633333333334 1797.0 0.0 0.0 1.0
-3.855423333333333 -52.7711 1802.41 0.0 0.0 1.0
-2.64264 -43.96393333333333 1797.0 0.0 0.0 1.0
-2.5548900000000003 -41.9162 1791.62 0.0 0.0 1.0
-2.71457 -40.479033333333334 1791.62 0.0 0.0 1.0
-2.71457 -39.8403 1791.62 0.0 0.0 1.0
-3.6726566666666667 -27.8643 1791.62 0.0 0.0 1.0
-3.3333333333333335 -8.33333 1780.95 0.0 0.0 1.0
-4.352126666666667 7.359053333333333 1775.67 0.0 0.0 1.0
-3.697146666666667 26.037366666666667 1765.1899999999998 -2.9904306006012714e-29 1.5739923713417983e-29 1.0
-4.235293333333334 34.90196666666666 1760.0 0.0 0.0 1.0
-4.770283333333333 40.5865 1754.84 0.0 0.0 1.0
-4.32645 52.7827 1765.1899999999998 -4.76271844089129e-27 -1.5649383028275788e-26 1.0
-3.786983333333333 55.4635 1770.41 0.0 0.0 1.0
-6.704763333333333 68.95236666666666 1709.71 0.0 0.0 1.0
-6.704763333333333 68.95236666666666 1709.71 0.0 0.0 1.0
-6.457743333333333 73.16239999999999 1704.84 0.0 0.0 1.0
-6.363636666666667 74.92423333333333 1700.0 0.0 0.0 1.0
13.235999999999999 97.42093333333332 2183.94 0.0 0.0 1.0
-7.1212100000000005 100.07563333333333 1700.0 0.0 0.0 1.0
-10.869566666666666 109.348 1626.09 0.0 0.0 1.0
15.571766666666667 161.07066666666665 2183.94 0.0 0.0 1.0
1.4300726666666668 -132.99699999999999 1887.7 0.0 0.0 1.0
1.2618293333333332 -119.36933333333333 1887.7 0.0 0.0 1.0
0.503145 -105.409 1881.76 0.0 0.0 1.0
0.33542999999999995 -103.56366666666668 1881.76 0.0 0.0 1.0
0.33542999999999995 -102.72533333333332 1881.76 0.0 0.0 1.0
1.7665593333333334 -96.82440000000001 1887.7 0.0 0.0 1.0
1.6771483333333332 -87.29556666666667 1881.76 0.0 0.0 1.0
-0.42061 -82.52363333333334 1887.7 0.0 0.0 1.0
0.08412200000000003 -74.27973333333334 1887.7 0.0 0.0 1.0
-4.33735 -55.3414 1802.41 0.0 0.0 1.0
-3.2128533333333333 -45.702799999999996 1802.41 0.0 0.0 1.0
-3.2128533333333333 -45.381499999999996 1802.41 0.0 0.0 1.0
-3.2636833333333333 -21.0945 1786.2699999999998 0.0 0.0 1.0
-3.2636833333333333 -21.0945 1786.2699999999998 0.0 0.0 1.0
-3.422886666666667 -15.999999999999998 1786.2699999999998 -3.4527614731704704e-26 5.356319334257115e-26 1.0
-4.985166666666667 10.999 1775.67 0.0 0.0 1.0
-4.5759333333333325 15.069033333333332 1770.41 0.0 0.0 1.0
-4.102563333333333 16.331366666666668 1770.41 0.0 0.0 1.0
-5.019606666666667 33.80393333333333 1760.0 0.0 0.0 1.0
-7.9238100000000005 73.6762 1709.71 0.0 0.0 1.0
-6.363636666666667 74.92423333333333 1700.0 0.0 0.0 1.0
-7.825263333333333 87.14150000000001 1704.84 0.0 0.0 1.0
-7.369423333333334 88.50900000000001 1704.84 0.0 0.0 1.0
-8.030303333333334 98.40910000000001 1700.0 0.0 0.0 1.0
-0.33542999999999995 -108.93066666666665 1881.76 0.0 0.0 1.0
0.16771499999999998 -106.07966666666668 1881.76 0.0 0.0 1.0
0.503145 -105.409 1881.76 0.0 0.0 1.0
0.252366 -72.93376666666666 1887.7 0.0 0.0 1.0
-3.28328 -49.7297 1797.0 0.0 0.0 1.0
-3.76376 -42.5225 1797.0 0.0 0.0 1.0
-2.8742533333333333 -38.4032 1791.62 0.0 0.0 1.0
-3.512976666666667 -33.772466666666666 1791.62 0.0 0.0 1.0
-4.4710600000000005 -30.259500000000003 1791.62 0.0 0.0 1.0
-3.6726566666666667 -27.8643 1791.62 0.0 0.0 1.0
-4.218906666666666 -16.318399999999997 1786.2699999999998 -6.63984392250319e-27 2.3904156418047645e-26 1.0
-4.352126666666667 7.359053333333333 1775.67 0.0 0.0 1.0
-4.985163333333333 9.099896666666666 1775.67 0.0 0.0 1.0
-4.891516666666667 16.646933333333333 1770.41 0.0 0.0 1.0
-5.36489 18.54043333333333 1770.41 0.0 0.0 1.0
-5.270403333333333 24.621466666666667 1765.1899999999998 1.813106031805675e-27 -9.065146026394495e-28 1.0
-4.392156666666667 28.941166666666664 1760.0 0.0 0.0 1.0
-4.392156666666667 29.568633333333334 1760.0 0.0 0.0 1.0
12.068133333333334 79.1241 2183.94 0.0 0.0 1.0
-6.704763333333333 68.95236666666666 1709.71 0.0 0.0 1.0
-7.369423333333334 72.2507 1704.84 0.0 0.0 1.0
-6.42115 102.66266666666667 1695.18 0.0 0.0 1.0
-7.424243333333333 111.13600000000001 1700.0 0.0 0.0 1.0
-8.0303 112.04533333333332 1700.0 0.0 0.0 1.0
-10.869566666666666 109.348 1626.09 0.0 0.0 1.0
-4.696516666666667 129.83066666666664 1786.2699999999998 -3.1485030006053176e-27 -2.2044466301049612e-26 1.0
-1.174005 -126.70866666666666 1881.76 0.0 0.0 1.0
-1.1740016666666666 -124.69566666666667 1881.76 0.0 0.0 1.0
-1.0062883333333332 -121.17366666666668 1881.76 0.0 0.0 1.0
1.2618313333333333 -117.855 1887.7 0.0 0.0 1.0
-0.6708599999999999 -102.89299999999999 1881.76 0.0 0.0 1.0
-0.6708599999999999 -102.89300000000001 1881.76 0.0 0.0 1.0
-0.7570973333333333 -76.63513333333333 1887.7 0.0 0.0 1.0
0.08412200000000003 -74.27973333333333 1887.7 0.0 0.0 1.0
0.08412200000000003 -74.27973333333333 1887.7 0.0 0.0 1.0
-3.3734933333333337 -60.803200000000004 1802.41 0.0 0.0 1.0
-3.28328 -49.7297 1797.0 0.0 0.0 1.0
-3.534136666666667 -45.702799999999996 1802.41 0.0 0.0 1.0
-3.534136666666667 -45.381499999999996 1802.41 0.0 0.0 1.0
-4.63074 -33.2934 1791.62 0.0 0.0 1.0
-3.6726566666666667 -27.8643 1791.62 0.0 0.0 1.0
-3.9004966666666667 -20.9353 1786.2699999999998 -2.157971286590283e-27 -1.9920180551408046e-27 1.0
-4.668643333333333 8.150346666666666 1775.67 0.0 0.0 1.0
-4.733726666666667 16.015766666666668 1770.41 0.0 0.0 1.0
-5.270403333333333 24.621466666666667 1765.1899999999998 1.813106031805675e-27 -9.065146026394495e-28 1.0
-5.270403333333333 24.621466666666667 1765.1899999999998 1.813106031805675e-27 -9.065146026394495e-28 1.0
-6.334309999999999 43.2454 1754.84 0.0 0.0 1.0
-5.552296666666667 46.68620000000001 1754.84 0.0 0.0 1.0
11.678836666666667 78.3455 2183.94 0.0 0.0 1.0
-7.35632 65.6705 1719.54 0.0 0.0 1.0
-8.584993333333333 71.64293333333332 1704.84 0.0 0.0 1.0
-7.9238100000000005 73.6762 1709.71 0.0 0.0 1.0
-6.6096900000000005 74.68186666666666 1704.84 0.0 0.0 1.0
-8.43305 85.62203333333333 1704.84 0.0 0.0 1.0
-7.825263333333333 87.14150000000001 1704.84 0.0 0.0 1.0
-8.030303333333334 98.40910000000001 1700.0 0.0 0.0 1.0
-8.78788 105.83366666666666 1700.0 0.0 0.0 1.0
-8.939393333333333 109.31833333333334 1700.0 0.0 0.0 1.0
-8.181816666666666 111.59066666666666 1700.0 0.0 0.0 1.0
-4.696516666666667 129.83066666666664 1786.2699999999998 -3.148503000605318e-27 -2.2044466301049612e-26 1.0
10.51094 -151.922 2183.94 0.0 0.0 1.0
-1.3417166666666667 -125.03133333333334 1881.76 0.0 0.0 1.0
-1.0062883333333332 -121.17366666666668 1881.76 0.0 0.0 1.0
-0.503145 -104.57033333333334 1881.76 0.0 0.0 1.0
-0.6708599999999999 -102.89300000000001 1881.76 0.0 0.0 1.0
-1.7665626666666665 -88.9169 1887.7 0.0 0.0 1.0
-1.5983159999999998 -87.57093333333334 1887.7 0.0 0.0 1.0
-0.925342 -81.34593333333333 1887.7 0.0 0.0 1.0
-0.925342 -81.34593333333333 1887.7 0.0 0.0 1.0
10.51094 -77.76153333333333 2183.94 0.0 0.0 1.0
-5.14056 -53.73493333333334 1802.41 0.0 0.0 1.0
-4.4710600000000005 -30.259500000000003 1791.62 0.0 0.0 1.0
-4.4710600000000005 -30.259500000000003 1791.62 0.0 0.0 1.0
-6.067866666666667 -21.477066666666662 1791.62 0.0 0.0 1.0
-4.218906666666666 -16.3184 1786.2699999999998 3.9838878173250265e-27 -1.328004467650235e-26 1.0
-5.333336666666667 -15.0448 1786.2699999999998 -9.129791184450766e-28 -3.8733426947833667e-28 1.0
-4.7619066666666665 -7.53968 1780.95 0.0 0.0 1.0
-5.55556 -0.5555566666666666 1780.95 0.0 0.0 1.0
-4.985163333333333 9.099896666666666 1775.67 0.0 0.0 1.0
-5.838263333333333 17.4359 1770.41 0.0 0.0 1.0
-5.838263333333333 17.4359 1770.41 0.0 0.0 1.0
-5.960783333333333 32.862766666666666 1760.0 0.0 0.0 1.0
-5.865103333333334 41.36853333333334 1754.84 0.0 0.0 1.0
-6.334309999999999 43.2454 1754.84 0.0 0.0 1.0
-8.78701 67.92743333333334 1714.61 0.0 0.0 1.0
-9.34472 80.15193333333333 1704.84 0.0 0.0 1.0
-8.584996666666667 86.0779 1704.84 0.0 0.0 1.0
-9.090906666666667 99.3182 1700.0 0.0 0.0 1.0
-8.484846666666666 112.65166666666666 1700.0 0.0 0.0 1.0
-10.869566666666666 109.348 1626.09 0.0 0.0 1.0
-1.8448633333333333 -136.93933333333334 1881.76 0.0 0.0 1.0
10.316306666666668 -149.78099999999998 2183.94 0.0 0.0 1.0
10.316306666666668 -149.78099999999998 2183.94 0.0 0.0 1.0
-1.3417166666666667 -125.03133333333335 1881.76 0.0 0.0 1.0
-1.1740016666666666 -124.69566666666668 1881.76 0.0 0.0 1.0
-1.6771466666666666 -122.85133333333334 1881.76 0.0 0.0 1.0
-1.6771466666666666 -122.85133333333334 1881.76 0.0 0.0 1.0
-1.3417166666666667 -121.677 1881.76 0.0 0.0 1.0
-2.18029 -116.31033333333333 1881.76 0.0 0.0 1.0
-1.3417166666666667 -111.61433333333333 1881.76 0.0 0.0 1.0
-0.925342 -81.34593333333333 1887.7 0.0 0.0 1.0
10.51094 -77.76153333333333 2183.94 0.0 0.0 1.0
-3.5341366666666665 -60.64253333333334 1802.41 0.0 0.0 1.0
-5.3012033333333335 -51.8072 1802.41 0.0 0.0 1.0
-4.658633333333333 -46.666666666666664 1802.41 0.0 0.0 1.0
-4.884883333333334 -40.920899999999996 1797.0 0.0 0.0 1.0
-6.5079400000000005 -5.47619 1780.95 0.0 0.0 1.0
-5.55556 -0.5555566666666666 1780.95 0.0 0.0 1.0
-6.5079400000000005 0.39682666666666666 1780.95 0.0 0.0 1.0
-6.03175 4.841270000000001 1780.95 0.0 0.0 1.0
-6.03175 4.84127 1780.95 0.0 0.0 1.0
-5.838263333333333 17.4359 1770.41 0.0 0.0 1.0
-7.2156866666666675 36.78433333333333 1760.0 0.0 0.0 1.0
-6.80352 43.4018 1754.84 0.0 0.0 1.0
-7.100593333333333 54.990133333333326 1770.41 0.0 0.0 1.0
-7.47296 58.13173333333334 1765.1899999999998 3.222061187887317e-29 8.380814835769966e-28 1.0
11.289536666666669 79.31873333333333 2183.94 0.0 0.0 1.0
-7.466666666666666 68.34283333333333 1709.71 0.0 0.0 1.0
-9.34473 85.3181 1704.84 0.0 0.0 1.0
-9.090906666666667 99.3182 1700.0 0.0 0.0 1.0
-8.939393333333333 109.31833333333334 1700.0 0.0 0.0 1.0
-8.484846666666666 112.65166666666666 1700.0 0.0 0.0 1.0
-10.598559999999999 114.62833333333333 1711.3433333333332 -0.9434211054042562 0.314313256035183 0.10565886123923886
-5.97015 129.83100000000002 1786.2699999999998 -1.7196680406409193e-25 3.434870008703363e-25 1.0
11.484169999999999 -161.46 2183.94 0.0 0.0 1.0
-1.8448633333333333 -136.93933333333334 1881.76 0.0 0.0 1.0
-1.8448633333333333 -136.93933333333334 1881.76 0.0 0.0 1.0
-1.8448633333333333 -135.7653333333333 1881.76 0.0 0.0 1.0
-1.5094333333333332 -125.70233333333333 1881.76 0.0 0.0 1.0
-1.6771466666666666 -122.85133333333334 1881.76 0.0 0.0 1.0
-1.2618306666666665 -97.83386666666667 1887.7 0.0 0.0 1.0
-2.4395399999999996 -88.07569999999998 1887.7 0.0 0.0 1.0
-0.9253413333333333 -78.31756666666666 1887.7 0.0 0.0 1.0
-2.1940933333333335 -73.5021 1893.67 0.0 0.0 1.0
-0.9285380000000001 -71.2332 1891.68 0.9586901306764267 3.684540504895492e-17 0.28445251509455044
-6.203423333333333 -62.1148 1807.8499999999997 -1.613297328916648e-26 -1.997343543833108e-26 1.0
-5.14056 -53.73493333333334 1802.41 0.0 0.0 1.0
-5.783133333333333 -50.52206666666666 1802.41 0.0 0.0 1.0
-5.3012033333333335 -47.14860000000001 1802.41 0.0 0.0 1.0
-5.588823333333333 -32.17563333333333 1791.62 0.0 0.0 1.0
-5.748503333333333 -26.267466666666667 1791.62 0.0 0.0 1.0
6.812636666666666 -19.562033333333332 2183.94 0.0 0.0 1.0
-5.014926666666667 -16.9552 1786.2699999999998 3.5412377345504356e-27 -4.721782128824708e-27 1.0
-6.129356666666666 -14.408000000000001 1786.2699999999998 2.124776747454075e-28 -5.41830379124616e-27 1.0
-7.08458 -7.721393333333334 1786.2699999999998 1.3661888936071814e-28 -2.2405655295739326e-28 1.0
11.289520000000001 0.875912 2183.94 0.0 0.0 1.0
-6.19048 5.7936499999999995 1780.95 0.0 0.0 1.0
-7.517313333333334 10.207713333333333 1775.67 0.0 0.0 1.0
-6.1176466666666665 31.764700000000005 1760.0 0.0 0.0 1.0
-7.686273333333332 39.451 1760.0 0.0 0.0 1.0
-7.429130000000001 43.7146 1754.84 0.0 0.0 1.0
-5.899706666666667 52.62536666666667 1765.1899999999998 -3.782159588088105e-29 2.7197186717929772e-27 1.0
-7.787613333333333 53.09733333333333 1765.1899999999998 1.32209516405522e-28 1.133231286223853e-28 1.0
-9.092646666666667 68.5387 1714.61 0.0 0.0 1.0
-9.092646666666667 68.5387 1714.61 0.0 0.0 1.0
11.289533333333333 91.77613333333333 2183.94 0.0 0.0 1.0
-9.44763 74.13333333333334 1709.71 0.0 0.0 1.0
10.510933333333334 100.34076666666665 2183.94 0.0 0.0 1.0
-9.496676666666668 85.77396666666668 1704.84 0.0 0.0 1.0
-9.040836666666666 86.22983333333333 1704.84 0.0 0.0 1.0
-9.242423333333335 96.13636666666666 1700.0 0.0 0.0 1.0
-9.545453333333333 99.16666666666667 1700.0 0.0 0.0 1.0
-9.393936666666667 99.7728 1700.0 0.0 0.0 1.0
-8.939393333333333 110.07566666666666 1700.0 0.0 0.0 1.0
-5.970149999999999 129.831 1786.2699999999998 8.863932106399714e-26 -1.7573247367054611e-25 1.0
11.484169999999999 -161.46 2183.94 0.0 0.0 1.0
-4.096133333333333 -128.31766666666667 1875.86 0.0 0.0 1.0
-3.0188666666666664 -116.981 1881.76 0.0 0.0 1.0
-2.18029 -116.31033333333333 1881.76 0.0 0.0 1.0
-3.0188666666666664 -112.11766666666666 1881.76 0.0 0.0 1.0
-3.52201 -109.43400000000001 1881.76 0.0 0.0 1.0
-2.4395366666666667 -105.23666666666668 1887.7 0.0 0.0 1.0
-2.4395366666666667 -105.23666666666666 1887.7 0.0 0.0 1.0
-1.430074 -96.48793333333333 1887.7 0.0 0.0 1.0
-1.77778 -91.68253333333332 1899.68 0.0 0.0 1.0
-1.77778 -91.68253333333332 1899.68 0.0 0.0 1.0
-1.77778 -91.68253333333332 1899.68 0.0 0.0 1.0
-2.242993333333333 -87.9751 1864.17 0.0 0.0 1.0
-2.6077833333333333 -87.57096666666666 1887.7 0.0 0.0 1.0
-6.203423333333333 -59.536766666666665 1807.8499999999997 0.0 0.0 1.0
-6.265060000000001 -55.341366666666666 1802.41 0.0 0.0 1.0
-5.78313 -53.89556666666667 1802.41 0.0 0.0 1.0
-5.78313 -47.79116666666667 1802.41 0.0 0.0 1.0
-5.461846666666666 -46.506033333333335 1802.41 0.0 0.0 1.0
-6.166166666666666 -39.959966666666666 1797.0 0.0 0.0 1.0
-5.748503333333333 -36.48703333333333 1791.62 0.0 0.0 1.0
-6.5079400000000005 -5.47619 1780.95 0.0 0.0 1.0
-6.03175 4.84127 1780.95 0.0 0.0 1.0
-6.05703 24.778766666666666 1765.1899999999998 0.0 0.0 1.0
-7.944933333333332 27.13863333333333 1765.1899999999998 -1.22384416885052e-28 -3.354187095632526e-28 1.0
-7.2156866666666675 36.78433333333333 1760.0 0.0 0.0 1.0
-7.215686666666667 36.78433333333333 1760.0 0.0 0.0 1.0
-7.272726666666666 46.0606 1754.84 0.0 0.0 1.0
7.785889999999999 57.518233333333335 2183.94 0.0 0.0 1.0
-7.100593333333333 54.990133333333326 1770.41 0.0 0.0 1.0
-7.630283333333334 61.27823333333333 1765.1899999999998 -2.7308521141867745e-27 -2.2385184391567457e-29 1.0
11.094903333333335 78.54016666666666 2183.94 0.0 0.0 1.0
-7.522383333333333 63.49223333333333 1722.8466666666666 -0.18036033806117654 0.901791911497707 0.39273591230210914
-9.348673333333332 65.977 1719.54 0.0 0.0 1.0
-8.78701 67.92743333333334 1714.61 0.0 0.0 1.0
-10.651566666666666 81.20870000000001 1695.18 0.0 0.0 1.0
-9.34473 85.3181 1704.84 0.0 0.0 1.0
-10.757566666666667 93.86363333333334 1700.0 0.0 0.0 1.0
-10.45455 95.5303 1700.0 0.0 0.0 1.0
-9.545453333333334 99.16666666666667 1700.0 0.0 0.0 1.0
-9.999983333333333 102.19733333333333 1700.0 0.0 0.0 1.0
-9.175946666666666 113.21433333333334 1701.6133333333335 0.7054052410604418 0.7047075875253339 -0.07609639918342839
-6.847933333333333 127.04933333333334 1807.8499999999997 9.15994657595405e-28 -1.0212425363614532e-27 1.0
-6.2885566666666675 129.51266666666666 1786.2699999999998 -5.3118380639022974e-27 2.6537520687241925e-27 1.0
-6.288556666666666 129.51266666666666 1786.2699999999998 5.3118380639022974e-27 -2.6537520687241925e-27 1.0
-2.4395366666666667 -105.23666666666668 1887.7 0.0 0.0 1.0
-2.851153333333333 -102.38999999999999 1881.76 0.0 0.0 1.0
-2.2712933333333334 -97.32913333333333 1887.7 0.0 0.0 1.0
-2.43954 -88.0757 1887.7 0.0 0.0 1.0
-2.6077833333333333 -87.57096666666666 1887.7 0.0 0.0 1.0
-2.4395393333333333 -80.0 1887.7 0.0 0.0 1.0
-5.88117 -58.89223333333334 1807.8499999999997 -6.913947508737808e-26 -2.765521792510365e-26 1.0
-5.88117 -58.89223333333334 1807.8499999999997 -6.913947508737783e-26 -2.765521792510357e-26 1.0
-6.68681 -57.11983333333334 1807.8499999999997 -5.19906988256214e-28 -1.7556379412425116e-27 1.0
-6.586346666666667 -54.859433333333335 1802.41 0.0 0.0 1.0
-5.78313 -47.79116666666667 1802.41 0.0 0.0 1.0
-6.866266666666667 -31.856266666666667 1791.62 0.0 0.0 1.0
-6.86627 -21.31736666666667 1791.62 0.0 0.0 1.0
-6.86627 -21.31736666666667 1791.62 0.0 0.0 1.0
-7.3453100000000004 -19.720566666666667 1791.62 0.0 0.0 1.0
-7.30159 -5.47619 1780.95 0.0 0.0 1.0
-7.258383333333334 17.9093 1770.41 0.0 0.0 1.0
-8.731563333333334 34.847566666666665 1765.1899999999998 -4.532765079514194e-28 -6.799531792601482e-28 1.0
-7.898336666666666 43.871 1754.84 0.0 0.0 1.0
-7.898336666666666 43.871 1754.84 0.0 0.0 1.0
-8.416913333333333 58.6037 1765.1899999999998 2.0145480290707954e-28 1.3850399190728137e-27 1.0
-9.046216666666668 63.48083333333333 1765.1899999999998 -1.6151787652120758e-27 -8.86885574515114e-27 1.0
-8.584993333333333 71.64293333333332 1704.84 0.0 0.0 1.0
-10.651566666666666 81.20870000000001 1695.18 0.0 0.0 1.0
-9.999983333333333 102.19733333333333 1700.0 0.0 0.0 1.0
-11.320033333333333 106.13499999999999 1704.84 0.0 0.0 1.0
-7.0719899999999996 117.35533333333332 1669.9566666666667 -0.6772137676278884 0.7255830872303995 0.1221093627059068
8.175183333333333 149.97566666666668 2183.94 0.0 0.0 1.0
10.316306666666668 -149.781 2183.94 0.0 0.0 1.0
-3.52201 -108.59566666666667 1881.76 0.0 0.0 1.0
9.537713333333334 -77.1776 2183.94 0.0 0.0 1.0
9.537713333333334 -77.1776 2183.94 0.0 0.0 1.0
-6.847933333333333 -61.14803333333333 1807.8499999999997 5.762044088419167e-27 2.1128268511657353e-27 1.0
-6.907633333333333 -54.859433333333335 1802.41 0.0 0.0 1.0
-6.907633333333333 -54.859433333333335 1802.41 0.0 0.0 1.0
-7.871486666666667 -43.45383333333333 1802.41 0.0 0.0 1.0
-7.025946666666667 -32.814366666666665 1791.62 0.0 0.0 1.0
-7.664670000000001 -27.864266666666666 1791.62 0.0 0.0 1.0
-6.866266666666667 -25.1497 1791.62 0.0 0.0 1.0
-6.86627 -21.317366666666665 1791.62 0.0 0.0 1.0
-7.243783333333333 -14.726399999999998 1786.2699999999998 -6.529178312446685e-27 1.1398689914225997e-26 1.0
-7.56219 -6.4477633333333335 1786.2699999999998 -6.19709703810151e-27 -7.279125081345711e-27 1.0
-7.517313333333334 10.207713333333333 1775.67 0.0 0.0 1.0
-8.308606666666668 14.797233333333333 1775.67 0.0 0.0 1.0
-7.258383333333334 17.9093 1770.41 0.0 0.0 1.0
-7.686273333333332 39.451 1760.0 0.0 0.0 1.0
-7.100593333333333 54.990133333333326 1770.41 0.0 0.0 1.0
-7.4729600000000005 58.13173333333334 1765.1899999999998 -2.820543101750072e-28 8.259987541224192e-28 1.0
-9.398286666666667 69.6084 1714.61 0.0 0.0 1.0
-11.123833333333332 77.02856666666668 1709.71 0.0 0.0 1.0
-10.651566666666666 81.20870000000001 1695.18 0.0 0.0 1.0
-3.981659 113.56400000000001 1688.8100000000002 -0.4077643758312105 -0.40774362675897746 0.8169904213884145
8.175183333333333 149.97566666666668 2183.94 0.0 0.0 1.0
-4.096133333333333 -128.31766666666667 1875.86 0.0 0.0 1.0
-4.360589999999999 -117.98733333333332 1881.76 0.0 0.0 1.0
-4.360589999999999 -117.98733333333332 1881.76 0.0 0.0 1.0
3.1143533333333333 -116.88566666666667 2183.94 0.0 0.0 1.0
-2.94427 -86.89799999999998 1887.7 0.0 0.0 1.0
-2.7760266666666666 -79.32703333333333 1887.7 0.0 0.0 1.0
-3.0379733333333334 -76.70883333333333 1893.67 0.0 0.0 1.0
-4.656086666666666 -77.79896666666667 1899.68 0.0 0.0 1.0
9.343066666666667 -78.34546666666667 2183.94 0.0 0.0 1.0
-6.847933333333333 -61.14803333333333 1807.8499999999997 5.762044088419167e-27 2.1128268511657353e-27 1.0
-6.847933333333334 -61.14803333333333 1807.8499999999997 5.762616273229708e-28 1.2485059332825968e-27 1.0
-6.907633333333333 -54.859433333333335 1802.41 0.0 0.0 1.0
-6.1044166666666655 -53.09236666666667 1802.41 0.0 0.0 1.0
-6.265060000000001 -49.39756666666667 1802.41 0.0 0.0 1.0
-6.90763 -46.827333333333335 1802.41 0.0 0.0 1.0
-6.166166666666666 -39.959966666666666 1797.0 0.0 0.0 1.0
-7.664670000000001 -27.864266666666666 1791.62 0.0 0.0 1.0
-7.504989999999999 -24.191599999999998 1791.62 0.0 0.0 1.0
-7.3453100000000004 -23.07383333333333 1791.62 0.0 0.0 1.0
-7.08458 -13.930366666666666 1786.2699999999998 2.6559560980685108e-28 5.311458093799307e-28 1.0
-7.402986666666667 -9.15424 1786.2699999999998 -4.426372843550597e-28 3.793990364738402e-28 1.0
-7.30159 -5.47619 1780.95 0.0 0.0 1.0
-8.73016 2.30159 1780.95 0.0 0.0 1.0
-9.206353333333333 9.12698 1780.95 0.0 0.0 1.0
-7.517313333333334 10.207713333333333 1775.67 0.0 0.0 1.0
-8.308606666666666 14.797233333333333 1775.67 0.0 0.0 1.0
-8.41691 28.869233333333337 1765.1899999999998 8.953906711579264e-28 9.345416366039444e-28 1.0
-8.731563333333334 34.847566666666665 1765.1899999999998 -4.532765079514191e-28 -6.799531792601479e-28 1.0
7.201946666666665 64.13626666666666 2183.94 0.0 0.0 1.0
-11.775866666666667 100.81700000000001 1704.84 0.0 0.0 1.0
-6.847933333333333 127.04933333333334 1807.8499999999997 9.159946575954072e-28 -1.021242536361456e-27 1.0
-6.925373333333333 129.51266666666666 1786.2699999999998 1.9673199703596142e-28 2.948592830889142e-28 1.0
-5.031446666666667 -110.608 1881.76 0.0 0.0 1.0
-4.360586666666666 -107.757 1881.76 0.0 0.0 1.0
-5.031446666666667 -102.22233333333332 1881.76 0.0 0.0 1.0
-3.3015866666666667 -93.545 1899.68 0.0 0.0 1.0
-5.16402 -86.94179999999999 1899.68 0.0 0.0 1.0
-3.793473333333333 -78.98786666666666 1891.68 0.9696183189547738 -0.2424069735033707 0.032850795184518125
-4.372990000000001 -71.7685 1924.12 0.0 0.0 1.0
-8.032126666666667 -45.70283333333333 1802.41 0.0 0.0 1.0
-8.032126666666667 -45.70283333333333 1802.41 0.0 0.0 1.0
-7.82435 -31.5369 1791.62 0.0 0.0 1.0
-7.66467 -27.864266666666666 1791.62 0.0 0.0 1.0
-7.3453100000000004 -19.720566666666667 1791.62 0.0 0.0 1.0
-8.782440000000001 -16.526933333333332 1791.62 0.0 0.0 1.0
-8.782440000000001 -16.526933333333332 1791.62 0.0 0.0 1.0
-7.8806 -14.407966666666667 1786.2699999999998 -3.5966091533392823e-28 -8.29939943517455e-29 1.0
-8.039803333333333 -10.905473333333333 1786.2699999999998 0.0 0.0 1.0
-8.73016 2.30159 1780.95 0.0 0.0 1.0
-8.308606666666666 14.797233333333333 1775.67 0.0 0.0 1.0
-8.41691 28.869233333333337 1765.1899999999998 8.953906711579273e-28 9.34541636603945e-28 1.0
-8.680349999999999 44.0274 1754.84 0.0 0.0 1.0
-8.416913333333333 58.6037 1765.1899999999998 2.0145480290707954e-28 1.3850399190728137e-27 1.0
-9.046216666666668 63.48083333333333 1765.1899999999998 -1.6151787652120762e-27 -8.868855745151142e-27 1.0
-9.44763 74.13333333333334 1709.71 0.0 0.0 1.0
-11.123833333333332 77.02856666666668 1709.71 0.0 0.0 1.0
-11.47199 84.10253333333333 1704.84 0.0 0.0 1.0
-11.9278 89.87653333333333 1704.84 0.0 0.0 1.0
-11.9278 89.87653333333333 1704.84 0.0 0.0 1.0
-11.363633333333333 95.22726666666667 1700.0 0.0 0.0 1.0
-11.775866666666667 100.81700000000001 1704.84 0.0 0.0 1.0
-11.320033333333333 106.13499999999999 1704.84 0.0 0.0 1.0
-11.733333333333334 111.61899999999999 1709.71 0.0 0.0 1.0
-8.13696 124.79333333333334 1807.8499999999997 0.0 0.0 1.0
-5.433646666666667 -125.64266666666667 1875.86 0.0 0.0 1.0
-5.433646666666667 -125.64266666666667 1875.86 0.0 0.0 1.0
-4.360589999999999 -117.98733333333332 1881.76 0.0 0.0 1.0
-5.031446666666667 -110.608 1881.76 0.0 0.0 1.0
-5.199163333333334 -107.25366666666667 1881.76 0.0 0.0 1.0
-4.458466666666667 -105.40500000000002 1887.7 0.0 0.0 1.0
-4.825396666666666 -94.73016666666666 1899.68 0.0 0.0 1.0
6.034063333333333 -84.5742 2183.94 0.0 0.0 1.0
-8.459213333333333 -56.47533333333334 1807.8499999999997 1.7285762728618035e-27 -2.5926856201571262e-27 1.0
-8.19277 -44.57833333333334 1802.41 0.0 0.0 1.0
-7.82435 -31.5369 1791.62 0.0 0.0 1.0
-9.206353333333333 9.12698 1780.95 0.0 0.0 1.0
-8.941643333333333 13.531166666666666 1775.67 0.0 0.0 1.0
-9.8912 16.8546 1775.67 0.0 0.0 1.0
-9.625250000000001 23.116366666666664 1770.41 0.0 0.0 1.0
-9.625250000000001 23.116366666666664 1770.41 0.0 0.0 1.0
-9.675526666666668 34.847566666666665 1765.1899999999998 -1.813106031805678e-27 2.7198703430401217e-27 1.0
-8.313723333333334 36.62746666666666 1760.0 0.0 0.0 1.0
7.785889999999999 57.518233333333335 2183.94 0.0 0.0 1.0
7.201946666666667 64.13626666666666 2183.94 0.0 0.0 1.0
-8.25959 54.98523333333333 1765.1899999999998 1.0207274791357794e-28 8.058875069586728e-30 1.0
-9.348673333333334 65.977 1719.54 0.0 0.0 1.0
7.0073 97.22623333333333 2183.94 0.0 0.0 1.0
7.0073 97.22623333333333 2183.94 0.0 0.0 1.0
7.0073 97.22623333333333 2183.94 0.0 0.0 1.0
-12.079766666666666 91.39603333333334 1704.84 0.0 0.0 1.0
-11.363633333333333 95.22726666666667 1700.0 0.0 0.0 1.0
-11.320033333333333 106.13499999999999 1704.84 0.0 0.0 1.0
-12.0381 109.63799999999999 1709.71 0.0 0.0 1.0
-12.0381 110.39999999999999 1709.71 0.0 0.0 1.0
-11.8857 110.85700000000001 1709.71 0.0 0.0 1.0
-11.8857 110.85700000000001 1709.71 0.0 0.0 1.0
-8.298086666666665 125.43766666666666 1807.8499999999997 -6.530928069700493e-27 -1.2358699924715805e-26 1.0
-5.600833333333334 -124.63933333333334 1875.86 0.0 0.0 1.0
-5.600833333333334 -124.63933333333334 1875.86 0.0 0.0 1.0
-5.534589999999999 -109.937 1881.76 0.0 0.0 1.0
-6.349206666666666 -98.62429999999999 1899.68 0.0 0.0 1.0
-2.242993333333333 -87.9751 1864.17 0.0 0.0 1.0
-4.99471 -84.57143333333335 1899.68 0.0 0.0 1.0
-6.010583333333333 -79.32276666666667 1899.68 0.0 0.0 1.0
6.42336 -83.7956 2183.94 0.0 0.0 1.0
-8.136956666666668 -59.0534 1807.8499999999997 -6.77392293303281e-27 -5.7155543130866755e-27 1.0
-8.459213333333333 -56.47533333333333 1807.8499999999997 1.728522635344418e-27 5.18534442155556e-27 1.0
-8.353413333333334 -45.2209 1802.41 0.0 0.0 1.0
-8.514056666666667 -44.578333333333326 1802.41 0.0 0.0 1.0
-9.52953 -34.19423333333334 1797.0 0.0 0.0 1.0
-9.101790000000001 -24.510966666666672 1791.62 0.0 0.0 1.0
-9.580833333333333 -21.95606666666667 1791.62 0.0 0.0 1.0
-9.580833333333333 -21.95606666666667 1791.62 0.0 0.0 1.0
-10.427876666666668 -5.333336666666667 1786.2699999999998 -8.852136588300475e-28 1.770353159756564e-27 1.0
-10.000006666666666 -1.0317486666666666 1780.95 0.0 0.0 1.0
-9.841273333333334 -0.555557 1780.95 0.0 0.0 1.0
6.4233433333333325 0.875912 2183.94 0.0 0.0 1.0
-9.365079999999999 3.4126999999999996 1780.95 0.0 0.0 1.0
-9.258159999999998 13.689433333333334 1775.67 0.0 0.0 1.0
-9.8912 16.8546 1775.67 0.0 0.0 1.0
-10.524246666666665 18.595466666666667 1775.67 0.0 0.0 1.0
-9.783023333333333 19.8028 1770.41 0.0 0.0 1.0
-9.78304 23.747533333333333 1770.41 0.0 0.0 1.0
-9.94083 24.536466666666666 1770.41 0.0 0.0 1.0
-9.94083 24.536466666666666 1770.41 0.0 0.0 1.0
-10.414209999999999 29.2702 1770.41 0.0 0.0 1.0
-10.46214 36.10616666666667 1765.1899999999998 2.2202709599506623e-28 5.551422219075474e-29 1.0
7.785889999999999 57.518233333333335 2183.94 0.0 0.0 1.0
6.42336 64.33093333333333 2183.94 0.0 0.0 1.0
-9.99018 63.1662 1765.1899999999998 -2.2670308248115634e-28 1.5865902332124366e-27 1.0
-11.9278 89.87653333333333 1704.84 0.0 0.0 1.0
-12.687566666666667 91.548 1704.84 0.0 0.0 1.0
-12.5356 100.969 1704.84 0.0 0.0 1.0
-12.0381 110.40000000000002 1709.71 0.0 0.0 1.0
5.060826666666666 146.27700000000002 2183.94 0.0 0.0 1.0
-5.870023333333333 -107.08566666666667 1881.76 0.0 0.0 1.0
-5.97266 -105.40500000000002 1887.7 0.0 0.0 1.0
-5.16402 -86.9418 1899.68 0.0 0.0 1.0
4.28224 -88.27253333333334 2183.94 0.0 0.0 1.0
6.42336 -83.7956 2183.94 0.0 0.0 1.0
-8.620343333333333 -57.11986666666667 1807.8499999999997 5.363751738610699e-32 2.5926498625519278e-27 1.0
-8.620343333333333 -57.11986666666667 1807.8499999999997 5.36375173859371e-32 2.5926498625519278e-27 1.0
6.812636666666666 -19.562033333333332 2183.94 0.0 0.0 1.0
-9.365079999999999 3.4126999999999996 1780.95 0.0 0.0 1.0
-10.729776666666666 30.532533333333333 1770.41 0.0 0.0 1.0
-11.091433333333335 34.060966666666666 1765.1899999999998 -1.8133365431299063e-27 -1.920907355006519e-31 1.0
6.228713333333332 63.35766666666667 2183.94 0.0 0.0 1.0
6.42336 64.33093333333333 2183.94 0.0 0.0 1.0
-10.7768 61.90756666666667 1765.1899999999998 2.5392091569176454e-26 -9.066682817413988e-27 1.0
-10.462166666666667 62.85153333333333 1765.1899999999998 1.9941016638050043e-25 -5.620075564206958e-26 1.0
-11.47199 84.10253333333333 1704.84 0.0 0.0 1.0
-13.561900000000001 88.60949999999998 1709.71 0.0 0.0 1.0
5.255473333333334 133.23633333333336 2183.94 0.0 0.0 1.0
4.28224 143.35766666666666 2183.94 0.0 0.0 1.0
-8.620343333333333 124.79333333333334 1807.8499999999997 2.6597651585294723e-28 1.3305092029861941e-28 1.0
-8.459213333333333 127.04933333333334 1807.8499999999997 1.5555431120268617e-28 -8.976247519980542e-29 1.0
-10.602409999999999 129.5583333333333 1802.41 0.0 0.0 1.0
2.1411166666666666 -124.47700000000002 2183.94 0.0 0.0 1.0
-5.702306666666668 -111.44666666666667 1881.76 0.0 0.0 1.0
-6.373163333333333 -109.09866666666666 1881.76 0.0 0.0 1.0
-6.5408800000000005 -107.42133333333334 1881.76 0.0 0.0 1.0
-7.026453333333333 -90.66666666666667 1899.68 0.0 0.0 1.0
-6.010583333333333 -79.32276666666667 1899.68 0.0 0.0 1.0
-4.372990000000001 -71.7685 1924.12 0.0 0.0 1.0
6.228706666666667 -75.81510000000002 2183.94 0.0 0.0 1.0
-10.65065 -37.0771 1797.0 0.0 0.0 1.0
-10.010013333333333 -32.11213333333333 1797.0 0.0 0.0 1.0
-8.782440000000001 -16.526933333333332 1791.62 0.0 0.0 1.0
-9.950276666666667 -3.582093333333333 1786.2699999999998 3.983688562058277e-27 1.7706126879674178e-27 1.0
-9.950276666666667 -3.582093333333333 1786.2699999999998 3.983688562058238e-27 1.7706126879674013e-27 1.0
-10.31747 0.23809633333333333 1780.95 0.0 0.0 1.0
-9.206353333333334 9.126980000000001 1780.95 0.0 0.0 1.0
-10.524246666666665 17.171133333333334 1775.67 0.0 0.0 1.0
-10.524246666666665 18.595466666666667 1775.67 0.0 0.0 1.0
-10.729776666666666 27.6923 1770.41 0.0 0.0 1.0
-11.091433333333335 34.060966666666666 1765.1899999999998 -1.8133365431299063e-27 -1.9209073550058517e-31 1.0
-8.941170000000001 40.7059 1760.0 0.0 0.0 1.0
-11.720733333333333 47.119 1765.1899999999998 0.0 0.0 1.0
-11.720733333333333 48.062966666666675 1765.1899999999998 3.021886074981276e-27 4.835222602283691e-27 1.0
-10.776800000000001 61.90756666666667 1765.1899999999998 -5.078418313835321e-26 1.81333656348281e-26 1.0
-13.964433333333332 69.20106666666668 1731.1499999999999 0.7806004290358658 0.6244938472582569 -0.025892178850056236
-13.4473 91.09213333333334 1704.84 0.0 0.0 1.0
-12.5356 100.969 1704.84 0.0 0.0 1.0
5.255473333333334 133.23633333333333 2183.94 0.0 0.0 1.0
-12.952366666666668 107.80933333333333 1709.71 0.0 0.0 1.0
5.060826666666666 146.27700000000002 2183.94 0.0 0.0 1.0
-8.781469999999999 125.27666666666669 1807.8499999999997 -3.8446058679726557e-28 3.9395011789365024e-27 1.0
-10.199066666666667 129.96033333333332 1788.0533333333333 -0.099328048019136 -0.9945507130905484 0.03166730123944614
7.201946666666667 158.54033333333334 2183.94 0.0 0.0 1.0
-7.044023333333333 -107.42133333333334 1881.76 0.0 0.0 1.0
-7.026456666666667 -95.23809999999999 1899.68 0.0 0.0 1.0
-6.179893333333333 -86.77246666666667 1899.68 0.0 0.0 1.0
-6.34921 -82.53966666666668 1899.68 0.0 0.0 1.0
4.282236666666667 -85.93673333333334 2183.94 0.0 0.0 1.0
5.255473333333334 -84.76883333333332 2183.94 0.0 0.0 1.0
-5.230440000000001 -71.25403333333334 1924.12 0.0 0.0 1.0
-5.230440000000001 -71.25403333333334 1924.12 0.0 0.0 1.0
6.228706666666667 -75.81510000000002 2183.94 0.0 0.0 1.0
-10.71499 -50.674733333333336 1807.8499999999997 -7.682190381328564e-28 -2.7847036290203993e-27 1.0
-9.317273333333333 -49.23696666666666 1802.41 0.0 0.0 1.0
-10.8108 -29.38936666666667 1797.0 0.0 0.0 1.0
-10.858266666666665 -24.3513 1791.62 0.0 0.0 1.0
-10.858266666666665 -24.3513 1791.62 0.0 0.0 1.0
-9.580833333333334 -21.95606666666667 1791.62 0.0 0.0 1.0
-10.268666666666666 -8.517413333333332 1786.2699999999998 7.869144296905638e-28 4.0206844459972545e-27 1.0
-10.427876666666666 -5.333336666666667 1786.2699999999998 9.738907351191697e-27 -3.541484892735014e-26 1.0
-10.31747 -0.7142883333333333 1780.95 0.0 0.0 1.0
-11.269866666666667 1.5079400000000003 1780.95 0.0 0.0 1.0
-11.269866666666667 1.5079400000000003 1780.95 0.0 0.0 1.0
-10.63494 11.031733333333335 1780.95 0.0 0.0 1.0
-10.840766666666665 17.80416666666667 1775.67 0.0 0.0 1.0
-11.203153333333335 22.327433333333335 1770.41 0.0 0.0 1.0
-11.360933333333334 26.587766666666667 1770.41 0.0 0.0 1.0
-11.091433333333335 34.060966666666666 1765.1899999999998 -1.8133365431299063e-27 -1.9209073550063277e-31 1.0
-11.091433333333335 35.791533333333334 1765.1899999999998 -1.4102305734884111e-27 6.043761467704286e-28 1.0
-12.7059 53.254933333333334 1760.0 0.0 0.0 1.0
-12.392166666666666 58.431333333333335 1760.0 0.0 0.0 1.0
2.9197066666666665 85.93673333333334 2183.94 0.0 0.0 1.0
-15.172400000000001 73.4866 1719.54 0.0 0.0 1.0
-13.5619 88.60949999999998 1709.71 0.0 0.0 1.0
-13.295333333333334 100.20916666666666 1704.84 0.0 0.0 1.0
5.255473333333334 133.23633333333336 2183.94 0.0 0.0 1.0
-12.952366666666668 107.80933333333333 1709.71 0.0 0.0 1.0
4.671533333333333 141.80066666666667 2183.94 0.0 0.0 1.0
-10.602409999999999 129.5583333333333 1802.41 0.0 0.0 1.0
-10.114963333333334 -136.343 1875.86 0.0 0.0 1.0
-8.610226666666668 -132.49733333333333 1875.86 0.0 0.0 1.0
-7.941479999999999 -131.996 1875.86 0.0 0.0 1.0
-8.10867 -122.96766666666667 1875.86 0.0 0.0 1.0
-8.944626666666666 -119.62400000000001 1875.86 0.0 0.0 1.0
-8.77743 -112.43466666666666 1875.86 0.0 0.0 1.0
-7.044023333333333 -107.42133333333334 1881.76 0.0 0.0 1.0
-7.15037 -105.573 1887.7 0.0 0.0 1.0
-7.6716033333333336 -104.78366666666666 1891.68 7.452305988718605e-17 -0.9935755162645952 0.11317108057955017
-6.5408800000000005 -103.89933333333333 1881.76 0.0 0.0 1.0
-7.873016666666667 -101.33299999999998 1899.68 0.0 0.0 1.0
-6.349206666666667 -98.6243 1899.68 0.0 0.0 1.0
-7.026456666666667 -94.39153333333333 1899.68 0.0 0.0 1.0
-7.026453333333333 -90.66666666666667 1899.68 0.0 0.0 1.0
-7.195766666666667 -86.60316666666667 1899.68 0.0 0.0 1.0
-8.152863333333334 -80.76433333333334 1905.7300000000002 -4.838986418317264e-27 4.723869900029594e-27 1.0
-9.748203333333334 -58.57 1807.8499999999997 -4.321619489483789e-28 -2.1607985691031803e-28 1.0
-9.425966666666667 -57.281 1807.8499999999997 -2.881149198581746e-28 3.456902240637904e-27 1.0
-9.317273333333333 -49.23696666666666 1802.41 0.0 0.0 1.0
-11.131133333333333 -40.280300000000004 1797.0 0.0 0.0 1.0
-10.490483333333334 -38.83886666666666 1797.0 0.0 0.0 1.0
-10.8108 -29.38936666666667 1797.0 0.0 0.0 1.0
-10.538933333333334 -25.78843333333333 1791.62 0.0 0.0 1.0
6.812636666666666 -19.562033333333332 2183.94 0.0 0.0 1.0
-11.8607 -12.8159 1786.2699999999998 1.3280151262527243e-27 1.3280151262527244e-27 1.0
-10.427876666666666 -5.333336666666667 1786.2699999999998 9.738907351191697e-27 -3.541484892735014e-26 1.0
-11.948533333333332 15.588533333333336 1775.67 0.0 0.0 1.0
-11.9921 25.956599999999998 1770.41 0.0 0.0 1.0
-11.8343 31.3215 1770.41 0.0 0.0 1.0
2.7250599999999996 52.84673333333333 2183.94 0.0 0.0 1.0
3.6982966666666663 68.22383333333333 2183.94 0.0 0.0 1.0
-13.5619 88.60949999999998 1709.71 0.0 0.0 1.0
-14.359 90.63626666666669 1704.84 0.0 0.0 1.0
-14.628566666666666 94.24763333333333 1709.71 0.0 0.0 1.0
-14.628566666666666 104.91399999999999 1709.71 0.0 0.0 1.0
-9.8885 125.34566666666666 1804.2233333333334 -0.9568542360354266 0.07973509533900602 0.2794141828045586
-9.613353333333334 -130.65833333333333 1875.86 0.0 0.0 1.0
-7.873016666666667 -98.6243 1899.68 0.0 0.0 1.0
-7.0264566666666655 -80.0 1899.68 0.0 0.0 1.0
4.28224 -88.27253333333334 2183.94 0.0 0.0 1.0
3.892943333333333 -87.10463333333333 2183.94 0.0 0.0 1.0
3.309003333333333 -65.88806666666666 2183.94 0.0 0.0 1.0
3.309003333333333 -65.88806666666666 2183.94 0.0 0.0 1.0
-11.198366666666667 -50.19133333333334 1807.8499999999997 2.304601493758567e-27 -4.6092029875171856e-27 1.0
-11.291283333333334 -36.43646666666667 1797.0 0.0 0.0 1.0
-10.65065 -30.670666666666666 1797.0 0.0 0.0 1.0
-10.858266666666665 -24.3513 1791.62 0.0 0.0 1.0
-12.614766666666668 -19.880233333333333 1791.62 0.0 0.0 1.0
-11.904766666666667 1.19048 1780.95 0.0 0.0 1.0
-11.111133333333333 10.555543333333334 1780.95 0.0 0.0 1.0
-11.948533333333332 15.588533333333336 1775.67 0.0 0.0 1.0
-11.948533333333332 15.588533333333332 1775.67 0.0 0.0 1.0
-12.7059 53.254933333333334 1760.0 0.0 0.0 1.0
-12.392166666666666 58.431333333333335 1760.0 0.0 0.0 1.0
-12.392166666666666 58.431333333333335 1760.0 0.0 0.0 1.0
-14.431366666666667 64.23526666666667 1760.0 0.0 0.0 1.0
-15.052566666666669 77.86056666666667 1714.61 0.0 0.0 1.0
-15.052533333333335 82.4451 1714.61 0.0 0.0 1.0
-15.542866666666667 83.88573333333333 1709.71 0.0 0.0 1.0
-14.933333333333332 94.55236666666667 1709.71 0.0 0.0 1.0
-14.628566666666666 104.91399999999999 1709.71 0.0 0.0 1.0
4.671533333333333 141.80066666666667 2183.94 0.0 0.0 1.0
4.86618 145.10933333333335 2183.94 0.0 0.0 1.0
-9.111796666666667 -129.32100000000003 1875.86 0.0 0.0 1.0
-7.15037 -105.573 1887.7 0.0 0.0 1.0
-7.873016666666667 -101.33300000000001 1899.68 0.0 0.0 1.0
-8.04233 -96.08466666666668 1899.68 0.0 0.0 1.0
-8.04233 -93.545 1899.68 0.0 0.0 1.0
-7.0264566666666655 -80.0 1899.68 0.0 0.0 1.0
3.309003333333333 -65.88806666666666 2183.94 0.0 0.0 1.0
-11.52063333333333 -50.352466666666665 1807.8499999999997 1.9205012447988307e-27 3.0728019916781357e-27 1.0
-11.52063333333333 -49.86906666666667 1807.8499999999997 2.3046014937585903e-27 -1.152300746879285e-26 1.0
-0.9732366666666667 -53.819966666666666 2183.94 0.0 0.0 1.0
-11.131133333333333 -40.280300000000004 1797.0 0.0 0.0 1.0
-11.8607 -12.8159 1786.2699999999998 1.3280151262527243e-27 1.3280151262527248e-27 1.0
-11.8607 -12.8159 1786.2699999999998 1.3280151262527243e-27 1.3280151262527244e-27 1.0
-11.383099999999999 -7.402986666666666 1786.2699999999998 7.798863615496782e-28 9.809464795254153e-29 1.0
-12.307700000000002 22.9586 1770.41 0.0 0.0 1.0
-12.7811 24.3787 1770.41 0.0 0.0 1.0
-12.4655 25.325433333333333 1770.41 0.0 0.0 1.0
-12.507366666666668 45.8604 1765.1899999999998 -1.3778376649848477e-27 1.3053287890179733e-27 1.0
-11.720733333333333 48.062966666666675 1765.1899999999998 3.021886074981274e-27 4.835222602283689e-27 1.0
-13.964433333333332 69.20106666666668 1731.1499999999999 0.7806004290358655 0.624493847258257 -0.02589217885005638
-15.6638 80.61130000000001 1714.61 0.0 0.0 1.0
-15.052533333333335 82.4451 1714.61 0.0 0.0 1.0
-15.118733333333333 90.4843 1704.84 0.0 0.0 1.0
-14.933333333333332 94.55236666666667 1709.71 0.0 0.0 1.0
-15.085699999999997 94.85713333333335 1709.71 0.0 0.0 1.0
-15.085699999999997 94.85713333333335 1709.71 0.0 0.0 1.0
-14.628566666666666 104.91399999999999 1709.71 0.0 0.0 1.0
2.14112 151.72766666666666 2183.94 0.0 0.0 1.0
-8.77743 -112.43466666666666 1875.86 0.0 0.0 1.0
-9.446186666666668 -111.59866666666666 1875.86 0.0 0.0 1.0
-8.008093333333333 -104.95166666666667 1891.68 -1.0806079255179383e-16 -0.980895372406849 0.19453603365656646
-8.38095 -90.83596666666666 1899.68 0.0 0.0 1.0
-8.38095 -88.63493333333334 1899.68 0.0 0.0 1.0
-7.873013333333333 -87.11110000000001 1899.68 0.0 0.0 1.0
-12.934133333333335 -17.964066666666668 1791.62 0.0 0.0 1.0
-13.572833333333335 -14.291433333333332 1791.62 0.0 0.0 1.0
6.4233433333333325 0.875912 2183.94 0.0 0.0 1.0
-11.904766666666667 1.19048 1780.95 0.0 0.0 1.0
-14.480733333333333 20.17803333333333 1775.67 0.0 0.0 1.0
-12.938833333333333 31.163699999999995 1770.41 0.0 0.0 1.0
1.7518233333333335 54.0146 2183.94 0.0 0.0 1.0
-13.9233 45.073766666666664 1765.1899999999998 2.266430559134067e-28 -2.266350524154225e-28 1.0
-13.647066666666667 52.9412 1760.0 0.0 0.0 1.0
2.9197066666666665 85.93673333333334 2183.94 0.0 0.0 1.0
-15.172400000000001 73.4866 1719.54 0.0 0.0 1.0
-15.358200000000002 77.4021 1714.61 0.0 0.0 1.0
-15.358200000000002 77.4021 1714.61 0.0 0.0 1.0
-15.052566666666666 77.86056666666667 1714.61 0.0 0.0 1.0
-15.847633333333334 85.71426666666667 1709.71 0.0 0.0 1.0
-15.118733333333333 90.4843 1704.84 0.0 0.0 1.0
-16.0 91.50473333333333 1709.71 0.0 0.0 1.0
2.1411200000000004 151.72766666666666 2183.94 0.0 0.0 1.0
-10.199066666666667 129.96033333333335 1788.0533333333333 -0.099328048019136 -0.9945507130905484 0.03166730123944614
-10.333333333333334 -115.25 1870.0 0.0 0.0 1.0
-9.613373333333334 -109.59266666666666 1875.86 0.0 0.0 1.0
-9.613373333333334 -109.59266666666666 1875.86 0.0 0.0 1.0
-8.88889 -101.33300000000001 1899.68 0.0 0.0 1.0
-8.152863333333334 -80.76433333333334 1905.7300000000002 -4.838986418317258e-27 4.723869900029589e-27 1.0
-12.606066666666665 -56.969666666666676 1813.33 0.0 0.0 1.0
-11.681766666666666 -50.19133333333334 1807.8499999999997 -4.801253111996955e-28 -4.5131779252772446e-27 1.0
-13.053033333333333 -35.95596666666666 1797.0 0.0 0.0 1.0
-13.533533333333333 -32.752766666666666 1797.0 0.0 0.0 1.0
-12.774433333333334 -20.678633333333334 1791.62 0.0 0.0 1.0
-12.934133333333335 -17.964066666666668 1791.62 0.0 0.0 1.0
-12.774433333333334 -15.2495 1791.62 0.0 0.0 1.0
-14.516766666666667 28.1657 1770.41 0.0 0.0 1.0
-13.885600000000002 30.69033333333333 1770.41 0.0 0.0 1.0
1.7518233333333335 54.0146 2183.94 0.0 0.0 1.0
2.9197066666666665 85.93673333333334 2183.94 0.0 0.0 1.0
-14.981333333333334 70.3482 1732.82 8.436861255659133e-16 -0.9755283739888794 0.21987358082000855
-15.6638 81.3754 1714.61 0.0 0.0 1.0
-15.8166 82.75073333333334 1714.61 0.0 0.0 1.0
-15.542866666666667 83.88573333333333 1709.71 0.0 0.0 1.0
-16.0 84.8 1709.71 0.0 0.0 1.0
-15.847633333333334 85.71426666666667 1709.71 0.0 0.0 1.0
-16.457133333333335 87.23809999999999 1709.71 0.0 0.0 1.0
-16.0 91.50473333333333 1709.71 0.0 0.0 1.0
-14.992899999999999 108.06966666666666 1716.2633333333333 0.9814933841967689 2.1643595161944297e-15 0.19149604898789357
-14.992899999999999 108.06966666666666 1716.2633333333333 0.9814933841967689 2.1850477824625724e-15 0.19149604898789357
-12.0482 130.522 1802.41 0.0 0.0 1.0
-10.783666666666667 -130.99266666666665 1875.86 0.0 0.0 1.0
-10.783666666666667 -130.99266666666665 1875.86 0.0 0.0 1.0
-10.333333333333334 -115.25 1870.0 0.0 0.0 1.0
-11.0 -114.08333333333333 1870.0 0.0 0.0 1.0
0.3892933333333333 -120.0 2183.94 0.0 0.0 1.0
-8.888889999999998 -97.77776666666666 1899.68 0.0 0.0 1.0
-9.058203333333333 -92.86773333333333 1899.68 0.0 0.0 1.0
-8.152863333333334 -80.76433333333334 1905.7300000000002 -4.83898641831725e-27 4.723869900029581e-27 1.0
0.973234 -87.1046 2183.94 0.0 0.0 1.0
0.973234 -87.1046 2183.94 0.0 0.0 1.0
0.5839406666666667 -85.15816666666666 2183.94 0.0 0.0 1.0
-12.444466666666665 -57.616133333333345 1813.33 0.0 0.0 1.0
-12.444466666666665 -57.616133333333345 1813.33 0.0 0.0 1.0
-13.333333333333334 -44.738933333333335 1802.41 0.0 0.0 1.0
-13.975900000000001 -42.00803333333334 1802.41 0.0 0.0 1.0
-13.533533333333333 -35.63563333333333 1797.0 0.0 0.0 1.0
-13.373366666666668 -35.155166666666666 1797.0 0.0 0.0 1.0
-14.051899999999998 -19.081866666666667 1791.62 0.0 0.0 1.0
-13.451333333333332 34.8476 1765.1899999999998 1.7347295368842188e-28 6.714994112661182e-29 1.0
-13.451333333333332 35.4769 1765.1899999999998 1.7347295368842188e-28 -6.714994112661182e-29 1.0
1.7518233333333333 54.0146 2183.94 0.0 0.0 1.0
-13.647066666666667 52.9412 1760.0 0.0 0.0 1.0
1.3625299999999998 69.3917 2183.94 0.0 0.0 1.0
-14.981333333333334 70.3482 1732.82 -1.3498978009054606e-16 -0.9755283739888795 0.21987358082000838
-16.55173333333333 77.16476666666667 1719.54 0.0 0.0 1.0
-15.6638 80.6113 1714.61 0.0 0.0 1.0
-16.457133333333335 91.35236666666667 1709.71 0.0 0.0 1.0
-16.30473333333333 91.65713333333333 1709.71 0.0 0.0 1.0
-15.999966666666666 93.33333333333333 1709.71 0.0 0.0 1.0
-17.980933333333336 97.75240000000001 1709.71 0.0 0.0 1.0
0.9732366666666664 149.781 2183.94 0.0 0.0 1.0
-11.118099999999998 -135.33966666666666 1875.86 0.0 0.0 1.0
-11.619666666666665 -122.96766666666667 1875.86 0.0 0.0 1.0
-8.88889 -101.33300000000001 1899.68 0.0 0.0 1.0
-9.227513333333333 -96.08466666666668 1899.68 0.0 0.0 1.0
-9.227513333333333 -96.08466666666668 1899.68 0.0 0.0 1.0
-10.074063333333333 -92.19046666666668 1899.68 0.0 0.0 1.0
0.5839406666666667 -86.52066666666667 2183.94 0.0 0.0 1.0
0.5839406666666667 -85.15816666666666 2183.94 0.0 0.0 1.0
-12.606066666666665 -56.96966666666666 1813.33 0.0 0.0 1.0
-13.333333333333334 -44.738933333333335 1802.41 0.0 0.0 1.0
-13.333333333333334 -44.738933333333335 1802.41 0.0 0.0 1.0
-13.853866666666667 -34.51453333333333 1797.0 0.0 0.0 1.0
-13.892200000000003 -20.518966666666667 1791.62 0.0 0.0 1.0
-14.051899999999998 -19.081866666666667 1791.62 0.0 0.0 1.0
-14.7264 1.9900466666666665 1786.2699999999998 9.960090275704046e-28 -1.3279780525405634e-27 1.0
-14.248800000000001 4.37811 1786.2699999999998 -4.746422029786912e-27 -4.180678512389226e-28 1.0
-14.322433333333334 17.1711 1775.67 0.0 0.0 1.0
-14.4807 25.2423 1775.67 0.0 0.0 1.0
-14.4807 25.2423 1775.67 0.0 0.0 1.0
-14.4807 25.2423 1775.67 0.0 0.0 1.0
-14.516766666666667 28.1657 1770.41 0.0 0.0 1.0
-14.0434 29.7436 1770.41 0.0 0.0 1.0
-14.867266666666666 40.354 1765.1899999999998 1.7626897665332152e-25 2.052316984766206e-26 1.0
-16.627466666666667 49.64706666666666 1760.0 0.0 0.0 1.0
-33.08793333333333 36.530300000000004 1286.8933333333332 2.0902124665158832e-16 0.9999148219857861 0.013051772796592498
-15.843133333333332 66.43136666666666 1760.0 0.0 0.0 1.0
0.0 92.74936666666667 2183.94 0.0 0.0 1.0
-16.705 78.8506 1719.54 0.0 0.0 1.0
-16.886333333333333 83.5148 1714.61 0.0 0.0 1.0
