ply
format ascii 1.0
comment VCGLIB generated
element vertex 602
property float x
property float y
property float z
property float nx
property float ny
property float nz
element face 0
property list uchar int vertex_indices
end_header
-8.982463333333333 181.75466666666668 1574.74 0.0 0.0 1.0
54.400000000000006 430.13333333333327 2992.0 0.0 0.0 1.0
54.666666666666664 439.73333333333335 2992.0 0.0 0.0 1.0
55.73333333333333 -401.3333333333333 2992.0 0.0 0.0 1.0
50.93333333333334 -377.59999999999997 2992.0 0.0 0.0 1.0
55.199999999999996 -363.4666666666667 2992.0 0.0 0.0 1.0
-1.2623276666666667 -195.18733333333333 1770.41 0.0 0.0 1.0
-0.4678366666666666 -178.86933333333332 1749.71 0.0 0.0 1.0
-5.4214166666666666 -144.524 1736.17 0.4553034985213952 -0.1518000194045813 0.8773001073423773
51.46666666666666 -243.4666666666667 2992.0 0.0 0.0 1.0
-0.07960200000000002 39.005 1786.2699999999998 -2.047303205032408e-27 1.6046841718522282e-27 1.0
-0.079602 39.005 1786.2699999999998 -1.967380385002728e-27 1.5739438533365605e-27 1.0
-8.77952 146.37033333333332 1576.1233333333332 1.504383686706652e-16 0.5217805419936469 0.8530797535968229
51.46666666666666 417.06666666666666 2992.0 0.0 0.0 1.0
54.4 430.1333333333334 2992.0 0.0 0.0 1.0
57.06666666666667 -272.53333333333336 2992.0 0.0 0.0 1.0
52.0 -168.53333333333333 2992.0 0.0 0.0 1.0
-7.340536666666668 -63.30206666666667 1614.4066666666665 -0.38014384460035106 -0.8750708862595397 0.2995690261582597
-2.615803666666667 -24.4376 1632.0033333333333 -0.5135066589567737 -0.8558456094522398 0.061961310415256404
-3.3047653333333336 0.9458143333333333 1766.9300000000003 -0.3159220055584566 0.9477630045571287 -0.044029235704999364
0.15490333333333325 83.18933333333332 1791.6299999999999 0.9031288462770133 0.056328592489494164 0.4256587561539212
-0.4819273333333333 109.39766666666667 1802.41 0.0 0.0 1.0
3.855973333333333 120.90766666666667 1630.55 0.026297501874774684 0.9994530695677604 0.020050015629112426
-10.76172333333333 127.71566666666666 1588.6766666666665 0.6777431841777148 0.5810860526887766 0.45055873720440553
54.4 430.1333333333334 2992.0 0.0 0.0 1.0
-3.0158970000000003 -199.84399999999997 1780.9633333333334 0.07473154472548627 0.9680738926898861 0.2392658239598657
-1.2623276666666665 -195.18733333333333 1770.41 0.0 0.0 1.0
-0.4678366666666666 -178.86933333333332 1749.71 0.0 0.0 1.0
53.333333333333336 -283.20000000000005 2992.0 0.0 0.0 1.0
-5.4214166666666666 -144.524 1736.17 0.45530349852139473 -0.15180001940458204 0.8773001073423774
-14.854873333333332 -30.9328 1476.34 -0.658498001442505 -0.7525761245885482 0.00309173018046976
-15.512833333333333 -25.498266666666666 1513.6666666666667 -0.706016687751157 -0.7060166877511569 0.05550561443467313
50.666666666666664 14.4 2992.0 0.0 0.0 1.0
-0.07960200000000002 39.005 1786.2699999999998 -2.047303205032409e-27 1.6046841718522288e-27 1.0
-1.2060333333333333 75.5816 1804.2233333333334 0.8593167720089792 -0.35805088386915707 0.3652043946950577
-0.6420866666666667 126.65233333333333 1798.8033333333333 0.9760601341249674 -1.252890790291586e-16 0.21750083809482348
-0.6420866666666667 126.65233333333333 1798.8033333333333 0.9760601341249674 -6.977792779790077e-17 0.21750083809482348
-8.011753333333333 122.21733333333333 1605.7266666666667 -6.881984569371046e-16 0.9516649051734848 0.3071382559388233
49.86666666666667 -430.6666666666667 2992.0 0.0 0.0 1.0
-1.2623276666666665 -195.18733333333333 1770.41 0.0 0.0 1.0
50.666666666666664 -294.40000000000003 2992.0 0.0 0.0 1.0
48.800000000000004 -261.8666666666667 2992.0 0.0 0.0 1.0
50.93333333333334 -171.4666666666667 2992.0 0.0 0.0 1.0
-13.9813 -72.83393333333333 1530.4399999999998 -0.9671994004928844 -0.2086817509000051 0.14483523924623065
-15.7213 -26.651333333333337 1502.2866666666666 -0.6467945478314461 -0.7599617507476438 0.06414787834442515
-0.31278800000000007 -19.417833333333334 1742.9166666666667 0.4836061963058977 -0.8463059190925697 0.22336369043204454
51.199999999999996 18.666666666666668 2992.0 0.0 0.0 1.0
-0.31698599999999993 40.23693333333333 1784.4966666666667 -0.9542306513445626 -1.038030549551373e-15 0.2990716703978023
-8.747783333333333 135.87333333333333 1583.07 0.0 0.0 1.0
52.53333333333334 -436.0 2992.0 0.0 0.0 1.0
51.46666666666667 -433.06666666666666 2992.0 0.0 0.0 1.0
53.333333333333336 -283.20000000000005 2992.0 0.0 0.0 1.0
51.46666666666667 -243.46666666666667 2992.0 0.0 0.0 1.0
48.26666666666667 -197.6 2992.0 0.0 0.0 1.0
-14.435866666666668 -60.820100000000004 1565.1266666666668 -0.7067209202530128 -0.5889341002108438 0.3920486787193382
-7.31341 -64.37193333333333 1608.61 0.6541219472118445 0.7546882136788393 0.0506969260412072
-0.4047416666666666 94.52153333333332 1800.6066666666666 0.7500492496043395 -0.46878272645389657 0.4665499743290299
-1.2084586666666668 100.705 1807.8499999999997 -3.0329972857272023e-27 -1.948827248822774e-27 1.0
-0.4819273333333333 109.39766666666667 1802.41 0.0 0.0 1.0
-0.4819273333333333 109.39766666666667 1802.41 0.0 0.0 1.0
-11.992933333333333 133.75666666666666 1583.07 0.0 0.0 1.0
41.333333333333336 286.66666666666663 2992.0 0.0 0.0 1.0
51.46666666666667 417.06666666666666 2992.0 0.0 0.0 1.0
54.666666666666664 439.73333333333335 2992.0 0.0 0.0 1.0
51.199999999999996 -384.2666666666667 2992.0 0.0 0.0 1.0
53.333333333333336 -362.93333333333334 2992.0 0.0 0.0 1.0
48.800000000000004 -355.73333333333335 2992.0 0.0 0.0 1.0
49.333333333333336 -352.8 2992.0 0.0 0.0 1.0
50.666666666666664 -294.4 2992.0 0.0 0.0 1.0
-3.65403 -170.41766666666666 1744.61 0.0 0.0 1.0
49.333333333333336 -229.33333333333334 2992.0 0.0 0.0 1.0
48.26666666666667 -197.6 2992.0 0.0 0.0 1.0
-9.641076666666665 -80.07180000000001 1556.993333333333 -0.44606216271982424 -0.8921323756501289 -0.07161264767183508
-6.7547 -8.647331666666666 1729.51 -0.625258173710067 -0.7555211289781253 0.19555060694452098
-5.113076666666666 0.7866276666666666 1765.1899999999998 3.229654951184737e-29 -2.889667353818069e-29 1.0
50.666666666666664 14.4 2992.0 0.0 0.0 1.0
-2.798486666666667 44.436299999999996 1793.4133333333332 0.9333782708273052 -0.07778125195392054 0.35036421106030613
-1.6908833333333335 68.47346666666665 1807.8633333333335 -0.8819666008721125 0.37856070561920685 0.2807609429874106
-1.69575 78.31056666666667 1807.8633333333335 0.8261565744393691 -0.4121556782306897 0.3841783588553729
-1.2084586666666668 100.705 1807.8499999999997 -3.0329972857271514e-27 -1.9488272488227413e-27 1.0
-2.2489933333333334 124.81933333333332 1802.41 0.0 0.0 1.0
-8.011753333333333 122.21733333333333 1605.7266666666667 -6.881984569371046e-16 0.9516649051734848 0.3071382559388233
-12.3358 131.52666666666667 1581.6766666666665 0.23299596073607506 -0.6404087914895089 0.731839778956856
-18.436600000000002 146.15533333333335 1538.3266666666668 -0.6389625493494225 -0.751675420487767 0.1634347660793917
-9.663593333333333 167.84533333333331 1571.9799999999998 -0.5616072188658562 -0.18715783428712301 0.8059586073631276
-13.47023 207.47766666666666 1504.78 -0.1302125963234197 -0.651079177213654 0.7477570359130735
52.0 -439.4666666666667 2992.0 0.0 0.0 1.0
54.400000000000006 -417.3333333333333 2992.0 0.0 0.0 1.0
49.333333333333336 -294.6666666666667 2992.0 0.0 0.0 1.0
49.6 -260.00000000000006 2992.0 0.0 0.0 1.0
53.333333333333336 -102.40000000000002 2992.0 0.0 0.0 1.0
-7.591093333333333 -4.840716666666666 1754.8500000000001 0.216458610266908 -0.711261493762276 0.6687695847841578
-2.8434166666666667 22.593633333333333 1724.5 0.0 0.0 1.0
-2.8434166666666667 22.593633333333333 1724.5 0.0 0.0 1.0
2.19793 38.50723333333334 1763.46 0.29930081328753355 0.9477718168708709 0.11021617989528339
-1.3575246666666665 42.75436666666667 1789.8366666666668 0.8887005147774188 -0.0740581185698834 0.4524674464624388
-3.3182899999999997 65.03750000000001 1815.1666666666667 0.5674159234415396 -0.5674129977123255 0.5967257827948258
-1.3632900000000001 79.7593 1800.6066666666666 -0.9350631410672648 -0.28770978398856756 0.20707487151914958
-1.3632900000000001 79.7593 1800.6066666666666 -0.9350631410672646 -0.2877097839885676 0.20707487151914972
-1.2084586666666668 100.705 1807.8499999999997 -3.0329972857271367e-27 -1.9488272488227316e-27 1.0
-2.4940833333333337 121.887 1804.2233333333334 0.9305708102706028 -0.08460101690128499 0.356203081137126
-12.388466666666666 170.63866666666667 1570.5999999999997 1.795457183192874e-25 4.6463849856797974e-26 1.0
-11.368433333333334 183.15800000000002 1574.74 0.0 0.0 1.0
50.82823333333332 403.1003333333333 2977.26 -0.4404412119228629 -0.8368383026534393 0.32513565484583584
46.4 -391.2 2992.0 0.0 0.0 1.0
-1.1935533333333335 -202.91333333333333 1789.8366666666668 0.21404791699875333 0.9276214092041979 0.30610784115163187
-3.5463400000000003 -192.63266666666667 1768.67 0.389521062864695 0.779107960275218 0.491186449141818
49.06666666666666 -244.0 2992.0 0.0 0.0 1.0
-15.512833333333333 -25.498266666666666 1513.6666666666667 -0.706016687751157 -0.7060166877511569 0.055505614434673285
51.199999999999996 18.666666666666668 2992.0 0.0 0.0 1.0
-1.2060333333333333 72.35906666666666 1804.2233333333334 -0.886260704824894 0.36927759242867336 0.2795997546732908
-10.76172333333333 127.71566666666666 1588.676666666667 0.6777431841777146 0.5810860526887766 0.45055873720440565
-10.76172333333333 127.71566666666666 1588.6766666666665 0.6777431841777146 0.5810860526887766 0.45055873720440565
-12.129150000000001 171.78733333333332 1538.3100000000002 -0.6163668284836369 -0.7868010901722563 -0.032186600453799265
-12.054933333333333 200.43033333333332 1591.4966666666667 0.5574702019527094 -0.7435978370563635 0.36917371339235816
-13.3028 203.38233333333332 1595.74 -0.12447442179642389 -0.8749194886578874 0.46799787038518326
-10.509360000000001 207.75699999999998 1604.29 0.0 0.0 1.0
51.46666666666667 417.06666666666666 2992.0 0.0 0.0 1.0
48.26666666666667 -401.86666666666673 2992.0 0.0 0.0 1.0
47.73333333333333 -369.06666666666666 2992.0 0.0 0.0 1.0
47.73333333333333 -369.06666666666666 2992.0 0.0 0.0 1.0
-2.136037 -197.82899999999998 1775.6766666666665 -0.2863334688169578 0.861652770937201 0.41900793187181024
48.53333333333333 -294.6666666666667 2992.0 0.0 0.0 1.0
48.53333333333333 -294.6666666666667 2992.0 0.0 0.0 1.0
-13.9813 -72.83393333333333 1530.4399999999998 -0.9671994004928844 -0.2086817509000051 0.14483523924623065
-20.415666666666667 -44.84643333333333 1450.1166666666668 -0.7368619459146875 -0.6699061277293419 0.0908859323190278
-20.601433333333333 -35.828 1436.1899999999998 -0.8741534004191165 0.4856398382032138 -0.0031273128484415025
-13.649099999999999 -16.4742 1594.3500000000001 0.9741561662153714 0.053090302988256635 0.21954767945297174
-0.7936496666666667 21.269833333333334 1780.95 0.0 0.0 1.0
-3.2259766666666665 58.23063333333332 1809.6766666666665 0.9599334652178038 -0.1476821890783921 0.23815480970149225
-2.5770750000000002 114.44966666666666 1806.0366666666669 0.947613467984681 0.20304102697960796 0.24658275823161624
-12.9345 187.69966666666667 1577.506666666667 -0.8606784903995981 -0.28702879829913996 0.4205318122454239
45.6 -396.0 2992.0 0.0 0.0 1.0
46.4 -391.2 2992.0 0.0 0.0 1.0
47.73333333333333 -369.06666666666666 2992.0 0.0 0.0 1.0
47.73333333333334 -349.59999999999997 2992.0 0.0 0.0 1.0
-2.628777 -201.39633333333333 1786.28 0.2063901048373591 0.9286629588249881 0.308201611825186
-2.682446666666667 -194.24066666666667 1770.41 0.0 0.0 1.0
-3.65403 -170.41766666666666 1744.61 0.0 0.0 1.0
45.866666666666674 -261.3333333333333 2992.0 0.0 0.0 1.0
45.866666666666674 -261.3333333333333 2992.0 0.0 0.0 1.0
49.06666666666666 -244.0 2992.0 0.0 0.0 1.0
44.53333333333334 -207.20000000000002 2992.0 0.0 0.0 1.0
47.46666666666667 -167.46666666666667 2992.0 0.0 0.0 1.0
-7.8067633333333335 -92.59903333333334 1734.49 0.0 0.0 1.0
-17.372833333333332 -67.2067 1511.1166666666668 -0.6748789213898013 -0.7362196512416784 -0.05019030373807172
-15.890933333333335 -66.55943333333333 1530.4399999999998 -0.8909787627569432 -0.36927386088350816 0.264184897343308
-15.633400000000002 -34.38176666666667 1450.0900000000001 -0.8697339280438438 -0.2898864242570121 0.39941050992795585
-0.8266333333333332 17.935000000000002 1704.8500000000001 -0.7333495102815882 0.540418350369784 0.4124881845015153
-2.8153683333333333 92.29913333333333 1804.2233333333334 0.8470697511776283 -0.5294207915855429 -0.046759620152521025
-2.814883333333333 128.00199999999998 1804.2233333333334 0.7692545941832403 0.6153111094410656 -0.17216157505780222
-13.430253333333333 129.65099999999998 1569.2299999999998 0.31511279884224597 -0.6931731305960758 0.6482398746030994
-12.9345 187.69966666666667 1577.506666666667 -0.8606784903995981 -0.2870287982991401 0.4205318122454239
49.86666666666667 -430.6666666666667 2992.0 0.0 0.0 1.0
50.133333333333326 -283.2 2992.0 0.0 0.0 1.0
-18.3362 -65.38056666666667 1491.0566666666666 -0.888785636340093 -0.4442720034665664 0.11261651553541885
-9.06939 -21.855766666666668 1591.4966666666667 0.1650189714213132 0.6123080493647786 0.7732060474117826
-3.9277933333333337 44.84029999999999 1797.01 0.7978048465257092 0.39771498269906136 0.45313377649075665
-3.634683333333333 55.862899999999996 1811.5133333333333 0.9795822213911598 -0.15070507704874794 0.13306634167245845
-2.5023666666666666 62.32426666666667 1811.5033333333333 0.6013940023822439 -0.6013909014541077 0.5259793128506874
-4.433966666666667 129.38733333333334 1807.8633333333335 0.6000201401050762 -0.749105346494868 0.28074367547834184
-11.186123333333335 123.18866666666666 1588.676666666667 0.846252538938482 -0.30462459573137235 0.437104673980582
-12.87668 138.96633333333332 1552.9466666666667 0.6300018124704656 0.29074764378958234 0.7201135493203378
-16.672166666666666 161.66333333333333 1558.3400000000001 0.5524519772930655 -0.8284465047473026 0.0920499948775638
-14.3482 174.5583333333333 1570.5999999999997 -4.241660152649804e-27 -2.4151114988542495e-27 1.0
-12.572333333333333 185.84933333333333 1576.1233333333332 -0.4845699763364638 -0.6461700349531825 0.5896237986732574
45.6 -373.59999999999997 2992.0 0.0 0.0 1.0
45.86666666666667 -356.2666666666667 2992.0 0.0 0.0 1.0
44.26666666666667 -348.26666666666665 2992.0 0.0 0.0 1.0
-1.2099066666666667 -204.68999999999997 1797.03 0.21983216127818095 0.9526886413683635 0.2099003894123724
-5.458089999999999 -176.686 1749.71 0.0 0.0 1.0
-13.508866666666668 -60.60956666666667 1570.6233333333332 0.7666363962835265 0.638863663569605 -0.06420167648768939
42.4 -101.86666666666667 2992.0 0.0 0.0 1.0
-7.94416 -5.6140566666666665 1749.72 -0.7130629767820686 -0.2674062799994829 0.6481011283430488
44.26666666666667 -3.1999999999999997 2992.0 0.0 0.0 1.0
-5.113076666666667 0.7866276666666666 1765.1899999999998 -6.289332940639428e-29 -1.529851659977681e-29 1.0
-4.450096666666667 76.68169999999999 1815.1666666666667 0.954871631474936 -3.520886376918733e-16 0.29701879974909706
-2.98868 78.14213333333333 1811.5033333333333 0.8989519901752289 5.778959214936087e-17 0.4380471656796735
-3.8636700000000004 89.65603333333333 1806.0366666666666 0.9909891696648101 -2.7988181106170156e-16 0.13394202330504923
-3.8636700000000004 89.65603333333333 1806.0366666666666 0.9909891696648101 -2.7988181106170156e-16 0.13394202330504923
-2.7430800000000004 107.097 1809.6766666666665 0.9519966955026843 0.08278868807332286 0.29470039850510504
-3.6283166666666666 119.23200000000001 1807.8633333333335 0.3005544745015381 0.9049688104449275 0.3011618501387538
-12.265183333333333 162.633 1554.2933333333333 0.054834111717530824 -0.9791447442894224 0.1956241036338597
-15.546466666666667 197.739 1585.87 -0.37133075484652245 -0.865894353609143 0.33517225257010197
45.06666666666666 -266.1333333333333 2992.0 0.0 0.0 1.0
-5.113076666666667 0.7866276666666666 1765.1899999999998 -6.289332940639428e-29 -1.529851659977681e-29 1.0
43.73333333333333 413.8666666666666 2992.0 0.0 0.0 1.0
45.333333333333336 -299.73333333333335 2992.0 0.0 0.0 1.0
44.53333333333333 -295.4666666666667 2992.0 0.0 0.0 1.0
-11.00776 -157.36466666666666 1739.53 0.0 0.0 1.0
41.333333333333336 -225.6 2992.0 0.0 0.0 1.0
-7.8067633333333335 -92.59903333333334 1734.49 0.0 0.0 1.0
-18.6597 -63.755733333333325 1506.0533333333333 0.9912889019782914 0.03946950496756485 0.12565218260057714
-18.023333333333337 -64.13696666666667 1514.9433333333334 -0.959053150359632 -0.12481833109655067 0.2542389407772481
-12.868226666666667 -50.6977 1739.53 0.0 0.0 1.0
44.26666666666667 -3.1999999999999997 2992.0 0.0 0.0 1.0
-5.605059999999999 57.50416666666666 1822.54 0.9421721857625572 0.3140573952541868 0.1169595009460997
-5.086756666666667 117.85933333333334 1811.5033333333333 0.7028689429462045 -0.703134814967265 -0.1075949860478423
-21.747866666666667 206.27533333333335 1544.9366666666667 -0.3403355161854339 -0.70461557685805 0.6226464689306379
44.0 -391.2 2992.0 0.0 0.0 1.0
45.6 -373.59999999999997 2992.0 0.0 0.0 1.0
45.06666666666666 -266.1333333333333 2992.0 0.0 0.0 1.0
45.866666666666674 -261.3333333333333 2992.0 0.0 0.0 1.0
46.4 -246.13333333333335 2992.0 0.0 0.0 1.0
40.53333333333333 -237.0666666666667 2992.0 0.0 0.0 1.0
42.4 -205.60000000000002 2992.0 0.0 0.0 1.0
42.4 -205.60000000000002 2992.0 0.0 0.0 1.0
-9.612409999999999 -104.96133333333334 1739.53 0.0 0.0 1.0
-16.811233333333334 -66.56123333333333 1514.9433333333334 0.5497054733378347 -0.6572778480141639 0.5155673797791096
-14.435866666666668 -60.820100000000004 1565.1266666666668 -0.7067209202530127 -0.5889341002108437 0.392048678719338
44.26666666666667 -3.1999999999999997 2992.0 0.0 0.0 1.0
-7.914976666666667 31.165533333333332 1793.4133333333332 0.7251657131906898 0.10359664655831569 0.6807366768688974
-4.0874733333333335 42.92413333333334 1797.01 0.9540717249132353 -0.00010785079255649555 0.29957825703693886
-6.330590000000001 67.8296 1820.6899999999998 0.8467578616957948 0.28227003281823076 0.45091546017979917
-16.816166666666668 136.64033333333336 1578.89 0.0 0.0 1.0
-12.706113333333334 204.88666666666666 1486.1066666666666 0.389841542693165 0.7680713134436362 0.5080256185032216
42.93333333333334 -398.93333333333334 2992.0 0.0 0.0 1.0
-7.866833333333333 -177.75766666666667 1748.01 0.3789057060447512 -0.7575442349890799 0.5315610952294556
-9.512686666666665 -175.59433333333334 1749.71 0.0 0.0 1.0
41.333333333333336 -225.6 2992.0 0.0 0.0 1.0
-7.8067633333333335 -92.59903333333334 1734.49 0.0 0.0 1.0
-17.429266666666667 -42.4917 1453.6166666666668 0.8540463882867197 -0.4001188654294985 0.33242993274045063
40.266666666666666 -77.33333333333333 2992.0 0.0 0.0 1.0
-5.10978 35.60876666666667 1791.62 0.0 0.0 1.0
-6.330590000000001 67.8296 1820.6899999999998 0.8467578616957948 0.28227003281823076 0.45091546017979917
-5.18351 75.78913333333333 1817.0033333333333 0.8910207710223915 0.29699878092091364 0.34332740895267017
-14.673733333333333 132.62766666666667 1583.07 0.0 0.0 1.0
46.4 -434.40000000000003 2992.0 0.0 0.0 1.0
38.13333333333333 -424.8 2992.0 0.0 0.0 1.0
44.0 -391.2 2992.0 0.0 0.0 1.0
41.6 -355.4666666666667 2992.0 0.0 0.0 1.0
44.53333333333333 -294.93333333333334 2992.0 0.0 0.0 1.0
40.26666666666667 -164.53333333333333 2992.0 0.0 0.0 1.0
-17.964033333333333 -65.26456666666665 1509.84 -0.8445227037645554 -0.4222497398112218 0.32937298015405014
-14.435866666666668 -60.820100000000004 1565.1266666666668 -0.7067209202530128 -0.5889341002108438 0.3920486787193382
-6.104273333333334 53.22393333333334 1826.25 0.991044541422756 -2.8167539521234754e-17 0.13353170753105664
-6.3414633333333335 58.861799999999995 1824.39 0.0 0.0 1.0
-6.341463333333333 60.325199999999995 1824.39 0.0 0.0 1.0
-5.18351 75.78913333333333 1817.0033333333333 0.8910207710223917 0.29699878092091314 0.3433274089526702
-5.90562 117.12866666666667 1815.1666666666667 0.7000022876723421 -0.7002670753327439 0.14008147792771464
-6.63267 130.74966666666668 1813.34 0.8434357301093125 0.33781189492960295 0.4177311250302541
-17.073533333333334 144.088 1551.61 -0.903387976942502 -0.4169161429772583 0.10035483466530098
-18.409233333333333 204.31766666666667 1588.676666666667 0.7690007846987456 -0.26748401436422303 0.5805946048598055
42.4 -205.6 2992.0 0.0 0.0 1.0
-9.612409999999999 -104.96133333333334 1739.53 0.0 0.0 1.0
-11.162793333333333 -100.62013333333334 1739.53 0.0 0.0 1.0
-19.696633333333335 -67.17073333333333 1483.6499999999999 -0.8858439874157026 -0.22106983885434375 0.4079320486409017
-18.203866666666666 -62.34173333333333 1530.4399999999998 -0.7512880200038294 0.0016185994478842267 0.6599724927105317
40.53333333333333 -79.73333333333333 2992.0 0.0 0.0 1.0
-21.513833333333334 -23.510566666666666 1475.1166666666668 0.2795939843992699 -0.3285349814578793 0.9021596143954859
-15.512833333333333 -25.498266666666666 1513.6666666666667 -0.706016687751157 -0.7060166877511569 0.055505614434673285
-20.765066666666666 -21.299400000000002 1493.5133333333333 -0.594422482476322 0.594422482476323 0.5415937819559712
-10.000013333333333 13.1746 1780.95 0.0 0.0 1.0
-9.277483333333333 14.1119 1779.1899999999998 0.3669137116568243 0.8561217204874648 0.36390923031409333
41.06666666666666 75.46666666666668 2992.0 0.0 0.0 1.0
-6.341463333333333 58.861799999999995 1824.39 0.0 0.0 1.0
-5.905619999999999 117.12866666666666 1815.1666666666667 0.7000022876723422 -0.7002670753327438 0.1400814779277147
34.4 280.26666666666665 2992.0 0.0 0.0 1.0
-18.4297 160.6846666666667 1531.74 -0.9682695876495888 0.24203782239841795 -0.06222297133315927
-18.24083333333333 160.95633333333333 1533.05 0.9950384581700121 -0.09947959433130342 0.001508997787922013
40.0 -361.0666666666666 2992.0 0.0 0.0 1.0
38.93333333333334 -348.53333333333336 2992.0 0.0 0.0 1.0
40.53333333333334 -237.0666666666667 2992.0 0.0 0.0 1.0
-18.584933333333336 -64.78243333333333 1511.1166666666668 -0.9680059401634106 -0.23229648191934596 0.09488331937831125
-9.71819 -23.7901 1744.61 0.0 0.0 1.0
-6.104273333333334 53.22393333333334 1826.25 0.9910445414227558 2.7095047802309732e-17 0.13353170753105664
-6.341463333333333 60.325199999999995 1824.39 0.0 0.0 1.0
-18.51363333333333 159.865 1533.05 -0.9876175438759925 0.0987376837674704 0.12191167635869392
37.6 330.6666666666667 2992.0 0.0 0.0 1.0
-16.19803333333333 198.62066666666666 1587.2699999999998 -4.167459696172818e-25 -9.04738268903309e-25 1.0
-14.996933333333336 208.85766666666666 1602.86 -0.2366113211430417 -0.86748292060098 0.4375939501096174
38.13333333333333 -402.93333333333334 2992.0 0.0 0.0 1.0
39.199999999999996 -400.8 2992.0 0.0 0.0 1.0
-9.612409999999999 -104.96133333333334 1739.53 0.0 0.0 1.0
-10.280226666666666 -91.05313333333334 1734.49 0.0 0.0 1.0
-10.280226666666666 -91.05313333333334 1734.49 0.0 0.0 1.0
-24.0261 -68.18476666666668 1457.1433333333334 0.1604403476807271 0.5348469545479286 0.829576777668525
-20.765066666666666 -21.299400000000002 1493.5133333333333 -0.5944224824763221 0.5944224824763228 0.5415937819559713
-18.026966666666663 -12.964966666666667 1602.9066666666668 -0.28163752376312223 -0.8452694167898565 0.45409241157314306
-7.292786666666667 -19.662666666666667 1634.9800000000002 -0.6065801852336102 -0.7222264432298101 0.3323393500348358
-16.816166666666668 136.64033333333336 1578.89 0.0 0.0 1.0
-19.319100000000002 156.46533333333335 1526.5366666666669 -0.672532797057051 -0.6730976370819728 0.3076348612190821
-18.566433333333332 159.317 1531.74 -0.9662803663131557 0.24154057782244445 0.08922109023606993
-19.6006 171.8546666666667 1565.1266666666668 0.5524780816029905 0.36833337760352053 0.7477288895659051
-14.849933333333334 180.03966666666668 1571.9799999999998 -0.3599982597359586 -0.35995064091853324 0.8607187630634169
-16.843766666666667 170.9623333333333 1536.9966666666667 -0.8438448892448586 -0.048218868418789994 0.5344162643705223
-17.2116 197.81433333333334 1583.0766666666666 -0.863212022533554 -0.43124032593644596 0.2624819716471192
38.93333333333334 -348.53333333333336 2992.0 0.0 0.0 1.0
38.93333333333334 -348.5333333333333 2992.0 0.0 0.0 1.0
-11.00776 -157.36466666666666 1739.53 0.0 0.0 1.0
35.199999999999996 -255.19999999999996 2992.0 0.0 0.0 1.0
-14.978666666666667 -144.94466666666668 1741.2233333333334 0.5729176954761876 -0.35811783163537725 0.737236008938135
40.53333333333334 -237.0666666666667 2992.0 0.0 0.0 1.0
-21.8173 -44.5676 1440.8066666666666 -0.7368341438772255 -0.6699425303394745 0.09084299895456224
40.53333333333333 -79.73333333333333 2992.0 0.0 0.0 1.0
-13.430253333333333 129.65099999999998 1569.2299999999998 0.3151127988422461 -0.6931731305960757 0.6482398746030994
-19.053466666666665 141.365 1571.9799999999998 -2.3159680663929935e-16 0.9226015086320054 0.3857543988990241
-19.744600000000002 157.28266666666667 1522.6533333333334 -0.9896878017656894 0.0001906421431133309 0.14324112081302168
37.6 330.6666666666667 2992.0 0.0 0.0 1.0
35.199999999999996 -368.8 2992.0 0.0 0.0 1.0
37.86666666666667 -354.93333333333334 2992.0 0.0 0.0 1.0
-12.093033333333333 -135.504 1739.53 0.0 0.0 1.0
38.93333333333334 -225.0666666666667 2992.0 0.0 0.0 1.0
35.46666666666667 -181.6 2992.0 0.0 0.0 1.0
-19.696633333333335 -67.17073333333333 1483.6499999999999 -0.8858439874157027 -0.2210698388543437 0.4079320486409016
36.53333333333333 -72.80000000000001 2992.0 0.0 0.0 1.0
37.333333333333336 -72.00000000000001 2992.0 0.0 0.0 1.0
-6.579683333333333 66.10916666666667 1822.54 0.8249062250562705 0.3437078738296707 0.4487701163523489
-18.58086666666667 141.06866666666667 1573.36 0.4149304361547659 0.8299594306079211 0.37282714050534355
-22.1032 157.55700000000002 1521.36 0.18520127385248467 0.5928260923219101 0.7837459489054799
-19.393933333333333 207.20133333333334 1600.0 0.0 0.0 1.0
39.733333333333334 413.59999999999997 2992.0 0.0 0.0 1.0
36.0 429.3333333333333 2992.0 0.0 0.0 1.0
38.13333333333333 -424.79999999999995 2992.0 0.0 0.0 1.0
-12.599683333333331 -179.08433333333335 1754.8500000000001 0.5299746695888562 0.5299381688545147 0.6620365449016441
35.2 -222.66666666666666 2992.0 0.0 0.0 1.0
34.93333333333333 -219.46666666666667 2992.0 0.0 0.0 1.0
-24.052300000000002 -63.268 1466.67 0.0 0.0 1.0
36.26666666666667 -71.46666666666668 2992.0 0.0 0.0 1.0
-10.000013333333333 13.1746 1780.95 0.0 0.0 1.0
-12.107893333333331 39.576233333333334 1835.5933333333332 -0.6145663655366745 0.5240946599599547 0.5896040788126402
-8.439963333333333 82.27693333333333 1820.6899999999998 0.9155688608081766 0.3923868467383416 -0.08812618013484355
-17.83066666666667 132.7913333333333 1581.6766666666665 -2.425226732755728e-16 0.8862254439618291 0.4632542093437024
-18.504833333333334 135.233 1578.89 0.0 0.0 1.0
-18.59006666666667 196.47966666666665 1580.2833333333335 -0.774189000652293 0.5528275177864858 0.3082419939707057
39.733333333333334 413.59999999999997 2992.0 0.0 0.0 1.0
38.13333333333333 -424.79999999999995 2992.0 0.0 0.0 1.0
38.13333333333333 -402.9333333333334 2992.0 0.0 0.0 1.0
35.199999999999996 -230.4 2992.0 0.0 0.0 1.0
36.26666666666667 -177.86666666666665 2992.0 0.0 0.0 1.0
-22.064466666666664 -39.529133333333334 1435.03 -0.8649733488216478 0.4805398194074805 0.14457727273707408
-20.765066666666666 -21.299400000000002 1493.5133333333333 -0.5944224824763221 0.594422482476323 0.5415937819559712
-11.529060000000001 5.21413 1770.4233333333334 0.6202986177068057 -0.2020071004259306 0.7579068255719394
-7.732776666666666 66.90136666666668 1826.25 0.9192768356717108 0.38302861228624896 -0.09065970200412665
-9.273813333333333 114.79133333333334 1824.3999999999999 0.8991287977415029 -0.0007198932351089152 0.43768354644154644
-20.080699999999997 150.46399999999997 1548.93 -0.9240078036409509 -0.3520105748148411 0.149325597367468
36.0 429.3333333333333 2992.0 0.0 0.0 1.0
35.46666666666667 434.1333333333334 2992.0 0.0 0.0 1.0
33.6 -396.5333333333333 2992.0 0.0 0.0 1.0
-14.263600000000002 -152.868 1739.53 0.0 0.0 1.0
36.26666666666667 -177.86666666666665 2992.0 0.0 0.0 1.0
-25.566399999999998 -42.8085 1416.9666666666665 -0.9852591350067845 0.154842302269901 0.0727206869703467
-16.741076666666668 -18.016766666666665 1556.9966666666667 -0.6447278165261578 -0.7220213342456852 0.25102038859720915
-8.168893333333335 0.0013900000000000023 1763.46 -0.5943443484539612 -0.1981161820028528 0.7794259258514877
37.6 1.8666666666666665 2992.0 0.0 0.0 1.0
-10.000013333333333 13.1746 1780.95 0.0 0.0 1.0
-9.352113333333334 27.812233333333335 1793.4133333333332 0.7704275661808141 -0.5503090148043039 0.3218716413321059
-11.292333333333334 27.071566666666666 1797.01 0.822147038770384 -0.4935807357059556 0.28364115353921443
-10.969353333333332 63.894299999999994 2012.6366666666665 0.8064051368228787 0.5913632697197796 -0.0004883973848830026
-10.356786666666666 108.78733333333334 1829.97 0.0 0.0 1.0
-10.356786666666666 108.78733333333334 1829.97 0.0 0.0 1.0
-10.152466666666667 128.321 1822.54 0.9491493402132984 -0.23725085736922696 -0.2069482076516409
-8.676243333333334 130.17066666666665 1818.8533333333332 0.8052500438695505 0.49580189677373 0.3251966266793965
-20.523600000000002 168.23766666666666 1566.49 0.0 0.0 1.0
-17.38553333333333 198.588 1585.87 -0.42136756867035835 -0.842867538776279 0.33469939371030977
-19.393933333333333 207.20133333333334 1600.0 0.0 0.0 1.0
35.199999999999996 -368.8 2992.0 0.0 0.0 1.0
36.266666666666666 -364.5333333333333 2992.0 0.0 0.0 1.0
35.46666666666667 -355.7333333333333 2992.0 0.0 0.0 1.0
35.46666666666667 -355.7333333333333 2992.0 0.0 0.0 1.0
35.199999999999996 -255.19999999999996 2992.0 0.0 0.0 1.0
-12.093033333333333 -135.504 1739.53 0.0 0.0 1.0
-11.317846666666668 -106.97700000000002 1739.53 0.0 0.0 1.0
-24.026100000000003 -68.18476666666668 1457.1433333333334 0.1604403476807271 0.5348469545479285 0.829576777668525
-18.966066666666666 -61.44 1525.2466666666667 0.5129234789570769 0.8450208109719012 -0.15115996083275363
36.26666666666666 -71.46666666666665 2992.0 0.0 0.0 1.0
-13.63227 -8.573366666666667 1748.01 -0.13003809041143713 0.5758770156607652 0.8071280926072377
37.6 1.8666666666666665 2992.0 0.0 0.0 1.0
-10.8247 89.3593 1826.25 0.977645235478565 0.12220565443482068 0.17110105660170077
-10.356793333333334 100.469 1829.97 0.0 0.0 1.0
-19.7007 141.06866666666667 1573.36 -0.4468326590456424 -0.8937714541148278 -0.038899390993520695
28.0 340.8 2992.0 0.0 0.0 1.0
-20.070166666666665 189.47400000000002 1574.74 0.0 0.0 1.0
-21.442266666666665 206.749 1507.3266666666666 0.1913020575349289 0.9565340814628913 0.220104688234588
36.0 429.3333333333333 2992.0 0.0 0.0 1.0
34.666666666666664 -408.2666666666667 2992.0 0.0 0.0 1.0
33.6 -396.5333333333333 2992.0 0.0 0.0 1.0
35.199999999999996 -368.8 2992.0 0.0 0.0 1.0
33.6 -296.53333333333336 2992.0 0.0 0.0 1.0
-9.512686666666665 -175.59433333333334 1749.71 0.0 0.0 1.0
-12.7132 -155.659 1739.53 0.0 0.0 1.0
35.46666666666667 -181.6 2992.0 0.0 0.0 1.0
-11.162793333333333 -100.62013333333334 1739.53 0.0 0.0 1.0
-25.566399999999998 -42.8085 1416.9666666666665 -0.9852591350067845 0.15484230226990098 0.0727206869703467
39.2 13.6 2992.0 0.0 0.0 1.0
-10.8247 89.3593 1826.25 0.9776452354785651 0.12220565443482065 0.17110105660170077
-11.4776 126.47033333333333 1826.25 0.8095937511853142 -0.20236732350919578 0.5510040148832094
-17.083699999999997 121.25099999999999 1604.2966666666664 -0.19894899157709842 0.9748055227705849 0.10086372750609045
-18.504833333333334 135.23300000000003 1578.89 0.0 0.0 1.0
-22.576633333333334 158.186 1563.7633333333335 0.06472403731700276 0.7762394054398591 0.6271069960028842
-20.435366666666667 164.04966666666667 1565.1266666666668 -0.9878410995227613 0.15197694932419034 -0.03275620502706224
-20.070166666666665 189.47400000000002 1574.74 0.0 0.0 1.0
-20.070166666666665 189.47400000000002 1574.74 0.0 0.0 1.0
-14.9555 -194.02599999999998 1775.67 0.0 0.0 1.0
-10.407033333333333 -164.35566666666668 1742.9166666666667 0.21651891894900166 0.4872691243514596 0.8459836630756633
35.199999999999996 -255.20000000000002 2992.0 0.0 0.0 1.0
-24.052300000000002 -63.268 1466.67 0.0 0.0 1.0
-24.052300000000002 -63.268 1466.67 0.0 0.0 1.0
32.26666666666666 -76.0 2992.0 0.0 0.0 1.0
32.800000000000004 -70.39999999999999 2992.0 0.0 0.0 1.0
-11.292333333333334 27.071566666666666 1797.01 0.8221470387703835 -0.4935807357059563 0.28364115353921476
-8.293379999999999 59.52760000000001 1981.5166666666667 -0.9498945558956556 -0.2612352261542975 0.17162892907638955
-24.300933333333333 152.9033333333333 1531.74 -0.9142090728329769 -0.38492023418984295 0.12672089196776348
-22.576633333333334 158.186 1563.7633333333333 0.0647240373170027 0.776239405439859 0.6271069960028842
-20.3342 195.74333333333334 1578.89 0.0 0.0 1.0
30.133333333333336 -398.93333333333334 2992.0 0.0 0.0 1.0
27.733333333333334 -337.8666666666667 2992.0 0.0 0.0 1.0
35.46666666666667 -234.13333333333335 2992.0 0.0 0.0 1.0
35.199999999999996 -161.6 2992.0 0.0 0.0 1.0
35.199999999999996 -161.6 2992.0 0.0 0.0 1.0
31.46666666666667 -99.46666666666665 2992.0 0.0 0.0 1.0
-16.43413333333333 -51.47286666666667 1739.53 0.0 0.0 1.0
30.133333333333336 -64.8 2992.0 0.0 0.0 1.0
-7.8858999999999995 36.062666666666665 1944.9833333333333 -0.9330097290034918 -0.31100821587041566 0.1810158425274751
-11.6616 89.54129999999999 1829.97 0.0 0.0 1.0
-11.2429 91.5686 1828.11 0.9906896183715399 -2.5984148609800285e-17 0.13613992820202625
-19.614866666666668 141.64566666666667 1571.9799999999998 -1.727487611236555e-17 0.977712467236466 0.20994840178096777
31.46666666666667 282.93333333333334 2992.0 0.0 0.0 1.0
31.46666666666667 282.93333333333334 2992.0 0.0 0.0 1.0
-19.6006 171.85466666666665 1565.1266666666668 0.5524780816029905 0.36833337760352053 0.7477288895659051
31.73333333333333 -411.4666666666667 2992.0 0.0 0.0 1.0
30.399999999999995 -371.2 2992.0 0.0 0.0 1.0
29.866666666666664 -350.1333333333334 2992.0 0.0 0.0 1.0
29.599999999999998 -246.9333333333333 2992.0 0.0 0.0 1.0
32.8 -220.53333333333333 2992.0 0.0 0.0 1.0
28.799999999999997 -198.4 2992.0 0.0 0.0 1.0
-24.0261 -68.18476666666668 1457.1433333333334 0.16044034768072704 0.5348469545479286 0.829576777668525
-24.269099999999998 -62.00993333333333 1467.8700000000001 0.14945568200992873 -0.7472021960353548 0.6475738393070634
31.46666666666667 -99.46666666666665 2992.0 0.0 0.0 1.0
31.46666666666667 -99.46666666666665 2992.0 0.0 0.0 1.0
30.133333333333336 -68.53333333333332 2992.0 0.0 0.0 1.0
-17.169366666666665 0.925299 1727.82 -0.9075366041575854 0.40336917887695584 0.11692141654225989
-7.352893333333333 56.185233333333336 1964.1200000000001 0.9921539488552951 1.313682295159327e-13 0.12502216511820713
-7.352893333333333 56.185233333333336 1964.1200000000001 0.9921539488552951 1.313682295159327e-13 0.12502216511820713
-11.2434 87.332 1828.11 0.9601300704599213 -0.10668111893999122 0.2583977295959436
-10.356786666666666 108.78733333333332 1829.97 0.0 0.0 1.0
-21.664533333333335 126.72466666666666 1588.6766666666665 0.8086365758921914 0.404699720293217 0.4269953448504379
-22.228866666666665 201.63 1588.676666666667 -0.16738306159221558 -0.7948921046885415 0.5832061836056244
31.73333333333333 -411.46666666666664 2992.0 0.0 0.0 1.0
29.599999999999998 -375.4666666666667 2992.0 0.0 0.0 1.0
29.866666666666664 -350.1333333333334 2992.0 0.0 0.0 1.0
-14.9555 -194.02599999999998 1775.67 0.0 0.0 1.0
-14.263599999999999 -152.868 1739.53 0.0 0.0 1.0
28.799999999999997 -218.66666666666666 2992.0 0.0 0.0 1.0
29.066666666666663 -202.9333333333333 2992.0 0.0 0.0 1.0
-16.43413333333333 -51.47286666666667 1739.53 0.0 0.0 1.0
-21.7002 -15.904006666666668 1534.4066666666665 -0.7572415374832234 -0.6360024551717962 0.1486140334069808
-8.289946666666667 33.872066666666676 1938.6933333333334 -0.992941993105218 0.0001681033482267336 0.11860088561853707
-7.8858999999999995 36.062666666666665 1944.9833333333333 -0.9330097290034918 -0.31100821587041566 0.1810158425274751
-2.9333333333333336 140.53333333333333 2992.0 0.0 0.0 1.0
-21.664533333333335 126.72466666666666 1588.6766666666665 0.8086365758921914 0.404699720293217 0.4269953448504379
31.46666666666667 282.93333333333334 2992.0 0.0 0.0 1.0
-25.3339 162.07466666666667 1548.9233333333334 0.25595873314293366 -0.43514219658343034 0.8632128333617449
-24.886166666666668 206.20666666666668 1538.3266666666666 0.9507493734048257 0.30835503402242803 0.03150876010506576
29.599999999999998 -396.5333333333333 2992.0 0.0 0.0 1.0
26.400000000000002 -84.26666666666667 2992.0 0.0 0.0 1.0
29.866666666666664 -78.39999999999999 2992.0 0.0 0.0 1.0
-17.908266666666666 -24.122 1746.3100000000002 0.05473787245369533 -0.7115454069591706 0.7005047459900263
-9.778536666666666 33.471900000000005 1926.2366666666667 -0.9929364074642427 -0.0003048257623346109 0.11864736749400666
-7.352893333333334 56.185233333333336 1964.1200000000001 0.9921539488552951 1.313682295159327e-13 0.12502216511820713
-7.587763333333332 59.32483333333334 1957.71 -0.9930251524190181 9.700652129308298e-16 0.11790269998259555
-13.742933333333333 122.68866666666668 1835.5933333333335 0.8891384528131715 -0.3559488210572599 -0.287633879292664
-22.399999999999995 122.45333333333333 1595.7300000000002 -1.6908692708583433e-27 8.459442997925242e-28 1.0
-25.892266666666668 158.35666666666665 1544.9366666666667 -0.33287493282922404 -0.8711293568824008 0.3610095880604755
-20.3342 195.74333333333334 1578.89 0.0 0.0 1.0
-26.169766666666664 207.609 1517.5 0.2949651473495266 -0.8850770708339114 0.36004741428475145
28.8 -422.1333333333334 2992.0 0.0 0.0 1.0
30.133333333333336 -398.93333333333334 2992.0 0.0 0.0 1.0
27.73333333333333 -383.73333333333335 2992.0 0.0 0.0 1.0
-18.074366666666666 -184.83633333333333 1763.46 0.4496831082473855 0.6744929050894171 0.5855291821429645
29.333333333333332 -301.06666666666666 2992.0 0.0 0.0 1.0
28.266666666666666 -226.13333333333333 2992.0 0.0 0.0 1.0
-22.138566666666666 -12.732266666666668 1553.01 -0.4951759296273143 -0.8665516663308052 0.06236191383392728
-13.470633333333334 105.13033333333333 1843.1233333333332 0.9528464158602471 0.19060800102722472 0.2361192447190327
-22.399999999999995 122.45333333333333 1595.7300000000002 -1.6908692708583433e-27 8.459442997925242e-28 1.0
28.0 -357.8666666666666 2992.0 0.0 0.0 1.0
29.866666666666664 -350.1333333333334 2992.0 0.0 0.0 1.0
-15.536233333333334 -84.09660000000001 1734.49 0.0 0.0 1.0
-17.169366666666665 0.925299 1727.82 -0.9075366041575855 0.4033691788769556 0.11692141654226
-9.355193333333332 82.88523333333332 1961.97 0.0 0.0 1.0
-9.355193333333332 82.88523333333332 1961.97 0.0 0.0 1.0
-13.402233333333333 101.7846 1845.0166666666667 0.9750349167208257 0.1083591524612793 0.19381745342740855
-13.933133333333336 107.37533333333333 1839.3466666666666 -0.9510125758692672 -0.19024115851297824 0.2436870578141989
-12.479133333333332 125.42366666666668 1829.9800000000002 0.662880313826946 0.7455055801449316 0.06936223405757809
-22.4909 121.423 1597.1533333333334 -0.1887053440628316 0.942775434401012 0.27489047530264027
-22.501733333333334 124.79033333333332 1592.9033333333334 -0.6576833805653918 0.6569114517149613 0.3686731825530845
-27.21936666666667 135.959 1550.26 0.0 0.0 1.0
-26.028233333333333 153.14866666666668 1536.9866666666667 -0.819393572911593 0.5463199391704784 0.17357619864468296
26.400000000000002 -426.3999999999999 2992.0 0.0 0.0 1.0
27.2 -394.6666666666667 2992.0 0.0 0.0 1.0
28.0 -375.2 2992.0 0.0 0.0 1.0
29.866666666666664 -78.39999999999999 2992.0 0.0 0.0 1.0
28.53333333333333 -64.26666666666667 2992.0 0.0 0.0 1.0
-17.169366666666665 0.925299 1727.82 -0.9075366041575853 0.4033691788769556 0.11692141654226011
-11.957273333333333 39.2945 1917.9866666666667 -0.9715249127301049 -0.21937876864577496 0.0895114507324383
-9.572730000000002 67.82959999999999 1820.6899999999998 -0.15567105743813206 0.9859583118263828 0.060437812804265
-9.355193333333332 82.88523333333332 1961.97 0.0 0.0 1.0
-9.452976666666666 85.60653333333333 1964.1200000000001 -0.8148493314596457 -0.4074168993427522 0.4123494114821873
-13.402233333333333 101.7846 1845.0166666666667 0.975034916720826 0.10835915246127881 0.1938174534274077
-22.501733333333334 124.79033333333332 1592.9033333333334 -0.6576833805653918 0.6569114517149613 0.3686731825530845
-25.024666666666665 155.35 1534.3633333333335 -0.9903513525717877 -0.003376162953080326 0.13853808134568796
27.2 342.1333333333334 2992.0 0.0 0.0 1.0
-19.393933333333337 207.20133333333334 1600.0 0.0 0.0 1.0
-25.615066666666667 206.174 1533.0533333333333 0.37376423573474166 0.7474599746639118 0.5491847433797199
26.666666666666668 -372.5333333333333 2992.0 0.0 0.0 1.0
28.0 -371.4666666666667 2992.0 0.0 0.0 1.0
-14.978666666666667 -144.94466666666668 1741.2233333333334 0.5729176954761876 -0.35811783163537725 0.737236008938135
24.26666666666667 -193.6 2992.0 0.0 0.0 1.0
-18.7826 -78.06763333333333 1734.49 0.0 0.0 1.0
26.399999999999995 -100.0 2992.0 0.0 0.0 1.0
26.13333333333333 -67.73333333333333 2992.0 0.0 0.0 1.0
-15.498133333333334 7.590816666666666 1773.9166666666667 -4.809521320651529e-17 -0.8781460659700843 0.47839260740657796
-13.601133333333332 64.2002 1920.0199999999998 -0.9358519044955911 -0.1017211418233221 0.337392978821633
-14.425433333333332 110.98566666666666 1839.3466666666666 -0.958569687276713 -0.1127607782667443 0.261589681598687
-23.209699999999998 156.31333333333333 1531.74 -0.3506203739183512 0.9350781157456652 0.05190636614994022
25.066666666666666 -336.8 2992.0 0.0 0.0 1.0
27.2 -335.46666666666664 2992.0 0.0 0.0 1.0
-14.9555 -194.02599999999998 1775.67 0.0 0.0 1.0
-18.881966666666667 -181.15533333333335 1758.28 -0.8861994629550269 0.2952952176489717 0.35700314605317995
25.333333333333332 -295.2 2992.0 0.0 0.0 1.0
23.2 -205.33333333333334 2992.0 0.0 0.0 1.0
-19.246366666666663 -73.58453333333334 1734.49 0.0 0.0 1.0
-16.43413333333333 -51.47286666666667 1739.53 0.0 0.0 1.0
-9.955216666666665 84.01613333333334 1959.8333333333333 -0.8910129893496153 -0.44549800236648185 0.08733488820475241
-13.580333333333334 109.444 1835.5933333333332 -0.27707985694485043 0.9225213025221618 0.2686655900338475
-13.664976666666668 131.66833333333332 1806.0600000000002 -0.4349854974972392 -0.8695994395070359 0.23363311361219388
-23.822233333333333 121.88466666666666 1595.7300000000002 1.4658803331512007e-28 2.6655746685811724e-26 1.0
-25.169633333333334 137.00166666666667 1573.36 -0.8790161702021556 1.1853237623019807e-15 0.4767919593734095
-25.169633333333334 137.00166666666667 1573.36 -0.8790161702021556 1.1853237623019807e-15 0.4767919593734095
-26.219366666666662 156.19733333333332 1523.9433333333334 0.24499563374632582 0.7842268099378716 0.5700574094070749
24.0 -437.3333333333333 2992.0 0.0 0.0 1.0
24.0 -437.3333333333333 2992.0 0.0 0.0 1.0
25.333333333333332 -392.0 2992.0 0.0 0.0 1.0
-18.881966666666667 -181.15533333333335 1758.28 -0.8861994629550267 0.29529521764897215 0.35700314605317995
24.0 -269.3333333333333 2992.0 0.0 0.0 1.0
25.066666666666666 -256.5333333333333 2992.0 0.0 0.0 1.0
26.400000000000002 -243.20000000000002 2992.0 0.0 0.0 1.0
28.53333333333333 -230.9333333333333 2992.0 0.0 0.0 1.0
28.8 -218.66666666666666 2992.0 0.0 0.0 1.0
-17.616566666666667 -113.13233333333334 1741.2233333333334 0.5772994819246666 -0.5773408579850084 0.5774104622109353
24.26666666666667 -193.6 2992.0 0.0 0.0 1.0
20.266666666666666 -143.20000000000002 2992.0 0.0 0.0 1.0
20.266666666666666 -108.8 2992.0 0.0 0.0 1.0
27.46666666666667 -69.33333333333333 2992.0 0.0 0.0 1.0
-26.169766666666664 207.609 1517.5 0.29496514734952645 -0.8850770708339114 0.3600474142847515
22.666666666666668 -390.1333333333334 2992.0 0.0 0.0 1.0
22.133333333333336 -334.6666666666667 2992.0 0.0 0.0 1.0
24.0 -269.3333333333333 2992.0 0.0 0.0 1.0
-35.171099999999996 -14.813220000000001 1409.11 0.7937242618046548 0.5732393276508755 0.20346613835483257
-32.3192 -12.726766666666668 1441.9433333333334 -0.8237369284851812 -0.5663158080044313 -0.027274131591819916
-20.8218 2.97901 1756.5600000000002 0.7590213079579544 -0.40481524663997925 0.5099130025343626
-15.498133333333334 7.590816666666666 1773.9166666666667 -4.809521320651529e-17 -0.8781460659700843 0.47839260740657796
-19.034833333333335 91.84336666666665 1795.2266666666667 -0.7062089824558411 0.7061787023698389 0.05079875409826644
-17.038066666666666 119.108 1820.6899999999998 -0.9925991527390394 1.4288093993135422e-17 0.12143690535311417
-27.593566666666664 181.02066666666667 1551.6133333333335 0.1634682147596318 -0.9822397322243422 0.09210456667913579
-31.545566666666662 208.86866666666666 1548.93 -0.08243739534032393 0.9902966770755091 0.11187746521399493
-26.169766666666664 207.609 1517.5 0.2949651473495266 -0.8850770708339114 0.36004741428475145
21.866666666666664 418.6666666666667 2992.0 0.0 0.0 1.0
23.46666666666667 -428.5333333333333 2992.0 0.0 0.0 1.0
24.0 -269.3333333333333 2992.0 0.0 0.0 1.0
26.400000000000002 -243.20000000000002 2992.0 0.0 0.0 1.0
21.066666666666666 -146.93333333333337 2992.0 0.0 0.0 1.0
21.599999999999998 -56.26666666666667 2992.0 0.0 0.0 1.0
-17.4894 118.54333333333334 1817.0033333333333 -0.992579734464876 -4.865867355333471e-17 0.12159552100976287
-17.038066666666666 119.108 1820.6899999999998 -0.9925991527390394 1.4288093993135422e-17 0.12143690535311417
-24.856399999999997 159.86066666666667 1562.4000000000003 -2.973560963942951e-27 -1.3525906369514847e-26 1.0
-27.593566666666664 181.02066666666667 1551.6133333333335 0.16346821475963255 -0.9822397322243421 0.09210456667913604
24.0 -437.3333333333333 2992.0 0.0 0.0 1.0
25.333333333333332 -375.4666666666667 2992.0 0.0 0.0 1.0
23.2 -205.33333333333334 2992.0 0.0 0.0 1.0
-22.372133333333334 -114.79466666666667 1742.9166666666667 0.3141293120535666 -0.7180813272413472 0.6210329965276067
-19.246366666666663 -73.58453333333334 1734.49 0.0 0.0 1.0
19.466666666666665 -87.2 2992.0 0.0 0.0 1.0
21.599999999999998 -56.26666666666667 2992.0 0.0 0.0 1.0
-32.598733333333335 -10.0062 1477.5733333333335 0.6874545250404783 0.7232218696516277 0.06600305492152826
-16.09913333333333 32.191966666666666 1881.7733333333333 -0.993004732268026 -3.918186600418214e-05 0.11807455338932152
-17.109326666666668 79.80133333333333 1977.1133333333335 0.0744297000654114 0.6140485376998945 0.7857509866979451
-23.02286666666667 71.6291 1806.0366666666669 0.5711709075077309 0.2390946067755896 0.7852372656895629
-18.0067 88.9517 1915.9199999999998 -0.8797753423794977 -0.4713123900690635 0.06212872047953574
-13.074763333333335 92.2759 1800.6066666666666 0.03148733522336455 0.9761668513039589 0.21472500118953552
-17.4894 118.54333333333334 1817.0033333333333 -0.992579734464876 -7.641424916896362e-17 0.12159552100976287
-12.688463333333333 131.08633333333333 1802.42 -0.2896112323809645 -0.9331284181613615 0.21306498843886632
21.066666666666666 269.8666666666666 2992.0 0.0 0.0 1.0
22.133333333333336 272.0 2992.0 0.0 0.0 1.0
23.2 339.73333333333335 2992.0 0.0 0.0 1.0
21.866666666666664 418.6666666666667 2992.0 0.0 0.0 1.0
-35.029066666666665 208.01233333333334 1421.3833333333334 -0.06867274816422017 0.9957492543723614 0.06137976927668957
20.8 -415.4666666666667 2992.0 0.0 0.0 1.0
22.133333333333336 -360.8 2992.0 0.0 0.0 1.0
-18.074366666666666 -184.83633333333333 1763.46 0.4496831082473855 0.6744929050894171 0.5855291821429645
-18.881966666666667 -181.15533333333335 1758.28 -0.8861994629550267 0.29529521764897265 0.35700314605317973
20.8 -274.1333333333334 2992.0 0.0 0.0 1.0
21.066666666666666 -205.6 2992.0 0.0 0.0 1.0
24.26666666666667 -193.6 2992.0 0.0 0.0 1.0
21.866666666666664 -96.26666666666665 2992.0 0.0 0.0 1.0
-28.075333333333333 -0.40813333333333307 1610.0566666666666 0.7530800321545299 0.6054195633726638 0.2575609004794499
-20.296266666666668 15.122566666666666 1786.28 -0.9781648089541473 8.354734327962881e-05 0.2078306992326635
-16.09913333333333 32.191966666666666 1881.7733333333333 -0.993004732268026 -3.918186600473725e-05 0.11807455338932119
-12.719033333333334 48.17713333333333 1915.9199999999998 -0.8957360617757272 -0.20226498743276666 0.3959113316051124
-7.277799999999999 96.03646666666667 2749.403333333333 -0.06874852220288767 0.9969471027002762 0.037015066019715985
-17.876 113.57333333333334 1815.1666666666667 -0.9917501945460832 0.03814060719625115 0.12237992360067647
-27.21936666666667 135.95899999999997 1550.26 0.0 0.0 1.0
