ply
format ascii 1.0
comment VCGLIB generated
element vertex 817
property float x
property float y
property float z
property float nx
property float ny
property float nz
element face 0
property list uchar int vertex_indices
end_header
-19.279799999999998 23.2687 1657.62 0.0 0.0 1.0
-7.720646666666667 35.6989 1949.2033333333331 0.054344888909217896 0.9964367469277153 0.064501491622726
-18.9011 39.34063333333334 1643.96 0.0 0.0 1.0
-19.2146 48.292233333333336 1639.45 0.0 0.0 1.0
-7.111113333333333 73.86666666666666 1994.67 0.0 0.0 1.0
-3.568046666666666 73.70236666666666 1860.3400000000001 0.495767751390203 -0.8562082838176269 0.14533310498154112
-6.044443333333334 77.7778 1994.67 0.0 0.0 1.0
-6.933333333333333 80.97776666666665 1994.67 0.0 0.0 1.0
-21.304333333333332 68.0435 1626.09 0.0 0.0 1.0
-19.728099999999998 71.85003333333333 1633.4866666666667 0.959228318978077 0.2616149770914697 0.10695155834265596
-19.357599999999998 75.32376666666667 1639.46 -0.9072714308852452 0.22568711686313553 0.3548575432218469
-5.155556666666667 111.37766666666666 1994.67 0.0 0.0 1.0
-18.7546 89.74356666666667 1643.96 0.0 0.0 1.0
-5.511113333333334 119.55566666666665 1994.67 0.0 0.0 1.0
-18.608066666666666 117.58233333333334 1643.96 0.0 0.0 1.0
-4.444446666666667 146.75566666666666 1994.67 0.0 0.0 1.0
-12.8033 -132.844 1829.97 0.0 0.0 1.0
-13.2926 -123.71033333333334 1829.97 0.0 0.0 1.0
-7.644443333333332 -129.511 1994.67 0.0 0.0 1.0
-6.755553333333334 -126.84466666666667 1994.67 0.0 0.0 1.0
-6.755553333333334 -126.84466666666667 1994.67 0.0 0.0 1.0
-7.111109999999999 -109.77799999999998 1994.67 0.0 0.0 1.0
-7.2888866666666665 -103.911 1994.67 0.0 0.0 1.0
-6.755553333333334 -101.60000000000001 1994.67 0.0 0.0 1.0
-6.3999999999999995 -94.84443333333333 1994.67 0.0 0.0 1.0
-6.933333333333334 -71.02223333333335 1994.67 0.0 0.0 1.0
-6.3999999999999995 -68.17776666666667 1994.67 0.0 0.0 1.0
-6.933333333333334 -63.73333333333333 1994.67 0.0 0.0 1.0
-12.3577 -55.52846666666667 1824.39 0.0 0.0 1.0
-7.288889999999999 -55.73333333333333 1994.67 0.0 0.0 1.0
-13.4959 -36.178866666666664 1824.39 0.0 0.0 1.0
-13.170700000000002 -31.9512 1824.39 0.0 0.0 1.0
-13.170700000000002 -18.9431 1824.39 0.0 0.0 1.0
-13.821100000000001 -14.2276 1824.39 0.0 0.0 1.0
-6.3999999999999995 -3.644446666666667 1994.67 0.0 0.0 1.0
-12.206036666666664 14.538379999999998 1744.61 0.0 0.0 1.0
-19.889499999999998 12.449366666666668 1653.04 0.0 0.0 1.0
-7.466666666666666 33.155566666666665 1994.67 0.0 0.0 1.0
-18.754566666666665 36.99633333333333 1643.96 0.0 0.0 1.0
-4.8 48.79999999999999 1994.67 0.0 0.0 1.0
-20.237433333333332 47.415533333333336 1639.45 0.0 0.0 1.0
-18.50636666666667 56.17483333333333 1634.97 0.0 0.0 1.0
-16.703266666666668 61.465166666666676 1643.96 0.0 0.0 1.0
-6.755553333333334 78.66666666666667 1994.67 0.0 0.0 1.0
-6.755553333333334 79.91109999999999 1994.67 0.0 0.0 1.0
-19.561933333333332 69.12236666666666 1637.9566666666667 -1.3039023573232928e-16 0.8416993987597653 0.5399464067177867
-7.8222233333333335 90.40000000000002 1994.67 0.0 0.0 1.0
-7.288889999999999 93.24443333333333 1994.67 0.0 0.0 1.0
-7.111109999999999 94.66666666666667 1994.67 0.0 0.0 1.0
-8.888889999999998 92.6984 1899.68 0.0 0.0 1.0
-6.755556666666666 103.911 1994.67 0.0 0.0 1.0
-20.1093 104.40833333333335 1634.97 0.0 0.0 1.0
-23.439899999999998 106.40266666666668 1623.1599999999999 0.3010516144939542 0.9535879149436737 0.006165540038014498
-13.4557 -133.17033333333333 1829.97 0.0 0.0 1.0
-8.355556666666667 -141.778 1994.67 0.0 0.0 1.0
-8.177776666666666 -139.111 1994.67 0.0 0.0 1.0
-12.9664 -124.19966666666666 1829.97 0.0 0.0 1.0
-13.2926 -123.71033333333334 1829.97 0.0 0.0 1.0
-6.048976666666666 -119.02033333333334 1911.82 0.0 0.0 1.0
-8.533333333333333 -119.911 1994.67 0.0 0.0 1.0
-6.755556666666666 -98.75556666666667 1994.67 0.0 0.0 1.0
-6.57778 -93.60000000000001 1994.67 0.0 0.0 1.0
-7.466666666666666 -88.97776666666665 1994.67 0.0 0.0 1.0
-6.57778 -85.95553333333334 1994.67 0.0 0.0 1.0
-8.0 -83.28886666666666 1994.67 0.0 0.0 1.0
-7.644446666666667 -74.75553333333333 1994.67 0.0 0.0 1.0
-12.682899999999998 -53.4146 1824.39 0.0 0.0 1.0
-13.170700000000002 -49.8374 1824.39 0.0 0.0 1.0
-13.4959 -46.2602 1824.39 0.0 0.0 1.0
-13.3333 -34.227599999999995 1824.39 0.0 0.0 1.0
-13.3333 -34.227599999999995 1824.39 0.0 0.0 1.0
-13.658499999999998 -31.626 1824.39 0.0 0.0 1.0
-13.821100000000001 -25.284566666666667 1824.39 0.0 0.0 1.0
-13.3333 -23.821133333333336 1824.39 0.0 0.0 1.0
-13.821100000000001 -14.2276 1824.39 0.0 0.0 1.0
-13.821100000000001 -12.9268 1824.39 0.0 0.0 1.0
-6.9333366666666665 2.9333333333333336 1994.67 0.0 0.0 1.0
-8.177776666666666 4.71111 1994.67 0.0 0.0 1.0
-8.0 6.488886666666666 1994.67 0.0 0.0 1.0
-12.206036666666664 14.538379999999998 1744.61 0.0 0.0 1.0
-20.184166666666666 12.744033333333334 1653.04 0.0 0.0 1.0
-7.111113333333333 30.666666666666668 1994.67 0.0 0.0 1.0
-7.466666666666666 33.155566666666665 1994.67 0.0 0.0 1.0
-26.38276666666667 61.30506666666667 1583.0766666666668 -0.947631952274212 -0.23071744687333967 0.2208237820915429
-6.933333333333333 80.97776666666665 1994.67 0.0 0.0 1.0
-6.9333366666666665 91.82223333333333 1994.67 0.0 0.0 1.0
-7.288889999999999 92.35556666666666 1994.67 0.0 0.0 1.0
-7.288889999999999 93.24443333333333 1994.67 0.0 0.0 1.0
-7.466666666666666 104.26633333333332 1994.67 0.0 0.0 1.0
-13.360100000000001 116.79633333333334 1897.676666666667 0.05794354893189415 -0.40555921768158454 0.9122303799428509
-21.658466666666666 105.63166666666666 1620.2299999999998 -9.657854287607042e-17 0.9994373094705339 0.03354198023820373
-13.4557 -133.17033333333333 1829.97 0.0 0.0 1.0
-8.0 -138.39966666666666 1994.67 0.0 0.0 1.0
-7.644443333333332 -129.511 1994.67 0.0 0.0 1.0
-7.644443333333332 -129.511 1994.67 0.0 0.0 1.0
-8.0 -122.22233333333334 1994.67 0.0 0.0 1.0
-8.0 -83.28886666666666 1994.67 0.0 0.0 1.0
-8.177776666666666 -71.02223333333335 1994.67 0.0 0.0 1.0
-6.933333333333334 -63.73333333333333 1994.67 0.0 0.0 1.0
-12.054373333333332 -57.5511 1806.1466666666665 -0.26651706552350274 0.9593762269343008 0.09255219596555124
-13.4959 -46.2602 1824.39 0.0 0.0 1.0
-7.11111 -52.17780000000001 1994.67 0.0 0.0 1.0
-14.146300000000002 -30.6504 1824.39 0.0 0.0 1.0
-14.471533333333333 -25.935000000000002 1824.39 0.0 0.0 1.0
-13.008099999999999 -9.6748 1824.39 0.0 0.0 1.0
-8.355556666666667 7.199996666666666 1994.67 0.0 0.0 1.0
-20.3315 12.1547 1653.04 0.0 0.0 1.0
-20.184166666666666 12.744033333333334 1653.04 0.0 0.0 1.0
-19.279799999999998 23.2687 1657.62 0.0 0.0 1.0
-7.466666666666666 33.155566666666665 1994.67 0.0 0.0 1.0
-8.355543333333333 35.111133333333335 1994.67 0.0 0.0 1.0
-21.616933333333332 32.53873333333333 1633.4866666666667 2.654622016456312e-16 -0.9998014052176669 0.019928625762428702
-10.920643333333333 48.33863333333334 1899.68 0.0 0.0 1.0
-21.260266666666666 45.515966666666664 1639.45 0.0 0.0 1.0
-4.266666666666667 60.71113333333333 1994.67 0.0 0.0 1.0
-4.148157666666667 76.61376666666666 1899.68 0.0 0.0 1.0
-19.1099 68.6648 1630.5199999999998 0.0 1.0 0.0
-21.8028 75.91506666666666 1636.4633333333334 0.3135867335834108 0.9407362902101126 0.1291456263378727
-8.0 102.48866666666667 1994.67 0.0 0.0 1.0
-7.466666666666666 104.26633333333332 1994.67 0.0 0.0 1.0
-21.420766666666665 102.22233333333332 1634.97 0.0 0.0 1.0
-21.366866666666667 109.31733333333334 1636.4633333333334 -0.7150630269028795 -0.619761276222625 0.3233895917487063
-8.888890000000002 -142.84466666666665 1994.67 0.0 0.0 1.0
-8.177776666666666 -139.111 1994.67 0.0 0.0 1.0
-8.177776666666666 -139.111 1994.67 0.0 0.0 1.0
-8.533333333333333 -124.0 1994.67 0.0 0.0 1.0
-8.533333333333333 -119.911 1994.67 0.0 0.0 1.0
-8.888886666666666 -119.19966666666666 1994.67 0.0 0.0 1.0
-8.177776666666666 -112.089 1994.67 0.0 0.0 1.0
-8.177776666666666 -104.44433333333332 1994.67 0.0 0.0 1.0
-8.71111 -96.08890000000001 1994.67 0.0 0.0 1.0
-8.53333 -95.3778 1994.67 0.0 0.0 1.0
-8.888886666666666 -94.66666666666667 1994.67 0.0 0.0 1.0
-7.466666666666666 -88.97776666666665 1994.67 0.0 0.0 1.0
-8.0 -83.28886666666666 1994.67 0.0 0.0 1.0
-14.308933333333334 -37.8049 1824.39 0.0 0.0 1.0
-14.959333333333333 -30.0 1824.39 0.0 0.0 1.0
-14.308933333333334 -17.8049 1824.39 0.0 0.0 1.0
-13.821100000000001 -14.2276 1824.39 0.0 0.0 1.0
-14.3089 -13.0894 1824.39 0.0 0.0 1.0
-9.955543333333333 -6.311109999999999 1994.67 0.0 0.0 1.0
-8.355553333333333 -3.466666666666667 1994.67 0.0 0.0 1.0
-8.177776666666666 4.711110000000001 1994.67 0.0 0.0 1.0
-8.177776666666666 5.42222 1994.67 0.0 0.0 1.0
-20.495866666666668 10.211193333333334 1648.4800000000002 2.970194525335893e-28 1.5397486329822514e-32 1.0
-11.889566666666667 36.7728 1905.7300000000002 -3.1111917191566377e-27 5.4446618754922484e-27 1.0
-11.889566666666667 36.7728 1905.7300000000002 -3.111191719156636e-27 5.444661875492248e-27 1.0
-12.444466666666665 48.67726666666667 1899.68 0.0 0.0 1.0
-20.392166666666665 48.70586666666667 1760.0 0.0 0.0 1.0
-21.260266666666666 45.515966666666664 1639.45 0.0 0.0 1.0
-21.304333333333332 68.0435 1626.09 0.0 0.0 1.0
-9.777776666666666 84.53333333333333 1994.67 0.0 0.0 1.0
-8.71111 102.31099999999999 1994.67 0.0 0.0 1.0
-14.206666666666669 106.12966666666667 1897.676666666667 0.4313718079031467 0.8626374711685237 0.26414949684287703
-8.888886666666666 116.178 1994.67 0.0 0.0 1.0
-8.888886666666666 116.178 1994.67 0.0 0.0 1.0
-21.420766666666665 102.22233333333332 1634.97 0.0 0.0 1.0
-16.31264666666667 118.24266666666666 1706.5200000000002 0.5347407323805784 -0.8086778001040023 0.24513784846904788
-8.88889 -142.84466666666665 1994.67 0.0 0.0 1.0
-8.88889 -142.84466666666665 1994.67 0.0 0.0 1.0
-8.88889 -142.489 1994.67 0.0 0.0 1.0
-9.06667 -141.9556666666667 1994.67 0.0 0.0 1.0
-15.249699999999999 -126.32 1829.97 0.0 0.0 1.0
-14.923499999999999 -125.34166666666665 1829.97 0.0 0.0 1.0
-14.434233333333333 -124.68933333333332 1829.97 0.0 0.0 1.0
-9.422233333333333 -124.53333333333332 1994.67 0.0 0.0 1.0
-8.88889 -105.33333333333333 1994.67 0.0 0.0 1.0
-8.88889 -105.33333333333333 1994.67 0.0 0.0 1.0
-8.71111 -96.08890000000001 1994.67 0.0 0.0 1.0
-9.59999 -81.15553333333332 1994.67 0.0 0.0 1.0
-9.59999 -77.06666666666666 1994.67 0.0 0.0 1.0
-8.711113333333333 -75.11110000000001 1994.67 0.0 0.0 1.0
-7.288889999999999 -55.73333333333333 1994.67 0.0 0.0 1.0
-15.121966666666665 -38.6179 1824.39 0.0 0.0 1.0
-15.447166666666666 -15.203266666666666 1824.39 0.0 0.0 1.0
-9.244446666666667 1.3333356666666667 1994.67 0.0 0.0 1.0
-20.495866666666668 10.211193333333334 1648.4800000000002 2.970194525335893e-28 1.5397486329822514e-32 1.0
-21.215466666666668 12.302033333333334 1653.04 0.0 0.0 1.0
-11.889566666666667 36.7728 1905.7300000000002 -3.1111917191566377e-27 5.4446618754922484e-27 1.0
-23.333333333333332 33.6957 1626.09 0.0 0.0 1.0
-7.466656666666666 44.71113333333333 1994.67 0.0 0.0 1.0
-21.260266666666666 45.515966666666664 1639.45 0.0 0.0 1.0
-22.295066666666667 49.326033333333335 1634.97 0.0 0.0 1.0
-22.149333333333335 50.20033333333333 1634.97 0.0 0.0 1.0
-9.422213333333334 72.97776666666665 1994.67 0.0 0.0 1.0
-9.777756666666667 74.22223333333334 1994.67 0.0 0.0 1.0
-8.533333333333333 79.19996666666667 1994.67 0.0 0.0 1.0
-21.304333333333332 68.0435 1626.09 0.0 0.0 1.0
-9.06668 90.75556666666667 1994.67 0.0 0.0 1.0
-21.420766666666665 102.22233333333332 1634.97 0.0 0.0 1.0
-9.777766666666666 -133.24433333333332 1994.67 0.0 0.0 1.0
-9.777766666666666 -133.24433333333332 1994.67 0.0 0.0 1.0
-8.533333333333333 -129.689 1994.67 0.0 0.0 1.0
-9.42221 -119.733 1994.67 0.0 0.0 1.0
-9.42221 -110.84466666666667 1994.67 0.0 0.0 1.0
-9.42221 -94.66666666666667 1994.67 0.0 0.0 1.0
-8.71111 -83.64443333333334 1994.67 0.0 0.0 1.0
-9.59999 -79.7333 1994.67 0.0 0.0 1.0
-9.244446666666667 -76.0 1994.67 0.0 0.0 1.0
-9.422223333333333 -72.8 1994.67 0.0 0.0 1.0
-9.066666666666668 -71.55556666666666 1994.67 0.0 0.0 1.0
-15.121966666666665 -38.6179 1824.39 0.0 0.0 1.0
-15.7724 -32.439 1824.39 0.0 0.0 1.0
-15.7724 -32.439 1824.39 0.0 0.0 1.0
-15.447166666666666 -25.609799999999996 1824.39 0.0 0.0 1.0
-9.60001 -3.6444433333333333 1994.67 0.0 0.0 1.0
-8.888886666666666 4.71111 1994.67 0.0 0.0 1.0
-8.71111 7.02222 1994.67 0.0 0.0 1.0
-21.657466666666664 12.744033333333334 1653.04 0.0 0.0 1.0
-22.27103333333333 19.560433333333332 1643.96 0.0 0.0 1.0
-22.5641 20.0 1643.96 0.0 0.0 1.0
-24.91803333333333 38.834266666666664 1634.97 0.0 0.0 1.0
-23.023666666666667 51.803266666666666 1634.97 0.0 0.0 1.0
-8.156229999999999 68.46653333333335 1848.8433333333332 1.354591538682997e-05 -0.999315488682813 0.03699397106473687
-15.855766666666668 60.0551 1669.9566666666667 0.4835456562056715 0.2637508348721205 0.8346371040571381
-9.777790000000001 78.48886666666665 1994.67 0.0 0.0 1.0
-9.422223333333333 83.2889 1994.67 0.0 0.0 1.0
-10.666666666666666 88.08890000000001 1994.67 0.0 0.0 1.0
-9.42221 102.66666666666667 1994.67 0.0 0.0 1.0
-11.206916666666666 102.67999999999999 1877.8266666666666 1.054656386555964e-15 -0.8702962248331156 0.49252866012164914
-21.43506666666667 93.95099999999998 1630.5199999999998 4.203895392974451e-45 -0.9980525784828886 0.06237828615518049
-8.888886666666666 116.178 1994.67 0.0 0.0 1.0
-8.177776666666666 118.84466666666667 1994.67 0.0 0.0 1.0
-15.249699999999999 -126.32 1829.97 0.0 0.0 1.0
-9.777766666666666 -133.24433333333332 1994.67 0.0 0.0 1.0
-9.42221 -119.733 1994.67 0.0 0.0 1.0
-10.3111 -109.42233333333333 1994.67 0.0 0.0 1.0
-10.666633333333333 -101.95566666666666 1994.67 0.0 0.0 1.0
-10.666633333333333 -101.95566666666666 1994.67 0.0 0.0 1.0
-9.42221 -94.84443333333333 1994.67 0.0 0.0 1.0
-10.133333333333333 -92.35553333333333 1994.67 0.0 0.0 1.0
-10.31109 -82.04443333333333 1994.67 0.0 0.0 1.0
-9.955556666666666 -77.42223333333332 1994.67 0.0 0.0 1.0
-11.0222 -61.42223333333334 1994.67 0.0 0.0 1.0
-10.666633333333332 -60.0 1994.67 0.0 0.0 1.0
-16.748 -45.12199999999999 1824.39 0.0 0.0 1.0
-15.7724 -32.439 1824.39 0.0 0.0 1.0
-15.609766666666667 -30.3252 1824.39 0.0 0.0 1.0
-15.772366666666665 -14.552833333333334 1824.39 0.0 0.0 1.0
-16.9106 -9.349593333333333 1824.39 0.0 0.0 1.0
-21.657466666666664 12.744033333333334 1653.04 0.0 0.0 1.0
-21.643600000000003 23.564166666666665 1657.62 0.0 0.0 1.0
-9.6 35.82223333333334 1994.67 0.0 0.0 1.0
-12.266656666666668 43.4667 1994.67 0.0 0.0 1.0
-23.023666666666667 51.803266666666666 1634.97 0.0 0.0 1.0
-11.0222 67.8222 1994.67 0.0 0.0 1.0
-9.422213333333334 72.97776666666665 1994.67 0.0 0.0 1.0
-9.777756666666667 74.22223333333334 1994.67 0.0 0.0 1.0
-23.752266666666667 81.0929 1634.97 0.0 0.0 1.0
-10.3111 102.84466666666667 1994.67 0.0 0.0 1.0
-17.764366666666668 104.28266666666667 1763.46 6.315697463482571e-17 0.9925981558116527 0.12144505374574148
-21.658466666666666 105.63166666666666 1620.2299999999998 -9.657854287607042e-17 0.9994373094705339 0.03354198023820373
-21.538466666666665 118.16833333333334 1643.96 0.0 0.0 1.0
-10.844456666666668 -124.53333333333332 1994.67 0.0 0.0 1.0
-10.844433333333333 -101.06666666666666 1994.67 0.0 0.0 1.0
-9.777776666666666 -90.75553333333333 1994.67 0.0 0.0 1.0
-10.133333333333333 -77.06666666666666 1994.67 0.0 0.0 1.0
-16.748 -45.12199999999999 1824.39 0.0 0.0 1.0
-17.2358 -42.3577 1824.39 0.0 0.0 1.0
-16.4228 -15.365866666666667 1824.39 0.0 0.0 1.0
-16.9106 -9.349593333333333 1824.39 0.0 0.0 1.0
-9.60001 -3.6444433333333333 1994.67 0.0 0.0 1.0
-22.857133333333334 19.2674 1643.96 0.0 0.0 1.0
-23.546899999999997 25.923833333333334 1666.8499999999997 2.033423124627386e-27 5.591649836675446e-27 1.0
-9.6 35.82223333333334 1994.67 0.0 0.0 1.0
-23.333333333333332 33.6957 1626.09 0.0 0.0 1.0
-12.444466666666665 48.67726666666667 1899.68 0.0 0.0 1.0
-11.3778 54.666666666666664 1994.67 0.0 0.0 1.0
-22.877966666666666 48.8889 1634.97 0.0 0.0 1.0
-10.133333333333333 77.06666666666666 1994.67 0.0 0.0 1.0
-10.666666666666666 88.08890000000001 1994.67 0.0 0.0 1.0
-10.844456666666668 90.40000000000002 1994.67 0.0 0.0 1.0
-11.200000000000001 100.53333333333335 1994.67 0.0 0.0 1.0
-9.955566666666668 106.75533333333333 1994.67 0.0 0.0 1.0
-11.206916666666666 102.67999999999999 1877.8266666666666 1.054656386555964e-15 -0.8702962248331156 0.49252866012164914
-22.586533333333332 101.3479 1634.97 0.0 0.0 1.0
-22.877966666666666 102.80533333333334 1634.97 0.0 0.0 1.0
-23.752266666666667 105.13666666666667 1634.97 0.0 0.0 1.0
-23.04603333333333 118.53166666666668 1646.9733333333334 0.7012760869154246 0.700958047873746 0.12988327468006328
-21.538466666666665 118.16833333333334 1643.96 0.0 0.0 1.0
-9.6 -140.178 1994.67 0.0 0.0 1.0
-16.7176 -124.85233333333333 1829.97 0.0 0.0 1.0
-10.311100000000001 -119.19966666666666 1994.67 0.0 0.0 1.0
-10.666676666666666 -112.8 1994.67 0.0 0.0 1.0
-10.844433333333333 -107.82233333333333 1994.67 0.0 0.0 1.0
-10.48889 -106.75566666666668 1994.67 0.0 0.0 1.0
-11.3778 -98.93333333333334 1994.67 0.0 0.0 1.0
-9.422223333333333 -85.42220000000002 1994.67 0.0 0.0 1.0
-21.983033333333335 -68.32016666666668 1712.9766666666667 -0.7819219921688461 -0.3910036355212257 0.48550402178755186
-11.555533333333335 -63.02223333333334 1994.67 0.0 0.0 1.0
-16.747966666666667 -50.97560000000001 1824.39 0.0 0.0 1.0
-17.2358 -42.357699999999994 1824.39 0.0 0.0 1.0
-16.9106 -26.260199999999998 1824.39 0.0 0.0 1.0
-17.561 -22.357699999999998 1824.39 0.0 0.0 1.0
-17.0732 -20.569100000000002 1824.39 0.0 0.0 1.0
-17.8862 -19.7561 1824.39 0.0 0.0 1.0
-11.555533333333335 1.866666666666667 1994.67 0.0 0.0 1.0
-23.120966666666664 23.2687 1657.62 0.0 0.0 1.0
-11.3778 54.666666666666664 1994.67 0.0 0.0 1.0
-23.7523 48.451766666666664 1634.97 0.0 0.0 1.0
-11.0222 67.8222 1994.67 0.0 0.0 1.0
-10.4889 85.24443333333333 1994.67 0.0 0.0 1.0
-23.752266666666667 81.0929 1634.97 0.0 0.0 1.0
-11.200000000000001 100.53333333333335 1994.67 0.0 0.0 1.0
-11.0222 102.66699999999999 1994.67 0.0 0.0 1.0
-11.55556666666667 108.53333333333335 1994.67 0.0 0.0 1.0
-18.396600000000003 107.59499999999998 1893.67 0.0 0.0 1.0
-22.877966666666666 102.80533333333334 1634.97 0.0 0.0 1.0
-13.798933333333332 116.40233333333333 1899.68 0.0 0.0 1.0
-12.266666666666666 -127.02233333333334 1994.67 0.0 0.0 1.0
-22.1341 -101.30309999999999 1695.18 0.0 0.0 1.0
-22.28516666666667 -99.7923 1695.18 0.0 0.0 1.0
-11.377766666666666 -101.42233333333331 1994.67 0.0 0.0 1.0
-10.488866666666667 -82.93333333333334 1994.67 0.0 0.0 1.0
-21.983033333333335 -68.32016666666668 1712.9766666666667 -0.7819219921688455 -0.3910036355212262 0.4855040217875519
-12.799966666666668 -67.64443333333334 1994.67 0.0 0.0 1.0
-10.666633333333332 -60.0 1994.67 0.0 0.0 1.0
-17.7236 -45.12199999999999 1824.39 0.0 0.0 1.0
-17.561 -22.357699999999998 1824.39 0.0 0.0 1.0
-16.748 -14.715433333333332 1824.39 0.0 0.0 1.0
-12.799966666666668 -7.911110000000001 1994.67 0.0 0.0 1.0
-11.9111 1.5111133333333333 1994.67 0.0 0.0 1.0
-11.733333333333334 2.4 1994.67 0.0 0.0 1.0
-24.014733333333336 9.35543 1653.04 0.0 0.0 1.0
-23.720066666666668 10.09207 1653.04 0.0 0.0 1.0
-24.468866666666667 20.0 1643.96 0.0 0.0 1.0
-12.908700000000001 36.4331 1905.7300000000002 0.0 1.0 0.0
-24.492766666666665 33.6957 1626.09 0.0 0.0 1.0
-9.260333333333334 48.5871 1889.6899999999998 -2.7080064663041064e-17 0.8697721088754565 0.4934536235780835
-24.480866666666667 52.240433333333335 1634.97 0.0 0.0 1.0
-10.700646666666666 62.25050000000001 1905.7300000000002 1.1056106756800207e-27 -1.1146264864863242e-26 1.0
-12.977766666666668 70.3111 1994.67 0.0 0.0 1.0
-22.753599999999995 68.0435 1626.09 0.0 0.0 1.0
-10.666666666666666 88.08890000000001 1994.67 0.0 0.0 1.0
-11.199999999999998 100.53333333333335 1994.67 0.0 0.0 1.0
-11.0222 102.66699999999999 1994.67 0.0 0.0 1.0
-25.209466666666668 114.75433333333332 1634.97 0.0 0.0 1.0
-23.04603333333333 118.53166666666668 1646.9733333333334 0.7012760869154246 0.7009580478737463 0.1298832746800633
-18.8379 -130.72366666666667 1829.97 0.0 0.0 1.0
-11.555566666666666 -132.889 1994.67 0.0 0.0 1.0
-12.800033333333333 -131.64466666666667 1994.67 0.0 0.0 1.0
-12.266666666666666 -127.02233333333334 1994.67 0.0 0.0 1.0
-23.191699999999997 -103.56933333333335 1695.18 0.0 0.0 1.0
-12.0889 -112.08866666666665 1994.67 0.0 0.0 1.0
-22.24763333333333 -92.41903333333333 1709.71 0.0 0.0 1.0
-12.266666666666666 -100.71123333333333 1994.67 0.0 0.0 1.0
-12.0889 -98.75556666666667 1994.67 0.0 0.0 1.0
-11.555566666666666 -94.4889 1994.67 0.0 0.0 1.0
-11.555566666666666 -93.60000000000001 1994.67 0.0 0.0 1.0
-18.2114 -45.60980000000001 1824.39 0.0 0.0 1.0
-18.0488 -42.5203 1824.39 0.0 0.0 1.0
-18.0488 -26.260199999999998 1824.39 0.0 0.0 1.0
-18.2114 -23.495900000000002 1824.39 0.0 0.0 1.0
-17.561 -22.357699999999998 1824.39 0.0 0.0 1.0
-16.9106 -9.349593333333333 1824.39 0.0 0.0 1.0
-12.266666666666666 2.4 1994.67 0.0 0.0 1.0
-12.9778 6.31111 1994.67 0.0 0.0 1.0
-23.720066666666668 13.0387 1653.04 0.0 0.0 1.0
-25.20143333333333 17.655666666666665 1643.96 0.0 0.0 1.0
-25.118666666666666 34.047533333333334 1629.0433333333333 0.8802569330109953 0.44011584705811035 0.17732956057690477
-12.0889 55.9111 1994.67 0.0 0.0 1.0
-23.7523 48.451766666666664 1634.97 0.0 0.0 1.0
-24.480866666666667 52.240433333333335 1634.97 0.0 0.0 1.0
-12.266666666666666 73.15553333333332 1994.67 0.0 0.0 1.0
-11.065836666666668 89.63366666666667 1895.6733333333334 0.4752723454687453 -0.7345140563295965 0.484360711336995
-24.00556666666667 93.05856666666666 1627.573333333333 -4.641434052006617e-16 -0.957069101619519 0.2898598535934335
-26.085400000000003 93.22436666666665 1630.5199999999998 8.839309301668929e-27 -3.297666976712829e-26 1.0
-25.64663333333333 113.00566666666667 1634.97 0.0 0.0 1.0
-18.8379 -123.87366666666668 1829.97 0.0 0.0 1.0
-12.266666666666666 -127.02233333333334 1994.67 0.0 0.0 1.0
-12.266666666666666 -123.82233333333333 1994.67 0.0 0.0 1.0
-22.28516666666667 -99.7923 1695.18 0.0 0.0 1.0
-23.840233333333334 -93.7733 1698.3933333333334 -0.905689619447659 -0.22641825374990013 0.3584146866321197
-12.800000000000002 -109.42199999999998 1994.67 0.0 0.0 1.0
-22.24763333333333 -92.41903333333333 1709.71 0.0 0.0 1.0
-22.24763333333333 -92.41903333333333 1709.71 0.0 0.0 1.0
-12.44443333333333 -104.97800000000001 1994.67 0.0 0.0 1.0
-12.444466666666665 -99.82233333333333 1994.67 0.0 0.0 1.0
-17.8862 -38.2927 1824.39 0.0 0.0 1.0
-19.187 -32.92679999999999 1824.39 0.0 0.0 1.0
-12.266666666666666 2.4 1994.67 0.0 0.0 1.0
-12.9778 6.311109999999999 1994.67 0.0 0.0 1.0
-24.014733333333336 9.35543 1653.04 0.0 0.0 1.0
-23.720066666666668 10.09207 1653.04 0.0 0.0 1.0
-24.468866666666667 19.4139 1643.96 0.0 0.0 1.0
-23.546899999999997 25.923833333333334 1666.8499999999997 2.033423124627387e-27 5.591649836675448e-27 1.0
-24.7723 51.803266666666666 1634.97 0.0 0.0 1.0
-11.022233333333334 78.13333333333334 1994.67 0.0 0.0 1.0
-12.799999999999999 90.40000000000002 1994.67 0.0 0.0 1.0
-25.938033333333333 77.3042 1634.97 0.0 0.0 1.0
-23.752266666666667 81.0929 1634.97 0.0 0.0 1.0
-26.2354 83.3064 1612.9399999999998 1.4521471778444426e-27 -6.424310647657263e-29 1.0
-26.0932 81.5054 1608.6266666666668 -0.4472549716125773 0.8944062439505086 -0.0006790803899540924
-12.622233333333332 109.77766666666668 1994.67 0.0 0.0 1.0
-14.206666666666669 106.12966666666667 1897.676666666667 0.4313718079031467 0.8626374711685237 0.26414949684287703
-13.333333333333334 116.889 1994.67 0.0 0.0 1.0
-13.333333333333334 118.13333333333333 1994.67 0.0 0.0 1.0
-25.792333333333335 106.448 1634.97 0.0 0.0 1.0
-15.1111 146.9333333333333 1994.67 0.0 0.0 1.0
-18.8379 -130.72366666666667 1829.97 0.0 0.0 1.0
-12.800000000000002 -127.378 1994.67 0.0 0.0 1.0
-13.866666666666665 -123.467 1994.67 0.0 0.0 1.0
-23.1917 -103.56933333333332 1695.18 0.0 0.0 1.0
-12.44443333333333 -104.97800000000001 1994.67 0.0 0.0 1.0
-13.155566666666667 -97.86663333333333 1994.67 0.0 0.0 1.0
-27.8892 -78.4718 1714.61 0.0 0.0 1.0
-13.511099999999999 -67.8222 1994.67 0.0 0.0 1.0
-13.511099999999999 -67.8222 1994.67 0.0 0.0 1.0
-12.6222 -64.8 1994.67 0.0 0.0 1.0
-18.2114 -45.6098 1824.39 0.0 0.0 1.0
-18.8618 -42.5203 1824.39 0.0 0.0 1.0
-19.0244 -32.764199999999995 1824.39 0.0 0.0 1.0
-18.6992 -25.60976666666667 1824.39 0.0 0.0 1.0
-18.6992 -24.471533333333337 1824.39 0.0 0.0 1.0
-19.187 -12.9268 1824.39 0.0 0.0 1.0
-19.187 -12.9268 1824.39 0.0 0.0 1.0
-12.799966666666668 -7.91111 1994.67 0.0 0.0 1.0
-12.799966666666668 -7.91111 1994.67 0.0 0.0 1.0
-12.977766666666668 -2.577775666666667 1994.67 0.0 0.0 1.0
-24.843266666666665 1.7473896666666668 1704.84 0.0 0.0 1.0
-24.162066666666664 10.681383333333335 1653.04 0.0 0.0 1.0
-25.201466666666665 19.267366666666668 1643.96 0.0 0.0 1.0
-25.201466666666665 19.853466666666666 1643.96 0.0 0.0 1.0
-24.007366666666666 22.677766666666667 1657.62 0.0 0.0 1.0
-24.007366666666666 22.677766666666667 1657.62 0.0 0.0 1.0
-13.688899999999999 34.044466666666665 1994.67 0.0 0.0 1.0
-24.492766666666668 33.6957 1626.09 0.0 0.0 1.0
-26.812366666666666 39.1257 1634.97 0.0 0.0 1.0
-26.181066666666666 40.945 1632.0033333333333 2.322692238661648e-17 0.9856649069076385 0.1687148223801225
-13.688899999999999 56.79999999999999 1994.67 0.0 0.0 1.0
-25.64663333333333 51.36613333333333 1634.97 0.0 0.0 1.0
-13.866666666666667 71.37776666666667 1994.67 0.0 0.0 1.0
-25.355199999999996 113.44266666666665 1634.97 0.0 0.0 1.0
-13.155566666666667 -130.04466666666667 1994.67 0.0 0.0 1.0
-24.098200000000002 -103.72033333333333 1695.18 0.0 0.0 1.0
-25.757566666666666 -102.65133333333334 1700.0 0.0 0.0 1.0
-13.155566666666667 -97.86663333333333 1994.67 0.0 0.0 1.0
-22.648433333333333 -69.17003333333334 1711.3433333333332 -0.8204270074868463 -0.27345572781262617 0.5021170085872865
-14.577800000000002 -71.73333333333333 1994.67 0.0 0.0 1.0
-13.8667 -70.31110000000001 1994.67 0.0 0.0 1.0
-13.688899999999999 -68.88886666666667 1994.67 0.0 0.0 1.0
-19.0244 -50.6504 1824.39 0.0 0.0 1.0
-18.8618 -42.5203 1824.39 0.0 0.0 1.0
-19.8374 -38.6179 1824.39 0.0 0.0 1.0
-19.5122 -32.439 1824.39 0.0 0.0 1.0
-19.5122 -30.0 1824.39 0.0 0.0 1.0
-19.0244 -28.374 1824.39 0.0 0.0 1.0
-20.0 -20.406499999999998 1824.39 0.0 0.0 1.0
-20.0 -20.406499999999998 1824.39 0.0 0.0 1.0
-19.187 -12.9268 1824.39 0.0 0.0 1.0
-24.887266666666665 -2.056070333333333 1708.0966666666666 -0.5195275306407132 0.831239854873352 0.19781670449305194
-14.4 5.599999999999999 1994.67 0.0 0.0 1.0
-14.044466666666665 10.044443333333332 1994.67 0.0 0.0 1.0
-24.604066666666668 12.5967 1653.04 0.0 0.0 1.0
-23.546899999999997 25.923833333333334 1666.8499999999997 2.0334231246273884e-27 5.591649836675452e-27 1.0
-13.688899999999999 34.044466666666665 1994.67 0.0 0.0 1.0
-13.688899999999999 34.044466666666665 1994.67 0.0 0.0 1.0
-14.400033333333333 35.64443333333333 1994.67 0.0 0.0 1.0
-20.392166666666665 48.70586666666666 1760.0 0.0 0.0 1.0
-26.083766666666666 49.617466666666665 1634.97 0.0 0.0 1.0
-26.083766666666666 49.617466666666665 1634.97 0.0 0.0 1.0
-13.866666666666667 70.13333333333333 1994.67 0.0 0.0 1.0
-28.453866666666666 69.83296666666666 1584.4766666666667 -0.6980947901110542 -0.6980947901110535 0.15914561897710966
-25.938033333333333 77.3042 1634.97 0.0 0.0 1.0
-26.2354 83.3064 1612.9399999999998 1.4521471778444442e-27 -6.424310647657231e-29 1.0
-15.111133333333333 105.51100000000001 1994.67 0.0 0.0 1.0
-26.2354 83.30640000000001 1612.9399999999998 3.1483368136547335e-27 5.525336219057174e-28 1.0
-14.222233333333334 110.48899999999999 1994.67 0.0 0.0 1.0
-21.529066666666665 104.28266666666667 1763.46 2.1104819608326022e-16 0.9925981558116529 0.12144505374574115
-26.666666666666668 102.07633333333332 1634.97 0.0 0.0 1.0
-25.792333333333335 106.448 1634.97 0.0 0.0 1.0
-18.8379 -130.72366666666667 1829.97 0.0 0.0 1.0
-13.155566666666667 -111.02199999999999 1994.67 0.0 0.0 1.0
-24.54546666666667 -88.86363333333333 1700.0 0.0 0.0 1.0
-26.515133333333335 -74.4697 1700.0 0.0 0.0 1.0
-22.801266666666667 -68.8644 1711.3433333333332 -0.8309008466785943 -0.2769467529654253 0.48260157377561735
-19.5122 -32.439 1824.39 0.0 0.0 1.0
-26.362733333333335 -1.7473869999999998 1704.84 0.0 0.0 1.0
-14.4 5.6000000000000005 1994.67 0.0 0.0 1.0
-25.347966666666668 19.560433333333332 1643.96 0.0 0.0 1.0
-27.683899999999998 35.9673 1630.5199999999998 0.0 1.0 0.0
-14.4762 49.01586666666666 1899.68 0.0 0.0 1.0
-25.792366666666666 47.57743333333334 1634.97 0.0 0.0 1.0
-14.4 69.42223333333334 1994.67 0.0 0.0 1.0
-14.044433333333332 72.8 1994.67 0.0 0.0 1.0
-14.755566666666667 74.22223333333334 1994.67 0.0 0.0 1.0
-13.511099999999999 87.55556666666666 1994.67 0.0 0.0 1.0
-14.577766666666667 88.26666666666667 1994.67 0.0 0.0 1.0
-14.4 103.911 1994.67 0.0 0.0 1.0
-15.0871 104.99933333333333 1901.6966666666667 0.4116980266163279 0.8232947495843754 0.3907563053707795
-15.1111 115.64466666666665 1994.67 0.0 0.0 1.0
-13.333333333333334 118.13333333333333 1994.67 0.0 0.0 1.0
-16.0 126.84466666666667 1994.67 0.0 0.0 1.0
-29.731800000000003 117.471 1719.54 0.0 0.0 1.0
-26.812366666666666 114.46266666666666 1634.97 0.0 0.0 1.0
-25.457966666666668 -94.80643333333332 1695.18 0.0 0.0 1.0
-25.151533333333333 -87.95453333333334 1700.0 0.0 0.0 1.0
-26.51516666666667 -82.19696666666665 1700.0 0.0 0.0 1.0
-13.155566666666667 -93.95556666666666 1994.67 0.0 0.0 1.0
-21.3008 -48.861799999999995 1824.39 0.0 0.0 1.0
-21.3008 -15.853666666666667 1824.39 0.0 0.0 1.0
-20.9756 -11.1382 1824.39 0.0 0.0 1.0
-14.755533333333332 -7.022223333333333 1994.67 0.0 0.0 1.0
-14.2222 0.800001 1994.67 0.0 0.0 1.0
-14.2222 0.800001 1994.67 0.0 0.0 1.0
-14.4 5.6000000000000005 1994.67 0.0 0.0 1.0
-26.22706666666667 18.5348 1643.96 0.0 0.0 1.0
-25.787533333333332 20.293033333333334 1643.96 0.0 0.0 1.0
-24.785733333333337 25.751966666666664 1665.3066666666666 -0.6622849570387891 -0.6622849570387884 0.35036733774748374
-20.392166666666665 48.70586666666666 1760.0 0.0 0.0 1.0
-26.2295 48.01456666666667 1634.97 0.0 0.0 1.0
-26.37523333333333 50.20036666666667 1634.97 0.0 0.0 1.0
-26.229533333333332 50.78323333333333 1634.97 0.0 0.0 1.0
-14.755533333333332 68.35556666666666 1994.67 0.0 0.0 1.0
-14.4 69.42223333333334 1994.67 0.0 0.0 1.0
-18.590933333333332 75.45743333333333 1887.7 0.0 0.0 1.0
-18.590933333333332 75.96216666666666 1887.7 0.0 0.0 1.0
-14.755533333333332 79.91113333333334 1994.67 0.0 0.0 1.0
-27.829233333333335 67.7929 1630.5199999999998 0.0 1.0 0.0
-22.008166666666668 75.9257 1758.28 -1.708578463529103e-18 -0.9990682842233652 0.04315742646383337
-14.044433333333332 89.5111 1994.67 0.0 0.0 1.0
-20.170533333333335 76.77656666666667 1645.4666666666665 0.44641730105733274 0.8929361760170522 -0.0581083374115142
-14.4 103.911 1994.67 0.0 0.0 1.0
-15.1111 115.64466666666665 1994.67 0.0 0.0 1.0
-27.10383333333333 101.63900000000001 1634.97 0.0 0.0 1.0
-26.9581 105.86533333333334 1634.97 0.0 0.0 1.0
-15.1111 146.9333333333333 1994.67 0.0 0.0 1.0
-16.1778 -141.77766666666668 1994.67 0.0 0.0 1.0
-16.0 -123.289 1994.67 0.0 0.0 1.0
-24.70253333333333 -103.72033333333333 1695.18 0.0 0.0 1.0
-24.70253333333333 -103.72033333333333 1695.18 0.0 0.0 1.0
-25.609066666666667 -93.8999 1695.18 0.0 0.0 1.0
-25.151533333333333 -87.95453333333334 1700.0 0.0 0.0 1.0
-25.30303333333333 -87.34846666666665 1700.0 0.0 0.0 1.0
-14.044466666666667 -79.20003333333334 1994.67 0.0 0.0 1.0
-15.822233333333331 -62.6667 1994.67 0.0 0.0 1.0
-21.1382 -19.9187 1824.39 0.0 0.0 1.0
-21.1382 -19.9187 1824.39 0.0 0.0 1.0
-20.813 -14.552833333333334 1824.39 0.0 0.0 1.0
-21.3008 -12.439 1824.39 0.0 0.0 1.0
-20.9756 -11.1382 1824.39 0.0 0.0 1.0
-14.577799999999998 6.488886666666666 1994.67 0.0 0.0 1.0
-15.2889 36.0 1994.67 0.0 0.0 1.0
-20.086566666666666 44.935066666666664 1942.86 0.0 0.0 1.0
-27.540966666666666 38.10563333333334 1634.97 0.0 0.0 1.0
-15.1111 56.62223333333333 1994.67 0.0 0.0 1.0
-15.466666666666667 75.2889 1994.67 0.0 0.0 1.0
-18.759166666666665 75.45743333333333 1887.7 0.0 0.0 1.0
-18.759166666666665 75.96216666666666 1887.7 0.0 0.0 1.0
-28.453866666666666 69.83296666666666 1584.4766666666667 -0.6980947901110542 -0.6980947901110535 0.15914561897710966
-25.938033333333333 77.3042 1634.97 0.0 0.0 1.0
-15.111133333333333 105.51100000000001 1994.67 0.0 0.0 1.0
-27.10383333333333 101.202 1634.97 0.0 0.0 1.0
-27.103800000000003 114.17133333333334 1634.97 0.0 0.0 1.0
-27.103800000000003 114.754 1634.97 0.0 0.0 1.0
-16.1778 -141.77766666666668 1994.67 0.0 0.0 1.0
-21.7737 -122.73200000000001 1829.97 0.0 0.0 1.0
-16.0 -123.289 1994.67 0.0 0.0 1.0
-25.609066666666667 -93.8999 1695.18 0.0 0.0 1.0
-26.7654 -79.019 1696.7866666666669 0.5676417109104159 0.8109039506749446 0.1421888561542829
-14.4 -80.9778 1994.67 0.0 0.0 1.0
-15.644466666666666 -72.8 1994.67 0.0 0.0 1.0
-21.3008 -48.861799999999995 1824.39 0.0 0.0 1.0
-21.463399999999996 -46.097566666666665 1824.39 0.0 0.0 1.0
-21.788600000000002 -43.8211 1824.39 0.0 0.0 1.0
-21.788600000000002 -43.8211 1824.39 0.0 0.0 1.0
-23.0894 -40.2439 1824.39 0.0 0.0 1.0
-21.463399999999996 -20.2439 1824.39 0.0 0.0 1.0
-21.3008 -12.439 1824.39 0.0 0.0 1.0
-20.9756 -11.1382 1824.39 0.0 0.0 1.0
-15.8222 -7.2 1994.67 0.0 0.0 1.0
-27.842033333333333 10.505053333333333 1648.4800000000002 5.405100470251251e-28 1.4552632571121762e-27 1.0
-27.842033333333333 10.505053333333333 1648.4800000000002 5.405100470251251e-28 1.4552632571121762e-27 1.0
-27.39923333333333 14.1392 1643.96 0.0 0.0 1.0
-27.39923333333333 14.1392 1643.96 0.0 0.0 1.0
-27.692300000000003 19.413933333333333 1643.96 0.0 0.0 1.0
-27.683899999999998 35.9673 1630.5199999999998 0.0 1.0 0.0
-27.540966666666666 38.10563333333334 1634.97 0.0 0.0 1.0
-28.555866666666663 41.1989 1630.5199999999998 0.0 1.0 0.0
-16.0 69.42223333333332 1994.67 0.0 0.0 1.0
-27.829233333333335 67.7929 1630.5199999999998 0.0 1.0 0.0
-28.453866666666666 69.83296666666666 1584.4766666666667 -0.6980947901110542 -0.6980947901110535 0.15914561897710966
-26.812366666666666 76.42986666666667 1634.97 0.0 0.0 1.0
-15.111133333333333 105.51100000000001 1994.67 0.0 0.0 1.0
-15.822233333333335 109.95566666666667 1994.67 0.0 0.0 1.0
-15.1111 115.64466666666665 1994.67 0.0 0.0 1.0
-27.540966666666666 101.05633333333333 1634.97 0.0 0.0 1.0
-27.540966666666666 101.49333333333334 1634.97 0.0 0.0 1.0
-28.55586666666667 108.774 1630.5199999999998 -6.375396761745481e-26 3.683380244215312e-26 1.0
-17.244433333333333 136.97766666666666 1994.67 0.0 0.0 1.0
-22.0999 -124.03666666666668 1829.97 0.0 0.0 1.0
-21.7737 -122.73200000000001 1829.97 0.0 0.0 1.0
-26.51516666666667 -107.5 1700.0 0.0 0.0 1.0
-16.0 -123.289 1994.67 0.0 0.0 1.0
-26.817766666666667 -97.97923333333334 1695.18 0.0 0.0 1.0
-25.457966666666668 -94.80643333333335 1695.18 0.0 0.0 1.0
-14.2222 -104.62233333333332 1994.67 0.0 0.0 1.0
-25.70906666666667 -89.44993333333333 1696.7866666666669 0.9789383798617072 0.19578335642779884 -0.057866447788001804
-25.30303333333333 -87.34846666666665 1700.0 0.0 0.0 1.0
-26.364500000000003 -71.84136666666667 1695.18 0.0 0.0 1.0
-15.644433333333334 -67.64443333333334 1994.67 0.0 0.0 1.0
-15.466633333333334 -67.11110000000001 1994.67 0.0 0.0 1.0
-16.711100000000002 -56.800000000000004 1994.67 0.0 0.0 1.0
-16.88886666666667 -56.44446666666666 1994.67 0.0 0.0 1.0
-21.3008 -48.861799999999995 1824.39 0.0 0.0 1.0
-22.2764 -28.211399999999998 1824.39 0.0 0.0 1.0
-22.2764 -28.211399999999998 1824.39 0.0 0.0 1.0
-22.2764 -27.2358 1824.39 0.0 0.0 1.0
-21.788600000000002 -20.569100000000002 1824.39 0.0 0.0 1.0
-21.788600000000002 -20.569100000000002 1824.39 0.0 0.0 1.0
-15.8222 -7.2 1994.67 0.0 0.0 1.0
-28.319233333333333 0.6760546666666668 1685.63 0.0 0.0 1.0
-27.838800000000003 15.164833333333334 1643.96 0.0 0.0 1.0
-27.6923 19.413933333333333 1643.96 0.0 0.0 1.0
-16.533333333333335 35.82223333333334 1994.67 0.0 0.0 1.0
-27.540966666666666 38.10563333333334 1634.97 0.0 0.0 1.0
-15.1111 56.62223333333333 1994.67 0.0 0.0 1.0
-27.686700000000002 50.92896666666667 1634.97 0.0 0.0 1.0
-15.466666666666667 75.2889 1994.67 0.0 0.0 1.0
-16.177766666666667 76.71113333333334 1994.67 0.0 0.0 1.0
-35.90463333333334 72.3987 1508.57 -6.3080392575327886e-15 0.4173901547488966 0.9087273841580279
-28.998166666666666 88.81599999999999 1634.97 0.0 0.0 1.0
-18.3966 107.59499999999998 1893.67 0.0 0.0 1.0
-27.540966666666666 101.05633333333333 1634.97 0.0 0.0 1.0
-16.0 126.84466666666667 1994.67 0.0 0.0 1.0
-28.55586666666667 108.774 1630.5199999999998 -6.375396761745758e-26 3.6833802442154716e-26 1.0
-16.88886666666667 135.02233333333334 1994.67 0.0 0.0 1.0
-27.832399999999996 114.02566666666667 1634.97 0.0 0.0 1.0
-29.863766666666667 117.78366666666666 1630.5199999999998 1.7346755153366575e-28 1.300807705824129e-28 1.0
-18.133333333333336 -147.289 1994.67 0.0 0.0 1.0
-17.066666666666666 -144.08866666666665 1994.67 0.0 0.0 1.0
-22.5892 -124.85233333333333 1829.97 0.0 0.0 1.0
-21.7737 -122.73200000000001 1829.97 0.0 0.0 1.0
-25.609066666666667 -103.72033333333333 1695.18 0.0 0.0 1.0
-27.1212 -102.803 1700.0 0.0 0.0 1.0
-26.817766666666667 -97.97923333333334 1695.18 0.0 0.0 1.0
-25.757566666666666 -86.28786666666667 1700.0 0.0 0.0 1.0
-26.364500000000003 -71.84136666666667 1695.18 0.0 0.0 1.0
-27.72726666666667 -72.04546666666666 1700.0 0.0 0.0 1.0
-26.666666666666668 -70.63266666666667 1695.18 0.0 0.0 1.0
-16.8889 -72.26666666666667 1994.67 0.0 0.0 1.0
-17.066666666666666 -56.79999999999999 1994.67 0.0 0.0 1.0
-21.788600000000002 -43.8211 1824.39 0.0 0.0 1.0
-23.252 -17.1545 1824.39 0.0 0.0 1.0
-25.930033333333338 12.449366666666668 1653.04 0.0 0.0 1.0
-28.179233333333332 15.444033333333332 1642.4566666666667 1.983098324719038e-16 -0.9943584254204854 0.10607224799773729
-27.692300000000003 19.413933333333333 1643.96 0.0 0.0 1.0
-27.399266666666666 20.7326 1643.96 0.0 0.0 1.0
-29.1439 49.908899999999996 1634.97 0.0 0.0 1.0
-16.0 69.42223333333332 1994.67 0.0 0.0 1.0
-30.01823333333333 64.4809 1634.97 0.0 0.0 1.0
-17.777800000000003 107.64466666666668 1994.67 0.0 0.0 1.0
-16.0 126.84466666666667 1994.67 0.0 0.0 1.0
-28.123866666666668 105.28266666666667 1634.97 0.0 0.0 1.0
-29.8081 109.15666666666665 1627.5666666666666 -0.46601737840910246 -0.8387884092524497 0.28153473591095707
-28.560999999999996 114.17133333333334 1634.97 0.0 0.0 1.0
-26.9697 -107.04533333333335 1700.0 0.0 0.0 1.0
-26.9697 -107.04533333333335 1700.0 0.0 0.0 1.0
-27.1212 -103.86366666666667 1700.0 0.0 0.0 1.0
-27.119933333333336 -69.57506666666666 1695.18 0.0 0.0 1.0
-27.271 -68.36636666666668 1695.18 0.0 0.0 1.0
-18.133333333333333 -70.6667 1994.67 0.0 0.0 1.0
-28.455233333333336 -54.681266666666666 1716.2533333333333 0.617325375596648 -4.3252360694677605e-16 0.7867079385924979
-28.455233333333336 -54.681266666666666 1716.2533333333333 0.6173253755966485 1.7256440401055857e-16 0.7867079385924975
-18.133333333333333 -58.93333333333334 1994.67 0.0 0.0 1.0
-17.066666666666666 -56.622233333333334 1994.67 0.0 0.0 1.0
-23.739800000000002 -31.1382 1824.39 0.0 0.0 1.0
-22.9268 -27.886200000000002 1824.39 0.0 0.0 1.0
-23.0894 -8.373986666666667 1824.39 0.0 0.0 1.0
-23.0894 -8.373986666666667 1824.39 0.0 0.0 1.0
-29.513099999999998 3.37079 1680.9000000000003 0.0 -1.0 0.0
-28.571433333333335 15.897433333333334 1643.96 0.0 0.0 1.0
-28.587266666666665 22.3823 1657.62 0.0 0.0 1.0
-17.4222 35.111133333333335 1994.67 0.0 0.0 1.0
-21.401266666666668 38.13163333333333 1905.7300000000002 1.797315172845678e-26 1.4516317215133714e-26 1.0
-20.622233333333334 41.688900000000004 1994.67 0.0 0.0 1.0
-27.683900000000005 35.9673 1630.5199999999998 0.0 -1.0 0.0
-16.888900000000003 70.13333333333334 1994.67 0.0 0.0 1.0
-28.846500000000002 67.7929 1630.5199999999998 0.0 -1.0 0.0
-28.788666666666668 73.20953333333334 1587.2699999999998 1.831140097255657e-27 5.707183569549924e-28 1.0
-18.133333333333336 108.88900000000001 1994.67 0.0 0.0 1.0
-18.3966 107.59499999999998 1893.67 0.0 0.0 1.0
-24.099500000000003 104.49433333333333 1761.7300000000002 1.0101789438585778e-16 0.9925981558116527 0.12144505374574133
-17.244433333333333 120.08866666666667 1994.67 0.0 0.0 1.0
-28.706733333333332 100.61923333333334 1634.97 0.0 0.0 1.0
-28.706766666666667 102.222 1634.97 0.0 0.0 1.0
-17.95553333333333 146.57766666666666 1994.67 0.0 0.0 1.0
-18.133333333333336 -147.289 1994.67 0.0 0.0 1.0
-23.241599999999995 -131.376 1829.97 0.0 0.0 1.0
-23.241599999999995 -131.37599999999998 1829.97 0.0 0.0 1.0
-24.057100000000002 -129.74499999999998 1829.97 0.0 0.0 1.0
-26.969700000000003 -107.04533333333332 1700.0 0.0 0.0 1.0
-27.1212 -103.86366666666667 1700.0 0.0 0.0 1.0
-27.575733333333332 -103.56066666666668 1700.0 0.0 0.0 1.0
-26.212100000000003 -89.92423333333333 1700.0 0.0 0.0 1.0
-26.818166666666666 -89.01513333333332 1700.0 0.0 0.0 1.0
-28.709500000000002 -82.3175 1677.7600000000002 -0.31624628552145134 0.9486682973752595 -0.004092486898070733
-27.72726666666667 -72.04546666666666 1700.0 0.0 0.0 1.0
-28.38226666666667 -61.22926666666667 1698.3933333333334 -0.8712122694679627 -0.4840233801967255 0.08191794035141482
-18.133333333333333 -70.6667 1994.67 0.0 0.0 1.0
-18.3111 -59.8222 1994.67 0.0 0.0 1.0
-24.2276 -39.9187 1824.39 0.0 0.0 1.0
-23.739800000000002 -31.1382 1824.39 0.0 0.0 1.0
-22.439000000000004 -20.8943 1824.39 0.0 0.0 1.0
-24.064999999999998 -18.9431 1824.39 0.0 0.0 1.0
-23.0894 -8.373986666666667 1824.39 0.0 0.0 1.0
-28.587266666666665 22.3823 1657.62 0.0 0.0 1.0
-17.4222 35.111133333333335 1994.67 0.0 0.0 1.0
-28.701166666666666 34.80473333333333 1630.5199999999998 2.4792182764362874e-27 -9.740116121733364e-28 1.0
-29.143900000000002 49.908899999999996 1634.97 0.0 0.0 1.0
-17.777766666666665 90.93333333333334 1994.67 0.0 0.0 1.0
-35.90463333333334 72.3987 1508.57 -1.4445891429464399e-15 0.41739015474889196 0.9087273841580301
-18.488899999999997 103.55566666666668 1994.67 0.0 0.0 1.0
-28.998166666666666 88.81599999999999 1634.97 0.0 0.0 1.0
-18.84443333333333 113.86666666666667 1994.67 0.0 0.0 1.0
-29.28963333333333 100.7649 1634.97 0.0 0.0 1.0
-28.85246666666667 104.40833333333335 1634.97 0.0 0.0 1.0
-17.95553333333333 133.60033333333334 1994.67 0.0 0.0 1.0
-28.998166666666666 114.31700000000001 1634.97 0.0 0.0 1.0
-28.998166666666666 114.31700000000001 1634.97 0.0 0.0 1.0
-23.567800000000002 -125.34166666666665 1829.97 0.0 0.0 1.0
-19.022233333333332 -123.289 1994.67 0.0 0.0 1.0
-27.8788 -102.04533333333335 1700.0 0.0 0.0 1.0
-27.8788 -102.04533333333332 1700.0 0.0 0.0 1.0
-27.7243 -96.92163333333333 1695.18 0.0 0.0 1.0
-30.252100000000002 -82.39030000000001 1676.1899999999998 -1.9859793338552267e-27 -7.536073765920201e-26 1.0
-27.119933333333336 -69.57506666666666 1695.18 0.0 0.0 1.0
-18.133333333333333 -70.6667 1994.67 0.0 0.0 1.0
-18.666666666666664 -60.53333333333333 1994.67 0.0 0.0 1.0
-17.7778 -58.04443333333334 1994.67 0.0 0.0 1.0
-22.9268 -27.886200000000002 1824.39 0.0 0.0 1.0
-24.064999999999998 -18.9431 1824.39 0.0 0.0 1.0
-23.902433333333335 -16.0163 1824.39 0.0 0.0 1.0
-28.64193333333333 -2.9629600000000003 1704.84 0.0 0.0 1.0
-26.362733333333335 -1.7473869999999998 1704.84 0.0 0.0 1.0
-28.7236 10.651966666666667 1648.4800000000002 6.652373299470209e-28 -2.3282551968597274e-27 1.0
-28.571433333333335 15.897433333333332 1643.96 0.0 0.0 1.0
-28.587266666666665 22.3823 1657.62 0.0 0.0 1.0
-24.2424 49.26406666666666 1942.86 0.0 0.0 1.0
-29.143900000000002 49.908899999999996 1634.97 0.0 0.0 1.0
-28.846500000000002 67.7929 1630.5199999999998 0.0 -1.0 0.0
-18.488899999999997 103.55566666666668 1994.67 0.0 0.0 1.0
-18.488899999999997 103.55566666666665 1994.67 0.0 0.0 1.0
-19.377799999999997 105.33366666666667 1994.67 0.0 0.0 1.0
-30.163933333333333 90.27320000000002 1634.97 0.0 0.0 1.0
-18.84443333333333 113.86666666666667 1994.67 0.0 0.0 1.0
-24.099500000000003 104.49433333333333 1761.7300000000002 1.0101789438585778e-16 0.9925981558116527 0.12144505374574133
-29.28963333333333 101.78500000000001 1634.97 0.0 0.0 1.0
-28.555866666666663 108.774 1630.5199999999998 2.5503861711339078e-26 -1.4168234319633316e-26 1.0
-29.143900000000002 115.337 1634.97 0.0 0.0 1.0
-18.13333333333333 -147.289 1994.67 0.0 0.0 1.0
-28.0303 -107.95466666666668 1700.0 0.0 0.0 1.0
-19.022233333333332 -123.82233333333333 1994.67 0.0 0.0 1.0
-19.022233333333332 -123.289 1994.67 0.0 0.0 1.0
-19.022233333333332 -123.289 1994.67 0.0 0.0 1.0
-27.727266666666665 -103.106 1700.0 0.0 0.0 1.0
-27.8788 -102.04533333333332 1700.0 0.0 0.0 1.0
-26.364500000000003 -93.14446666666667 1695.18 0.0 0.0 1.0
-29.0909 -75.5303 1700.0 0.0 0.0 1.0
-29.537300000000002 -61.41643333333334 1695.18 0.0 0.0 1.0
-18.666666666666664 -60.53333333333333 1994.67 0.0 0.0 1.0
-18.488899999999997 -56.622233333333334 1994.67 0.0 0.0 1.0
-22.439000000000004 -47.07320000000001 1824.39 0.0 0.0 1.0
-24.2276 -39.9187 1824.39 0.0 0.0 1.0
-30.7003 4.556486666666667 1676.1899999999998 1.6631685785508286e-27 5.0639629754449e-27 1.0
-28.7236 10.35812 1648.4800000000002 1.654398617617892e-27 5.17543949009471e-27 1.0
-30.529233333333337 27.260900000000003 1666.8499999999997 -1.737463516329221e-27 1.3469899909949465e-27 1.0
-21.401266666666668 38.13163333333333 1905.7300000000002 1.797315172845678e-26 1.4516317215133714e-26 1.0
-21.401266666666668 38.13163333333333 1905.7300000000002 1.7973151728457125e-26 1.4516317215133993e-26 1.0
-29.581033333333334 39.1257 1634.97 0.0 0.0 1.0
-23.139166666666668 48.58253333333334 1915.9066666666668 8.385683184691451e-15 -0.9143888338004706 0.40483707910839306
-30.163933333333333 90.27320000000002 1634.97 0.0 0.0 1.0
-19.022199999999998 132.35566666666668 1994.67 0.0 0.0 1.0
-18.4889 137.68866666666668 1994.67 0.0 0.0 1.0
-30.881033333333335 118.07433333333331 1630.5199999999998 1.2748194074777737e-26 -2.5496388149555477e-26 1.0
-25.035700000000002 -125.34166666666665 1829.97 0.0 0.0 1.0
-27.5732 -96.0151 1695.18 0.0 0.0 1.0
-30.617266666666666 -92.00383333333333 1704.84 0.0 0.0 1.0
-28.333366666666667 -80.68183333333333 1700.0 0.0 0.0 1.0
-29.0909 -75.5303 1700.0 0.0 0.0 1.0
-29.537300000000002 -61.41643333333334 1695.18 0.0 0.0 1.0
-24.2276 -39.9187 1824.39 0.0 0.0 1.0
-23.739800000000002 -31.1382 1824.39 0.0 0.0 1.0
-25.040633333333332 -22.520300000000002 1824.39 0.0 0.0 1.0
-24.064999999999998 -18.9431 1824.39 0.0 0.0 1.0
-25.528466666666663 -14.390233333333333 1824.39 0.0 0.0 1.0
-18.84443333333333 -6.666666666666667 1994.67 0.0 0.0 1.0
-29.671333333333333 0.6760546666666668 1685.63 0.0 0.0 1.0
-31.467233333333336 9.72269 1665.3066666666666 0.2199175367630236 -0.8798182064350146 0.42137418128019927
-30.3601 17.802400000000002 1657.62 0.0 0.0 1.0
-29.581033333333334 39.1257 1634.97 0.0 0.0 1.0
-19.7333 75.82223333333333 1994.67 0.0 0.0 1.0
-30.01823333333333 64.4809 1634.97 0.0 0.0 1.0
-20.444433333333333 81.86666666666667 1994.67 0.0 0.0 1.0
-20.266633333333335 83.82223333333333 1994.67 0.0 0.0 1.0
-19.377766666666666 108.889 1994.67 0.0 0.0 1.0
-30.455366666666666 90.41893333333333 1634.97 0.0 0.0 1.0
-30.455366666666666 90.41893333333333 1634.97 0.0 0.0 1.0
-18.84443333333333 113.86666666666667 1994.67 0.0 0.0 1.0
-19.2 119.55533333333334 1994.67 0.0 0.0 1.0
-20.26666666666667 132.17766666666668 1994.67 0.0 0.0 1.0
-25.524999999999995 -123.221 1829.97 0.0 0.0 1.0
-25.524999999999995 -123.221 1829.97 0.0 0.0 1.0
-28.939400000000003 -107.65166666666669 1700.0 0.0 0.0 1.0
-30.252100000000002 -82.39030000000001 1676.1899999999998 -1.9859793338552267e-27 -7.536073765920201e-26 1.0
-30.2927 -65.64686666666667 1695.18 0.0 0.0 1.0
-19.911133333333332 -69.42223333333334 1994.67 0.0 0.0 1.0
-19.377799999999997 -59.1111 1994.67 0.0 0.0 1.0
-24.552833333333336 -31.626 1824.39 0.0 0.0 1.0
-24.715433333333333 -15.040666666666667 1824.39 0.0 0.0 1.0
-18.84443333333333 -6.666666666666667 1994.67 0.0 0.0 1.0
-29.671333333333337 0.6760546666666668 1685.63 0.0 0.0 1.0
-29.513099999999998 3.37079 1680.9000000000003 0.0 -1.0 0.0
-32.0879 12.087933333333334 1643.96 0.0 0.0 1.0
-30.6336 12.268166666666668 1648.4800000000002 5.082107273976781e-28 3.3264381952731746e-28 1.0
-30.3601 17.802400000000002 1657.62 0.0 0.0 1.0
-31.693300000000004 32.855533333333334 1627.5666666666666 -0.3633026265487965 0.8476782765265716 0.38659118076811727
