ply
format ascii 1.0
comment VCGLIB generated
element vertex 712
property float x
property float y
property float z
property float nx
property float ny
property float nz
element face 0
property list uchar int vertex_indices
end_header
-1.5212496666666666 -56.644299999999994 2008.05 0.0 0.0 1.0
-1.426979 -47.536233333333335 2001.34 0.0 0.0 1.0
-24.068566666666666 4.628746666666666 1421.3833333333334 -0.9700015303007824 0.24248922089937378 -0.01720491097783055
-5.925926666666666 29.714299999999998 1899.68 0.0 0.0 1.0
-5.925926666666666 29.714299999999998 1899.68 0.0 0.0 1.0
-2.384106666666667 36.467999999999996 1981.46 0.0 0.0 1.0
-2.0309033333333333 41.766 1981.46 0.0 0.0 1.0
-2.3841066666666664 48.1236 1981.46 0.0 0.0 1.0
-2.3841066666666664 48.1236 1981.46 0.0 0.0 1.0
-1.8543063333333334 58.013200000000005 1981.46 0.0 0.0 1.0
-2.030907 59.249433333333336 1981.46 0.0 0.0 1.0
-3.69637 61.87019999999999 1974.92 0.0 0.0 1.0
-3.69637 71.0231 1974.92 0.0 0.0 1.0
-3.8723899999999998 72.25523333333332 1974.92 0.0 0.0 1.0
-3.44371 77.6159 1981.46 0.0 0.0 1.0
-3.79691 80.9713 1981.46 0.0 0.0 1.0
-2.4 89.33333333333333 1994.67 0.0 0.0 1.0
-2.9333333333333336 95.37776666666667 1994.67 0.0 0.0 1.0
-3.62031 106.57833333333333 1981.46 0.0 0.0 1.0
4.022659 139.06266666666667 2051.6666666666665 -0.49014933199167166 0.8712894326721018 0.024664891283869488
5.827169666666666 163.45666666666668 2216.3 0.0 0.0 1.0
-1.09215 -147.71333333333334 2042.32 0.0 0.0 1.0
-0.6349193333333334 -135.601 2035.37 0.0 0.0 1.0
-4.827283333333334 -108.89466666666665 1901.6966666666667 -9.833817420943801e-15 -0.7869227664763478 0.617051504820474
-1.7957333333333334 -70.30303333333335 2014.8100000000002 -3.286980965482155e-26 4.399928581657795e-26 1.0
-1.7957333333333334 -70.30303333333335 2014.8100000000002 -3.286980965482154e-26 4.399928581657793e-26 1.0
-2.59508 -54.31766666666667 2008.05 0.0 0.0 1.0
-2.140469 -49.498333333333335 2001.34 0.0 0.0 1.0
-2.3188433333333336 -42.72016666666667 2001.34 0.0 0.0 1.0
-2.3188433333333336 -42.72016666666667 2001.34 0.0 0.0 1.0
-3.4666633333333334 -27.11113333333333 1994.67 0.0 0.0 1.0
-3.2888866666666665 -26.04446666666667 1994.67 0.0 0.0 1.0
-3.2888866666666665 -24.977800000000002 1994.67 0.0 0.0 1.0
-4.15011 -7.858720000000001 1981.46 0.0 0.0 1.0
-3.79691 -7.50552 1981.46 0.0 0.0 1.0
-7.327929999999999 1.2636926666666666 1889.6899999999998 0.4464619261953196 0.8929291597053266 0.05787282787201678
-2.5607066666666665 18.6313 1981.46 0.0 0.0 1.0
-4.331213333333333 30.318466666666666 1905.7300000000002 6.326590052146402e-28 9.904863165784145e-28 1.0
-3.62031 46.710800000000006 1981.46 0.0 0.0 1.0
-6.160616666666667 54.477466666666665 1974.92 0.0 0.0 1.0
-14.986199999999998 50.76213333333334 1648.4800000000002 -1.5991784309725464e-28 -1.919014117167041e-27 1.0
-3.520353333333333 62.9263 1974.92 0.0 0.0 1.0
-4.048406666666667 63.8064 1974.92 0.0 0.0 1.0
-3.44371 77.6159 1981.46 0.0 0.0 1.0
-3.26711 79.7351 1981.46 0.0 0.0 1.0
-3.8981166666666667 85.13843333333334 1988.04 0.0 0.0 1.0
-3.8981166666666667 85.13843333333334 1988.04 0.0 0.0 1.0
-3.288886666666667 88.26666666666667 1994.67 0.0 0.0 1.0
-3.82222 100.71123333333333 1994.67 0.0 0.0 1.0
-2.384107333333333 108.69766666666665 1981.46 0.0 0.0 1.0
-3.14754 110.25166666666667 1961.97 0.0 0.0 1.0
-3.291876666666667 119.041 1994.6833333333334 0.9622834785242337 -0.0566670727931166 0.2660814721478373
-21.4496 92.81696666666669 1456.0366666666669 0.06714745830987129 0.9150544768765829 0.39770155040010513
-12.768966666666666 118.77866666666667 1768.67 0.445619750010261 -0.891333645038129 0.08335089455929917
-11.327443333333333 121.062 1765.1899999999998 3.384666074758592e-26 -1.2571046105782508e-25 1.0
-21.890133333333335 -98.9516 1648.493333333333 0.39216669219341327 -0.9148532567828589 0.09617070285629394
-1.9887000000000004 -113.627 2028.47 0.0 0.0 1.0
-2.35028 -112.904 2028.47 0.0 0.0 1.0
-5.588920000000001 -91.8745 1903.7133333333331 -0.27829011102662077 0.9541319506512249 0.11039399825751266
-2.6755866666666672 -49.141600000000004 2001.34 0.0 0.0 1.0
-2.4972133333333333 -44.32553333333333 2001.34 0.0 0.0 1.0
-3.28889 -28.888899999999996 1994.67 0.0 0.0 1.0
-8.148146666666667 9.135803333333333 1846.91 0.0 0.0 1.0
-8.973556666666667 24.126966666666664 1899.68 0.0 0.0 1.0
-6.92308 24.871799999999997 1917.95 0.0 0.0 1.0
-22.136200000000002 40.19963333333334 1447.7666666666667 0.9541079772927915 0.19086236120967986 0.2307585897420158
-26.51816666666667 38.580999999999996 1416.8933333333334 -3.2024809673962898e-15 -0.7318139491924004 0.681504470834508
-8.286796666666666 59.57906666666667 1917.9633333333331 0.11309261233618415 -0.904802813408794 0.41053858513239505
-3.69637 61.870200000000004 1974.92 0.0 0.0 1.0
-4.224420000000001 67.85476666666666 1974.92 0.0 0.0 1.0
-3.44371 77.6159 1981.46 0.0 0.0 1.0
-4.326709999999999 106.40166666666666 1981.46 0.0 0.0 1.0
-4.326709999999999 106.40166666666666 1981.46 0.0 0.0 1.0
-6.01307 112.68 1955.5600000000002 1.96928949739069e-27 -7.875275303618636e-27 1.0
-12.2714 120.118 1765.1899999999998 5.371710761503621e-28 -1.0743421523007363e-27 1.0
-2.3663266666666662 -146.803 2042.32 0.0 0.0 1.0
5.689609666666666 -142.7843333333333 2087.4500000000003 -0.4738603344088115 0.47342638704158396 0.742511844704663
-2.366325 -141.8886666666667 2042.32 0.0 0.0 1.0
-3.35601 -127.80066666666669 2035.37 0.0 0.0 1.0
-3.35601 -125.80499999999999 2035.37 0.0 0.0 1.0
-4.700563333333334 -120.859 2028.47 0.0 0.0 1.0
-2.35028 -112.904 2028.47 0.0 0.0 1.0
-2.7927933333333335 -94.14413333333334 2021.62 0.0 0.0 1.0
-3.6936933333333335 -80.991 2021.62 0.0 0.0 1.0
-4.054053333333333 -79.1892 2021.62 0.0 0.0 1.0
-2.6936 -63.120066666666666 2014.8100000000002 -2.1745240861910058e-29 3.261604498504367e-29 1.0
-2.4161033333333335 -57.53913333333333 2008.05 0.0 0.0 1.0
-5.6000000000000005 -38.844433333333335 1994.67 0.0 0.0 1.0
-5.066666666666666 -35.64443333333333 1994.67 0.0 0.0 1.0
-3.2888866666666665 -24.977800000000002 1994.67 0.0 0.0 1.0
-3.7209299999999996 -21.528266666666667 1988.04 0.0 0.0 1.0
-4.50331 -7.15232 1981.46 0.0 0.0 1.0
-26.256866666666667 2.1262353333333333 1447.756666666667 -0.8271644301275238 -0.5603733041295547 -0.04219911789047583
-9.641820000000001 5.14812 1833.71 -0.21676228509456244 -0.9754269705096791 0.03945043678964006
-9.484896666666668 8.824946666666667 1850.7233333333334 0.9852863419390103 -0.1407515384046006 0.09695271437758635
-12.55209 10.05599 1646.9733333333334 -0.2783633263226583 -0.9464532454411436 0.16352404334687823
-31.860233333333337 10.946933333333334 1372.4833333333333 0.14115772162701354 0.9875519301221104 0.06939512185424258
-19.752533333333332 15.0324 1570.6533333333334 -0.10650987693438796 0.9580816995918491 0.2659607170666663
-6.92308 24.871799999999997 1917.95 0.0 0.0 1.0
-7.760303333333333 25.500933333333336 1913.8633333333335 -0.24182193098995067 0.9672546106280959 0.07707575436531158
-32.17573333333333 15.460933333333335 1364.2033333333334 0.6600320525597912 -0.7073674789886468 -0.25296035116783616
-3.26711 40.5298 1981.46 0.0 0.0 1.0
-4.50331 46.3576 1981.46 0.0 0.0 1.0
-26.687133333333332 37.036766666666665 1415.7766666666666 -0.41945696484631567 -0.524307344294351 0.7410517278577262
-16.923066666666667 44.46886666666666 1643.96 0.0 0.0 1.0
-26.51816666666667 38.580999999999996 1416.8933333333334 -3.2024809673962898e-15 -0.7318139491924004 0.681504470834508
-4.752476666666667 64.68646666666667 1974.92 0.0 0.0 1.0
-3.9735099999999997 77.2627 1981.46 0.0 0.0 1.0
-4.1777766666666665 101.77799999999998 1994.67 0.0 0.0 1.0
-4.1777766666666665 101.778 1994.67 0.0 0.0 1.0
-4.50331 104.63566666666667 1981.46 0.0 0.0 1.0
-12.2714 120.118 1765.1899999999998 5.37171076150362e-28 -1.0743421523007361e-27 1.0
5.689609666666666 -142.7843333333333 2087.4500000000003 -0.4738603344088091 0.473426387041568 0.7425118447046748
-3.333333666666667 -86.21623333333332 2021.62 0.0 0.0 1.0
-5.028056666666667 -74.07406666666667 2014.8100000000002 5.300305491201037e-29 -2.854015403001264e-29 1.0
-3.9506133333333335 -63.65879999999999 2014.8100000000002 2.4119023946358163e-26 -2.5973814253637336e-26 1.0
-3.6689066666666665 -54.496633333333335 2008.05 0.0 0.0 1.0
-21.76606666666667 -38.451933333333336 1629.1200000000001 -0.2508575817138357 0.9018873372539056 0.35166703655268305
-5.066666666666666 -35.64443333333333 1994.67 0.0 0.0 1.0
-3.6444433333333333 -28.1778 1994.67 0.0 0.0 1.0
9.77777 -19.654323333333334 2216.3 0.0 0.0 1.0
-5.669989999999999 -20.110766666666667 1988.04 0.0 0.0 1.0
-5.315613333333332 -13.200433333333331 1988.04 0.0 0.0 1.0
-6.20155 -12.4917 1988.04 0.0 0.0 1.0
1.6790133333333337 3.6543200000000002 2216.3 0.0 0.0 1.0
-9.484896666666668 8.824946666666667 1850.7233333333334 0.9852863419390103 -0.14075153840460072 0.09695271437758635
0.8888886666666669 26.7654 2216.3 0.0 0.0 1.0
-6.92308 24.871799999999997 1917.95 0.0 0.0 1.0
-6.603173333333333 30.56086666666667 1899.68 0.0 0.0 1.0
-4.856513333333333 37.351 1981.46 0.0 0.0 1.0
-18.410966666666667 45.808233333333334 1639.45 0.0 0.0 1.0
-5.9846 72.0792 1974.92 0.0 0.0 1.0
-4.856513333333333 81.6777 1981.46 0.0 0.0 1.0
-4.355553333333334 88.44443333333334 1994.67 0.0 0.0 1.0
-5.42222 95.55556666666666 1994.67 0.0 0.0 1.0
-4.1777766666666665 101.77799999999998 1994.67 0.0 0.0 1.0
-5.209713333333333 104.28266666666666 1981.46 0.0 0.0 1.0
-4.326709999999999 106.40166666666666 1981.46 0.0 0.0 1.0
-6.01307 112.68 1955.5600000000002 1.96928949739069e-27 -7.875275303618636e-27 1.0
-20.792466666666666 100.08749999999999 1576.1366666666665 0.6626235957293942 -0.745396222754335 0.07290021595453566
-16.17593 107.92533333333334 1611.51 0.7148199047763772 -0.5956421948909504 0.36639170214537065
-3.7188233333333334 -128.889 2035.37 0.0 0.0 1.0
-3.35601 -125.80499999999999 2035.37 0.0 0.0 1.0
-22.652533333333334 -63.82523333333334 1419.2233333333334 0.7879150786449576 -0.6157662386789359 0.004665634694875709
-11.974513333333334 -72.61146666666667 1905.7300000000002 1.0855382317258059e-27 1.385279515916341e-27 1.0
-3.9506166666666664 -70.84176666666667 2014.8100000000002 0.0 0.0 1.0
-4.848483333333333 -67.25026666666666 2014.8100000000002 5.2189708274487435e-28 -2.609453122458945e-28 1.0
8.987651999999999 -63.1111 2216.3 0.0 0.0 1.0
-3.6689066666666665 -54.496633333333335 2008.05 0.0 0.0 1.0
-4.63768 -44.86066666666667 2001.34 0.0 0.0 1.0
-4.7111133333333335 -29.599999999999998 1994.67 0.0 0.0 1.0
-5.6000000000000005 -25.866666666666664 1994.67 0.0 0.0 1.0
-4.50331 -7.15232 1981.46 0.0 0.0 1.0
3.25926 1.8765400000000003 2216.3 0.0 0.0 1.0
-12.96425 1.7393896666666666 1864.1866666666667 0.481467890346066 0.721048297002488 0.49827504849783566
-9.78157 0.9269383333333332 1891.68 0.39823803740031066 -0.8960318973349681 0.196299018147941
-8.27284 17.8658 1974.92 0.0 0.0 1.0
-19.523933333333336 39.8569 1640.9533333333336 -0.09179362197905803 -0.6424925388748591 0.7607741244640905
-4.50331 46.3576 1981.46 0.0 0.0 1.0
-18.410966666666667 45.808233333333334 1639.45 0.0 0.0 1.0
-5.808583333333334 65.0385 1974.92 0.0 0.0 1.0
-5.80858 70.14300000000001 1974.92 0.0 0.0 1.0
-4.96124 86.20156666666668 1988.04 0.0 0.0 1.0
-7.940526666666667 116.334 2070.6066666666666 -0.07672947111563841 0.6206292434750812 0.7803409065311536
-3.291876666666667 119.041 1994.6833333333334 0.9622834785242333 -0.05666707279311716 0.26608147214783806
-15.171066666666666 120.82133333333333 1754.84 0.0 0.0 1.0
-4.004553333333333 -150.808 2042.32 0.0 0.0 1.0
-4.186576666666666 -149.89766666666668 2042.32 0.0 0.0 1.0
-4.18658 -146.803 2042.32 0.0 0.0 1.0
-4.18658 -146.803 2042.32 0.0 0.0 1.0
-4.62585 -131.066 2035.37 0.0 0.0 1.0
-4.444446666666667 -126.168 2035.37 0.0 0.0 1.0
-3.9002266666666663 -124.17233333333333 2035.37 0.0 0.0 1.0
-3.9002266666666663 -124.17233333333333 2035.37 0.0 0.0 1.0
-4.700563333333334 -103.86433333333332 2028.47 0.0 0.0 1.0
-4.519773333333333 -102.05666666666666 2028.47 0.0 0.0 1.0
-4.519773333333333 -102.05666666666666 2028.47 0.0 0.0 1.0
-3.9506133333333335 -63.65879999999999 2014.8100000000002 2.4119023946358163e-26 -2.5973814253637336e-26 1.0
-16.913433333333334 -21.507099999999998 1408.0666666666668 -0.4960501377662479 0.86808498311174 0.019045285977817673
-4.7111133333333335 -29.599999999999998 1994.67 0.0 0.0 1.0
-5.6000000000000005 -25.866666666666664 1994.67 0.0 0.0 1.0
-5.669989999999999 -20.110766666666667 1988.04 0.0 0.0 1.0
-26.256866666666667 2.1262353333333333 1447.756666666667 -0.827164430127524 -0.5603733041295544 -0.04219911789047571
1.6790133333333337 3.6543200000000002 2216.3 0.0 0.0 1.0
-9.641820000000001 5.14812 1833.71 -0.21676228509456244 -0.9754269705096791 0.03945043678964005
-3.973513333333333 18.9845 1981.46 0.0 0.0 1.0
-8.593423333333334 23.46506666666667 1942.8733333333332 0.4695702609528131 0.5637328974987748 0.6794917146708582
-8.973556666666667 24.126966666666664 1899.68 0.0 0.0 1.0
-18.44386666666667 43.841633333333334 1642.4566666666667 -4.768651729127151e-16 0.9401410742472514 0.3407855051395586
-18.849333333333334 46.10046666666667 1639.45 0.0 0.0 1.0
-6.864686666666667 63.27836666666667 1974.92 0.0 0.0 1.0
-6.688670000000001 66.7987 1974.92 0.0 0.0 1.0
-15.391056666666666 55.129200000000004 1608.61 -0.37717741820730305 0.38895079673554717 0.8405084609409096
-6.2693200000000004 78.49889999999999 1981.46 0.0 0.0 1.0
-6.2693200000000004 78.49889999999999 1981.46 0.0 0.0 1.0
-4.7840533333333335 84.60686666666668 1988.04 0.0 0.0 1.0
-7.022223333333333 91.28890000000001 1994.67 0.0 0.0 1.0
-5.9555533333333335 96.08890000000001 1994.67 0.0 0.0 1.0
-5.777776666666665 97.15556666666667 1994.67 0.0 0.0 1.0
-6.2693166666666675 104.28266666666666 1981.46 0.0 0.0 1.0
-6.469943333333333 110.776 1961.97 0.0 0.0 1.0
-7.058823333333334 112.85433333333333 1955.5600000000002 9.233869195833054e-29 4.429842799674984e-27 1.0
-7.930283333333333 114.94533333333334 1955.5600000000002 5.169109526801397e-27 -9.597716438259368e-27 1.0
-23.126266666666666 88.47823333333334 1406.92 -0.5753307054571112 -0.574426706172023 0.5822615723148687
-4.004553333333333 -150.808 2042.32 0.0 0.0 1.0
-4.550626666666667 -149.3516666666667 2042.32 0.0 0.0 1.0
-5.460753333333333 -141.7063333333333 2042.32 0.0 0.0 1.0
-4.98866 -131.79166666666669 2035.37 0.0 0.0 1.0
-5.9661 -119.955 2028.47 0.0 0.0 1.0
-5.966103333333333 -116.339 2028.47 0.0 0.0 1.0
-5.24294 -108.02266666666667 2028.47 0.0 0.0 1.0
-5.24294 -108.02266666666667 2028.47 0.0 0.0 1.0
-6.75676 -100.99073333333335 2021.62 0.0 0.0 1.0
-4.519773333333333 -102.05666666666666 2028.47 0.0 0.0 1.0
-5.4955 -91.26126666666666 2021.62 0.0 0.0 1.0
-5.85586 -83.5135 2021.62 0.0 0.0 1.0
-4.66891 -69.7643 2014.8100000000002 5.218760933062144e-28 3.479173955375775e-28 1.0
-4.63768 -44.86066666666667 2001.34 0.0 0.0 1.0
-17.23991666666667 -45.09553333333333 1905.7300000000002 1.3183964196723073e-27 -1.2103700785417943e-27 1.0
-5.777776666666667 -25.15556666666667 1994.67 0.0 0.0 1.0
-5.777776666666667 -25.15556666666667 1994.67 0.0 0.0 1.0
-6.555926666666667 -19.756366666666665 1988.04 0.0 0.0 1.0
-6.119746666666667 -14.4576 1990.25 0.6192272813199478 0.7740515758465683 0.13191562454292852
-6.20155 -12.4917 1988.04 0.0 0.0 1.0
-12.187186666666667 10.57598 2026.1866666666667 -0.48105577993810267 -0.26985926678558353 0.8341230800775692
-10.053243333333333 24.451533333333334 1911.82 0.0 0.0 1.0
-6.092716666666665 36.9978 1981.46 0.0 0.0 1.0
-6.445916666666666 38.410599999999995 1981.46 0.0 0.0 1.0
-19.4338 45.36986666666667 1639.45 0.0 0.0 1.0
-19.4338 45.36986666666667 1639.45 0.0 0.0 1.0
-19.287666666666667 46.10046666666667 1639.45 0.0 0.0 1.0
-8.448846666666666 55.885600000000004 1974.92 0.0 0.0 1.0
-6.864686666666667 63.27836666666667 1974.92 0.0 0.0 1.0
-6.512653333333334 65.39053333333334 1974.92 0.0 0.0 1.0
-6.86469 65.9186 1974.92 0.0 0.0 1.0
-6.688670000000001 66.7987 1974.92 0.0 0.0 1.0
-6.512653333333333 73.48736666666667 1974.92 0.0 0.0 1.0
-6.622519999999999 77.9691 1981.46 0.0 0.0 1.0
-6.445916666666666 81.3245 1981.46 0.0 0.0 1.0
-32.747366666666665 71.99759999999999 1508.5866666666668 0.7165825104199685 0.5232416543509083 0.46122410703728434
-6.73311 86.37876666666666 1988.04 0.0 0.0 1.0
-6.311109999999999 95.2 1994.67 0.0 0.0 1.0
-5.9555533333333335 96.08890000000001 1994.67 0.0 0.0 1.0
-7.50552 109.75733333333334 1981.46 0.0 0.0 1.0
-12.768966666666666 118.77866666666667 1768.67 0.44561975001026094 -0.891333645038129 0.08335089455929932
-15.171066666666666 120.82133333333333 1754.84 0.0 0.0 1.0
-4.91468 -146.621 2042.32 0.0 0.0 1.0
-16.758300000000002 -119.464 1700.08 0.44183173388838554 0.10549351876118485 0.8908736366222577
-5.53288 -133.787 2035.37 0.0 0.0 1.0
-4.80726 -129.796 2035.37 0.0 0.0 1.0
-5.423726666666667 -103.50266666666668 2028.47 0.0 0.0 1.0
-5.4955 -92.34233333333333 2021.62 0.0 0.0 1.0
-5.4955 -92.34233333333333 2021.62 0.0 0.0 1.0
-5.85586 -90.36036666666666 2021.62 0.0 0.0 1.0
-4.774776666666667 -84.95496666666666 2021.62 0.0 0.0 1.0
-7.06935 -56.107400000000005 2008.05 0.0 0.0 1.0
-5.066666666666666 -35.64443333333333 1994.67 0.0 0.0 1.0
-8.721919999999999 -3.084096666666667 1977.1000000000001 -0.5546926732139869 -0.8320468881576103 -0.0037435531194613026
-17.924533333333333 9.335253333333332 1731.17 0.6447495264080603 0.02069861210317852 0.7641136143621471
-7.2349266666666665 29.412666666666667 1858.4333333333334 0.5080585054837912 0.8572050559960008 0.0841192426289598
-7.1523200000000005 39.6468 1981.46 0.0 0.0 1.0
-26.687133333333332 37.036766666666665 1415.7766666666666 -0.41945696484631567 -0.5243073442943511 0.7410517278577262
-19.4338 45.808233333333334 1639.45 0.0 0.0 1.0
-6.864686666666667 63.27836666666667 1974.92 0.0 0.0 1.0
-7.744776666666667 74.36746666666666 1974.92 0.0 0.0 1.0
-6.622519999999999 77.9691 1981.46 0.0 0.0 1.0
-7.022223333333333 93.60000000000001 1994.67 0.0 0.0 1.0
-7.50552 109.75733333333334 1981.46 0.0 0.0 1.0
-7.9302833333333345 113.20266666666667 1955.5600000000002 -3.55713563179699e-26 -2.816442434384573e-26 1.0
-7.930283333333333 114.94533333333334 1955.5600000000002 5.169109526801397e-27 -9.597716438259368e-27 1.0
-7.7559933333333335 115.99133333333333 1955.5600000000002 0.0 0.0 1.0
1.0864193333333334 145.08633333333333 2216.3 0.0 0.0 1.0
-17.176466666666666 118.98066666666666 1760.0 0.0 0.0 1.0
-5.096699999999999 -148.62333333333333 2042.32 0.0 0.0 1.0
-5.460753333333333 -146.985 2042.32 0.0 0.0 1.0
-5.460753333333333 -145.529 2042.32 0.0 0.0 1.0
-6.98413 -137.59633333333332 2035.37 0.0 0.0 1.0
-13.71225 -113.32733333333333 1654.5666666666666 -0.43713170981785726 -0.8742409426864244 0.21123125337522572
-5.714286666666666 -130.703 2035.37 0.0 0.0 1.0
-6.388683333333333 -120.71466666666667 1833.756666666667 0.22694301169702646 0.8775710177367476 0.42233396532882894
-5.53288 -126.89366666666668 2035.37 0.0 0.0 1.0
-6.146893333333334 -114.89266666666667 2028.47 0.0 0.0 1.0
-5.24294 -108.02266666666667 2028.47 0.0 0.0 1.0
-7.182943333333333 -76.76766666666667 2014.8100000000002 0.0 0.0 1.0
-5.855856666666667 -78.64866666666667 2021.62 0.0 0.0 1.0
-6.9565366666666675 -51.28206666666667 2001.34 0.0 0.0 1.0
-7.2 -25.6889 1994.67 0.0 0.0 1.0
-7.619046666666667 -19.224800000000002 1988.04 0.0 0.0 1.0
-7.441859999999999 -12.4917 1988.04 0.0 0.0 1.0
-10.68329 4.050276333333334 1858.3966666666668 0.5476878989878177 0.7020935359821624 0.4550853019318183
-12.098766666666668 9.30041 1846.91 0.0 0.0 1.0
-11.08984 8.295533333333333 1843.1233333333337 0.5550810475334776 0.7929743056718692 0.25115091322420874
-18.172433333333334 12.918566666666669 1637.9566666666667 -0.4867026356403718 -0.8652505007581045 0.12025853565782749
-12.698433333333334 28.5291 1899.68 0.0 0.0 1.0
-7.15232 39.6468 1981.46 0.0 0.0 1.0
-9.32893 52.8933 1974.92 0.0 0.0 1.0
-7.858720000000001 80.9713 1981.46 0.0 0.0 1.0
-7.022223333333333 93.60000000000001 1994.67 0.0 0.0 1.0
-7.022223333333333 93.59999999999998 1994.67 0.0 0.0 1.0
-7.32892 104.63600000000001 1981.46 0.0 0.0 1.0
-6.469943333333333 110.776 1961.97 0.0 0.0 1.0
-8.27887 114.24833333333333 1955.5600000000002 -2.2160228668138278e-27 1.7667235752137077e-31 1.0
-18.402533333333334 105.77766666666668 1620.2533333333333 -0.036987133322440316 -0.9981477080834769 0.04830222371993043
0.8888890000000002 149.23433333333332 2216.3 0.0 0.0 1.0
0.8888890000000002 149.23433333333332 2216.3 0.0 0.0 1.0
0.8888890000000002 149.23433333333332 2216.3 0.0 0.0 1.0
1.876543 163.45666666666668 2216.3 0.0 0.0 1.0
-5.460753333333333 -146.985 2042.32 0.0 0.0 1.0
-5.824803333333333 -145.529 2042.32 0.0 0.0 1.0
-8.073843333333333 -139.11333333333332 1996.92 0.536259369708809 -0.6748461993560879 0.5069600532725967
-5.460753333333333 -141.70633333333333 2042.32 0.0 0.0 1.0
-5.460753333333333 -141.70633333333333 2042.32 0.0 0.0 1.0
-6.077096666666667 -131.79166666666669 2035.37 0.0 0.0 1.0
-6.50847 -120.859 2028.47 0.0 0.0 1.0
-6.50847 -120.859 2028.47 0.0 0.0 1.0
-6.50847 -120.859 2028.47 0.0 0.0 1.0
-5.423726666666667 -103.50266666666668 2028.47 0.0 0.0 1.0
-27.470299999999998 -85.99086666666666 1639.45 0.0 0.0 1.0
-7.2973 -99.18906666666668 2021.62 0.0 0.0 1.0
-7.2973 -97.2072 2021.62 0.0 0.0 1.0
-5.85586 -90.36036666666666 2021.62 0.0 0.0 1.0
-6.75676 -82.97296666666666 2021.62 0.0 0.0 1.0
-7.721663333333333 -75.51063333333333 2014.8100000000002 -5.914912189088105e-27 -2.261671684143286e-26 1.0
-7.717183333333334 -41.54773333333333 1726.2033333333331 -0.7484462131478231 0.6548840776162765 -0.10466666570289647
-6.89038 -57.1812 2008.05 0.0 0.0 1.0
-7.06935 -56.107400000000005 2008.05 0.0 0.0 1.0
9.777785333333332 -58.96293333333333 2216.3 0.0 0.0 1.0
-8.918320000000001 -5.9161166666666665 1981.46 0.0 0.0 1.0
-12.439476666666666 10.502806666666666 1671.51 0.0 0.0 1.0
-8.27284 17.865799999999997 1974.92 0.0 0.0 1.0
0.8888886666666668 26.7654 2216.3 0.0 0.0 1.0
-13.426400000000001 31.749800000000004 1870.0500000000002 0.3926631633563165 0.915977056377038 0.0824722519024888
-7.32892 104.63600000000001 1981.46 0.0 0.0 1.0
-30.249266666666667 88.26100000000001 1531.7533333333333 0.48861032940718147 0.8396297084462522 0.2372380633268348
-17.066666666666666 127.26166666666666 1841.2300000000002 5.795102502141937e-29 1.0670826313095807e-28 1.0
-16.4223 120.03899999999999 1754.84 0.0 0.0 1.0
-15.527066666666665 130.975 1824.3999999999999 -0.28592932977152236 0.9538134351929642 0.09211052720403429
-5.46075 -150.444 2042.32 0.0 0.0 1.0
-19.3868 -123.294 1835.6266666666668 -0.47481644838873877 0.7949732741079196 0.3775802349086068
-7.165533333333333 -135.78233333333333 2035.37 0.0 0.0 1.0
-7.165533333333333 -127.61899999999999 2035.37 0.0 0.0 1.0
-6.43991 -126.34933333333333 2035.37 0.0 0.0 1.0
-7.59322 -118.50866666666666 2028.47 0.0 0.0 1.0
-5.966103333333333 -108.20366666666666 2028.47 0.0 0.0 1.0
-9.038016666666666 -61.65546666666666 2008.05 0.0 0.0 1.0
-7.785233333333333 -55.74946666666667 2008.05 0.0 0.0 1.0
-7.964203333333333 -54.49666666666667 2008.05 0.0 0.0 1.0
-7.670013333333333 -42.5418 2001.34 0.0 0.0 1.0
-8.266666666666667 -26.044466666666665 1994.67 0.0 0.0 1.0
-9.036543333333334 -17.4529 1988.04 0.0 0.0 1.0
-8.327793333333332 -11.960133333333333 1988.04 0.0 0.0 1.0
-26.256866666666667 2.1262353333333333 1447.756666666667 -0.8271644301275239 -0.5603733041295547 -0.042199117890475736
-25.737566666666666 10.17803 1580.3500000000001 0.501530810299757 -0.8486830599476795 -0.16794019792149778
-21.200300000000002 14.207733333333335 1634.9799999999998 -0.12736445327218687 0.991635893587041 0.02089379315748987
-11.174593333333334 30.89946666666667 1899.68 0.0 0.0 1.0
-9.328933333333334 54.829499999999996 1974.92 0.0 0.0 1.0
-9.152916666666668 65.56656666666666 1974.92 0.0 0.0 1.0
-9.152916666666668 65.56656666666666 1974.92 0.0 0.0 1.0
-9.680966666666668 71.02306666666668 1974.92 0.0 0.0 1.0
-8.624863333333334 74.36746666666666 1974.92 0.0 0.0 1.0
-8.682173333333333 86.55593333333333 1988.04 0.0 0.0 1.0
-7.022223333333333 91.28890000000001 1994.67 0.0 0.0 1.0
-5.6000000000000005 102.31133333333332 1994.67 0.0 0.0 1.0
-7.50552 109.75733333333334 1981.46 0.0 0.0 1.0
-8.801743333333333 113.55133333333333 1955.5600000000002 -9.853639400372613e-28 4.6848447241070245e-27 1.0
-18.041533333333334 114.50033333333333 1775.67 0.0 0.0 1.0
-7.165533333333333 -135.78233333333336 2035.37 0.0 0.0 1.0
-7.165533333333333 -135.78233333333336 2035.37 0.0 0.0 1.0
-6.43991 -131.24733333333336 2035.37 0.0 0.0 1.0
-7.59322 -114.89266666666667 2028.47 0.0 0.0 1.0
-20.354133333333333 -94.43636666666667 1654.58 0.5833481952081405 -0.5828110434299962 0.5657173948213403
-7.721663333333333 -75.51063333333333 2014.8100000000002 -5.914912189088101e-27 -2.261671684143285e-26 1.0
-7.721663333333333 -75.51063333333333 2014.8100000000002 -5.914912189088102e-27 -2.2616716841432857e-26 1.0
-8.61953 -68.6869 2014.8100000000002 0.0 -1.0 0.0
-7.785233333333333 -55.74946666666667 2008.05 0.0 0.0 1.0
-7.8483833333333335 -44.147166666666664 2001.34 0.0 0.0 1.0
-10.755533333333332 -39.02223333333333 1994.67 0.0 0.0 1.0
-9.333333333333334 -31.377766666666663 1994.67 0.0 0.0 1.0
-9.5111 -29.95556666666667 1994.67 0.0 0.0 1.0
-8.327793333333334 -18.338833333333334 1988.04 0.0 0.0 1.0
-8.327793333333332 -11.960133333333333 1988.04 0.0 0.0 1.0
-9.801313333333335 -7.50552 1981.46 0.0 0.0 1.0
-9.801313333333335 -7.50552 1981.46 0.0 0.0 1.0
-19.726066666666668 40.401833333333336 1639.45 0.0 0.0 1.0
-9.328933333333334 54.8295 1974.92 0.0 0.0 1.0
-9.328933333333334 54.8295 1974.92 0.0 0.0 1.0
-9.152916666666668 65.56656666666667 1974.92 0.0 0.0 1.0
-9.152916666666668 68.3828 1974.92 0.0 0.0 1.0
-9.504950000000001 73.48736666666667 1974.92 0.0 0.0 1.0
-9.624713333333334 80.4415 1981.46 0.0 0.0 1.0
-8.444443333333334 93.59999999999998 1994.67 0.0 0.0 1.0
-10.985613333333333 100.0219 1988.04 0.0 0.0 1.0
-11.416133333333333 110.23933333333332 1955.5600000000002 8.270168539951805e-26 1.5355205504677104e-25 1.0
-27.993366666666663 88.19696666666668 1471.4766666666667 -0.16394250694563323 -0.7541388681832674 0.635922496780576
-22.328433333333333 112.54066666666667 1789.8566666666666 -0.6784052535779151 0.7153264016759646 0.16755432248438473
-7.827076666666667 -146.07500000000002 2042.32 0.0 0.0 1.0
-8.0091 -145.347 2042.32 0.0 0.0 1.0
-6.98413 -137.59633333333332 2035.37 0.0 0.0 1.0
-8.135589999999999 -122.66699999999999 2028.47 0.0 0.0 1.0
-9.45946 -101.53133333333334 2021.62 0.0 0.0 1.0
-8.73874 -94.68466666666666 2021.62 0.0 0.0 1.0
-8.91892 -93.96393333333333 2021.62 0.0 0.0 1.0
-8.1982 -84.05403333333334 2021.62 0.0 0.0 1.0
-7.11712 -79.90990000000001 2021.62 0.0 0.0 1.0
-8.799103333333333 -73.1762 2014.8100000000002 -1.1131910230975636e-26 -2.226051477220218e-26 1.0
-8.799103333333333 -72.81703333333333 2014.8100000000002 1.1133976670595046e-26 -2.226878007047676e-26 1.0
-8.799103333333333 -72.81703333333333 2014.8100000000002 1.1133976670595049e-26 -2.2268780070476764e-26 1.0
-8.61953 -68.6869 2014.8100000000002 0.0 -1.0 0.0
-8.561873333333333 -42.898533333333326 2001.34 0.0 0.0 1.0
-9.333333333333334 -31.377766666666663 1994.67 0.0 0.0 1.0
-9.155556666666667 -25.511133333333333 1994.67 0.0 0.0 1.0
-9.568096666666667 -16.74416666666667 1988.04 0.0 0.0 1.0
-1.2839500000000001 3.25926 2216.3 0.0 0.0 1.0
-13.3197 3.50072 1915.9066666666668 0.16436293530878093 0.9861712016917986 -0.021241149932039335
-15.226333333333335 11.2757 1846.91 0.0 0.0 1.0
-23.44056666666667 15.360500000000002 1633.4866666666667 -0.5197883428372451 -0.8446634886034731 0.12792056000002916
0.8888886666666668 26.7654 2216.3 0.0 0.0 1.0
-11.793199999999999 44.79646666666667 1974.92 0.0 0.0 1.0
-10.209033333333332 53.24533333333333 1974.92 0.0 0.0 1.0
-10.209033333333332 53.24533333333333 1974.92 0.0 0.0 1.0
-10.737099999999998 59.758 1974.92 0.0 0.0 1.0
-29.746733333333335 40.81243333333333 1411.3266666666666 -0.7894386666068337 -0.5429620915676803 -0.2863193300957418
-9.680966666666668 71.02306666666668 1974.92 0.0 0.0 1.0
-9.856983333333332 72.0792 1974.92 0.0 0.0 1.0
-8.444443333333334 93.95553333333334 1994.67 0.0 0.0 1.0
-10.507706666666667 104.106 1981.46 0.0 0.0 1.0
-16.926833333333335 112.76833333333333 1909.79 -0.3212732890673601 -0.3213990320376217 0.8907783876684033
-18.431366666666666 118.824 1760.0 0.0 0.0 1.0
-18.142733333333336 119.25699999999999 1754.84 0.0 0.0 1.0
-40.284333333333336 87.56176666666666 1249.2933333333333 -0.7215262116710658 0.1430873726493712 0.6774407204028264
1.876543 163.45666666666668 2216.3 0.0 0.0 1.0
-9.101253333333332 -148.259 2042.32 0.0 0.0 1.0
-8.009103333333334 -147.349 2042.32 0.0 0.0 1.0
-6.734929999999999 -141.7063333333333 2042.32 0.0 0.0 1.0
-4.049383333333333 -152.59266666666667 2216.3 0.0 0.0 1.0
-7.650003333333333 -103.31723333333333 2068.21 0.7433832296688018 -0.6569415836395543 0.1257343609851178
-9.27928 -87.11713333333334 2021.62 0.0 0.0 1.0
-13.574066666666667 -71.68483333333334 1903.7133333333331 0.5314813650365202 -0.7971699006390601 0.28643971116803646
-14.012733333333335 -70.91293333333333 1905.7300000000002 3.1108525722012676e-27 -6.998858710617554e-27 1.0
-8.799103333333333 -72.81703333333333 2014.8100000000002 1.1133976670595042e-26 -2.2268780070476753e-26 1.0
-8.61953 -68.6869 2014.8100000000002 0.0 -1.0 0.0
-9.87654 -66.3524 2014.8100000000002 -2.3858220903770473e-27 1.1929134177354247e-27 1.0
-9.511113333333332 -34.39996666666667 1994.67 0.0 0.0 1.0
-9.333333333333334 -31.37776666666667 1994.67 0.0 0.0 1.0
-10.222233333333334 -24.977800000000002 1994.67 0.0 0.0 1.0
-10.808413333333334 -21.351033333333334 1988.04 0.0 0.0 1.0
-11.441146666666667 -2.0242020000000003 1974.92 0.0 0.0 1.0
-13.314686666666669 1.599915 1891.68 -0.3125303584111933 0.7031904130756469 0.6386297973238269
-13.3197 3.50072 1915.9066666666668 0.16436293530878093 0.9861712016917986 -0.021241149932039335
-15.226333333333335 11.2757 1846.91 0.0 0.0 1.0
-28.097866666666665 8.112933333333332 1388.4066666666668 -0.6023653512498323 -0.7684304716305195 0.21603377949608676
-8.27284 17.865799999999997 1974.92 0.0 0.0 1.0
-11.2673 22.4549 1915.9066666666668 -0.43587758001462595 0.8717551600292518 0.2237267891938
-14.862 25.053066666666666 1905.7300000000002 -3.1105812626238312e-27 2.9553879835347347e-26 1.0
-10.913133333333334 37.051700000000004 1974.92 0.0 0.0 1.0
-10.913133333333334 37.051700000000004 1974.92 0.0 0.0 1.0
-10.209033333333332 53.24533333333333 1974.92 0.0 0.0 1.0
-9.857 55.35753333333333 1974.92 0.0 0.0 1.0
-10.033016666666667 62.04623333333333 1974.92 0.0 0.0 1.0
-10.454033333333333 91.1628 1988.04 0.0 0.0 1.0
-18.939953333333335 109.736 2132.11 0.5939909709208493 0.6331909954945059 0.4962296743335525
-11.939 111.80833333333332 1955.5600000000002 2.274494058862762e-27 3.425767348225284e-27 1.0
-16.926833333333335 112.76833333333333 1909.79 -0.3212732890673601 -0.3213990320376217 0.8907783876684033
-25.615733333333328 94.92309999999999 1501.0133333333333 0.6531221911480274 -0.6914894288828107 0.3086644993732257
-19.6657 123.73666666666668 1765.1899999999998 -2.4655230555108243e-25 6.9430929387456505e-25 1.0
-16.377266666666667 130.75300000000001 1828.11 -9.813304646189496e-17 0.9822691639646731 0.18747610387497984
-35.13876666666667 95.61156666666666 1312.33 3.5488196846917405e-16 0.9987981634997579 0.049012535024332844
-20.512833333333333 131.364 1841.2300000000002 -2.0938069470283676e-29 2.83743466101501e-29 1.0
-8.0091 -145.347 2042.32 0.0 0.0 1.0
-4.049383333333333 -152.59266666666667 2216.3 0.0 0.0 1.0
-8.79817 -128.34433333333334 2035.37 0.0 0.0 1.0
-10.124283333333333 -121.03966666666668 2028.47 0.0 0.0 1.0
-8.61677 -123.44666666666667 2035.37 0.0 0.0 1.0
-8.497176666666666 -117.243 2028.47 0.0 0.0 1.0
-8.497176666666666 -117.243 2028.47 0.0 0.0 1.0
-10.180186666666666 -103.69366666666667 2021.62 0.0 0.0 1.0
-9.27928 -94.68466666666666 2021.62 0.0 0.0 1.0
-9.27928 -87.11713333333334 2021.62 0.0 0.0 1.0
-9.27928 -87.11713333333334 2021.62 0.0 0.0 1.0
-9.87654 -69.40516666666667 2014.8100000000002 -5.567065839249882e-27 9.742642952013474e-27 1.0
-9.87654 -67.96856666666666 2014.8100000000002 0.0 0.0 1.0
-26.499476666666666 -36.53296666666667 1580.3500000000001 0.5694996428817404 0.5251153147426506 0.6323954956989314
-10.631236666666668 -16.566999999999997 1988.04 0.0 0.0 1.0
-11.743900000000002 -9.271513333333333 1981.46 0.0 0.0 1.0
-9.801313333333335 -7.50552 1981.46 0.0 0.0 1.0
-23.744500000000002 2.8509733333333336 1494.7933333333333 0.5071219372509703 -0.8548666201709169 0.10968319140313328
-16.0835 11.298646666666668 1850.7233333333334 0.7592209229922269 -0.6326841024935218 0.15262508490676713
-14.862 25.053066666666666 1905.7300000000002 -3.1105812626238312e-27 2.9553879835347347e-26 1.0
-12.698433333333334 28.5291 1899.68 0.0 0.0 1.0
-13.037033333333333 29.8836 1899.68 0.0 0.0 1.0
-16.5012 30.32936666666667 1928.253333333333 -0.6071986421832479 0.7589891117734805 0.23504326652793758
-6.9757066666666665 47.4172 1981.46 0.0 0.0 1.0
-12.228173333333332 47.69646666666667 1669.9733333333334 0.6160814391554372 0.17458884123711396 0.7680900968269588
-9.856983333333334 67.1507 1974.92 0.0 0.0 1.0
-9.856983333333334 74.36746666666666 1974.92 0.0 0.0 1.0
-13.771433333333334 74.81876666666666 1968.4366666666667 -0.6875453306979799 0.6636878399207333 0.29461817557095277
-10.454033333333333 91.1628 1988.04 0.0 0.0 1.0
-10.454033333333333 91.1628 1988.04 0.0 0.0 1.0
-10.507706666666667 104.106 1981.46 0.0 0.0 1.0
-11.3907 104.28266666666666 1981.46 0.0 0.0 1.0
-12.2876 110.41366666666666 1955.5600000000002 -3.5445516211640225e-26 7.087747773256905e-26 1.0
-19.0588 116.47066666666667 1760.0 0.0 0.0 1.0
-18.431366666666666 118.824 1760.0 0.0 0.0 1.0
-21.364099999999997 126.11 1724.5 0.0 0.0 1.0
-9.829369999999999 -140.97833333333335 2042.32 0.0 0.0 1.0
-10.124283333333333 -121.03966666666668 2028.47 0.0 0.0 1.0
-7.182636666666667 -109.83266666666667 1911.91 0.6533145729175875 -0.7537870214085135 0.07060591455105955
-28.398733333333336 -89.85043333333333 1637.9566666666667 -1.2896158033919205e-15 -0.606036694044206 0.7954366885377927
-10.847470000000001 -108.746 2028.47 0.0 0.0 1.0
-10.180186666666666 -103.69366666666667 2021.62 0.0 0.0 1.0
-9.45946 -101.53133333333334 2021.62 0.0 0.0 1.0
-10.180193333333333 -93.06303333333334 2021.62 0.0 0.0 1.0
6.0247 -84.64193333333334 2216.3 0.0 0.0 1.0
-37.11763333333334 -46.44556666666666 1330.7733333333333 -0.7431865205488887 -0.6255044513374024 -0.2375246872043653
-10.290840000000001 -57.8971 2008.05 0.0 0.0 1.0
-10.8807 -49.141600000000004 2001.34 0.0 0.0 1.0
-10.8807 -49.141600000000004 2001.34 0.0 0.0 1.0
-10.933333333333332 -39.55556666666667 1994.67 0.0 0.0 1.0
-11.466666666666667 -29.600000000000005 1994.67 0.0 0.0 1.0
-15.226333333333335 11.2757 1846.91 0.0 0.0 1.0
-12.438760000000002 23.258766666666663 1911.82 0.0 0.0 1.0
-14.936733333333335 30.464133333333333 1893.67 0.0 0.0 1.0
-14.936733333333335 30.464133333333333 1893.67 0.0 0.0 1.0
-10.913133333333334 37.051700000000004 1974.92 0.0 0.0 1.0
-11.9692 43.74036666666666 1974.92 0.0 0.0 1.0
-10.7371 57.997800000000005 1974.92 0.0 0.0 1.0
-29.746733333333335 40.81243333333333 1411.3266666666666 -0.7894386666068337 -0.5429620915676803 -0.2863193300957418
-11.694366666666667 86.20153333333333 1988.04 0.0 0.0 1.0
-11.694366666666667 86.20153333333333 1988.04 0.0 0.0 1.0
-12.225933333333336 99.4905 1988.04 0.0 0.0 1.0
-30.1609 80.36779999999999 1375.63 0.0 0.0 1.0
-12.2876 110.41366666666666 1955.5600000000002 -3.544551621164022e-26 7.087747773256903e-26 1.0
-41.24796666666666 82.92306666666666 1339.7 -0.19270906175428965 0.14682631805728422 0.9702088691841168
-19.501 94.2556 1551.6133333333335 -0.07155873802640127 -0.8101257851737125 0.581872459572323
-20.792466666666666 100.08749999999999 1576.1366666666665 0.6626235957293941 -0.7453962227543349 0.07290021595453587
-19.0588 116.47066666666667 1760.0 0.0 0.0 1.0
-19.0588 118.50999999999999 1760.0 0.0 0.0 1.0
-18.089066666666668 131.035 1820.6899999999998 0.07661450146890184 -0.9966506197257227 0.028596509664720975
-9.523786666666666 -140.68 2035.37 0.0 0.0 1.0
-10.4308 -134.33100000000002 2035.37 0.0 0.0 1.0
-10.4308 -132.154 2035.37 0.0 0.0 1.0
-10.2494 -125.26066666666667 2035.37 0.0 0.0 1.0
-10.2494 -125.26066666666667 2035.37 0.0 0.0 1.0
-14.012733333333335 -70.91293333333333 1905.7300000000002 3.110852572201266e-27 -6.998858710617553e-27 1.0
-14.012733333333335 -70.91293333333333 1905.7300000000002 3.110852572201266e-27 -6.998858710617553e-27 1.0
-10.953966666666666 -70.6622 2014.8100000000002 -9.27808436591269e-28 -2.3193488444880913e-27 1.0
-10.594823333333332 -70.12346666666667 2014.8100000000002 -1.391721248893875e-27 1.3916114611387414e-27 1.0
-9.87654 -67.96856666666666 2014.8100000000002 0.0 0.0 1.0
-11.156683333333334 -60.546400000000006 2019.3633333333335 0.08762104838172577 -0.7886138333513626 0.6086138132899684
-10.8807 -49.141600000000004 2001.34 0.0 0.0 1.0
-11.644466666666666 -29.95556666666667 1994.67 0.0 0.0 1.0
-11.466666666666667 -29.600000000000005 1994.67 0.0 0.0 1.0
-11.111123333333333 -24.0889 1994.67 0.0 0.0 1.0
-11.644466666666666 -22.84443333333333 1994.67 0.0 0.0 1.0
-11.517166666666666 -16.7442 1988.04 0.0 0.0 1.0
-12.438760000000002 23.258766666666663 1911.82 0.0 0.0 1.0
-22.075766666666667 26.4834 1828.11 -0.08247195155828937 -0.46733544046723313 0.8802249503902194
-11.152993333333335 30.618866666666673 1924.1299999999999 0.746409669383264 0.6635219082877761 -0.05110071108423537
-12.097106666666667 81.14789999999999 1981.46 0.0 0.0 1.0
-12.580300000000001 95.76963333333333 1988.04 0.0 0.0 1.0
-12.6362 110.58800000000001 1955.5600000000002 4.431536856637747e-27 -1.1812912955427829e-26 1.0
-12.6362 110.58800000000001 1955.5600000000002 4.431536856637747e-27 -1.181291295542783e-26 1.0
-13.159066666666666 111.80833333333334 1955.5600000000002 0.0 0.0 1.0
-28.210199999999997 93.07159999999999 1503.5433333333333 0.9485967163158082 0.31612850545055676 0.015067774768143362
-19.624133333333333 114.02566666666667 1775.67 0.0 0.0 1.0
-19.624133333333333 114.02566666666667 1775.67 0.0 0.0 1.0
-19.0588 116.47066666666667 1760.0 0.0 0.0 1.0
-19.0588 117.88233333333335 1760.0 0.0 0.0 1.0
-11.467566666666668 -149.89766666666665 2042.32 0.0 0.0 1.0
-9.523786666666666 -140.68 2035.37 0.0 0.0 1.0
-10.793633333333332 -135.41966666666667 2035.37 0.0 0.0 1.0
-10.2494 -133.42399999999998 2035.37 0.0 0.0 1.0
-10.612233333333334 -131.24699999999999 2035.37 0.0 0.0 1.0
-10.249429999999998 -129.25133333333335 2035.37 0.0 0.0 1.0
-10.2494 -125.26066666666667 2035.37 0.0 0.0 1.0
-24.14663333333333 -99.57926666666667 1651.5199999999998 0.3865845555544049 -0.918246296318705 0.0858843449284207
-11.389833333333334 -110.373 2028.47 0.0 0.0 1.0
-10.180186666666666 -103.69366666666667 2021.62 0.0 0.0 1.0
-12.95966 -90.2566 1901.6966666666667 -0.5723677509106101 -0.08585488092350287 0.8154900962851364
-11.0811 -92.34233333333333 2021.62 0.0 0.0 1.0
-11.672266666666665 -78.20426666666667 2014.8100000000002 -1.2801737963436611e-27 9.463373831502557e-28 1.0
-12.031433333333332 -76.76766666666667 2014.8100000000002 -5.217989581168e-28 6.185353622182098e-28 1.0
-10.953966666666666 -70.6622 2014.8100000000002 -9.278084365912693e-28 -2.3193488444880913e-27 1.0
-12.486066666666668 -44.503899999999994 2001.34 0.0 0.0 1.0
-12.486066666666668 -44.503899999999994 2001.34 0.0 0.0 1.0
-11.999989999999999 -32.26663333333333 1994.67 0.0 0.0 1.0
-11.466666666666667 -29.600000000000005 1994.67 0.0 0.0 1.0
-11.111123333333333 -24.0889 1994.67 0.0 0.0 1.0
-11.517166666666666 -16.7442 1988.04 0.0 0.0 1.0
-30.459699999999998 2.087753333333333 1504.82 0.5461064027381154 0.8373881022563409 0.023429961330727823
-33.99006666666667 9.511073333333334 1472.6833333333334 -0.548612988155909 -0.23511672693133612 0.8023365340951015
-30.4414 11.052466666666668 1385.22 0.2498341815101881 0.9680766213400546 -0.02026171177266263
-26.155766666666665 19.797166666666666 1639.46 0.9508225293320435 -0.3095677314511761 -0.010214566010732553
-12.5803 83.54373333333332 1988.04 0.0 0.0 1.0
-11.3907 104.28266666666666 1981.46 0.0 0.0 1.0
-13.681933333333333 113.377 1955.5600000000002 3.6710532545497063e-28 5.0959310776578076e-27 1.0
-21.00493333333333 114.74833333333333 1772.1633333333332 -0.36146669671925596 0.9034186389968053 0.23060049842970737
-19.863166666666668 118.78766666666667 1754.84 0.0 0.0 1.0
-21.364099999999997 126.11 1724.5 0.0 0.0 1.0
-36.73943333333333 95.8952 1306.55 0.0 0.0 1.0
-9.829343333333334 -149.35133333333334 2042.32 0.0 0.0 1.0
-11.6496 -145.165 2042.32 0.0 0.0 1.0
-10.793633333333332 -129.977 2035.37 0.0 0.0 1.0
-25.930666666666667 -102.428 1612.993333333333 0.36655728904416657 0.8429031725081374 0.39389084227017607
-11.389803333333333 -120.13566666666667 2028.47 0.0 0.0 1.0
-11.389833333333334 -110.373 2028.47 0.0 0.0 1.0
-13.154366666666666 -60.76063333333334 2008.05 0.0 0.0 1.0
-13.154333333333334 -52.8859 2008.05 0.0 0.0 1.0
-14.0914 -40.40133333333333 2001.34 0.0 0.0 1.0
-13.244433333333333 -37.42223333333334 1994.67 0.0 0.0 1.0
-13.643433333333334 -14.795133333333334 1988.04 0.0 0.0 1.0
-17.083333333333332 0.4166666666666667 1870.0 0.0 0.0 1.0
-1.2839500000000001 3.25926 2216.3 0.0 0.0 1.0
-13.3197 3.50072 1915.9066666666668 0.16436293530878093 0.9861712016917986 -0.021241149932039335
-31.860233333333337 10.946933333333334 1372.4833333333333 0.14115772162701354 0.9875519301221104 0.06939512185424258
-15.5767 27.174599999999998 1899.68 0.0 0.0 1.0
-15.7806 29.62026666666667 1893.67 0.0 0.0 1.0
-18.592666666666663 28.738166666666668 1879.7933333333333 -0.8261820735165454 0.2753757792408859 0.4915194417389576
-8.286796666666666 59.57906666666667 1917.9633333333331 0.11309261233618416 -0.904802813408794 0.41053858513239505
-12.5803 83.54373333333332 1988.04 0.0 0.0 1.0
-11.694366666666667 86.20153333333333 1988.04 0.0 0.0 1.0
-12.580300000000001 95.76963333333333 1988.04 0.0 0.0 1.0
-13.111866666666666 100.19926666666667 1988.04 0.0 0.0 1.0
-13.111866666666666 100.19926666666667 1988.04 0.0 0.0 1.0
-13.856233333333334 111.45966666666668 1955.5600000000002 -3.396607771227313e-26 -1.373109941234012e-25 1.0
-25.474166666666665 96.74493333333334 1508.58 0.5906821858771132 -0.7876033216157263 0.17542965275947667
-20.766966666666665 123.26466666666666 1765.1899999999998 1.0151304218983207e-25 -1.957589134524671e-25 1.0
-11.6496 -145.165 2042.32 0.0 0.0 1.0
-10.793633333333332 -135.41966666666667 2035.37 0.0 0.0 1.0
-9.9435 -123.75166666666667 2028.47 0.0 0.0 1.0
-11.9322 -109.10733333333333 2028.47 0.0 0.0 1.0
-12.342366666666665 -93.96396666666665 2021.62 0.0 0.0 1.0
-11.801833333333335 -92.7027 2021.62 0.0 0.0 1.0
-10.90092 -89.45946666666667 2021.62 0.0 0.0 1.0
-11.672266666666665 -78.20426666666667 2014.8100000000002 -1.2801737963436615e-27 9.463373831502557e-28 1.0
-12.749733333333333 -75.51066666666667 2014.8100000000002 0.0 0.0 1.0
-13.691266666666666 -54.49663333333333 2008.05 0.0 0.0 1.0
-14.58537 -38.15193333333333 1959.8333333333333 -0.06488442956148263 -0.31631286963000116 0.9464333992980779
-11.924199999999999 -43.87246666666667 1996.8933333333334 -0.9312898688262629 0.33866529270002216 0.13418271029447326
-12.177766666666665 -39.02223333333334 1994.67 0.0 0.0 1.0
-13.820599999999999 -21.705433333333335 1988.04 0.0 0.0 1.0
-14.3929 -9.094913333333333 1981.46 0.0 0.0 1.0
-17.083333333333332 0.4166666666666667 1870.0 0.0 0.0 1.0
-17.083333333333332 0.4166666666666667 1870.0 0.0 0.0 1.0
-17.400366666666667 10.969446666666668 1850.7233333333334 -0.7424760825204418 0.6187300687670344 0.25671456695839984
-18.592666666666663 28.738166666666668 1879.7933333333333 -0.8261820735165413 0.2753757792408696 0.49151944173897383
-14.257433333333333 40.92406666666667 1974.92 0.0 0.0 1.0
-14.433433333333333 44.620466666666665 1974.92 0.0 0.0 1.0
-14.785499999999999 49.901 1974.92 0.0 0.0 1.0
-15.350900000000001 61.842099999999995 1968.42 0.0 0.0 1.0
-13.820599999999999 92.22593333333333 1988.04 0.0 0.0 1.0
-12.580300000000001 95.76963333333333 1988.04 0.0 0.0 1.0
-14.5695 107.10799999999999 1981.46 0.0 0.0 1.0
-20.766966666666665 123.26466666666666 1765.1899999999998 1.0151304218983207e-25 -1.957589134524671e-25 1.0
-11.285559999999998 -141.70633333333333 2042.32 0.0 0.0 1.0
-11.882066666666667 -125.62333333333333 2035.37 0.0 0.0 1.0
-21.890133333333335 -98.9516 1648.493333333333 0.3921666921934131 -0.9148532567828586 0.09617070285629414
-12.7027 -105.67566666666669 2021.62 0.0 0.0 1.0
-12.8829 -94.6847 2021.62 0.0 0.0 1.0
-18.346 -86.85473333333333 1897.676666666667 -0.7032579852781268 -0.10548835165590219 0.7030650139265007
-12.570133333333333 -65.81366666666666 2014.8100000000002 2.4663916328585013e-13 2.466391632858505e-13 1.0
-13.512333333333332 -60.04476666666667 2008.05 0.0 0.0 1.0
-13.311766666666665 -30.938599999999997 2035.3866666666665 -0.015134662805433716 0.861412629744841 0.5076802372535721
-13.9978 -20.465133333333334 1988.04 0.0 0.0 1.0
-14.174966666666668 -19.75636666666667 1988.04 0.0 0.0 1.0
-13.466233333333335 -16.744166666666665 1988.04 0.0 0.0 1.0
-14.352166666666667 -14.263566666666668 1988.04 0.0 0.0 1.0
-14.3929 -7.858720000000001 1981.46 0.0 0.0 1.0
-19.176933333333334 10.6173 1846.91 0.0 0.0 1.0
-31.860233333333337 10.946933333333334 1372.4833333333333 0.14115772162701354 0.9875519301221104 0.06939512185424258
-16.962033333333334 28.945166666666665 1893.67 0.0 0.0 1.0
-19.657966666666667 28.682366666666667 1909.79 -0.7669542641558457 0.6391243858224144 0.057455862540619254
-14.433433333333335 42.508266666666664 1974.92 0.0 0.0 1.0
-14.433433333333335 42.508266666666664 1974.92 0.0 0.0 1.0
-14.609433333333333 43.564366666666665 1974.92 0.0 0.0 1.0
-13.377333333333333 68.38283333333334 1974.92 0.0 0.0 1.0
-13.820599999999999 92.22593333333333 1988.04 0.0 0.0 1.0
-13.820599999999999 94.52936666666666 1988.04 0.0 0.0 1.0
-13.111866666666666 100.19926666666667 1988.04 0.0 0.0 1.0
-14.553399999999998 111.111 1955.5600000000002 4.920163928784695e-28 -2.1327929316001033e-27 1.0
-14.553399999999998 111.11099999999999 1955.5600000000002 -5.415569642394847e-27 5.742482372018535e-27 1.0
-14.3791 113.02833333333332 1955.5600000000002 -9.184558021272603e-27 7.87527530361864e-27 1.0
-30.1609 80.36779999999999 1375.63 0.0 0.0 1.0
-20.890200000000004 114.18400000000001 1775.67 0.0 0.0 1.0
-19.863166666666668 118.78766666666667 1754.84 0.0 0.0 1.0
-40.284333333333336 87.56176666666666 1249.2933333333333 -0.7215262116710656 0.14308737264937177 0.6774407204028264
-20.766966666666665 123.26466666666666 1765.1899999999998 1.0151304218983219e-25 -1.957589134524673e-25 1.0
-21.1667 131.58966666666666 1806.0366666666666 9.199618473034163e-17 -0.9973476995378107 0.07278438174936434
-36.73943333333333 95.8952 1306.55 0.0 0.0 1.0
-12.195666666666666 -144.80100000000002 2042.32 0.0 0.0 1.0
-12.923766666666666 -144.619 2042.32 0.0 0.0 1.0
-11.519266666666667 -130.88433333333333 2035.37 0.0 0.0 1.0
-11.882066666666667 -125.62333333333333 2035.37 0.0 0.0 1.0
-12.836133333333335 -119.41233333333332 2028.47 0.0 0.0 1.0
-13.5593 -115.79633333333334 2028.47 0.0 0.0 1.0
-11.9322 -109.10733333333333 2028.47 0.0 0.0 1.0
-14.186333333333332 -72.27833333333332 2014.8100000000002 -1.478615030435173e-26 -1.3221894412959006e-26 1.0
-14.228200000000001 -60.76063333333334 2008.05 0.0 0.0 1.0
-13.512333333333332 -60.04476666666667 2008.05 0.0 0.0 1.0
-14.765100000000002 -55.92843333333334 2008.05 0.0 0.0 1.0
-14.0914 -43.61203333333333 2001.34 0.0 0.0 1.0
-14.0914 -43.61203333333333 2001.34 0.0 0.0 1.0
-13.777766666666666 -36.35556666666667 1994.67 0.0 0.0 1.0
-14.488900000000001 -32.266666666666666 1994.67 0.0 0.0 1.0
-13.9978 -20.465133333333334 1988.04 0.0 0.0 1.0
-14.706566666666667 -15.681066666666666 1988.04 0.0 0.0 1.0
-14.174999999999999 -15.149499999999998 1988.04 0.0 0.0 1.0
-13.314686666666667 1.599915 1891.68 -0.31253035841119353 0.7031904130756466 0.638629797323827
-19.176933333333334 10.6173 1846.91 0.0 0.0 1.0
-15.5767 27.174599999999998 1899.68 0.0 0.0 1.0
-14.609466666666668 40.74803333333333 1974.92 0.0 0.0 1.0
-14.433433333333335 42.508266666666664 1974.92 0.0 0.0 1.0
