ply
format ascii 1.0
comment VCGLIB generated
element vertex 871
property float x
property float y
property float z
property float nx
property float ny
property float nz
element face 0
property list uchar int vertex_indices
end_header
-75.2174 115.57966666666668 1626.09 0.0 0.0 1.0
-72.71113333333334 145.511 1994.67 0.0 0.0 1.0
-76.22800000000001 -113.88766666666668 1693.5866666666668 0.4036741365345016 -0.9082779399697691 -0.1099016617590319
-74.5763 -112.31599999999999 1690.4000000000003 -1.5815521320117518e-26 -3.163104264023504e-26 1.0
-75.02826666666667 -109.00233333333334 1690.4000000000003 8.749458468177231e-31 2.3723282076960842e-26 1.0
-75.49296666666667 -102.38466666666666 1685.63 0.0 0.0 1.0
-75.0423 -92.46946666666668 1685.63 0.0 0.0 1.0
-75.02826666666667 -89.56683333333335 1690.4000000000003 2.624837540453334e-30 7.116984623088698e-26 1.0
-75.0222 -100.71109999999999 1994.67 0.0 0.0 1.0
-73.6 -94.66666666666667 1994.67 0.0 0.0 1.0
-74.48886666666668 -84.17776666666667 1994.67 0.0 0.0 1.0
-74.1333 -82.93329999999999 1994.67 0.0 0.0 1.0
-74.84443333333333 -81.3333 1994.67 0.0 0.0 1.0
-74.8042 -51.4231 1714.61 0.0 0.0 1.0
-74.8042 -51.4231 1714.61 0.0 0.0 1.0
-74.49856666666666 -47.14423333333334 1714.61 0.0 0.0 1.0
-74.957 -46.83856666666666 1714.61 0.0 0.0 1.0
-75.41546666666666 -45.92166666666666 1714.61 0.0 0.0 1.0
-76.19046666666667 -38.3238 1709.71 0.0 0.0 1.0
-75.1238 -35.58096666666667 1709.71 0.0 0.0 1.0
-73.6 -29.066666666666666 1994.67 0.0 0.0 1.0
-74.13333333333334 -27.64446666666667 1994.67 0.0 0.0 1.0
-74.51426666666667 -20.190466666666666 1709.71 0.0 0.0 1.0
-74.51426666666667 -20.190466666666666 1709.71 0.0 0.0 1.0
-74.34576666666668 1.910216666666667 1714.61 0.0 0.0 1.0
-74.636 9.118776666666667 1719.54 0.0 0.0 1.0
-74.636 9.118776666666667 1719.54 0.0 0.0 1.0
-74.92796666666666 16.0615 1724.5 0.0 0.0 1.0
-76.3768 32.82606666666666 1626.09 0.0 0.0 1.0
-75.07246666666667 35.0 1626.09 0.0 0.0 1.0
-75.2 46.3111 1994.67 0.0 0.0 1.0
-75.6522 46.30433333333334 1626.09 0.0 0.0 1.0
-74.92753333333333 52.3913 1626.09 0.0 0.0 1.0
-74.92753333333333 52.3913 1626.09 0.0 0.0 1.0
-74.34783333333333 57.02896666666666 1626.09 0.0 0.0 1.0
-75.94203333333333 61.3768 1626.09 0.0 0.0 1.0
-75.2174 66.59416666666667 1626.09 0.0 0.0 1.0
-74.49276666666667 73.4058 1626.09 0.0 0.0 1.0
-74.92753333333333 87.6087 1626.09 0.0 0.0 1.0
-75.6522 92.24636666666667 1626.09 0.0 0.0 1.0
-74.63766666666668 96.01446666666668 1626.09 0.0 0.0 1.0
-75.65216666666667 103.84066666666666 1626.09 0.0 0.0 1.0
-75.65216666666667 103.84066666666666 1626.09 0.0 0.0 1.0
-75.07246666666667 111.23200000000001 1626.09 0.0 0.0 1.0
-75.07246666666667 111.23200000000001 1626.09 0.0 0.0 1.0
-75.2174 115.57966666666668 1626.09 0.0 0.0 1.0
-75.1789 -109.30366666666667 1690.4000000000003 0.0 0.0 1.0
-75.32956666666666 -109.153 1690.4000000000003 -4.74570633106439e-26 3.1631042640235053e-26 1.0
-74.89203333333334 -93.0704 1685.63 0.0 0.0 1.0
-75.02826666666667 -89.56683333333335 1690.4000000000003 2.624837540453086e-30 7.116984623088698e-26 1.0
-75.37776666666667 -91.99996666666668 1994.67 0.0 0.0 1.0
-75.2 -68.0 1994.67 0.0 0.0 1.0
-76.19046666666667 -40.76186666666666 1709.71 0.0 0.0 1.0
-75.73333333333333 -31.7714 1709.71 0.0 0.0 1.0
-75.2762 -29.79046666666667 1709.71 0.0 0.0 1.0
-74.66666666666667 -26.933366666666668 1994.67 0.0 0.0 1.0
-75.4286 -13.6381 1709.71 0.0 0.0 1.0
-73.7778 -6.666666666666667 1994.67 0.0 0.0 1.0
-73.7778 -1.511109 1994.67 0.0 0.0 1.0
-74.95703333333334 6.036293333333333 1714.61 0.0 0.0 1.0
-76.30056666666667 19.653166666666667 1729.4800000000002 1.7134053061826187e-11 1.713405306182619e-11 1.0
-75.07246666666667 47.02896666666667 1626.09 0.0 0.0 1.0
-75.50723333333333 49.49273333333333 1626.09 0.0 0.0 1.0
-75.2174 66.59416666666668 1626.09 0.0 0.0 1.0
-75.65216666666667 76.73910000000001 1626.09 0.0 0.0 1.0
-74.49276666666667 83.55073333333333 1626.09 0.0 0.0 1.0
-75.7971 94.85506666666667 1626.09 0.0 0.0 1.0
-75.7971 100.21733333333333 1626.09 0.0 0.0 1.0
-75.65216666666667 109.20299999999999 1626.09 0.0 0.0 1.0
-75.7971 115.86966666666667 1626.09 0.0 0.0 1.0
-76.8451 -100.13133333333333 1685.63 0.0 0.0 1.0
-76.54463333333332 -95.9249 1685.63 0.0 0.0 1.0
-75.0222 -100.71109999999999 1994.67 0.0 0.0 1.0
-75.2 -85.06666666666666 1994.67 0.0 0.0 1.0
-76.08890000000001 -76.35556666666666 1994.67 0.0 0.0 1.0
-76.08886666666666 -73.86666666666667 1994.67 0.0 0.0 1.0
-75.2 -68.0 1994.67 0.0 0.0 1.0
-76.34283333333333 -42.2857 1709.71 0.0 0.0 1.0
-76.19046666666667 -41.21903333333333 1709.71 0.0 0.0 1.0
-75.1238 -35.58096666666667 1709.71 0.0 0.0 1.0
-75.2762 -32.6857 1709.71 0.0 0.0 1.0
-75.88573333333333 -31.16186666666667 1709.71 0.0 0.0 1.0
-75.88573333333333 -27.657166666666665 1709.71 0.0 0.0 1.0
-74.66666666666667 -26.933366666666668 1994.67 0.0 0.0 1.0
-75.73333333333333 -18.819033333333334 1709.71 0.0 0.0 1.0
-76.63799999999999 -9.39828 1714.61 0.0 0.0 1.0
-76.17953333333334 -8.78701 1714.61 0.0 0.0 1.0
-75.87393333333334 5.730656666666667 1714.61 0.0 0.0 1.0
-76.77230000000002 9.452436666666667 1724.5 0.0 0.0 1.0
-76.08890000000001 29.599999999999998 1994.67 0.0 0.0 1.0
-75.3778 34.22223333333333 1994.67 0.0 0.0 1.0
-75.2 46.3111 1994.67 0.0 0.0 1.0
-75.55553333333334 48.79999999999999 1994.67 0.0 0.0 1.0
-75.65220000000001 43.4058 1626.09 0.0 0.0 1.0
-76.08696666666667 45.72463333333334 1626.09 0.0 0.0 1.0
-76.52173333333333 60.652166666666666 1626.09 0.0 0.0 1.0
-76.37683333333332 89.49276666666667 1626.09 0.0 0.0 1.0
-76.54463333333332 -95.9249 1685.63 0.0 0.0 1.0
-76.26663333333333 -98.04443333333334 1994.67 0.0 0.0 1.0
-76.08886666666666 -97.5111 1994.67 0.0 0.0 1.0
-76.26666666666667 -86.31113333333333 1994.67 0.0 0.0 1.0
-76.62223333333333 -72.2667 1994.67 0.0 0.0 1.0
-75.2 -68.0 1994.67 0.0 0.0 1.0
-75.41546666666666 -50.81183333333333 1714.61 0.0 0.0 1.0
-75.41546666666666 -45.92166666666666 1714.61 0.0 0.0 1.0
-76.95236666666666 -34.3619 1709.71 0.0 0.0 1.0
-76.49523333333333 -30.552366666666668 1709.71 0.0 0.0 1.0
-75.88573333333333 -27.657166666666665 1709.71 0.0 0.0 1.0
-75.73333333333333 -18.819033333333334 1709.71 0.0 0.0 1.0
-75.4286 -13.6381 1709.71 0.0 0.0 1.0
-75.87393333333334 5.730656666666666 1714.61 0.0 0.0 1.0
-76.6186 13.6023 1724.5 0.0 0.0 1.0
-76.3112 14.524500000000002 1724.5 0.0 0.0 1.0
-75.85013333333333 15.7541 1724.5 0.0 0.0 1.0
-76.30056666666667 19.653166666666667 1729.4800000000002 7.180459344424e-12 7.180459344423999e-12 1.0
-76.9565 34.565200000000004 1626.09 0.0 0.0 1.0
-75.91109999999999 47.555566666666664 1994.67 0.0 0.0 1.0
-75.91109999999999 47.555566666666664 1994.67 0.0 0.0 1.0
-75.7971 50.21736666666666 1626.09 0.0 0.0 1.0
-75.94203333333333 61.3768 1626.09 0.0 0.0 1.0
-76.3768 77.60866666666668 1626.09 0.0 0.0 1.0
-76.9565 103.84066666666666 1626.09 0.0 0.0 1.0
-77.33336666666666 -142.66666666666666 1994.67 0.0 0.0 1.0
-76.44446666666666 -140.17766666666668 1994.67 0.0 0.0 1.0
-76.3842 -109.75533333333334 1690.4000000000003 -1.76896937160228e-27 2.648793918509669e-26 1.0
-76.3842 -109.75533333333334 1690.4000000000003 -1.76896937160228e-27 2.648793918509669e-26 1.0
-78.04696666666668 -106.141 1685.63 0.0 0.0 1.0
-76.8451 -100.13133333333333 1685.63 0.0 0.0 1.0
-76.08890000000001 -85.42223333333334 1994.67 0.0 0.0 1.0
-77.33336666666666 -79.37776666666666 1994.67 0.0 0.0 1.0
-76.62223333333333 -72.2667 1994.67 0.0 0.0 1.0
-77.15556666666667 -58.22223333333333 1994.67 0.0 0.0 1.0
-72.71113333333334 -53.24443333333334 1994.67 0.0 0.0 1.0
-76.95236666666666 -39.0857 1709.71 0.0 0.0 1.0
-77.10476666666666 -37.86666666666667 1709.71 0.0 0.0 1.0
-75.3778 -26.04446666666667 1994.67 0.0 0.0 1.0
-77.51113333333333 -15.0222 1994.67 0.0 0.0 1.0
-76.638 -8.78701 1714.61 0.0 0.0 1.0
-76.62223333333333 -8.799999999999999 1994.67 0.0 0.0 1.0
-76.08890000000001 28.7111 1994.67 0.0 0.0 1.0
-76.26666666666667 30.4889 1994.67 0.0 0.0 1.0
-76.9565 34.565200000000004 1626.09 0.0 0.0 1.0
-76.26666666666667 47.02223333333333 1994.67 0.0 0.0 1.0
-77.10146666666667 45.4348 1626.09 0.0 0.0 1.0
-76.66666666666667 52.536233333333335 1626.09 0.0 0.0 1.0
-76.52173333333333 60.652166666666666 1626.09 0.0 0.0 1.0
-77.68116666666667 63.69566666666666 1626.09 0.0 0.0 1.0
-77.68116666666667 70.6522 1626.09 0.0 0.0 1.0
-76.52173333333333 76.5942 1626.09 0.0 0.0 1.0
-76.52173333333333 76.5942 1626.09 0.0 0.0 1.0
-77.53623333333333 94.56523333333332 1626.09 0.0 0.0 1.0
-77.68116666666667 99.05793333333334 1626.09 0.0 0.0 1.0
-76.9565 103.84066666666666 1626.09 0.0 0.0 1.0
-77.3913 106.884 1626.09 0.0 0.0 1.0
-77.53623333333333 110.21733333333333 1626.09 0.0 0.0 1.0
-76.52173333333333 116.15966666666668 1626.09 0.0 0.0 1.0
-77.53623333333333 116.59433333333334 1626.09 0.0 0.0 1.0
-75.91113333333332 146.4 1994.67 0.0 0.0 1.0
-78.04443333333333 -147.46666666666667 1994.67 0.0 0.0 1.0
-77.15556666666667 -139.111 1994.67 0.0 0.0 1.0
-77.4388 -111.56266666666666 1690.4000000000003 2.2839329256022672e-26 -1.2297592126567562e-26 1.0
-78.1972 -104.63833333333334 1685.63 0.0 0.0 1.0
-77.2958 -96.3756 1685.63 0.0 0.0 1.0
-76.99533333333333 -95.6244 1685.63 0.0 0.0 1.0
-76.8 -96.8 1994.67 0.0 0.0 1.0
-76.44443333333334 -86.31113333333333 1994.67 0.0 0.0 1.0
-76.62223333333333 -85.95556666666666 1994.67 0.0 0.0 1.0
-77.56186666666666 -41.5238 1709.71 0.0 0.0 1.0
-77.10473333333333 -40.45713333333333 1709.71 0.0 0.0 1.0
-77.56186666666666 -35.1238 1709.71 0.0 0.0 1.0
-77.56186666666666 -35.1238 1709.71 0.0 0.0 1.0
-76.95236666666666 -34.3619 1709.71 0.0 0.0 1.0
-76.49523333333333 -30.552366666666668 1709.71 0.0 0.0 1.0
-76.63799999999999 -9.39828 1714.61 0.0 0.0 1.0
-76.62223333333333 -8.8 1994.67 0.0 0.0 1.0
-76.62223333333333 -8.8 1994.67 0.0 0.0 1.0
-76.44446666666666 -2.22222 1994.67 0.0 0.0 1.0
-77.15553333333332 5.42222 1994.67 0.0 0.0 1.0
-77.6945 8.530256666666666 1724.5 0.0 0.0 1.0
-77.0797 9.913533333333334 1724.5 0.0 0.0 1.0
-77.38709999999999 13.448599999999999 1724.5 0.0 0.0 1.0
-77.842 20.732166666666668 1729.4800000000002 -1.8883994867437658e-27 -7.552781341791637e-27 1.0
-76.9778 28.7111 1994.67 0.0 0.0 1.0
-77.971 32.82606666666667 1626.09 0.0 0.0 1.0
-76.9565 34.565200000000004 1626.09 0.0 0.0 1.0
-76.8 46.31113333333334 1994.67 0.0 0.0 1.0
-76.8116 56.30433333333334 1626.09 0.0 0.0 1.0
-77.97103333333332 87.1739 1626.09 0.0 0.0 1.0
-77.68116666666667 99.05793333333334 1626.09 0.0 0.0 1.0
-77.10143333333333 103.26100000000001 1626.09 0.0 0.0 1.0
-76.9565 103.84066666666666 1626.09 0.0 0.0 1.0
-77.53623333333333 106.30433333333333 1626.09 0.0 0.0 1.0
-77.53623333333333 110.21733333333333 1626.09 0.0 0.0 1.0
-78.04443333333333 -147.46666666666667 1994.67 0.0 0.0 1.0
-77.59626666666666 -99.98110000000001 1685.63 0.0 0.0 1.0
-78.1972 -93.67133333333334 1685.63 0.0 0.0 1.0
-77.3333 -98.75553333333335 1994.67 0.0 0.0 1.0
-76.62223333333333 -91.64443333333334 1994.67 0.0 0.0 1.0
-78.39996666666666 -74.75553333333333 1994.67 0.0 0.0 1.0
-78.32379999999999 -46.247600000000006 1709.71 0.0 0.0 1.0
-77.25713333333333 -36.64763333333333 1709.71 0.0 0.0 1.0
-78.75553333333333 -19.46666666666667 1994.67 0.0 0.0 1.0
-76.33236666666666 3.132756666666667 1714.61 0.0 0.0 1.0
-77.15553333333332 5.422219999999999 1994.67 0.0 0.0 1.0
-77.15553333333332 5.422219999999999 1994.67 0.0 0.0 1.0
-77.6945 8.530256666666666 1724.5 0.0 0.0 1.0
-78.61273333333334 17.64933333333333 1729.4800000000002 1.888797661018706e-27 2.2660139674568013e-28 1.0
-77.33333333333333 31.022233333333332 1994.67 0.0 0.0 1.0
-77.33333333333333 45.77779999999999 1994.67 0.0 0.0 1.0
-77.10143333333333 51.52173333333334 1626.09 0.0 0.0 1.0
-78.4058 55.72463333333334 1626.09 0.0 0.0 1.0
-78.26089999999999 62.97103333333333 1626.09 0.0 0.0 1.0
-77.68116666666667 70.6522 1626.09 0.0 0.0 1.0
-77.97103333333332 87.1739 1626.09 0.0 0.0 1.0
-77.2464 90.50723333333333 1626.09 0.0 0.0 1.0
-77.2464 90.50723333333333 1626.09 0.0 0.0 1.0
-77.53623333333333 94.56523333333332 1626.09 0.0 0.0 1.0
-77.53623333333333 94.56523333333332 1626.09 0.0 0.0 1.0
-78.55073333333333 96.5942 1626.09 0.0 0.0 1.0
-77.3913 106.88400000000001 1626.09 0.0 0.0 1.0
-77.68116666666667 114.13066666666667 1626.09 0.0 0.0 1.0
-77.33336666666666 -142.66666666666666 1994.67 0.0 0.0 1.0
-77.33336666666666 -142.66666666666666 1994.67 0.0 0.0 1.0
-80.0 -116.74233333333332 1700.0 0.0 0.0 1.0
-78.34273333333333 -112.16533333333332 1690.4000000000003 -2.2141589832057803e-27 -1.8345878766388142e-26 1.0
-78.94836666666667 -105.08900000000001 1685.63 0.0 0.0 1.0
-78.94836666666667 -99.38029999999999 1685.63 0.0 0.0 1.0
-77.2958 -96.3756 1685.63 0.0 0.0 1.0
-77.51113333333332 -96.44443333333334 1994.67 0.0 0.0 1.0
-77.51113333333332 -96.44443333333334 1994.67 0.0 0.0 1.0
-77.68889999999999 -93.24443333333333 1994.67 0.0 0.0 1.0
-77.86666666666667 -84.0 1994.67 0.0 0.0 1.0
-77.6889 -81.15553333333334 1994.67 0.0 0.0 1.0
-79.11113333333333 -77.24443333333333 1994.67 0.0 0.0 1.0
-77.33336666666666 -71.73336666666667 1994.67 0.0 0.0 1.0
-78.40003333333333 -70.84446666666666 1994.67 0.0 0.0 1.0
-77.70113333333333 -53.8697 1719.54 0.0 0.0 1.0
-78.47616666666667 -45.333333333333336 1709.71 0.0 0.0 1.0
-78.78093333333334 -43.96189999999999 1709.71 0.0 0.0 1.0
-78.17139999999999 -42.28573333333333 1709.71 0.0 0.0 1.0
-77.56186666666666 -35.1238 1709.71 0.0 0.0 1.0
-77.51113333333335 -15.022199999999998 1994.67 0.0 0.0 1.0
-77.40383333333334 -8.931750000000001 1712.9766666666665 -0.9161392361162196 0.30541305104830596 0.2596377636203062
-77.6889 -3.82222 1994.67 0.0 0.0 1.0
-78.30930000000001 8.991353333333334 1724.5 0.0 0.0 1.0
-77.6945 15.1393 1724.5 0.0 0.0 1.0
-77.842 20.732166666666668 1729.4800000000002 -1.8883994867437665e-27 -7.552781341791638e-27 1.0
-77.842 20.732166666666668 1729.4800000000002 -1.8883994867437658e-27 -7.552781341791637e-27 1.0
-77.6889 29.77776666666667 1994.67 0.0 0.0 1.0
-78.4 34.04443333333334 1994.67 0.0 0.0 1.0
-78.04443333333333 45.599999999999994 1994.67 0.0 0.0 1.0
-77.33333333333333 49.155566666666665 1994.67 0.0 0.0 1.0
-77.82610000000001 45.869566666666664 1626.09 0.0 0.0 1.0
-77.82610000000001 45.869566666666664 1626.09 0.0 0.0 1.0
-78.26089999999999 62.97103333333333 1626.09 0.0 0.0 1.0
-78.26089999999999 71.2319 1626.09 0.0 0.0 1.0
-78.26086666666667 74.85506666666667 1626.09 0.0 0.0 1.0
-77.53623333333333 106.30433333333333 1626.09 0.0 0.0 1.0
-78.11596666666667 110.36200000000001 1626.09 0.0 0.0 1.0
-77.68116666666667 114.13066666666667 1626.09 0.0 0.0 1.0
-77.8667 146.4 1994.67 0.0 0.0 1.0
-78.75553333333333 -139.28866666666667 1994.67 0.0 0.0 1.0
-79.09603333333332 -109.906 1690.4000000000003 -8.704840017923625e-26 7.129774309793628e-26 1.0
-78.6479 -101.48366666666668 1685.63 0.0 0.0 1.0
-78.49766666666666 -94.4225 1685.63 0.0 0.0 1.0
-79.3905 -48.9905 1709.71 0.0 0.0 1.0
-77.40953333333333 -30.704766666666668 1709.71 0.0 0.0 1.0
-79.11110000000001 -17.5111 1994.67 0.0 0.0 1.0
-78.22223333333334 -15.9111 1994.67 0.0 0.0 1.0
-78.39999999999999 -5.9555533333333335 1994.67 0.0 0.0 1.0
-78.39999999999999 2.4 1994.67 0.0 0.0 1.0
-78.7704 14.370800000000001 1724.5 0.0 0.0 1.0
-78.30443333333334 20.269766666666666 1729.4800000000002 -2.6435551389754696e-26 7.55278134179161e-27 1.0
-78.2222 31.37776666666667 1994.67 0.0 0.0 1.0
-78.75556666666667 34.93333333333334 1994.67 0.0 0.0 1.0
-78.6957 34.27536666666666 1626.09 0.0 0.0 1.0
-78.6957 34.27536666666666 1626.09 0.0 0.0 1.0
-78.6957 34.27536666666667 1626.09 0.0 0.0 1.0
-78.2222 46.13333333333333 1994.67 0.0 0.0 1.0
-78.93333333333334 49.6889 1994.67 0.0 0.0 1.0
-79.13043333333333 49.057966666666665 1626.09 0.0 0.0 1.0
-79.13046666666666 61.231899999999996 1626.09 0.0 0.0 1.0
-78.6957 61.666666666666664 1626.09 0.0 0.0 1.0
-78.55076666666668 62.3913 1626.09 0.0 0.0 1.0
-78.98553333333334 71.66666666666667 1626.09 0.0 0.0 1.0
-78.40583333333333 87.46376666666667 1626.09 0.0 0.0 1.0
-78.2609 87.6087 1626.09 0.0 0.0 1.0
-78.55073333333333 96.5942 1626.09 0.0 0.0 1.0
-78.55073333333333 99.05793333333334 1626.09 0.0 0.0 1.0
-78.2609 99.6376 1626.09 0.0 0.0 1.0
-78.9855 103.98566666666666 1626.09 0.0 0.0 1.0
-78.55076666666668 109.78233333333333 1626.09 0.0 0.0 1.0
-78.55076666666668 109.78233333333333 1626.09 0.0 0.0 1.0
-78.11596666666667 116.30433333333333 1626.09 0.0 0.0 1.0
-78.11596666666667 116.88400000000001 1626.09 0.0 0.0 1.0
-79.28886666666666 -139.46666666666667 1994.67 0.0 0.0 1.0
-78.75553333333333 -139.28866666666667 1994.67 0.0 0.0 1.0
-79.2446 -114.74966666666666 1695.18 0.0 0.0 1.0
-79.09603333333332 -109.906 1690.4000000000003 -8.704840017923625e-26 7.129774309793628e-26 1.0
-79.5493 -106.141 1685.63 0.0 0.0 1.0
-78.94836666666667 -105.08900000000001 1685.63 0.0 0.0 1.0
-78.94836666666667 -99.38029999999999 1685.63 0.0 0.0 1.0
-79.46666666666667 -103.911 1994.67 0.0 0.0 1.0
-79.2889 -98.93333333333334 1994.67 0.0 0.0 1.0
-78.57776666666666 -86.4889 1994.67 0.0 0.0 1.0
-78.93333333333334 -82.75556666666667 1994.67 0.0 0.0 1.0
-79.11110000000001 -74.39999999999999 1994.67 0.0 0.0 1.0
-79.11110000000001 -74.39999999999999 1994.67 0.0 0.0 1.0
-80.35556666666668 -67.2889 1994.67 0.0 0.0 1.0
-79.54153333333333 -50.5062 1714.61 0.0 0.0 1.0
-79.0857 -45.79046666666667 1709.71 0.0 0.0 1.0
-78.78093333333334 -43.96189999999999 1709.71 0.0 0.0 1.0
-79.0857 -43.65713333333334 1709.71 0.0 0.0 1.0
-79.0857 -43.199999999999996 1709.71 0.0 0.0 1.0
-79.2381 -43.04763333333333 1709.71 0.0 0.0 1.0
-77.86666666666667 -37.409533333333336 1709.71 0.0 0.0 1.0
-79.6961 -22.10826666666667 1704.84 0.0 0.0 1.0
-79.6961 -22.108266666666665 1704.84 0.0 0.0 1.0
-78.04443333333334 -7.377776666666667 1994.67 0.0 0.0 1.0
-78.92410000000001 9.145053333333335 1724.5 0.0 0.0 1.0
-78.75553333333333 31.9111 1994.67 0.0 0.0 1.0
-79.2889 32.97776666666667 1994.67 0.0 0.0 1.0
-78.8406 33.4058 1626.09 0.0 0.0 1.0
-78.39999999999999 45.95556666666666 1994.67 0.0 0.0 1.0
-79.5652 48.47826666666666 1626.09 0.0 0.0 1.0
-79.42026666666668 78.76813333333332 1626.09 0.0 0.0 1.0
-79.85506666666667 80.07246666666667 1626.09 0.0 0.0 1.0
-79.85506666666667 85.14493333333333 1626.09 0.0 0.0 1.0
-78.55073333333333 95.86956666666667 1626.09 0.0 0.0 1.0
-78.9855 103.98566666666666 1626.09 0.0 0.0 1.0
-79.27533333333334 104.42033333333332 1626.09 0.0 0.0 1.0
-79.84933333333333 -111.86399999999999 1690.4000000000003 0.0 -2.3723281980176285e-26 1.0
-79.69866666666667 -110.207 1690.4000000000003 7.916517870092087e-27 -1.3869248361556754e-26 1.0
-78.94836666666667 -105.08900000000001 1685.63 0.0 0.0 1.0
-78.6479 -101.48366666666668 1685.63 0.0 0.0 1.0
-79.84976666666667 -99.38029999999999 1685.63 0.0 0.0 1.0
-78.6479 -93.67133333333334 1685.63 0.0 0.0 1.0
-80.75330000000001 -90.16950000000001 1690.4000000000003 2.9147008057956195e-43 0.9980525784828884 0.0623782861551807
-79.46666666666667 -103.911 1994.67 0.0 0.0 1.0
-79.46666666666667 -99.11110000000001 1994.67 0.0 0.0 1.0
-79.46666666666667 -98.75553333333335 1994.67 0.0 0.0 1.0
-79.11110000000001 -75.11110000000001 1994.67 0.0 0.0 1.0
-79.11110000000001 -74.4 1994.67 0.0 0.0 1.0
-80.0 -70.13333333333333 1994.67 0.0 0.0 1.0
-79.54153333333333 -50.5062 1714.61 0.0 0.0 1.0
-80.0 -48.9905 1709.71 0.0 0.0 1.0
-79.54286666666667 -44.876200000000004 1709.71 0.0 0.0 1.0
-79.54286666666667 -43.20000000000001 1709.71 0.0 0.0 1.0
-79.54286666666667 -42.28573333333333 1709.71 0.0 0.0 1.0
-80.30563333333333 -34.613166666666665 1714.61 0.0 0.0 1.0
-78.93333333333334 -28.1143 1709.71 0.0 0.0 1.0
-79.5389 8.683956666666667 1724.5 0.0 0.0 1.0
-79.6926 13.448599999999999 1724.5 0.0 0.0 1.0
-78.61273333333334 17.64933333333333 1729.4800000000002 1.888797661018706e-27 2.2660139674568013e-28 1.0
-79.2889 32.97776666666666 1994.67 0.0 0.0 1.0
-79.2889 32.97776666666666 1994.67 0.0 0.0 1.0
-79.5652 48.47826666666666 1626.09 0.0 0.0 1.0
-79.27536666666667 74.99996666666668 1626.09 0.0 0.0 1.0
-79.71016666666667 98.62316666666668 1626.09 0.0 0.0 1.0
-79.27533333333334 104.42033333333332 1626.09 0.0 0.0 1.0
-77.8667 146.4 1994.67 0.0 0.0 1.0
-80.88886666666667 -147.1113333333333 1994.67 0.0 0.0 1.0
-79.28886666666666 -139.46666666666667 1994.67 0.0 0.0 1.0
-80.0 -116.74233333333332 1700.0 0.0 0.0 1.0
-79.84933333333333 -111.86399999999999 1690.4000000000003 4.870976830117967e-43 -2.3723281980176285e-26 1.0
-79.84933333333333 -111.86399999999999 1690.4000000000003 5.635708847806071e-43 -2.3723281980176285e-26 1.0
-80.0 -106.29133333333334 1685.63 0.0 0.0 1.0
-79.46666666666667 -103.911 1994.67 0.0 0.0 1.0
-80.0 -102.13333333333333 1994.67 0.0 0.0 1.0
-79.64446666666667 -98.93333333333334 1994.67 0.0 0.0 1.0
-80.17776666666667 -86.4889 1994.67 0.0 0.0 1.0
-80.0 -82.75556666666667 1994.67 0.0 0.0 1.0
-79.11113333333333 -77.24443333333333 1994.67 0.0 0.0 1.0
-80.35553333333333 -71.73333333333333 1994.67 0.0 0.0 1.0
-80.0 -70.13333333333333 1994.67 0.0 0.0 1.0
-79.69436666666667 -51.4231 1714.61 0.0 0.0 1.0
-79.54153333333333 -50.5062 1714.61 0.0 0.0 1.0
-80.0 -48.9905 1709.71 0.0 0.0 1.0
-79.54286666666667 -45.6381 1709.71 0.0 0.0 1.0
-79.54286666666667 -43.20000000000001 1709.71 0.0 0.0 1.0
-79.54286666666667 -42.28573333333333 1709.71 0.0 0.0 1.0
-80.60953333333333 -27.047633333333334 1709.71 0.0 0.0 1.0
-81.21556666666667 -9.648613333333335 1704.84 0.0 0.0 1.0
-79.2889 -1.68889 1994.67 0.0 0.0 1.0
-80.0 1.68889 1994.67 0.0 0.0 1.0
-79.5389 8.683956666666667 1724.5 0.0 0.0 1.0
-80.6148 11.7579 1724.5 0.0 0.0 1.0
-78.76686666666667 21.194599999999998 1729.4800000000002 2.2658446145172858e-26 3.398731187572942e-26 1.0
-80.71113333333334 27.46666666666667 1994.67 0.0 0.0 1.0
-79.2889 34.57776666666667 1994.67 0.0 0.0 1.0
-80.0 44.855066666666666 1626.09 0.0 0.0 1.0
-79.5652 48.47826666666666 1626.09 0.0 0.0 1.0
-81.01446666666668 55.57973333333333 1626.09 0.0 0.0 1.0
-79.13046666666666 61.2319 1626.09 0.0 0.0 1.0
-78.98553333333332 63.11596666666667 1626.09 0.0 0.0 1.0
-77.86666666666666 87.91113333333334 1994.67 0.0 0.0 1.0
-79.56523333333332 71.66666666666667 1626.09 0.0 0.0 1.0
-79.56523333333332 71.66666666666667 1626.09 0.0 0.0 1.0
-80.0 75.7246 1626.09 0.0 0.0 1.0
-80.0 78.6232 1626.09 0.0 0.0 1.0
-80.4348 80.07246666666667 1626.09 0.0 0.0 1.0
-79.85506666666667 85.14493333333333 1626.09 0.0 0.0 1.0
-79.71016666666667 89.49276666666667 1626.09 0.0 0.0 1.0
-72.7111 110.66666666666667 1994.67 0.0 0.0 1.0
-78.8406 108.18833333333333 1626.09 0.0 0.0 1.0
-80.88886666666667 -147.1113333333333 1994.67 0.0 0.0 1.0
-80.30133333333333 -110.65866666666666 1690.4000000000003 0.0 0.0 1.0
-80.75330000000001 -90.16950000000001 1690.4000000000003 2.9147008057956195e-43 0.9980525784828884 0.0623782861551807
-80.7111 -100.889 1994.67 0.0 0.0 1.0
-80.0 -98.40000000000002 1994.67 0.0 0.0 1.0
-80.88886666666666 -96.80003333333333 1994.67 0.0 0.0 1.0
-80.17776666666667 -83.46666666666667 1994.67 0.0 0.0 1.0
-80.35553333333333 -71.73333333333333 1994.67 0.0 0.0 1.0
-80.35553333333333 -71.73333333333333 1994.67 0.0 0.0 1.0
-80.0 -48.9905 1709.71 0.0 0.0 1.0
-80.6113 -35.22443333333333 1714.61 0.0 0.0 1.0
-80.61130000000001 -35.22443333333333 1714.61 0.0 0.0 1.0
-80.88886666666666 -20.177766666666667 1994.67 0.0 0.0 1.0
-81.06663333333334 -19.466633333333334 1994.67 0.0 0.0 1.0
-80.0 -14.488866666666667 1994.67 0.0 0.0 1.0
-81.97096666666667 -9.478123333333333 1701.6133333333335 0.24046108845815933 -0.961823193933973 0.13066984559632822
-81.42223333333334 24.0889 1994.67 0.0 0.0 1.0
-79.28886666666666 46.4889 1994.67 0.0 0.0 1.0
-79.8222 50.044466666666665 1994.67 0.0 0.0 1.0
-79.8222 50.044466666666665 1994.67 0.0 0.0 1.0
-80.86956666666667 51.23186666666667 1626.09 0.0 0.0 1.0
-81.1594 56.449299999999994 1626.09 0.0 0.0 1.0
-80.0 75.7246 1626.09 0.0 0.0 1.0
-80.4348 80.07246666666667 1626.09 0.0 0.0 1.0
-80.86956666666667 81.08693333333333 1626.09 0.0 0.0 1.0
-79.85506666666667 85.14493333333333 1626.09 0.0 0.0 1.0
-80.72463333333333 90.7971 1626.09 0.0 0.0 1.0
-80.72463333333333 93.55073333333333 1626.09 0.0 0.0 1.0
-80.72463333333333 93.55073333333333 1626.09 0.0 0.0 1.0
-80.90396666666668 -112.46666666666665 1690.4000000000003 3.954973879254927e-27 -7.117028343763932e-26 1.0
-80.452 -110.96 1690.4000000000003 -5.271840440039229e-27 -1.0543680880078128e-26 1.0
-81.3521 -105.23933333333332 1685.63 0.0 0.0 1.0
-79.84976666666667 -99.38029999999999 1685.63 0.0 0.0 1.0
-80.4507 -98.77936666666669 1685.63 0.0 0.0 1.0
-81.95556666666666 -91.11110000000001 1994.67 0.0 0.0 1.0
-81.24446666666667 -89.33333333333333 1994.67 0.0 0.0 1.0
-81.24443333333333 -83.46666666666667 1994.67 0.0 0.0 1.0
-79.69346666666667 -52.89986666666667 1717.8966666666665 1.3412467319414476e-16 0.9924172268777218 0.12291479893134391
-81.22256666666668 -36.14136666666667 1714.61 0.0 0.0 1.0
-80.61130000000001 -35.22443333333333 1714.61 0.0 0.0 1.0
-82.5979 -30.181466666666665 1714.61 0.0 0.0 1.0
-81.21556666666667 -21.500466666666664 1704.84 0.0 0.0 1.0
-81.6714 -7.217476666666666 1704.84 0.0 0.0 1.0
-81.2296 10.37461333333333 1724.5 0.0 0.0 1.0
-81.2296 10.37461333333333 1724.5 0.0 0.0 1.0
-80.7685 12.5264 1724.5 0.0 0.0 1.0
-81.3833 14.0634 1724.5 0.0 0.0 1.0
-80.53333333333333 26.044466666666665 1994.67 0.0 0.0 1.0
-80.88889999999999 29.066666666666663 1994.67 0.0 0.0 1.0
-81.24446666666667 31.2 1994.67 0.0 0.0 1.0
-81.24446666666667 31.2 1994.67 0.0 0.0 1.0
-81.5942 41.8116 1626.09 0.0 0.0 1.0
-81.15943333333333 52.24636666666667 1626.09 0.0 0.0 1.0
-80.72466666666666 79.7826 1626.09 0.0 0.0 1.0
-80.72466666666666 79.7826 1626.09 0.0 0.0 1.0
-82.029 87.60866666666668 1626.09 0.0 0.0 1.0
-81.0145 98.33333333333333 1626.09 0.0 0.0 1.0
-80.57973333333332 110.36200000000001 1626.09 0.0 0.0 1.0
-81.5942 113.98533333333334 1626.09 0.0 0.0 1.0
-81.77776666666666 -142.489 1994.67 0.0 0.0 1.0
-82.13333333333333 -141.778 1994.67 0.0 0.0 1.0
-81.8028 -104.93900000000001 1685.63 0.0 0.0 1.0
-80.7111 -100.00010000000002 1994.67 0.0 0.0 1.0
-80.88886666666666 -96.80003333333333 1994.67 0.0 0.0 1.0
-81.42223333333332 -87.91113333333334 1994.67 0.0 0.0 1.0
-81.95556666666667 -86.84446666666668 1994.67 0.0 0.0 1.0
-81.06973333333333 -50.65903333333333 1714.61 0.0 0.0 1.0
-81.42219999999999 -20.177766666666667 1994.67 0.0 0.0 1.0
-81.42219999999999 -15.200000000000001 1994.67 0.0 0.0 1.0
-81.6714 -8.129156666666665 1704.84 0.0 0.0 1.0
-81.6714 -7.217476666666666 1704.84 0.0 0.0 1.0
-83.2 -3.276193333333333 1709.71 0.0 0.0 1.0
-81.24443333333333 2.4 1994.67 0.0 0.0 1.0
-81.3833 13.2949 1724.5 0.0 0.0 1.0
-81.24446666666667 31.2 1994.67 0.0 0.0 1.0
-81.88403333333333 35.869566666666664 1626.09 0.0 0.0 1.0
-81.88403333333333 36.5942 1626.09 0.0 0.0 1.0
-81.3043 49.057966666666665 1626.09 0.0 0.0 1.0
-81.3043 49.057966666666665 1626.09 0.0 0.0 1.0
-81.3043 49.057966666666665 1626.09 0.0 0.0 1.0
-81.01446666666666 55.57973333333333 1626.09 0.0 0.0 1.0
-81.88403333333333 60.2174 1626.09 0.0 0.0 1.0
-84.62223333333333 87.55556666666666 1994.67 0.0 0.0 1.0
-82.1739 83.8406 1626.09 0.0 0.0 1.0
-81.15939999999999 92.8261 1626.09 0.0 0.0 1.0
-81.59416666666665 104.42033333333332 1626.09 0.0 0.0 1.0
-81.7391 114.565 1626.09 0.0 0.0 1.0
-81.77776666666666 -145.689 1994.67 0.0 0.0 1.0
-82.13333333333333 -143.2 1994.67 0.0 0.0 1.0
-80.0 -116.74233333333332 1700.0 0.0 0.0 1.0
-81.65726666666667 -112.01466666666666 1690.4000000000003 -5.0609107342231294e-27 -6.958577386535171e-27 1.0
-81.8028 -104.93900000000001 1685.63 0.0 0.0 1.0
-81.95556666666667 -91.11110000000001 1994.67 0.0 0.0 1.0
-81.24443333333333 -83.46666666666667 1994.67 0.0 0.0 1.0
-82.5979 -55.549200000000006 1714.61 0.0 0.0 1.0
-81.83383333333335 -51.1175 1714.61 0.0 0.0 1.0
-82.4381 -43.65709999999999 1709.71 0.0 0.0 1.0
-81.681 -34.30753333333333 1714.61 0.0 0.0 1.0
-82.42423333333333 -19.924233333333333 1700.0 0.0 0.0 1.0
-81.4222 -19.644433333333335 1994.67 0.0 0.0 1.0
-82.48886666666665 -15.911133333333334 1994.67 0.0 0.0 1.0
-82.84443333333333 2.9333333333333336 1994.67 0.0 0.0 1.0
-81.22959999999999 10.374613333333333 1724.5 0.0 0.0 1.0
-81.3833 14.0634 1724.5 0.0 0.0 1.0
-81.44926666666667 43.260866666666665 1626.09 0.0 0.0 1.0
-81.15939999999999 44.130433333333336 1626.09 0.0 0.0 1.0
-81.01446666666666 55.57973333333333 1626.09 0.0 0.0 1.0
-81.88403333333333 60.50726666666666 1626.09 0.0 0.0 1.0
-82.31883333333333 63.11593333333334 1626.09 0.0 0.0 1.0
-82.6087 68.6232 1626.09 0.0 0.0 1.0
-81.44926666666667 80.36233333333332 1626.09 0.0 0.0 1.0
-81.7391 80.94203333333333 1626.09 0.0 0.0 1.0
-81.7391 80.94203333333333 1626.09 0.0 0.0 1.0
-81.88403333333333 92.24636666666667 1626.09 0.0 0.0 1.0
-82.02896666666668 103.84066666666666 1626.09 0.0 0.0 1.0
-81.7391 105.0 1626.09 0.0 0.0 1.0
-82.02896666666668 113.84033333333332 1626.09 0.0 0.0 1.0
-82.84443333333333 -143.37766666666667 1994.67 0.0 0.0 1.0
-82.10923333333334 -110.96 1690.4000000000003 0.0 1.0 0.0
-82.25350000000002 -105.08900000000001 1685.63 0.0 0.0 1.0
-82.7042 -101.03266666666667 1685.63 0.0 0.0 1.0
-81.65726666666667 -90.47080000000001 1690.4000000000003 -1.9773776076917294e-27 1.3841752670470983e-26 1.0
-81.65726666666667 -90.47080000000001 1690.4000000000003 -1.977377607691728e-27 1.384175267047098e-26 1.0
-81.95556666666667 -91.11110000000001 1994.67 0.0 0.0 1.0
-82.66666666666667 -86.13333333333333 1994.67 0.0 0.0 1.0
-80.88889999999999 -73.51113333333332 1994.67 0.0 0.0 1.0
-83.55556666666666 -66.04443333333334 1994.67 0.0 0.0 1.0
-82.5979 -55.549200000000006 1714.61 0.0 0.0 1.0
-82.13946666666666 -51.881566666666664 1714.61 0.0 0.0 1.0
-82.13946666666666 -51.881566666666664 1714.61 0.0 0.0 1.0
-82.89523333333334 -46.70476666666667 1709.71 0.0 0.0 1.0
-82.4381 -43.65709999999999 1709.71 0.0 0.0 1.0
-82.13333333333334 -38.62856666666667 1709.71 0.0 0.0 1.0
-82.2923 -36.5998 1714.61 0.0 0.0 1.0
-82.2923 -36.5998 1714.61 0.0 0.0 1.0
-82.2923 -36.5998 1714.61 0.0 0.0 1.0
-81.681 -34.30753333333333 1714.61 0.0 0.0 1.0
-82.89523333333334 -27.504766666666665 1709.71 0.0 0.0 1.0
-82.42423333333333 -19.924233333333333 1700.0 0.0 0.0 1.0
-82.12723333333334 -8.281103333333332 1704.84 0.0 0.0 1.0
-83.02223333333335 6.133333333333333 1994.67 0.0 0.0 1.0
-83.37776666666667 22.133333333333336 1994.67 0.0 0.0 1.0
-82.46376666666667 36.44926666666667 1626.09 0.0 0.0 1.0
-82.46376666666667 36.44926666666667 1626.09 0.0 0.0 1.0
-82.6087 38.7681 1626.09 0.0 0.0 1.0
-82.46376666666667 39.63766666666667 1626.09 0.0 0.0 1.0
-82.1739 47.463766666666665 1626.09 0.0 0.0 1.0
-82.029 52.24636666666667 1626.09 0.0 0.0 1.0
-82.46376666666667 67.46376666666667 1626.09 0.0 0.0 1.0
-81.73913333333333 73.26086666666667 1626.09 0.0 0.0 1.0
-82.1739 79.7826 1626.09 0.0 0.0 1.0
-82.1739 83.8406 1626.09 0.0 0.0 1.0
-82.17393333333332 87.89853333333333 1626.09 0.0 0.0 1.0
-82.6087 95.86956666666667 1626.09 0.0 0.0 1.0
-82.31883333333333 103.26100000000001 1626.09 0.0 0.0 1.0
-82.02896666666668 103.84066666666666 1626.09 0.0 0.0 1.0
-82.02896666666668 103.84066666666666 1626.09 0.0 0.0 1.0
-82.31883333333333 105.435 1626.09 0.0 0.0 1.0
-81.73913333333333 111.37666666666667 1626.09 0.0 0.0 1.0
-82.02896666666668 113.84033333333332 1626.09 0.0 0.0 1.0
-82.02896666666668 113.84033333333332 1626.09 0.0 0.0 1.0
-82.84443333333333 -140.71133333333333 1994.67 0.0 0.0 1.0
-83.6056 -107.79366666666665 1685.63 0.0 0.0 1.0
-82.55396666666667 -104.78866666666666 1685.63 0.0 0.0 1.0
-82.55396666666667 -104.78866666666666 1685.63 0.0 0.0 1.0
-83.1549 -101.18299999999999 1685.63 0.0 0.0 1.0
-82.85443333333335 -95.17366666666665 1685.63 0.0 0.0 1.0
-82.85443333333333 -95.17366666666665 1685.63 0.0 0.0 1.0
-83.32733333333333 -69.78946666666667 1696.7866666666669 0.34805869826479674 -0.696117396529592 0.6279137781663003
-82.89523333333334 -46.70476666666667 1709.71 0.0 0.0 1.0
-82.89523333333334 -27.504766666666665 1709.71 0.0 0.0 1.0
-82.12723333333334 -7.673316666666666 1704.84 0.0 0.0 1.0
-82.74286666666667 -4.342859999999999 1709.71 0.0 0.0 1.0
-83.2 30.311133333333334 1994.67 0.0 0.0 1.0
-82.13333333333334 35.82223333333334 1994.67 0.0 0.0 1.0
-84.26666666666667 36.17776666666666 1994.67 0.0 0.0 1.0
-82.6087 38.7681 1626.09 0.0 0.0 1.0
-82.75363333333333 59.7826 1626.09 0.0 0.0 1.0
-82.31883333333333 60.36233333333333 1626.09 0.0 0.0 1.0
-82.31883333333333 63.11593333333334 1626.09 0.0 0.0 1.0
-82.31883333333333 63.11593333333334 1626.09 0.0 0.0 1.0
-82.6087 68.6232 1626.09 0.0 0.0 1.0
-82.6087 77.7536 1626.09 0.0 0.0 1.0
-82.6087 79.7826 1626.09 0.0 0.0 1.0
-82.6087 91.9565 1626.09 0.0 0.0 1.0
-82.6087 95.86956666666667 1626.09 0.0 0.0 1.0
-82.89856666666667 98.0435 1626.09 0.0 0.0 1.0
-82.89856666666667 98.0435 1626.09 0.0 0.0 1.0
-82.6087 99.78243333333334 1626.09 0.0 0.0 1.0
-82.75363333333333 100.94200000000001 1626.09 0.0 0.0 1.0
-82.6087 102.68133333333333 1626.09 0.0 0.0 1.0
-83.73333333333333 -143.20000000000002 1994.67 0.0 0.0 1.0
-83.91109999999999 -140.00033333333334 1994.67 0.0 0.0 1.0
-83.01316666666666 -111.41199999999999 1690.4000000000003 5.272715321361907e-27 -6.1508693459377015e-27 1.0
-83.00466666666667 -100.88233333333335 1685.63 0.0 0.0 1.0
-82.85443333333335 -95.17366666666665 1685.63 0.0 0.0 1.0
-83.6158 -84.44443333333334 1690.4000000000003 -8.649195236770073e-27 7.414345767115408e-28 1.0
-82.66666666666667 -86.13333333333333 1994.67 0.0 0.0 1.0
-83.55553333333334 -81.5111 1994.67 0.0 0.0 1.0
-83.48486666666666 -65.5303 1700.0 0.0 0.0 1.0
-84.08890000000001 -70.13333333333334 1994.67 0.0 0.0 1.0
-83.55556666666666 -66.04443333333334 1994.67 0.0 0.0 1.0
-82.4381 -43.65709999999999 1709.71 0.0 0.0 1.0
-83.97326666666667 -30.181466666666665 1714.61 0.0 0.0 1.0
-82.42423333333333 -19.924233333333333 1700.0 0.0 0.0 1.0
-83.37776666666667 -16.444466666666667 1994.67 0.0 0.0 1.0
-83.37776666666667 22.133333333333336 1994.67 0.0 0.0 1.0
-84.08886666666666 22.311133333333334 1994.67 0.0 0.0 1.0
-83.73333333333333 27.822233333333333 1994.67 0.0 0.0 1.0
-82.46376666666667 36.44926666666667 1626.09 0.0 0.0 1.0
-82.6087 38.7681 1626.09 0.0 0.0 1.0
-82.6087 39.63766666666667 1626.09 0.0 0.0 1.0
-81.88406666666667 42.536233333333335 1626.09 0.0 0.0 1.0
-83.04346666666667 46.5942 1626.09 0.0 0.0 1.0
-82.029 52.24636666666667 1626.09 0.0 0.0 1.0
-82.75363333333333 59.7826 1626.09 0.0 0.0 1.0
-83.33333333333333 75.28983333333333 1626.09 0.0 0.0 1.0
-83.47826666666667 75.86953333333334 1626.09 0.0 0.0 1.0
-83.1884 80.07246666666667 1626.09 0.0 0.0 1.0
-83.47826666666667 82.68116666666667 1626.09 0.0 0.0 1.0
-82.75363333333333 83.55073333333333 1626.09 0.0 0.0 1.0
-83.6232 86.73913333333333 1626.09 0.0 0.0 1.0
-83.1884 96.1594 1626.09 0.0 0.0 1.0
-82.75363333333333 101.81166666666667 1626.09 0.0 0.0 1.0
-82.31883333333333 105.435 1626.09 0.0 0.0 1.0
-82.46376666666667 113.69566666666667 1626.09 0.0 0.0 1.0
-84.26666666666667 -143.37800000000001 1994.67 0.0 0.0 1.0
-84.83473333333333 -115.80733333333335 1695.18 0.0 0.0 1.0
-83.76646666666666 -111.71333333333332 1690.4000000000003 -3.3979621293098997e-43 -6.7780805657645e-27 1.0
-83.1549 -101.183 1685.63 0.0 0.0 1.0
-84.3691 -80.97930000000001 1690.4000000000003 1.0138679646774958e-24 7.445556734117072e-25 1.0
-83.32733333333333 -69.78946666666667 1696.7866666666669 0.3480586982647965 -0.6961173965295921 0.6279137781663003
-84.09093333333333 -66.59093333333334 1700.0 0.0 0.0 1.0
-83.6364 -66.2879 1700.0 0.0 0.0 1.0
-83.48486666666666 -65.5303 1700.0 0.0 0.0 1.0
-84.08890000000001 -70.13333333333333 1994.67 0.0 0.0 1.0
-84.44446666666666 -69.42219999999999 1994.67 0.0 0.0 1.0
-83.55556666666666 -66.04443333333333 1994.67 0.0 0.0 1.0
-82.5979 -55.549200000000006 1714.61 0.0 0.0 1.0
-82.89523333333334 -46.70476666666667 1709.71 0.0 0.0 1.0
-83.97326666666667 -30.181466666666665 1714.61 0.0 0.0 1.0
-83.50476666666667 -27.9619 1709.71 0.0 0.0 1.0
-84.71033333333334 -24.99523333333333 1704.84 0.0 0.0 1.0
-84.10253333333333 -23.323800000000002 1704.84 0.0 0.0 1.0
-83.37776666666667 -16.444466666666667 1994.67 0.0 0.0 1.0
-84.26666666666667 -14.488900000000001 1994.67 0.0 0.0 1.0
-83.02223333333335 6.133333333333333 1994.67 0.0 0.0 1.0
-81.8444 8.222859999999999 1724.5 0.0 0.0 1.0
-84.62223333333333 15.555566666666666 1994.67 0.0 0.0 1.0
-84.44443333333334 26.399999999999995 1994.67 0.0 0.0 1.0
-84.6377 33.2609 1626.09 0.0 0.0 1.0
-84.05796666666667 54.71013333333334 1626.09 0.0 0.0 1.0
-83.33333333333333 55.869566666666664 1626.09 0.0 0.0 1.0
-83.91306666666667 67.46376666666667 1626.09 0.0 0.0 1.0
-83.33333333333333 68.7681 1626.09 0.0 0.0 1.0
-83.6232 87.7536 1626.09 0.0 0.0 1.0
-83.33333333333333 92.10143333333333 1626.09 0.0 0.0 1.0
-83.47826666666667 97.89856666666667 1626.09 0.0 0.0 1.0
-84.26666666666667 -143.378 1994.67 0.0 0.0 1.0
-84.8 -140.00033333333334 1994.67 0.0 0.0 1.0
-83.6056 -107.79366666666668 1685.63 0.0 0.0 1.0
-84.35676666666666 -107.343 1685.63 0.0 0.0 1.0
-83.6056 -100.43176666666666 1685.63 0.0 0.0 1.0
-83.6158 -84.44443333333334 1690.4000000000003 -8.649195236770073e-27 7.414345767115408e-28 1.0
-84.51976666666667 -79.62333333333333 1690.4000000000003 0.0 0.0 1.0
-85.15553333333334 -80.44443333333334 1994.67 0.0 0.0 1.0
-84.44446666666666 -69.42219999999999 1994.67 0.0 0.0 1.0
-82.90356666666666 -51.881566666666664 1714.61 0.0 0.0 1.0
-83.50476666666667 -27.9619 1709.71 0.0 0.0 1.0
-84.26666666666667 -14.488900000000001 1994.67 0.0 0.0 1.0
-82.27486666666667 -9.326176666666667 1701.6133333333335 0.2342230678795782 -0.9368716605478931 0.25963637290509206
-84.41906666666667 -4.8 1709.71 0.0 0.0 1.0
-85.68889999999999 1.6888899999999998 1994.67 0.0 0.0 1.0
-85.15556666666667 15.022233333333332 1994.67 0.0 0.0 1.0
-84.62223333333333 15.555566666666666 1994.67 0.0 0.0 1.0
-84.8 22.4889 1994.67 0.0 0.0 1.0
-84.8 31.2 1994.67 0.0 0.0 1.0
-84.05796666666667 46.0145 1626.09 0.0 0.0 1.0
-83.62316666666668 47.753600000000006 1626.09 0.0 0.0 1.0
-83.62316666666666 47.7536 1626.09 0.0 0.0 1.0
-84.05796666666667 54.71013333333334 1626.09 0.0 0.0 1.0
-83.91303333333333 68.91303333333333 1626.09 0.0 0.0 1.0
-84.20286666666668 74.71013333333333 1626.09 0.0 0.0 1.0
-83.7681 80.50726666666667 1626.09 0.0 0.0 1.0
-83.91303333333333 90.3623 1626.09 0.0 0.0 1.0
-84.05796666666667 92.24636666666667 1626.09 0.0 0.0 1.0
-83.91303333333333 96.1594 1626.09 0.0 0.0 1.0
-84.3691 -111.56266666666666 1690.4000000000003 -5.058559707262906e-27 -6.956954188135718e-27 1.0
-84.67043333333334 -80.07533333333333 1690.4000000000003 0.0 0.0 1.0
-84.51976666666667 -79.62333333333333 1690.4000000000003 0.0 0.0 1.0
-85.86666666666667 -84.53333333333333 1994.67 0.0 0.0 1.0
-85.80703333333334 -34.9188 1714.61 0.0 0.0 1.0
-85.19576666666667 -34.30753333333333 1714.61 0.0 0.0 1.0
-84.40643333333334 -7.217476666666666 1704.84 0.0 0.0 1.0
-85.5111 25.688866666666666 1994.67 0.0 0.0 1.0
-84.2029 36.594166666666666 1626.09 0.0 0.0 1.0
-83.91303333333333 68.91303333333333 1626.09 0.0 0.0 1.0
-84.20286666666668 74.71013333333333 1626.09 0.0 0.0 1.0
-84.20286666666668 74.71013333333333 1626.09 0.0 0.0 1.0
-84.49273333333333 75.86953333333334 1626.09 0.0 0.0 1.0
-84.49273333333333 81.66666666666667 1626.09 0.0 0.0 1.0
-84.63766666666668 82.10143333333333 1626.09 0.0 0.0 1.0
-84.2029 85.72463333333333 1626.09 0.0 0.0 1.0
-83.91303333333333 88.91303333333333 1626.09 0.0 0.0 1.0
-84.49276666666667 97.75363333333333 1626.09 0.0 0.0 1.0
-84.05796666666667 114.42033333333332 1626.09 0.0 0.0 1.0
-85.15556666666667 -141.067 1994.67 0.0 0.0 1.0
-84.83473333333333 -115.80733333333335 1695.18 0.0 0.0 1.0
-85.1224 -110.80933333333333 1690.4000000000003 -1.0752623194493062e-26 -8.854788691314371e-27 1.0
-84.95773333333334 -106.59166666666665 1685.63 0.0 0.0 1.0
-85.40843333333333 -104.93866666666668 1685.63 0.0 0.0 1.0
-84.95773333333334 -95.47416666666665 1685.63 0.0 0.0 1.0
-84.67043333333334 -80.07533333333333 1690.4000000000003 0.0 0.0 1.0
-86.40000000000002 -86.6667 1994.67 0.0 0.0 1.0
-85.86666666666667 -84.53333333333333 1994.67 0.0 0.0 1.0
-84.8485 -66.2879 1700.0 0.0 0.0 1.0
-85.94286666666666 -39.8476 1709.71 0.0 0.0 1.0
-83.97326666666667 -30.181466666666665 1714.61 0.0 0.0 1.0
-84.71033333333334 -24.99523333333333 1704.84 0.0 0.0 1.0
-85.622 -21.500466666666668 1704.84 0.0 0.0 1.0
-85.622 -21.500466666666668 1704.84 0.0 0.0 1.0
-84.39393333333334 -19.924233333333333 1700.0 0.0 0.0 1.0
-84.39393333333334 -19.924233333333333 1700.0 0.0 0.0 1.0
-86.40000000000002 -20.177766666666667 1994.67 0.0 0.0 1.0
-86.22223333333334 -0.8000000000000002 1994.67 0.0 0.0 1.0
-85.6889 1.68889 1994.67 0.0 0.0 1.0
-86.04446666666666 15.022233333333332 1994.67 0.0 0.0 1.0
-85.51113333333332 15.377766666666666 1994.67 0.0 0.0 1.0
-86.04446666666666 21.955566666666666 1994.67 0.0 0.0 1.0
-85.36233333333332 32.2464 1626.09 0.0 0.0 1.0
-85.7971 38.6232 1626.09 0.0 0.0 1.0
-85.07246666666667 40.6522 1626.09 0.0 0.0 1.0
-85.07246666666667 40.6522 1626.09 0.0 0.0 1.0
-84.63766666666668 54.4203 1626.09 0.0 0.0 1.0
-84.34783333333333 62.24636666666667 1626.09 0.0 0.0 1.0
-84.34783333333333 66.7391 1626.09 0.0 0.0 1.0
-84.34783333333333 66.7391 1626.09 0.0 0.0 1.0
-84.92753333333333 76.59416666666667 1626.09 0.0 0.0 1.0
-84.92753333333333 79.2029 1626.09 0.0 0.0 1.0
-84.63766666666668 82.10143333333333 1626.09 0.0 0.0 1.0
-84.7826 82.3913 1626.09 0.0 0.0 1.0
-84.7826 82.3913 1626.09 0.0 0.0 1.0
-84.05796666666667 92.24636666666667 1626.09 0.0 0.0 1.0
-84.63766666666668 95.72463333333333 1626.09 0.0 0.0 1.0
-84.49276666666667 106.44933333333334 1626.09 0.0 0.0 1.0
-84.92753333333333 112.53633333333335 1626.09 0.0 0.0 1.0
-84.92753333333333 112.53633333333335 1626.09 0.0 0.0 1.0
-84.7826 114.27533333333334 1626.09 0.0 0.0 1.0
-85.43906666666668 -116.865 1695.18 0.0 0.0 1.0
-85.40843333333333 -104.93866666666668 1685.63 0.0 0.0 1.0
-85.85913333333333 -101.63366666666666 1685.63 0.0 0.0 1.0
-84.80746666666666 -101.18299999999999 1685.63 0.0 0.0 1.0
-88.35556666666666 -104.267 1994.67 0.0 0.0 1.0
-86.93333333333334 -98.93333333333334 1994.67 0.0 0.0 1.0
-87.46666666666665 -90.75553333333335 1994.67 0.0 0.0 1.0
-85.86666666666667 -84.53333333333333 1994.67 0.0 0.0 1.0
-84.9778 -70.13333333333334 1994.67 0.0 0.0 1.0
-86.57776666666666 -66.39999999999999 1994.67 0.0 0.0 1.0
-86.57776666666666 -66.4 1994.67 0.0 0.0 1.0
-85.94286666666666 -48.9905 1709.71 0.0 0.0 1.0
-85.34859999999999 -37.05826666666667 1714.61 0.0 0.0 1.0
-84.71033333333334 -24.99523333333333 1704.84 0.0 0.0 1.0
-86.75556666666667 -19.288866666666664 1994.67 0.0 0.0 1.0
-85.79046666666666 -2.6666666666666665 1709.71 0.0 0.0 1.0
-85.79046666666666 -2.6666666666666665 1709.71 0.0 0.0 1.0
-85.6889 1.68889 1994.67 0.0 0.0 1.0
-86.04446666666666 15.022233333333332 1994.67 0.0 0.0 1.0
-86.57780000000001 15.9111 1994.67 0.0 0.0 1.0
-86.57776666666666 32.622233333333334 1994.67 0.0 0.0 1.0
-88.1778 36.53333333333333 1994.67 0.0 0.0 1.0
-85.3623 36.014466666666664 1626.09 0.0 0.0 1.0
-85.6522 42.536233333333335 1626.09 0.0 0.0 1.0
-84.7826 44.8551 1626.09 0.0 0.0 1.0
-84.63766666666668 54.4203 1626.09 0.0 0.0 1.0
-85.7971 72.97103333333332 1626.09 0.0 0.0 1.0
-85.50726666666667 84.13043333333333 1626.09 0.0 0.0 1.0
-84.63766666666668 95.72463333333333 1626.09 0.0 0.0 1.0
-85.7971 100.6522 1626.09 0.0 0.0 1.0
-84.92753333333333 113.40566666666666 1626.09 0.0 0.0 1.0
-85.43906666666668 -116.865 1695.18 0.0 0.0 1.0
-86.0434 -114.29633333333334 1695.18 0.0 0.0 1.0
-85.8757 -109.90566666666666 1690.4000000000003 -1.2694533255734972e-25 -1.6674749331759717e-25 1.0
-85.40843333333333 -105.84033333333333 1685.63 0.0 0.0 1.0
-86.93333333333334 -98.93333333333334 1994.67 0.0 0.0 1.0
-87.64443333333334 -88.8 1994.67 0.0 0.0 1.0
-86.57776666666666 -88.08890000000001 1994.67 0.0 0.0 1.0
-86.57776666666666 -80.44443333333334 1994.67 0.0 0.0 1.0
-84.8485 -66.2879 1700.0 0.0 0.0 1.0
-86.57776666666666 -66.39999999999999 1994.67 0.0 0.0 1.0
-85.94286666666666 -48.9905 1709.71 0.0 0.0 1.0
-86.39999999999999 -40.91426666666666 1709.71 0.0 0.0 1.0
-86.40000000000002 -40.45713333333333 1709.71 0.0 0.0 1.0
-85.34859999999999 -37.05826666666667 1714.61 0.0 0.0 1.0
-86.93333333333334 -21.066666666666666 1994.67 0.0 0.0 1.0
-86.22223333333334 -16.088866666666664 1994.67 0.0 0.0 1.0
-86.07786666666668 -6.9135833333333325 1704.84 0.0 0.0 1.0
-87.28890000000001 -1.5111100000000002 1994.67 0.0 0.0 1.0
-86.39996666666667 25.5111 1994.67 0.0 0.0 1.0
-86.39996666666667 25.5111 1994.67 0.0 0.0 1.0
-85.36233333333332 32.2464 1626.09 0.0 0.0 1.0
-85.36233333333332 33.11596666666667 1626.09 0.0 0.0 1.0
-85.94203333333333 33.8406 1626.09 0.0 0.0 1.0
-85.94203333333333 41.52173333333334 1626.09 0.0 0.0 1.0
-85.79713333333332 41.811600000000006 1626.09 0.0 0.0 1.0
-86.08696666666667 51.2319 1626.09 0.0 0.0 1.0
-86.8116 58.1884 1626.09 0.0 0.0 1.0
-85.36233333333332 61.08693333333334 1626.09 0.0 0.0 1.0
-85.7971 72.97103333333332 1626.09 0.0 0.0 1.0
-85.65216666666667 77.1739 1626.09 0.0 0.0 1.0
-85.36233333333332 83.11596666666667 1626.09 0.0 0.0 1.0
-85.6522 83.55073333333333 1626.09 0.0 0.0 1.0
-85.50726666666667 84.13043333333333 1626.09 0.0 0.0 1.0
-85.65216666666667 97.89856666666667 1626.09 0.0 0.0 1.0
-85.7971 100.6522 1626.09 0.0 0.0 1.0
-85.94206666666666 103.98533333333334 1626.09 0.0 0.0 1.0
-85.65216666666667 107.029 1626.09 0.0 0.0 1.0
-86.7606 -97.57746666666667 1685.63 0.0 0.0 1.0
-86.77966666666667 -91.97736666666667 1690.4000000000003 7.379876831428492e-26 -2.635453702669774e-26 1.0
-87.64446666666667 -98.04443333333334 1994.67 0.0 0.0 1.0
-86.55239999999999 -48.9905 1709.71 0.0 0.0 1.0
-87.00953333333332 -47.0095 1709.71 0.0 0.0 1.0
-86.39999999999999 -40.91426666666666 1709.71 0.0 0.0 1.0
-85.80703333333334 -34.9188 1714.61 0.0 0.0 1.0
-85.80703333333334 -34.1547 1714.61 0.0 0.0 1.0
-87.1619 -25.980966666666664 1709.71 0.0 0.0 1.0
-87.3143 -25.066666666666666 1709.71 0.0 0.0 1.0
-87.46666666666665 -16.6222 1994.67 0.0 0.0 1.0
-86.09523333333334 -3.2761899999999997 1709.71 0.0 0.0 1.0
-86.09523333333334 -3.2761899999999997 1709.71 0.0 0.0 1.0
-86.57780000000001 14.844466666666667 1994.67 0.0 0.0 1.0
-88.17776666666667 21.066666666666666 1994.67 0.0 0.0 1.0
-85.7971 38.6232 1626.09 0.0 0.0 1.0
-86.08696666666667 41.956500000000005 1626.09 0.0 0.0 1.0
-86.08696666666667 51.2319 1626.09 0.0 0.0 1.0
-86.95653333333333 69.92753333333333 1626.09 0.0 0.0 1.0
-85.7971 78.47826666666667 1626.09 0.0 0.0 1.0
-86.37683333333332 91.9565 1626.09 0.0 0.0 1.0
-86.8116 102.971 1626.09 0.0 0.0 1.0
-86.08696666666667 104.855 1626.09 0.0 0.0 1.0
-86.52173333333333 108.04333333333334 1626.09 0.0 0.0 1.0
-87.64446666666667 -141.95566666666664 1994.67 0.0 0.0 1.0
-87.8732 -116.17733333333332 1698.3933333333334 0.31609320132152735 0.9480246900925531 0.036527729921621496
-85.8757 -109.90566666666666 1690.4000000000003 -1.2694533255734972e-25 -1.6674749331759717e-25 1.0
-86.61033333333334 -101.63366666666666 1685.63 0.0 0.0 1.0
-87.06106666666666 -98.62913333333331 1685.63 0.0 0.0 1.0
-87.06106666666666 -95.62436666666667 1685.63 0.0 0.0 1.0
-86.77966666666667 -91.97736666666667 1690.4000000000003 7.379876831428462e-26 -2.635453702669763e-26 1.0
-87.8222 -80.8 1994.67 0.0 0.0 1.0
-87.16186666666665 -44.419033333333324 1709.71 0.0 0.0 1.0
-87.16186666666665 -44.419033333333324 1709.71 0.0 0.0 1.0
-86.39999999999999 -40.45713333333333 1709.71 0.0 0.0 1.0
-87.6409 -30.945566666666664 1714.61 0.0 0.0 1.0
-86.38173333333333 -21.348533333333336 1704.84 0.0 0.0 1.0
-85.60606666666666 -19.772733333333335 1700.0 0.0 0.0 1.0
-86.93333333333334 -21.066666666666666 1994.67 0.0 0.0 1.0
-87.28890000000001 -17.688866666666666 1994.67 0.0 0.0 1.0
-86.23186666666668 34.420300000000005 1626.09 0.0 0.0 1.0
-86.9565 34.855066666666666 1626.09 0.0 0.0 1.0
-86.8116 38.91303333333334 1626.09 0.0 0.0 1.0
-85.94203333333333 41.52173333333334 1626.09 0.0 0.0 1.0
-87.82606666666668 48.6232 1626.09 0.0 0.0 1.0
-86.08696666666667 51.231899999999996 1626.09 0.0 0.0 1.0
-87.10143333333333 55.14490000000001 1626.09 0.0 0.0 1.0
-86.81156666666668 65.14493333333333 1626.09 0.0 0.0 1.0
-86.81156666666668 65.14493333333333 1626.09 0.0 0.0 1.0
-85.7971 72.97103333333332 1626.09 0.0 0.0 1.0
