-92 148.4 2992
-92 149.2 2992
-90.8475 -127.119 2535.59
-90.8475 -126.441 2535.59
-89.9611 -115.486 2328.4
-89.9611 -114.864 2328.4
-89.9611 -114.241 2328.4
-89.9611 -113.619 2328.4
-89.9611 -112.996 2328.4
-89.9611 -112.374 2328.4
-90.7113 -120.167 2503.77
-90.5785 -118.017 2472.73
-87.3775 -81.8444 1724.5
-87.4419 -82.093 1739.53
-87.3775 -80.9222 1724.5
-87.3775 -80.4611 1724.5
-87.3775 -80 1724.5
-89.8462 -106.154 2301.54
-89.9611 -106.77 2328.4
-89.8462 -104.923 2301.54
-89.8462 -104.308 2301.54
-89.9611 -104.903 2328.4
-89.9611 -104.28 2328.4
-89.9611 -103.658 2328.4
-89.9611 -103.035 2328.4
-89.9611 -102.412 2328.4
-89.8462 -100.615 2301.54
-89.8462 -100 2301.54
-89.8462 -99.3846 2301.54
-89.8462 -98.7692 2301.54
-89.8462 -98.1538 2301.54
-89.8462 -97.5385 2301.54
-89.8462 -96.9231 2301.54
-89.8462 -96.3077 2301.54
-89.8462 -95.6923 2301.54
-89.8462 -95.0769 2301.54
-89.8462 -94.4615 2301.54
-89.8462 -93.8462 2301.54
-89.8462 -93.2308 2301.54
-89.8462 -92.6154 2301.54
-89.8462 -92 2301.54
-89.8462 -91.3846 2301.54
-89.8462 -90.7692 2301.54
-89.8462 -90.1538 2301.54
-89.8462 -89.5385 2301.54
-89.3091 -84.0727 2176
-89.3091 -83.4909 2176
-89.3091 -82.9091 2176
-89.3091 -82.3273 2176
-89.3091 -81.7455 2176
-89.3091 -81.1636 2176
-89.3091 -80.5818 2176
-89.3091 -80 2176
-89.3091 -79.4182 2176
-89.3091 -78.8364 2176
-92.8 -107.6 2992
-92.8 -106.8 2992
-92.8 -106 2992
-92.8 -105.2 2992
-92.8 -104.4 2992
-92.8 -103.6 2992
-89.3091 -74.7636 2176
-89.3091 -74.1818 2176
-89.3091 -73.6 2176
-89.3091 -73.0182 2176
-89.3091 -72.4364 2176
-89.3091 -71.8545 2176
-89.3091 -71.2727 2176
-89.2086 -69.9281 2152.52
-89.3091 -70.1091 2176
-89.2086 -68.777 2152.52
-89.3091 -68.9455 2176
-89.2086 -67.6259 2152.52
-89.2086 -67.0504 2152.52
-89.3091 -67.2 2176
-89.3091 -66.6182 2176
-89.3091 -66.0364 2176
-89.3091 -65.4545 2176
-89.3091 -64.8727 2176
-89.3091 -64.2909 2176
-90.449 -71.5102 2442.45
-90.449 -70.8571 2442.45
-89.2086 -61.8705 2152.52
-89.2086 -61.295 2152.52
-89.2086 -60.7194 2152.52
-89.2086 -60.1439 2152.52
-89.2086 -59.5683 2152.52
-89.2086 -58.9928 2152.52
-89.2086 -58.4173 2152.52
-89.2086 -57.8417 2152.52
-89.2086 -57.2662 2152.52
-89.2086 -56.6906 2152.52
-89.2086 -56.1151 2152.52
-89.2086 -55.5396 2152.52
-89.2086 -54.964 2152.52
-89.2086 -54.3885 2152.52
-92.8 -74.8 2992
-89.2086 -53.2374 2152.52
-89.2086 -52.6619 2152.52
-89.2086 -52.0863 2152.52
-89.2086 -51.5108 2152.52
-89.2086 -50.9353 2152.52
-89.2086 -50.3597 2152.52
-89.2086 -49.7842 2152.52
-89.2086 -49.2086 2152.52
-89.3091 -49.1636 2176
-88.5619 -44.6823 2001.34
-88.6487 -44.5946 2021.62
-88.6487 -44.0541 2021.62
-88.8276 -44.4138 2063.45
-88.8276 -43.8621 2063.45
-89.2086 -45.1799 2152.52
-89.2086 -44.6043 2152.52
-89.2086 -44.0288 2152.52
-89.2086 -43.4532 2152.52
-89.2086 -42.8777 2152.52
-89.2086 -42.3022 2152.52
-89.2086 -41.7266 2152.52
-89.2086 -41.1511 2152.52
-89.2086 -40.5755 2152.52
-89.2086 -40 2152.52
-89.2086 -39.4245 2152.52
-89.2086 -38.8489 2152.52
-89.2086 -38.2734 2152.52
-89.2086 -37.6978 2152.52
-89.2086 -37.1223 2152.52
-89.2086 -36.5468 2152.52
-89.2086 -35.9712 2152.52
-89.2086 -35.3957 2152.52
-89.2086 -34.8201 2152.52
-89.2086 -34.2446 2152.52
-89.2086 -33.6691 2152.52
-89.2086 -33.0935 2152.52
-89.2086 -32.518 2152.52
-89.2086 -31.9424 2152.52
-89.2086 -31.3669 2152.52
-89.2086 -30.7914 2152.52
-89.2086 -30.2158 2152.52
-89.2086 -29.6403 2152.52
-89.2086 -29.0647 2152.52
-89.2086 -28.4892 2152.52
-89.2086 -27.9137 2152.52
-89.2086 -27.3381 2152.52
-89.1103 -26.4769 2129.54
-89.1103 -25.9075 2129.54
-89.1103 -25.3381 2129.54
-89.1103 -24.7687 2129.54
-89.1103 -24.1993 2129.54
-89.1103 -23.6299 2129.54
-89.0141 -22.8169 2107.04
-89.0141 -22.2535 2107.04
-89.0141 -21.6901 2107.04
-89.0141 -21.1268 2107.04
-89.0141 -20.5634 2107.04
-89.0141 -20 2107.04
-89.0141 -19.4366 2107.04
-89.0141 -18.8732 2107.04
-89.0141 -18.3099 2107.04
-89.0141 -17.7465 2107.04
-89.0141 -17.1831 2107.04
-89.0141 -16.6197 2107.04
-89.0141 -16.0563 2107.04
-89.0141 -15.493 2107.04
-89.0141 -14.9296 2107.04
-89.0141 -14.3662 2107.04
-89.0141 -13.8028 2107.04
-89.0141 -13.2394 2107.04
-89.0141 -12.6761 2107.04
-89.0141 -12.1127 2107.04
-88.3117 -10.6494 1942.86
-88.3117 -10.1299 1942.86
-88.9199 -10.3136 2085.02
-88.9199 -9.7561 2085.02
-89.0141 -9.29577 2107.04
-89.0141 -8.73239 2107.04
-89.0141 -8.16901 2107.04
-89.0141 -7.60563 2107.04
-92.8 -10 2992
-92.8 -9.2 2992
-92.8 -8.4 2992
-92.8 -7.6 2992
-92.8 -6.8 2992
-92.8 -6 2992
-88.8276 -3.58621 2063.45
-88.8276 -3.03448 2063.45
-88.8276 -2.48276 2063.45
-88.8276 -1.93103 2063.45
-88.8276 -1.37931 2063.45
-88.8276 -0.827586 2063.45
-88.8276 -0.275862 2063.45
-88.8276 0.275862 2063.45
-88.8276 0.827586 2063.45
-92.8 2 2992
-92.8 2.8 2992
-92.8 3.6 2992
-88.7372 3.00341 2042.32
-88.7372 3.54949 2042.32
-88.7372 4.09556 2042.32
-88.7372 4.64164 2042.32
-88.7372 5.18771 2042.32
-88.7372 5.73379 2042.32
-88.7372 6.27986 2042.32
-88.7372 6.82594 2042.32
-88.7372 7.37201 2042.32
-88.7372 7.91809 2042.32
-88.7372 8.46416 2042.32
-88.7372 9.01024 2042.32
-92.8 14 2992
-92.8 14.8 2992
-92.8 15.6 2992
-92.8 16.4 2992
-92.8 17.2 2992
-92.6108 17.734 2947.78
-88.6487 12.7027 2021.62
-88.6487 13.2432 2021.62
-88.6487 13.7838 2021.62
-92.6108 20.8867 2947.78
-88.6487 14.8649 2021.62
-88.6487 15.4054 2021.62
-88.6487 15.9459 2021.62
-92.8 24.4 2992
-88.6487 17.027 2021.62
-88.6487 17.5676 2021.62
-92.8 26.8 2992
-92.0755 26.0377 2822.64
-92.0755 26.7925 2822.64
-91.907 27.1628 2783.26
-91.7431 27.5229 2744.95
-91.7431 28.2569 2744.95
-91.7431 28.9908 2744.95
-91.7431 29.7248 2744.95
-91.4286 29.6429 2671.43
-91.2775 29.9559 2636.12
-88.8276 24 2063.45
-88.8276 24.5517 2063.45
-92.8 36.4 2992
-87.7812 22.614 1818.84
-87.7812 23.1003 1818.84
-89.1103 27.6157 2129.54
-92.8 39.6 2992
-92.8 40.4 2992
-92.8 41.2 2992
-92.8 42 2992
-92.8 42.8 2992
-92.8 43.6 2992
-92.8 44.4 2992
-92.8 45.2 2992
-92.8 46 2992
-92.8 46.8 2992
-92.8 47.6 2992
-92.8 48.4 2992
-92.8 49.2 2992
-87.3775 28.8184 1724.5
-87.3775 29.2795 1724.5
-87.3775 29.7406 1724.5
-87.3775 30.2017 1724.5
-87.3775 30.6628 1724.5
-87.3775 31.1239 1724.5
-87.3775 31.585 1724.5
-87.3775 32.0461 1724.5
-87.3775 32.5072 1724.5
-87.3775 32.9683 1724.5
-86.4322 29.1457 1503.52
-87.3775 33.8905 1724.5
-87.3775 34.3516 1724.5
-87.3775 34.8127 1724.5
-87.3775 35.2738 1724.5
-87.3775 35.7349 1724.5
-87.3775 36.196 1724.5
-87.3775 36.6571 1724.5
-87.3775 37.1182 1724.5
-87.3775 37.5793 1724.5
-87.3775 38.0403 1724.5
-87.3775 38.5014 1724.5
-87.3775 38.9625 1724.5
-87.3775 39.4236 1724.5
-87.3775 39.8847 1724.5
-87.3775 40.3458 1724.5
-87.3775 40.8069 1724.5
-87.7108 43.1325 1802.41
-87.7108 43.6145 1802.41
-87.7108 44.0964 1802.41
-87.3775 42.6513 1724.5
-92.8 74.8 2992
-92.8 75.6 2992
-92.8 76.4 2992
-92.8 77.2 2992
-92.8 78 2992
-92.8 78.8 2992
-92.8 79.6 2992
-92.8 80.4 2992
-87.3775 46.8012 1724.5
-87.3775 47.2622 1724.5
-87.3775 47.7233 1724.5
-87.3775 48.1844 1724.5
-87.3775 48.6455 1724.5
-87.3775 49.1066 1724.5
-87.3775 49.5677 1724.5
-87.3775 50.0288 1724.5
-87.3775 50.4899 1724.5
-87.3775 50.951 1724.5
-87.3775 51.4121 1724.5
-87.3775 51.8732 1724.5
-87.3775 52.3343 1724.5
-87.191 51.4607 1680.9
-87.191 51.9101 1680.9
-87.191 52.3596 1680.9
-87.3775 54.1787 1724.5
-87.191 53.2584 1680.9
-87.3775 55.1009 1724.5
-90.1992 76.8128 2384.06
-90.1992 77.4502 2384.06
-90.1992 78.0876 2384.06
-87.3775 56.9452 1724.5
-92.8 99.6 2992
-92.8 100.4 2992
-92.8 101.2 2992
-92.8 102 2992
-87.3775 59.2507 1724.5
-87.3775 59.7118 1724.5
-87.3775 60.1729 1724.5
-87.3775 60.634 1724.5
-87.3775 61.0951 1724.5
-87.3775 61.5562 1724.5
-87.3775 62.0173 1724.5
-87.3775 62.4784 1724.5
-87.3775 62.9395 1724.5
-87.3775 63.4006 1724.5
-87.3775 63.8617 1724.5
-87.3775 64.3228 1724.5
-87.3775 64.7839 1724.5
-87.3775 65.245 1724.5
-87.3775 65.7061 1724.5
-87.3775 66.1671 1724.5
-87.3775 66.6282 1724.5
-92.8 116.4 2992
-92.8 117.2 2992
-92.8 118 2992
-92.8 118.8 2992
-92.8 119.6 2992
-92.8 120.4 2992
-92.8 121.2 2992
-92.8 122 2992
-87.191 68.9888 1680.9
-87.191 69.4382 1680.9
-87.3143 71.0857 1709.71
-87.3775 72.1614 1724.5
-87.3775 72.6225 1724.5
-87.3775 73.0836 1724.5
-87.3775 73.5447 1724.5
-87.3775 74.0058 1724.5
-87.3775 74.4669 1724.5
-87.3775 74.928 1724.5
-87.3775 75.389 1724.5
-87.3775 75.8501 1724.5
-87.3775 76.3112 1724.5
-87.3775 76.7723 1724.5
-87.3775 77.2334 1724.5
-87.3775 77.6945 1724.5
-87.3775 78.1556 1724.5
-87.3775 78.6167 1724.5
-87.3775 79.0778 1724.5
-87.3775 79.5389 1724.5
-87.3775 80 1724.5
-92.8 139.6 2992
-92.8 140.4 2992
-92.8 141.2 2992
-92.8 142 2992
-92.8 142.8 2992
-92.8 143.6 2992
-92.8 144.4 2992
-88.5619 97.1237 2001.34
-88.6487 98.6487 2021.62
-92.8 146.8 2992
-92.8 147.6 2992
-92.8 148.4 2992
-92.8 149.2 2992
-90.5837 -116.732 2328.4
-90.5837 -116.109 2328.4
-90.5837 -115.486 2328.4
-90.5837 -114.864 2328.4
-90.5837 -114.241 2328.4
-88.2675 -88.7538 1818.84
-88.1928 -87.4699 1802.41
-91.6738 -123.949 2568.24
-91.3808 -120.167 2503.77
-91.2397 -118.017 2472.73
-87.8386 -81.8444 1724.5
-87.8386 -81.3833 1724.5
-87.8386 -80.9222 1724.5
-87.7714 -79.7714 1709.71
-87.9765 -81.4076 1754.84
-87.9765 -80.9384 1754.84
-90.5837 -106.77 2328.4
-90.5837 -106.148 2328.4
-90.5837 -105.525 2328.4
-90.5837 -104.903 2328.4
-90.5837 -104.28 2328.4
-90.5837 -103.658 2328.4
-90.5837 -103.035 2328.4
-90.5837 -102.412 2328.4
-90.4615 -100.615 2301.54
-90.4615 -100 2301.54
-90.4615 -99.3846 2301.54
-90.4615 -98.7692 2301.54
-90.4615 -98.1538 2301.54
-90.4615 -97.5385 2301.54
-90.4615 -96.9231 2301.54
-90.4615 -96.3077 2301.54
-90.4615 -95.6923 2301.54
-90.4615 -95.0769 2301.54
-90.4615 -94.4615 2301.54
-90.4615 -93.8462 2301.54
-90.4615 -93.2308 2301.54
-90.4615 -92.6154 2301.54
-90.4615 -92 2301.54
-90.4615 -91.3846 2301.54
-90.4615 -90.7692 2301.54
-90.4615 -90.1538 2301.54
-90.4615 -89.5385 2301.54
-90.4615 -88.9231 2301.54
-90.4615 -88.3077 2301.54
-90.4615 -87.6923 2301.54
-90.4615 -87.0769 2301.54
-90.4615 -86.4615 2301.54
-90.5837 -86.8483 2328.4
-89.8909 -80.5818 2176
-89.8909 -80 2176
-89.8909 -79.4182 2176
-93.6 -108.4 2992
-93.6 -107.6 2992
-93.6 -106.8 2992
-93.6 -106 2992
-93.6 -105.2 2992
-93.6 -104.4 2992
-93.6 -103.6 2992
-89.8909 -74.7636 2176
-89.8909 -74.1818 2176
-89.8909 -73.6 2176
-89.8909 -73.0182 2176
-89.8909 -72.4364 2176
-89.8909 -71.8545 2176
-89.8909 -71.2727 2176
-89.8909 -70.6909 2176
-89.8909 -70.1091 2176
-89.7842 -68.777 2152.52
-89.8909 -68.9455 2176
-89.7842 -67.6259 2152.52
-89.8909 -67.7818 2176
-89.8909 -67.2 2176
-89.8909 -66.6182 2176
-89.8909 -66.0364 2176
-89.8909 -65.4545 2176
-89.8909 -64.8727 2176
-89.8909 -64.2909 2176
-91.9824 -77.1806 2636.12
-93.6 -86.8 2992
-89.7842 -61.8705 2152.52
-89.7842 -61.295 2152.52
-89.7842 -60.7194 2152.52
-89.7842 -60.1439 2152.52
-89.7842 -59.5683 2152.52
-89.7842 -58.9928 2152.52
-89.7842 -58.4173 2152.52
-89.7842 -57.8417 2152.52
-89.7842 -57.2662 2152.52
-89.7842 -56.6906 2152.52
-89.7842 -56.1151 2152.52
-89.7842 -55.5396 2152.52
-89.7842 -54.964 2152.52
-89.7842 -54.3885 2152.52
-89.7842 -53.813 2152.52
-89.7842 -53.2374 2152.52
-89.7842 -52.6619 2152.52
-89.7842 -52.0863 2152.52
-89.7842 -51.5108 2152.52
-89.7842 -50.9353 2152.52
-89.7842 -50.3597 2152.52
-89.7842 -49.7842 2152.52
-89.7842 -49.2086 2152.52
-89.7842 -48.6331 2152.52
-89.097 -44.6823 2001.34
-89.1892 -44.5946 2021.62
-88.918 -42.7541 1961.97
-89.2833 -43.959 2042.32
-89.2833 -43.413 2042.32
-89.7842 -45.1799 2152.52
-89.7842 -44.6043 2152.52
-89.7842 -44.0288 2152.52
-89.7842 -43.4532 2152.52
-89.7842 -42.8777 2152.52
-89.7842 -42.3022 2152.52
-89.7842 -41.7266 2152.52
-89.7842 -41.1511 2152.52
-89.7842 -40.5755 2152.52
-89.7842 -40 2152.52
-89.7842 -39.4245 2152.52
-89.7842 -38.8489 2152.52
-89.7842 -38.2734 2152.52
-89.7842 -37.6978 2152.52
-89.7842 -37.1223 2152.52
-89.7842 -36.5468 2152.52
-89.7842 -35.9712 2152.52
-89.7842 -35.3957 2152.52
-89.7842 -34.8201 2152.52
-89.7842 -34.2446 2152.52
-89.7842 -33.6691 2152.52
-89.7842 -33.0935 2152.52
-89.7842 -32.518 2152.52
-89.7842 -31.9424 2152.52
-89.7842 -31.3669 2152.52
-89.7842 -30.7914 2152.52
-89.7842 -30.2158 2152.52
-89.7842 -29.6403 2152.52
-89.7842 -29.0647 2152.52
-89.7842 -28.4892 2152.52
-89.7842 -27.9137 2152.52
-93.6 -38 2992
-89.6797 -26.4769 2129.54
-89.6797 -25.9075 2129.54
-89.5775 -25.0704 2107.04
-89.5775 -24.507 2107.04
-89.5775 -23.9437 2107.04
-89.5775 -23.3803 2107.04
-89.5775 -22.8169 2107.04
-89.5775 -22.2535 2107.04
-89.5775 -21.6901 2107.04
-89.5775 -21.1268 2107.04
-89.5775 -20.5634 2107.04
-89.5775 -20 2107.04
-89.5775 -19.4366 2107.04
-89.5775 -18.8732 2107.04
-89.5775 -18.3099 2107.04
-89.5775 -17.7465 2107.04
-89.5775 -17.1831 2107.04
-89.5775 -16.6197 2107.04
-89.5775 -16.0563 2107.04
-89.5775 -15.493 2107.04
-89.5775 -14.9296 2107.04
-89.5775 -14.3662 2107.04
-89.5775 -13.8028 2107.04
-89.5775 -13.2394 2107.04
-89.5775 -12.6761 2107.04
-89.5775 -12.1127 2107.04
-89.5775 -11.5493 2107.04
-89.5775 -10.9859 2107.04
-89.5775 -10.4225 2107.04
-89.4773 -9.7561 2085.02
-89.4773 -9.19861 2085.02
-89.5775 -8.73239 2107.04
-89.5775 -8.16901 2107.04
-93.6 -10.8 2992
-93.6 -10 2992
-93.6 -9.2 2992
-93.6 -8.4 2992
-93.6 -7.6 2992
-93.6 -6.8 2992
-93.6 -6 2992
-89.3793 -3.58621 2063.45
-89.3793 -3.03448 2063.45
-89.3793 -2.48276 2063.45
-89.3793 -1.93103 2063.45
-89.3793 -1.37931 2063.45
-93.6 -1.2 2992
-93.6 -0.4 2992
-93.6 0.4 2992
-93.6 1.2 2992
-93.6 2 2992
-89.2833 1.91126 2042.32
-89.2833 2.45734 2042.32
-89.2833 3.00341 2042.32
-89.2833 3.54949 2042.32
-89.2833 4.09556 2042.32
-89.2833 4.64164 2042.32
-89.2833 5.18771 2042.32
-89.2833 5.73379 2042.32
-89.2833 6.27986 2042.32
-93.6 10 2992
-89.1892 7.2973 2021.62
-89.1892 7.83784 2021.62
-93.6 12.4 2992
-93.6 13.2 2992
-93.6 14 2992
-93.6 14.8 2992
-89.1892 10.5405 2021.62
-89.1892 11.0811 2021.62
-89.1892 11.6216 2021.62
-89.1892 12.1622 2021.62
-89.1892 12.7027 2021.62
-89.1892 13.2432 2021.62
-89.1892 13.7838 2021.62
-89.1892 14.3243 2021.62
-89.1892 14.8649 2021.62
-93.6 22.8 2992
-93.6 23.6 2992
-89.097 16.3211 2001.34
-89.097 16.8562 2001.34
-89.097 17.3913 2001.34
-93.6 26.8 2992
-93.6 27.6 2992
-93.6 28.4 2992
-86.8342 14.6734 1503.52
-86.8342 15.0754 1503.52
-86.8342 15.4774 1503.52
-93.6 31.6 2992
-93.6 32.4 2992
-92.1429 29.6429 2671.43
-91.9824 29.9559 2636.12
-91.6738 29.8712 2568.24
-89.4773 24.8084 2085.02
-91.8261 31.6522 2601.74
-91.8261 32.3478 2601.74
-89.6797 27.0463 2129.54
-89.6797 27.6157 2129.54
-89.6797 28.1851 2129.54
-91.5254 34.2373 2535.59
-91.6738 35.3648 2568.24
-91.6738 36.0515 2568.24
-93.6 42.8 2992
-93.6 43.6 2992
-93.6 44.4 2992
-93.6 45.2 2992
-93.6 46 2992
-93.6 46.8 2992
-93.6 47.6 2992
-87.8386 27.8963 1724.5
-87.8386 28.3573 1724.5
-87.8386 28.8184 1724.5
-87.8386 29.2795 1724.5
-87.8386 29.7406 1724.5
-87.8386 30.2017 1724.5
-87.8386 30.6628 1724.5
-87.8386 31.1239 1724.5
-87.8386 31.585 1724.5
-87.8386 32.0461 1724.5
-87.8386 32.5072 1724.5
-87.8386 32.9683 1724.5
-87.8386 33.4294 1724.5
-87.8386 33.8905 1724.5
-87.8386 34.3516 1724.5
-87.8386 34.8127 1724.5
-87.8386 35.2738 1724.5
-87.8386 35.7349 1724.5
-87.8386 36.196 1724.5
-87.8386 36.6571 1724.5
-87.8386 37.1182 1724.5
-87.8386 37.5793 1724.5
-87.8386 38.0403 1724.5
-87.8386 38.5014 1724.5
-87.8386 38.9625 1724.5
-87.8386 39.4236 1724.5
-88.1194 41.3134 1786.27
-88.1194 41.791 1786.27
-93.6 70.8 2992
-88.1194 42.7463 1786.27
-88.1194 43.2239 1786.27
-88.1194 43.7015 1786.27
-93.6 74 2992
-93.6 74.8 2992
-93.6 75.6 2992
-93.6 76.4 2992
-93.6 77.2 2992
-93.6 78 2992
-93.6 78.8 2992
-93.6 79.6 2992
-93.6 80.4 2992
-87.8386 46.8012 1724.5
-87.8386 47.2622 1724.5
-87.8386 47.7233 1724.5
-87.8386 48.1844 1724.5
-87.8386 48.6455 1724.5
-87.8386 49.1066 1724.5
-87.8386 49.5677 1724.5
-87.8386 50.0288 1724.5
-87.8386 50.4899 1724.5
-87.8386 50.951 1724.5
-87.8386 51.4121 1724.5
-87.8386 51.8732 1724.5
-87.5766 50.585 1666.85
-87.5766 51.0306 1666.85
-87.8386 53.2565 1724.5
-87.8386 53.7176 1724.5
-87.8386 54.1787 1724.5
-87.8386 54.6398 1724.5
-87.8386 55.1009 1724.5
-90.8367 76.8128 2384.06
-90.8367 77.4502 2384.06
-93.6 98 2992
-93.6 98.8 2992
-89.6797 70.8897 2129.54
-89.6797 71.4591 2129.54
-89.6797 72.0285 2129.54
-93.6 102 2992
-93.6 102.8 2992
-87.8386 59.7118 1724.5
-87.8386 60.1729 1724.5
-87.8386 60.634 1724.5
-87.8386 61.0951 1724.5
-87.8386 61.5562 1724.5
-87.8386 62.0173 1724.5
-87.8386 62.4784 1724.5
-87.8386 62.9395 1724.5
-87.8386 63.4006 1724.5
-87.8386 63.8617 1724.5
-87.8386 64.3228 1724.5
-87.8386 64.7839 1724.5
-87.8386 65.245 1724.5
-87.8386 65.7061 1724.5
-87.8386 66.1671 1724.5
-87.8386 66.6282 1724.5
-93.6 116.4 2992
-93.6 117.2 2992
-93.6 118 2992
-87.8386 68.4726 1724.5
-87.8386 68.9337 1724.5
-93.6 120.4 2992
-93.6 121.2 2992
-93.6 122 2992
-87.8386 70.7781 1724.5
-87.8386 71.2392 1724.5
-87.8386 71.7003 1724.5
-87.8386 72.1614 1724.5
-87.8386 72.6225 1724.5
-87.8386 73.0836 1724.5
-87.8386 73.5447 1724.5
-87.8386 74.0058 1724.5
-87.8386 74.4669 1724.5
-87.8386 74.928 1724.5
-87.8386 75.389 1724.5
-87.8386 75.8501 1724.5
-87.8386 76.3112 1724.5
-87.8386 76.7723 1724.5
-87.8386 77.2334 1724.5
-87.8386 77.6945 1724.5
-87.8386 78.1556 1724.5
-87.8386 78.6167 1724.5
-87.8386 79.0778 1724.5
-87.8386 79.5389 1724.5
-87.8386 80 1724.5
-87.8386 80.4611 1724.5
-93.6 140.4 2992
-93.6 141.2 2992
-93.6 142 2992
-93.6 142.8 2992
-93.6 143.6 2992
-93.6 144.4 2992
-88.918 95.2131 1961.97
-89.0066 96.6887 1981.46
-93.6 146.8 2992
-93.6 147.6 2992
-93.6 148.4 2992
-93.6 149.2 2992
-88.597 -89.5522 1786.27
-91.4741 -118.884 2384.06
-88.4457 -87.0381 1754.84
-88.3721 -85.814 1739.53
-92.5217 -127.652 2601.74
-92.3605 -125.322 2568.24
-92.0502 -121.506 2503.77
-91.7551 -117.878 2442.45
-88.2286 -82.0571 1709.71
-88.2286 -81.6 1709.71
-88.2997 -81.8444 1724.5
-88.2997 -81.3833 1724.5
-88.2997 -80.9222 1724.5
-91.2062 -108.638 2328.4
-91.2062 -108.016 2328.4
-91.2062 -107.393 2328.4
-91.2062 -106.77 2328.4
-91.2062 -106.148 2328.4
-91.2062 -105.525 2328.4
-91.2062 -104.903 2328.4
-91.2062 -104.28 2328.4
-91.2062 -103.658 2328.4
-91.2062 -103.035 2328.4
-91.2062 -102.412 2328.4
-91.0769 -100.615 2301.54
-91.0769 -100 2301.54
-91.0769 -99.3846 2301.54
-91.0769 -98.7692 2301.54
-91.0769 -98.1538 2301.54
-91.0769 -97.5385 2301.54
-91.0769 -96.9231 2301.54
-91.0769 -96.3077 2301.54
-91.0769 -95.6923 2301.54
-91.0769 -95.0769 2301.54
-91.0769 -94.4615 2301.54
-91.0769 -93.8462 2301.54
-91.0769 -93.2308 2301.54
-91.0769 -92.6154 2301.54
-91.0769 -92 2301.54
-91.0769 -91.3846 2301.54
-91.0769 -90.7692 2301.54
-91.0769 -90.1538 2301.54
-91.0769 -89.5385 2301.54
-91.0769 -88.9231 2301.54
-91.0769 -88.3077 2301.54
-91.0769 -87.6923 2301.54
-91.0769 -87.0769 2301.54
-91.0769 -86.4615 2301.54
-91.0769 -85.8462 2301.54
-91.0769 -85.2308 2301.54
-91.0769 -84.6154 2301.54
-91.0769 -84 2301.54
-90.7063 -80.5948 2224.54
-90.8271 -80.9023 2249.62
-90.8271 -80.3008 2249.62
-90.8271 -79.6992 2249.62
-90.8271 -79.0977 2249.62
-94.4 -104.4 2992
-94.4 -103.6 2992
-90.4727 -74.7636 2176
-90.4727 -74.1818 2176
-90.4727 -73.6 2176
-90.4727 -73.0182 2176
-90.4727 -72.4364 2176
-90.4727 -71.8545 2176
-90.4727 -71.2727 2176
-90.4727 -70.6909 2176
-90.4727 -70.1091 2176
-90.4727 -69.5273 2176
-90.4727 -68.9455 2176
-90.4727 -68.3636 2176
-90.4727 -67.7818 2176
-90.4727 -67.2 2176
-90.4727 -66.6182 2176
-90.4727 -66.0364 2176
-90.4727 -65.4545 2176
-90.4727 -64.8727 2176
-94.4 -88.4 2992
-94.4 -87.6 2992
-90.3597 -62.446 2152.52
-90.3597 -61.8705 2152.52
-90.4727 -61.9636 2176
-90.4727 -61.3818 2176
-90.4727 -60.8 2176
-90.4727 -60.2182 2176
-90.4727 -59.6364 2176
-90.4727 -59.0545 2176
-90.4727 -58.4727 2176
-90.4727 -57.8909 2176
-90.3597 -56.6906 2152.52
-90.3597 -56.1151 2152.52
-90.3597 -55.5396 2152.52
-90.3597 -54.964 2152.52
-90.3597 -54.3885 2152.52
-90.3597 -53.813 2152.52
-90.3597 -53.2374 2152.52
-90.3597 -52.6619 2152.52
-90.3597 -52.0863 2152.52
-90.3597 -51.5108 2152.52
-90.3597 -50.9353 2152.52
-90.3597 -50.3597 2152.52
-90.3597 -49.7842 2152.52
-90.3597 -49.2086 2152.52
-89.6321 -45.2174 2001.34
-89.6321 -44.6823 2001.34
-89.4426 -43.2787 1961.97
-89.4426 -42.7541 1961.97
-89.7297 -43.5135 2021.62
-89.7297 -42.973 2021.62
-90.3597 -45.1799 2152.52
-90.3597 -44.6043 2152.52
-90.3597 -44.0288 2152.52
-90.3597 -43.4532 2152.52
-90.3597 -42.8777 2152.52
-90.3597 -42.3022 2152.52
-90.3597 -41.7266 2152.52
-90.3597 -41.1511 2152.52
-90.3597 -40.5755 2152.52
-90.3597 -40 2152.52
-90.3597 -39.4245 2152.52
-90.3597 -38.8489 2152.52
-90.3597 -38.2734 2152.52
-90.3597 -37.6978 2152.52
-90.3597 -37.1223 2152.52
-90.3597 -36.5468 2152.52
-90.3597 -35.9712 2152.52
-90.3597 -35.3957 2152.52
-90.3597 -34.8201 2152.52
-90.3597 -34.2446 2152.52
-90.3597 -33.6691 2152.52
-90.3597 -33.0935 2152.52
-90.3597 -32.518 2152.52
-90.3597 -31.9424 2152.52
-90.3597 -31.3669 2152.52
-90.3597 -30.7914 2152.52
-90.3597 -30.2158 2152.52
-90.3597 -29.6403 2152.52
-90.3597 -29.0647 2152.52
-90.3597 -28.4892 2152.52
-94.4 -38.8 2992
-90.2491 -27.0463 2129.54
-90.2491 -26.4769 2129.54
-90.2491 -25.9075 2129.54
-90.2491 -25.3381 2129.54
-90.2491 -24.7687 2129.54
-90.2491 -24.1993 2129.54
-90.1408 -23.3803 2107.04
-90.1408 -22.8169 2107.04
-90.1408 -22.2535 2107.04
-90.1408 -21.6901 2107.04
-90.1408 -21.1268 2107.04
-90.1408 -20.5634 2107.04
-90.1408 -20 2107.04
-90.1408 -19.4366 2107.04
-90.1408 -18.8732 2107.04
-90.1408 -18.3099 2107.04
-90.1408 -17.7465 2107.04
-90.1408 -17.1831 2107.04
-90.1408 -16.6197 2107.04
-90.1408 -16.0563 2107.04
-90.1408 -15.493 2107.04
-90.1408 -14.9296 2107.04
-90.1408 -14.3662 2107.04
-90.1408 -13.8028 2107.04
-90.1408 -13.2394 2107.04
-90.1408 -12.6761 2107.04
-90.1408 -12.1127 2107.04
-90.1408 -11.5493 2107.04
-90.1408 -10.9859 2107.04
-90.1408 -10.4225 2107.04
-90.1408 -9.85915 2107.04
-90.0348 -9.19861 2085.02
-90.1408 -8.73239 2107.04
-94.4 -11.6 2992
-94.4 -10.8 2992
-94.4 -10 2992
-94.4 -9.2 2992
-94.4 -8.4 2992
-94.4 -7.6 2992
-94.4 -6.8 2992
-94.4 -6 2992
-94.4 -5.2 2992
-94.4 -4.4 2992
-94.4 -3.6 2992
-94.4 -2.8 2992
-94.4 -2 2992
-94.4 -1.2 2992
-94.4 -0.4 2992
-94.4 0.4 2992
-89.8294 0.819113 2042.32
-89.8294 1.36519 2042.32
-89.8294 1.91126 2042.32
-89.8294 2.45734 2042.32
-89.8294 3.00341 2042.32
-89.8294 3.54949 2042.32
-89.8294 4.09556 2042.32
-89.8294 4.64164 2042.32
-89.8294 5.18771 2042.32
-89.8294 5.73379 2042.32
-89.7297 6.21622 2021.62
-89.7297 6.75676 2021.62
-94.4 10.8 2992
-94.4 11.6 2992
-94.4 12.4 2992
-94.4 13.2 2992
-89.7297 9.45946 2021.62
-89.7297 10 2021.62
-89.7297 10.5405 2021.62
-89.7297 11.0811 2021.62
-89.7297 11.6216 2021.62
-89.7297 12.1622 2021.62
-89.7297 12.7027 2021.62
-89.7297 13.2432 2021.62
-89.7297 13.7838 2021.62
-89.7297 14.3243 2021.62
-89.7297 14.8649 2021.62
-89.7297 15.4054 2021.62
-89.7297 15.9459 2021.62
-89.6321 16.3211 2001.34
-89.6321 16.8562 2001.34
-89.6321 17.3913 2001.34
-89.6321 17.9264 2001.34
-89.6321 18.4615 2001.34
-89.7297 19.1892 2021.62
-89.7297 19.7297 2021.62
-87.2911 15.1899 1514.94
-87.2362 15.4774 1503.52
-87.2362 15.8794 1503.52
-87.5196 16.9191 1562.4
-92.8571 29.6429 2671.43
-87.2911 17.2152 1514.94
-94.4 34.8 2992
-89.931 24.5517 2063.45
-94.4 36.4 2992
-90.1408 26.1972 2107.04
-90.1408 26.7606 2107.04
-94.4 38.8 2992
-90.1408 27.8873 2107.04
-94.4 40.4 2992
-94.4 41.2 2992
-94.4 42 2992
-94.4 42.8 2992
-94.4 43.6 2992
-94.4 44.4 2992
-94.4 45.2 2992
-94.4 46 2992
-94.4 46.8 2992
-88.2997 27.4352 1724.5
-88.2997 27.8963 1724.5
-88.2997 28.3573 1724.5
-88.2997 28.8184 1724.5
-88.2997 29.2795 1724.5
-88.2997 29.7406 1724.5
-88.2997 30.2017 1724.5
-88.2997 30.6628 1724.5
-88.2997 31.1239 1724.5
-88.2997 31.585 1724.5
-88.2997 32.0461 1724.5
-88.2997 32.5072 1724.5
-88.2997 32.9683 1724.5
-88.2997 33.4294 1724.5
-88.2997 33.8905 1724.5
-88.2997 34.3516 1724.5
-88.2997 34.8127 1724.5
-88.2997 35.2738 1724.5
-88.2997 35.7349 1724.5
-88.2997 36.196 1724.5
-88.2997 36.6571 1724.5
-88.2997 37.1182 1724.5
-88.2997 37.5793 1724.5
-88.2997 38.0403 1724.5
-88.2997 38.5014 1724.5
-88.2997 38.9625 1724.5
-88.2997 39.4236 1724.5
-88.5207 40.9467 1770.41
-88.5207 41.4201 1770.41
-88.5207 41.8935 1770.41
-88.5207 42.3669 1770.41
-88.5207 42.8402 1770.41
-88.5207 43.3136 1770.41
-94.4 74 2992
-94.4 74.8 2992
-94.4 75.6 2992
-94.4 76.4 2992
-94.4 77.2 2992
-94.4 78 2992
-94.4 78.8 2992
-94.4 79.6 2992
-94.4 80.4 2992
-88.2997 46.8012 1724.5
-88.2997 47.2622 1724.5
-88.2997 47.7233 1724.5
-88.2997 48.1844 1724.5
-88.2997 48.6455 1724.5
-88.2997 49.1066 1724.5
-88.2997 49.5677 1724.5
-88.2997 50.0288 1724.5
-88.2997 50.4899 1724.5
-88.2997 50.951 1724.5
-88.2997 51.4121 1724.5
-88.2997 51.8732 1724.5
-87.9558 50.1657 1653.04
-88.2997 52.7954 1724.5
-88.2997 53.2565 1724.5
-88.2997 53.7176 1724.5
-88.2997 54.1787 1724.5
-88.2997 54.6398 1724.5
-88.2997 55.1009 1724.5
-94.4 96.4 2992
-94.4 97.2 2992
-94.4 98 2992
-94.4 98.8 2992
-94.4 99.6 2992
-94.4 100.4 2992
-94.4 101.2 2992
-94.4 102 2992
-94.4 102.8 2992
-88.2997 59.7118 1724.5
-88.2997 60.1729 1724.5
-88.2997 60.634 1724.5
-88.2997 61.0951 1724.5
-88.2997 61.5562 1724.5
-88.2997 62.0173 1724.5
-88.2997 62.4784 1724.5
-88.2997 62.9395 1724.5
-88.2997 63.4006 1724.5
-88.2997 63.8617 1724.5
-88.2997 64.3228 1724.5
-88.2997 64.7839 1724.5
-88.2997 65.245 1724.5
-88.2997 65.7061 1724.5
-88.2997 66.1671 1724.5
-88.2997 66.6282 1724.5
-94.4 116.4 2992
-94.4 117.2 2992
-94.4 118 2992
-88.2997 68.4726 1724.5
-88.2997 68.9337 1724.5
-88.2997 69.3948 1724.5
-94.4 121.2 2992
-88.2997 70.317 1724.5
-88.2997 70.7781 1724.5
-88.2997 71.2392 1724.5
-88.2997 71.7003 1724.5
-88.2997 72.1614 1724.5
-88.2286 72 1709.71
-88.2286 72.4571 1709.71
-88.2997 73.5447 1724.5
-88.2997 74.0058 1724.5
-88.2997 74.4669 1724.5
-88.2997 74.928 1724.5
-88.2997 75.389 1724.5
-88.2997 75.8501 1724.5
-88.2997 76.3112 1724.5
-88.2997 76.7723 1724.5
-88.2997 77.2334 1724.5
-88.2997 77.6945 1724.5
-88.2997 78.1556 1724.5
-88.2997 78.6167 1724.5
-88.2997 79.0778 1724.5
-88.2997 79.5389 1724.5
-88.2997 80 1724.5
-88.2997 80.4611 1724.5
-88.2997 80.9222 1724.5
-88.2286 80.6857 1709.71
-94.4 142 2992
-94.4 142.8 2992
-94.4 143.6 2992
-94.4 144.4 2992
-89.3506 94.2857 1942.86
-89.4426 95.7377 1961.97
-94.4 146.8 2992
-94.4 147.6 2992
-94.4 148.4 2992
-94.4 149.2 2992
-89.1566 -90.3614 1802.41
-92.1116 -118.884 2384.06
-92.1116 -118.247 2384.06
-92.1116 -117.61 2384.06
-92.1116 -116.972 2384.06
-92.2581 -117.742 2412.9
-88.5393 -81.573 1680.9
-88.5393 -81.1236 1680.9
-91.8288 -111.751 2328.4
-91.8288 -111.128 2328.4
-88.7608 -81.8444 1724.5
-88.7608 -81.3833 1724.5
-88.8372 -81.6279 1739.53
-91.8288 -108.638 2328.4
-91.8288 -108.016 2328.4
-91.8288 -107.393 2328.4
-91.8288 -106.77 2328.4
-91.8288 -106.148 2328.4
-91.8288 -105.525 2328.4
-91.8288 -104.903 2328.4
-91.8288 -104.28 2328.4
-91.8288 -103.658 2328.4
-91.8288 -103.035 2328.4
-91.8288 -102.412 2328.4
-91.8288 -101.79 2328.4
-91.6923 -100 2301.54
-91.6923 -99.3846 2301.54
-91.6923 -98.7692 2301.54
-91.6923 -98.1538 2301.54
-91.6923 -97.5385 2301.54
-91.6923 -96.9231 2301.54
-91.6923 -96.3077 2301.54
-91.6923 -95.6923 2301.54
-91.6923 -95.0769 2301.54
-91.6923 -94.4615 2301.54
-91.6923 -93.8462 2301.54
-91.6923 -93.2308 2301.54
-91.6923 -92.6154 2301.54
-91.6923 -92 2301.54
-91.6923 -91.3846 2301.54
-91.6923 -90.7692 2301.54
-91.6923 -90.1538 2301.54
-91.6923 -89.5385 2301.54
-91.6923 -88.9231 2301.54
-91.6923 -88.3077 2301.54
-91.6923 -87.6923 2301.54
-91.6923 -87.0769 2301.54
-91.6923 -86.4615 2301.54
-91.6923 -85.8462 2301.54
-91.6923 -85.2308 2301.54
-91.6923 -84.6154 2301.54
-91.6923 -84 2301.54
-91.6923 -83.3846 2301.54
-91.6923 -82.7692 2301.54
-91.6923 -82.1538 2301.54
-91.6923 -81.5385 2301.54
-91.6923 -80.9231 2301.54
-91.6923 -80.3077 2301.54
-91.6923 -79.6923 2301.54
-91.6923 -79.0769 2301.54
-89.7749 -65.5949 1924.12
-89.7749 -65.0804 1924.12
-91.0545 -73.0182 2176
-91.0545 -72.4364 2176
-91.0545 -71.8545 2176
-95.2 -98 2992
-95.2 -97.2 2992
-95.2 -96.4 2992
-91.0545 -69.5273 2176
-91.0545 -68.9455 2176
-91.0545 -68.3636 2176
-91.0545 -67.7818 2176
-91.0545 -67.2 2176
-91.0545 -66.6182 2176
-91.0545 -66.0364 2176
-91.0545 -65.4545 2176
-91.0545 -64.8727 2176
-91.0545 -64.2909 2176
-91.0545 -63.7091 2176
-91.0545 -63.1273 2176
-91.0545 -62.5455 2176
-91.0545 -61.9636 2176
-91.0545 -61.3818 2176
-91.0545 -60.8 2176
-91.0545 -60.2182 2176
-91.0545 -59.6364 2176
-91.0545 -59.0545 2176
-91.0545 -58.4727 2176
-91.0545 -57.8909 2176
-91.0545 -57.3091 2176
-91.0545 -56.7273 2176
-91.0545 -56.1455 2176
-91.0545 -55.5636 2176
-89.9672 -49.5738 1961.97
-91.0545 -54.4 2176
-91.0545 -53.8182 2176
-91.0545 -53.2364 2176
-95.2 -72.4 2992
-90.2703 -48.3784 2021.62
-90.9352 -50.9353 2152.52
-90.9352 -50.3597 2152.52
-90.2703 -46.7568 2021.62
-90.2703 -46.2162 2021.62
-90.1672 -45.2174 2001.34
-90.1672 -44.6823 2001.34
-89.9672 -43.2787 1961.97
-89.9672 -42.7541 1961.97
-90.1672 -43.0769 2001.34
-90.1672 -42.5418 2001.34
-90.9352 -45.1799 2152.52
-90.9352 -44.6043 2152.52
-90.9352 -44.0288 2152.52
-90.9352 -43.4532 2152.52
-90.9352 -42.8777 2152.52
-90.9352 -42.3022 2152.52
-90.9352 -41.7266 2152.52
-90.9352 -41.1511 2152.52
-90.9352 -40.5755 2152.52
-90.9352 -40 2152.52
-90.9352 -39.4245 2152.52
-90.9352 -38.8489 2152.52
-90.9352 -38.2734 2152.52
-90.9352 -37.6978 2152.52
-90.9352 -37.1223 2152.52
-91.0545 -36.9455 2176
-91.0545 -36.3636 2176
-91.0545 -35.7818 2176
-91.0545 -35.2 2176
-91.0545 -34.6182 2176
-90.9352 -33.6691 2152.52
-90.9352 -33.0935 2152.52
-90.9352 -32.518 2152.52
-90.9352 -31.9424 2152.52
-90.9352 -31.3669 2152.52
-90.9352 -30.7914 2152.52
-90.9352 -30.2158 2152.52
-90.9352 -29.6403 2152.52
-90.9352 -29.0647 2152.52
-90.9352 -28.4892 2152.52
-95.2 -38.8 2992
-90.8185 -27.0463 2129.54
-90.8185 -26.4769 2129.54
-90.8185 -25.9075 2129.54
-90.8185 -25.3381 2129.54
-90.7042 -24.507 2107.04
-90.7042 -23.9437 2107.04
-90.7042 -23.3803 2107.04
-90.7042 -22.8169 2107.04
-90.7042 -22.2535 2107.04
-90.7042 -21.6901 2107.04
-90.7042 -21.1268 2107.04
-90.7042 -20.5634 2107.04
-90.7042 -20 2107.04
-90.7042 -19.4366 2107.04
-90.7042 -18.8732 2107.04
-90.7042 -18.3099 2107.04
-90.7042 -17.7465 2107.04
-90.7042 -17.1831 2107.04
-90.7042 -16.6197 2107.04
-90.7042 -16.0563 2107.04
-90.7042 -15.493 2107.04
-95.2 -21.2 2992
-89.7749 -13.119 1924.12
-89.7749 -12.6045 1924.12
-89.7749 -12.09 1924.12
-90.7042 -12.6761 2107.04
-90.7042 -12.1127 2107.04
-90.7042 -11.5493 2107.04
-90.7042 -10.9859 2107.04
-90.7042 -10.4225 2107.04
-90.5923 -9.7561 2085.02
-90.5923 -9.19861 2085.02
-95.2 -12.4 2992
-95.2 -11.6 2992
-95.2 -10.8 2992
-95.2 -10 2992
-95.2 -9.2 2992
-95.2 -8.4 2992
-95.2 -7.6 2992
-95.2 -6.8 2992
-95.2 -6 2992
-95.2 -5.2 2992
-95.2 -4.4 2992
-95.2 -3.6 2992
-95.2 -2.8 2992
-95.2 -2 2992
-95.2 -1.2 2992
-95.2 -0.4 2992
-95.2 0.4 2992
-90.3754 0.819113 2042.32
-90.3754 1.36519 2042.32
-90.3754 1.91126 2042.32
-90.3754 2.45734 2042.32
-95.2 4.4 2992
-95.2 5.2 2992
-95.2 6 2992
-91.5589 5.1711 2275.29
-95.2 7.6 2992
-95.2 8.4 2992
-95.2 9.2 2992
-90.2703 6.75676 2021.62
-90.2703 7.2973 2021.62
-90.2703 7.83784 2021.62
-90.2703 8.37838 2021.62
-90.2703 8.91892 2021.62
-90.2703 9.45946 2021.62
-90.2703 10 2021.62
-90.2703 10.5405 2021.62
-90.2703 11.0811 2021.62
-90.2703 11.6216 2021.62
-90.2703 12.1622 2021.62
-90.2703 12.7027 2021.62
-90.2703 13.2432 2021.62
-90.2703 13.7838 2021.62
-90.2703 14.3243 2021.62
-90.2703 14.8649 2021.62
-90.2703 15.4054 2021.62
-90.2703 15.9459 2021.62
-90.1672 16.3211 2001.34
-90.1672 16.8562 2001.34
-90.1672 17.3913 2001.34
-90.1672 17.9264 2001.34
-90.1672 18.4615 2001.34
-90.1672 18.9967 2001.34
-90.1672 19.5318 2001.34
-90.1672 20.0669 2001.34
-90.2703 20.8108 2021.62
-87.6962 16 1514.94
-88 17.0526 1574.74
-88 17.4737 1574.74
-95.2 34 2992
-95.2 34.8 2992
-95.2 35.6 2992
-95.2 36.4 2992
-95.2 37.2 2992
-95.2 38 2992
-95.2 38.8 2992
-95.2 39.6 2992
-95.2 40.4 2992
-95.2 41.2 2992
-95.2 42 2992
-95.2 42.8 2992
-95.2 43.6 2992
-88.7608 25.5908 1724.5
-88.7608 26.0519 1724.5
-88.7608 26.513 1724.5
-88.7608 26.9741 1724.5
-88.7608 27.4352 1724.5
-88.7608 27.8963 1724.5
-88.7608 28.3573 1724.5
-88.7608 28.8184 1724.5
-88.7608 29.2795 1724.5
-88.7608 29.7406 1724.5
-88.7608 30.2017 1724.5
-88.7608 30.6628 1724.5
-88.7608 31.1239 1724.5
-88.7608 31.585 1724.5
-88.7608 32.0461 1724.5
-95.2 56.4 2992
-88.9941 33.8462 1770.41
-88.7608 33.4294 1724.5
-88.7608 33.8905 1724.5
-88.7608 34.3516 1724.5
-88.7608 34.8127 1724.5
-88.7608 35.2738 1724.5
-88.7608 35.7349 1724.5
-88.7608 36.196 1724.5
-88.7608 36.6571 1724.5
-88.7608 37.1182 1724.5
-88.7608 37.5793 1724.5
-88.7608 38.0403 1724.5
-88.7608 38.5014 1724.5
-88.7608 38.9625 1724.5
-88.7608 39.4236 1724.5
-88.7608 39.8847 1724.5
-88.7608 40.3458 1724.5
-88.9941 41.8935 1770.41
-88.915 41.9941 1754.84
-95.2 72.4 2992
-95.2 73.2 2992
-95.2 74 2992
-95.2 74.8 2992
-95.2 75.6 2992
-95.2 76.4 2992
-95.2 77.2 2992
-95.2 78 2992
-95.2 78.8 2992
-95.2 79.6 2992
-95.2 80.4 2992
-88.7608 46.8012 1724.5
-88.7608 47.2622 1724.5
-88.7608 47.7233 1724.5
-88.7608 48.1844 1724.5
-88.7608 48.6455 1724.5
-88.7608 49.1066 1724.5
-88.7608 49.5677 1724.5
-88.7608 50.0288 1724.5
-88.7608 50.4899 1724.5
-88.7608 50.951 1724.5
-88.7608 51.4121 1724.5
-88.7608 51.8732 1724.5
-88.3978 50.1657 1653.04
-88.7608 52.7954 1724.5
-88.7608 53.2565 1724.5
-88.7608 53.7176 1724.5
-88.7608 54.1787 1724.5
-88.7608 54.6398 1724.5
-88.7608 55.1009 1724.5
-95.2 96.4 2992
-95.2 97.2 2992
-95.2 98 2992
-95.2 98.8 2992
-95.2 99.6 2992
-95.2 100.4 2992
-95.2 101.2 2992
-95.2 102 2992
-95.2 102.8 2992
-95.2 103.6 2992
-88.7608 60.1729 1724.5
-88.7608 60.634 1724.5
-88.7608 61.0951 1724.5
-88.7608 61.5562 1724.5
-88.7608 62.0173 1724.5
-88.7608 62.4784 1724.5
-88.7608 62.9395 1724.5
-88.7608 63.4006 1724.5
-88.7608 63.8617 1724.5
-88.7608 64.3228 1724.5
-88.7608 64.7839 1724.5
-88.7608 65.245 1724.5
-88.7608 65.7061 1724.5
-95.2 114.8 2992
-95.2 115.6 2992
-95.2 116.4 2992
-95.2 117.2 2992
-95.2 118 2992
-88.7608 68.4726 1724.5
-88.7608 68.9337 1724.5
-88.7608 69.3948 1724.5
-95.2 121.2 2992
-88.7608 70.317 1724.5
-88.7608 70.7781 1724.5
-88.7608 71.2392 1724.5
-88.7608 71.7003 1724.5
-88.7608 72.1614 1724.5
-88.6119 71.3881 1695.18
-88.6119 71.8414 1695.18
-88.7608 73.5447 1724.5
-88.7608 74.0058 1724.5
-88.7608 74.4669 1724.5
-88.7608 74.928 1724.5
-88.7608 75.389 1724.5
-88.7608 75.8501 1724.5
-88.7608 76.3112 1724.5
-88.7608 76.7723 1724.5
-88.7608 77.2334 1724.5
-88.7608 77.6945 1724.5
-88.7608 78.1556 1724.5
-88.7608 78.6167 1724.5
-88.7608 79.0778 1724.5
-88.7608 79.5389 1724.5
-88.7608 80 1724.5
-88.7608 80.4611 1724.5
-88.7608 80.9222 1724.5
-88.7608 81.3833 1724.5
-88.6857 81.1429 1709.71
-95.2 142.8 2992
-95.2 143.6 2992
-95.2 144.4 2992
-90.5923 101.185 2085.02
-88.6857 83.4286 1709.71
-95.2 146.8 2992
-95.2 147.6 2992
-95.2 148.4 2992
-95.2 149.2 2992
-92.4514 -116.732 2328.4
-92.749 -118.884 2384.06
-92.749 -118.247 2384.06
-92.749 -117.61 2384.06
-92.749 -116.972 2384.06
-92.9032 -117.742 2412.9
-93.0612 -118.531 2442.45
-92.4514 -112.374 2328.4
-92.4514 -111.751 2328.4
-92.4514 -111.128 2328.4
-89.1429 -81.1429 1709.71
-92.4514 -109.883 2328.4
-92.4514 -109.261 2328.4
-92.4514 -108.638 2328.4
-92.4514 -108.016 2328.4
-92.4514 -107.393 2328.4
-92.4514 -106.77 2328.4
-92.4514 -106.148 2328.4
-92.4514 -105.525 2328.4
-92.4514 -104.903 2328.4
-92.4514 -104.28 2328.4
-92.4514 -103.658 2328.4
-92.4514 -103.035 2328.4
-92.4514 -102.412 2328.4
-92.4514 -101.79 2328.4
-92.4514 -101.167 2328.4
-92.3077 -99.3846 2301.54
-92.3077 -98.7692 2301.54
-92.3077 -98.1538 2301.54
-92.3077 -97.5385 2301.54
-92.3077 -96.9231 2301.54
-92.3077 -96.3077 2301.54
-92.3077 -95.6923 2301.54
-92.3077 -95.0769 2301.54
-92.3077 -94.4615 2301.54
-92.3077 -93.8462 2301.54
-92.3077 -93.2308 2301.54
-92.3077 -92.6154 2301.54
-92.3077 -92 2301.54
-92.3077 -91.3846 2301.54
-92.3077 -90.7692 2301.54
-92.3077 -90.1538 2301.54
-92.3077 -89.5385 2301.54
-92.3077 -88.9231 2301.54
-92.3077 -88.3077 2301.54
-92.3077 -87.6923 2301.54
-92.3077 -87.0769 2301.54
-92.3077 -86.4615 2301.54
-92.3077 -85.8462 2301.54
-92.3077 -85.2308 2301.54
-92.3077 -84.6154 2301.54
-92.3077 -84 2301.54
-92.3077 -83.3846 2301.54
-92.3077 -82.7692 2301.54
-92.3077 -82.1538 2301.54
-92.3077 -81.5385 2301.54
-92.3077 -80.9231 2301.54
-92.3077 -80.3077 2301.54
-92.3077 -79.6923 2301.54
-92.3077 -79.0769 2301.54
-92.3077 -78.4615 2301.54
-92.3077 -77.8462 2301.54
-92.3077 -77.2308 2301.54
-91.6364 -72.4364 2176
-96 -98.8 2992
-96 -98 2992
-96 -97.2 2992
-88.6253 -51.9677 1612.94
-91.6364 -69.5273 2176
-91.6364 -68.9455 2176
-91.6364 -68.3636 2176
-91.6364 -67.7818 2176
-91.6364 -67.2 2176
-91.6364 -66.6182 2176
-91.6364 -66.0364 2176
-91.6364 -65.4545 2176
-91.6364 -64.8727 2176
-91.6364 -64.2909 2176
-91.6364 -63.7091 2176
-91.6364 -63.1273 2176
-91.6364 -62.5455 2176
-91.6364 -61.9636 2176
-91.6364 -61.3818 2176
-91.6364 -60.8 2176
-91.6364 -60.2182 2176
-91.6364 -59.6364 2176
-91.6364 -59.0545 2176
-91.6364 -58.4727 2176
-91.6364 -57.8909 2176
-91.6364 -57.3091 2176
-91.6364 -56.7273 2176
-91.6364 -56.1455 2176
-91.6364 -55.5636 2176
-91.6364 -54.9818 2176
-91.6364 -54.4 2176
-91.6364 -53.8182 2176
-91.6364 -53.2364 2176
-91.6364 -52.6545 2176
-91.5108 -51.5108 2152.52
-91.5108 -50.9353 2152.52
-91.5108 -50.3597 2152.52
-90.8108 -46.7568 2021.62
-91.5108 -49.2086 2152.52
-91.5108 -48.6331 2152.52
-90.7023 -44.6823 2001.34
-90.4918 -43.2787 1961.97
-90.1911 -41.5287 1905.73
-90.4918 -42.2295 1961.97
-90.4918 -41.7049 1961.97
-91.5108 -45.1799 2152.52
-91.5108 -44.6043 2152.52
-91.5108 -44.0288 2152.52
-91.5108 -43.4532 2152.52
-91.5108 -42.8777 2152.52
-91.5108 -42.3022 2152.52
-91.5108 -41.7266 2152.52
-91.5108 -41.1511 2152.52
-91.5108 -40.5755 2152.52
-91.5108 -40 2152.52
-91.5108 -39.4245 2152.52
-91.5108 -38.8489 2152.52
-91.5108 -38.2734 2152.52
-91.5108 -37.6978 2152.52
-91.5108 -37.1223 2152.52
-91.6364 -36.9455 2176
-91.6364 -36.3636 2176
-91.6364 -35.7818 2176
-91.6364 -35.2 2176
-91.6364 -34.6182 2176
-96 -46.8 2992
-96 -46 2992
-96 -45.2 2992
-96 -44.4 2992
-90.0946 -27.5079 1887.7
-90.0946 -27.0032 1887.7
-91.5108 -30.2158 2152.52
-91.5108 -29.6403 2152.52
-91.5108 -29.0647 2152.52
-91.5108 -28.4892 2152.52
-91.5108 -27.9137 2152.52
-91.5108 -27.3381 2152.52
-91.3879 -26.4769 2129.54
-91.3879 -25.9075 2129.54
-91.3879 -25.3381 2129.54
-91.3879 -24.7687 2129.54
-91.2676 -23.9437 2107.04
-91.2676 -23.3803 2107.04
-91.2676 -22.8169 2107.04
-91.2676 -22.2535 2107.04
-91.2676 -21.6901 2107.04
-91.2676 -21.1268 2107.04
-91.2676 -20.5634 2107.04
-91.2676 -20 2107.04
-91.2676 -19.4366 2107.04
-91.2676 -18.8732 2107.04
-91.2676 -18.3099 2107.04
-91.2676 -17.7465 2107.04
-91.2676 -17.1831 2107.04
-91.2676 -16.6197 2107.04
-91.2676 -16.0563 2107.04
-91.2676 -15.493 2107.04
-96 -21.2 2992
-96 -20.4 2992
-96 -19.6 2992
-90.2894 -12.09 1924.12
-91.2676 -12.6761 2107.04
-91.2676 -12.1127 2107.04
-91.2676 -11.5493 2107.04
-91.2676 -10.9859 2107.04
-91.2676 -10.4225 2107.04
-91.1498 -9.7561 2085.02
-96 -13.2 2992
-96 -12.4 2992
-96 -11.6 2992
-96 -10.8 2992
-96 -10 2992
-96 -9.2 2992
-96 -8.4 2992
-96 -7.6 2992
-96 -6.8 2992
-96 -6 2992
-96 -5.2 2992
-96 -4.4 2992
-96 -3.6 2992
-90.9215 -1.91126 2042.32
-96 -2 2992
-96 -1.2 2992
-96 -0.4 2992
-96 0.4 2992
-96 1.2 2992
-96 2 2992
-96 2.8 2992
-96 3.6 2992
-90.9215 3.00341 2042.32
-90.9215 3.54949 2042.32
-90.9215 4.09556 2042.32
-90.9215 4.64164 2042.32
-90.9215 5.18771 2042.32
-90.8108 5.67568 2021.62
-90.8108 6.21622 2021.62
-90.8108 6.75676 2021.62
-90.8108 7.2973 2021.62
-90.8108 7.83784 2021.62
-90.8108 8.37838 2021.62
-90.8108 8.91892 2021.62
-90.8108 9.45946 2021.62
-90.8108 10 2021.62
-90.8108 10.5405 2021.62
-90.8108 11.0811 2021.62
-90.8108 11.6216 2021.62
-90.8108 12.1622 2021.62
-90.8108 12.7027 2021.62
-90.8108 13.2432 2021.62
-94.4796 18.4615 2707.69
-90.7023 14.1806 2001.34
-90.7023 14.7157 2001.34
-90.7023 15.2508 2001.34
-90.7023 15.786 2001.34
-90.7023 16.3211 2001.34
-90.7023 16.8562 2001.34
-90.7023 17.3913 2001.34
-90.7023 17.9264 2001.34
-90.7023 18.4615 2001.34
-90.7023 18.9967 2001.34
-90.7023 19.5318 2001.34
-90.7023 20.0669 2001.34
-90.7023 20.602 2001.34
-90.7023 21.1371 2001.34
-90.7023 21.6722 2001.34
-90.7023 22.2074 2001.34
-96 34 2992
-96 34.8 2992
-96 35.6 2992
-96 36.4 2992
-96 37.2 2992
-91.0345 26.2069 2063.45
-96 38.8 2992
-96 39.6 2992
-96 40.4 2992
-96 41.2 2992
-96 42 2992
-89.2219 24.6686 1724.5
-89.2219 25.1297 1724.5
-89.2219 25.5908 1724.5
-89.2219 26.0519 1724.5
-89.2219 26.513 1724.5
-89.2219 26.9741 1724.5
-89.2219 27.4352 1724.5
-89.2219 27.8963 1724.5
-89.2219 28.3573 1724.5
-89.2219 28.8184 1724.5
-89.2219 29.2795 1724.5
-89.2219 29.7406 1724.5
-89.2219 30.2017 1724.5
-89.2219 30.6628 1724.5
-89.2219 31.1239 1724.5
-89.2219 31.585 1724.5
-89.2219 32.0461 1724.5
-89.2219 32.5072 1724.5
-89.4675 33.8462 1770.41
-89.5522 34.6269 1786.27
-89.2219 33.8905 1724.5
-89.2219 34.3516 1724.5
-89.2219 34.8127 1724.5
-89.2219 35.2738 1724.5
-89.2219 35.7349 1724.5
-89.2219 36.196 1724.5
-89.2219 36.6571 1724.5
-89.2219 37.1182 1724.5
-89.2219 37.5793 1724.5
-89.2219 38.0403 1724.5
-89.2219 38.5014 1724.5
-89.2219 38.9625 1724.5
-89.2219 39.4236 1724.5
-89.2219 39.8847 1724.5
-89.2219 40.3458 1724.5
-89.2219 40.8069 1724.5
-96 71.6 2992
-96 72.4 2992
-96 73.2 2992
-96 74 2992
-96 74.8 2992
-96 75.6 2992
-96 76.4 2992
-96 77.2 2992
-96 78 2992
-96 78.8 2992
-89.2219 45.879 1724.5
-96 80.4 2992
-89.2219 46.8012 1724.5
-89.2219 47.2622 1724.5
-89.2219 47.7233 1724.5
-89.2219 48.1844 1724.5
-89.2219 48.6455 1724.5
-89.2219 49.1066 1724.5
-89.2219 49.5677 1724.5
-89.2219 50.0288 1724.5
-89.2219 50.4899 1724.5
-89.2219 50.951 1724.5
-89.2219 51.4121 1724.5
-89.2219 51.8732 1724.5
-89.2219 52.3343 1724.5
-89.2219 52.7954 1724.5
-89.2219 53.2565 1724.5
-89.2219 53.7176 1724.5
-89.2219 54.1787 1724.5
-89.2219 54.6398 1724.5
-89.2219 55.1009 1724.5
-96 96.4 2992
-96 97.2 2992
-96 98 2992
-96 98.8 2992
-96 99.6 2992
-96 100.4 2992
-96 101.2 2992
-96 102 2992
-96 102.8 2992
-96 103.6 2992
-96 104.4 2992
-89.2219 60.634 1724.5
-89.2219 61.0951 1724.5
-89.2219 61.5562 1724.5
-89.2219 62.0173 1724.5
-89.2219 62.4784 1724.5
-89.2219 62.9395 1724.5
-89.2219 63.4006 1724.5
-89.2219 63.8617 1724.5
-89.2219 64.3228 1724.5
-89.2219 64.7839 1724.5
-89.2219 65.245 1724.5
-89.2219 65.7061 1724.5
-96 114.8 2992
-96 115.6 2992
-96 116.4 2992
-96 117.2 2992
-96 118 2992
-96 118.8 2992
-96 119.6 2992
-89.2219 69.3948 1724.5
-96 121.2 2992
-89.2219 70.317 1724.5
-89.2219 70.7781 1724.5
-89.2219 71.2392 1724.5
-89.2219 71.7003 1724.5
-89.2219 72.1614 1724.5
-88.9888 70.7865 1680.9
-88.9888 71.236 1680.9
-88.9888 71.6854 1680.9
-89.2219 74.0058 1724.5
-89.2219 74.4669 1724.5
-89.2219 74.928 1724.5
-89.2219 75.389 1724.5
-89.2219 75.8501 1724.5
-89.2219 76.3112 1724.5
-89.2219 76.7723 1724.5
-89.9071 82.9721 1852.63
-89.2219 77.6945 1724.5
-89.2219 78.1556 1724.5
-89.2219 78.6167 1724.5
-89.2219 79.0778 1724.5
-89.2219 79.5389 1724.5
-89.2219 80 1724.5
-89.2219 80.4611 1724.5
-89.2219 80.9222 1724.5
-89.1429 80.6857 1709.71
-89.1429 81.1429 1709.71
-96 142.8 2992
-96 143.6 2992
-90.0946 91.1041 1887.7
-89.5522 86.6866 1786.27
-90.2894 93.8907 1924.12
-96 146.8 2992
-96 147.6 2992
-96 148.4 2992
-96 149.2 2992
-93.0739 -116.732 2328.4
-93.0739 -116.109 2328.4
-93.0739 -115.486 2328.4
-93.3865 -117.61 2384.06
-93.5484 -118.387 2412.9
-93.5484 -117.742 2412.9
-93.5484 -117.097 2412.9
-89.7674 -83.9535 1739.53
-89.7674 -83.4884 1739.53
-89.6 -81.6 1709.71
-89.683 -81.8444 1724.5
-93.0739 -109.883 2328.4
-93.0739 -109.261 2328.4
-93.0739 -108.638 2328.4
-93.0739 -108.016 2328.4
-93.0739 -107.393 2328.4
-93.0739 -106.77 2328.4
-93.0739 -106.148 2328.4
-93.0739 -105.525 2328.4
-93.0739 -104.903 2328.4
-93.0739 -104.28 2328.4
-93.0739 -103.658 2328.4
-93.0739 -103.035 2328.4
-93.0739 -102.412 2328.4
-93.0739 -101.79 2328.4
-93.0739 -101.167 2328.4
-92.9231 -99.3846 2301.54
-92.9231 -98.7692 2301.54
-92.9231 -98.1538 2301.54
-92.9231 -97.5385 2301.54
-92.9231 -96.9231 2301.54
-92.9231 -96.3077 2301.54
-92.9231 -95.6923 2301.54
-92.9231 -95.0769 2301.54
-92.9231 -94.4615 2301.54
-92.9231 -93.8462 2301.54
-92.9231 -93.2308 2301.54
-92.9231 -92.6154 2301.54
-92.9231 -92 2301.54
-92.9231 -91.3846 2301.54
-92.9231 -90.7692 2301.54
-92.9231 -90.1538 2301.54
-92.9231 -89.5385 2301.54
-92.9231 -88.9231 2301.54
-92.9231 -88.3077 2301.54
-92.9231 -87.6923 2301.54
-93.0739 -88.0934 2328.4
-92.9231 -86.4615 2301.54
-92.9231 -85.8462 2301.54
-92.9231 -85.2308 2301.54
-92.9231 -84.6154 2301.54
-92.9231 -84 2301.54
-92.9231 -83.3846 2301.54
-92.9231 -82.7692 2301.54
-92.9231 -82.1538 2301.54
-92.9231 -81.5385 2301.54
-92.9231 -80.9231 2301.54
-92.9231 -80.3077 2301.54
-92.9231 -79.6923 2301.54
-92.9231 -79.0769 2301.54
-92.9231 -78.4615 2301.54
-92.9231 -77.8462 2301.54
-92.9231 -77.2308 2301.54
-92.9231 -76.6154 2301.54
-96.8 -98.8 2992
-88.7047 -50.7772 1550.26
-88.7047 -50.3627 1550.26
-92.2182 -70.1091 2176
-92.2182 -69.5273 2176
-92.2182 -68.9455 2176
-92.2182 -68.3636 2176
-92.2182 -67.7818 2176
-92.2182 -67.2 2176
-92.2182 -66.6182 2176
-92.2182 -66.0364 2176
-92.2182 -65.4545 2176
-92.2182 -64.8727 2176
-92.2182 -64.2909 2176
-92.2182 -63.7091 2176
-92.2182 -63.1273 2176
-92.2182 -62.5455 2176
-92.2182 -61.9636 2176
-92.2182 -61.3818 2176
-92.2182 -60.8 2176
-92.2182 -60.2182 2176
-92.2182 -59.6364 2176
-92.2182 -59.0545 2176
-92.2182 -58.4727 2176
-92.2182 -57.8909 2176
-92.2182 -57.3091 2176
-92.2182 -56.7273 2176
-92.2182 -56.1455 2176
-92.2182 -55.5636 2176
-92.2182 -54.9818 2176
-92.2182 -54.4 2176
-92.2182 -53.8182 2176
-92.2182 -53.2364 2176
-92.2182 -52.6545 2176
-92.2182 -52.0727 2176
-92.2182 -51.4909 2176
-92.2182 -50.9091 2176
-91.3513 -46.7568 2021.62
-92.0863 -49.2086 2152.52
-91.2375 -45.2174 2001.34
-91.2375 -44.6823 2001.34
-90.7006 -42.0382 1905.73
-90.7006 -41.5287 1905.73
-90.9091 -41.8182 1942.86
-90.9091 -41.2987 1942.86
-92.0863 -45.1799 2152.52
-92.0863 -44.6043 2152.52
-92.0863 -44.0288 2152.52
-92.0863 -43.4532 2152.52
-92.0863 -42.8777 2152.52
-92.0863 -42.3022 2152.52
-92.0863 -41.7266 2152.52
-92.0863 -41.1511 2152.52
-92.0863 -40.5755 2152.52
-92.0863 -40 2152.52
-92.0863 -39.4245 2152.52
-92.0863 -38.8489 2152.52
-92.0863 -38.2734 2152.52
-92.0863 -37.6978 2152.52
-92.2182 -37.5273 2176
-92.0863 -36.5468 2152.52
-92.0863 -35.9712 2152.52
-92.0863 -35.3957 2152.52
-92.0863 -34.8201 2152.52
-92.0863 -34.2446 2152.52
-96.8 -46.8 2992
-96.8 -46 2992
-96.8 -45.2 2992
-96.8 -44.4 2992
-96.8 -43.6 2992
-96.8 -42.8 2992
-92.0863 -30.2158 2152.52
-92.0863 -29.6403 2152.52
-92.0863 -29.0647 2152.52
-92.0863 -28.4892 2152.52
-92.0863 -27.9137 2152.52
-92.0863 -27.3381 2152.52
-92.0863 -26.7626 2152.52
-91.9573 -25.9075 2129.54
-91.9573 -25.3381 2129.54
-91.9573 -24.7687 2129.54
-91.831 -23.9437 2107.04
-91.831 -23.3803 2107.04
-91.831 -22.8169 2107.04
-91.831 -22.2535 2107.04
-91.831 -21.6901 2107.04
-91.831 -21.1268 2107.04
-91.831 -20.5634 2107.04
-91.831 -20 2107.04
-91.831 -19.4366 2107.04
-91.831 -18.8732 2107.04
-91.831 -18.3099 2107.04
-91.831 -17.7465 2107.04
-91.831 -17.1831 2107.04
-91.7073 -16.446 2085.02
-91.7073 -15.8885 2085.02
-91.7073 -15.331 2085.02
-91.7073 -14.7735 2085.02
-91.7073 -14.216 2085.02
-91.7073 -13.6585 2085.02
-96.8 -18.8 2992
-96.8 -18 2992
-96.8 -17.2 2992
-96.8 -16.4 2992
-96.8 -15.6 2992
-96.8 -14.8 2992
-96.8 -14 2992
-96.8 -13.2 2992
-96.8 -12.4 2992
-96.8 -11.6 2992
-96.8 -10.8 2992
-91.4676 -6.82594 2042.32
-91.4676 -6.27986 2042.32
-91.4676 -5.73379 2042.32
-91.4676 -5.18771 2042.32
-91.4676 -4.64164 2042.32
-91.4676 -4.09556 2042.32
-91.4676 -3.54949 2042.32
-91.4676 -3.00341 2042.32
-96.8 -3.6 2992
-91.4676 -1.91126 2042.32
-91.4676 -1.36519 2042.32
-91.4676 -0.819113 2042.32
-91.4676 -0.273038 2042.32
-96.8 0.4 2992
-96.8 1.2 2992
-96.8 2 2992
-91.4676 1.91126 2042.32
-91.4676 2.45734 2042.32
-91.4676 3.00341 2042.32
-91.4676 3.54949 2042.32
-91.4676 4.09556 2042.32
-91.3513 4.59459 2021.62
-91.3513 5.13514 2021.62
-91.3513 5.67568 2021.62
-91.3513 6.21622 2021.62
-91.3513 6.75676 2021.62
-91.3513 7.2973 2021.62
-91.3513 7.83784 2021.62
-91.3513 8.37838 2021.62
-91.3513 8.91892 2021.62
