-105.819 -10.7579 1463.08
-110.52 -12.2543 1729.48
-117.849 -14.6237 2144.8
-120.152 -14.9049 2275.29
-121.089 -14.6304 2328.4
-120.152 -13.6882 2275.29
-120.152 -13.0798 2275.29
-121.089 -12.7626 2328.4
-125.913 -13.5652 2601.74
-103.73 -6.65169 1344.72
-103.891 -6.33484 1353.85
-103.519 -5.87973 1332.74
-125.913 -10.7826 2601.74
-125.913 -10.087 2601.74
-125.913 -9.3913 2601.74
-106.139 -4.9505 1481.19
-125.913 -8 2601.74
-108.852 -4.59016 1634.97
-119.551 -5.69288 2241.2
-120.772 -5.25097 2310.42
-118.123 -4.33213 2160.29
-119.551 -3.89513 2241.2
-118.261 -3.18841 2168.12
-108.235 -1.92513 1600
-118.824 -2.05882 2200
-125.913 -1.73913 2601.74
-125.913 -1.04348 2601.74
-103.107 -0.175055 1309.41
-118.681 0.29304 2191.94
-125.913 1.04348 2601.74
-116.289 1.37457 2056.36
-125.913 2.43478 2601.74
-115.918 2.44898 2035.37
-106.334 2.19451 1492.27
-125.913 4.52174 2601.74
-106.87 3.05344 1522.65
-106.939 3.46939 1526.53
-106.802 3.85787 1518.78
-103.73 3.77528 1344.72
-125.913 8 2601.74
-125.913 8.69565 2601.74
-105.385 5.19231 1438.46
-115.676 7.83784 2021.62
-125.913 10.7826 2601.74
-104 6 1360
-125.913 12.1739 2601.74
-125.913 12.8696 2601.74
-105.203 7.4463 1428.16
-105.819 8.01956 1463.08
-105.385 8.26923 1438.46
-125.913 15.6522 2601.74
-115.918 12.7891 2035.37
-104.965 9.26714 1414.66
-125.913 17.7391 2601.74
-123.636 17.5207 2472.73
-113.955 14.1479 1924.12
-125.913 19.8261 2601.74
-104.276 10.8506 1375.63
-125.913 21.2174 2601.74
-104.673 11.7757 1398.13
-104.11 11.8721 1366.21
-116.667 18.6111 2077.78
-113.846 17.6923 1917.95
-106.667 14.3434 1511.11
-109.746 16.4507 1685.63
-103.784 13.5135 1347.75
-125.913 26.7826 2601.74
-115.436 21.2081 2008.05
-103.891 14.6606 1353.85
-114.175 21.4887 1936.57
-125.913 29.5652 2601.74
-121.575 27.4016 2355.91
-106.01 17.5369 1473.89
-125.913 31.6522 2601.74
-106.269 18.5075 1488.56
-106.01 18.7192 1473.89
-125.913 33.7391 2601.74
-125.913 34.4348 2601.74
-105.385 19.4231 1438.46
-125.913 35.8261 2601.74
-117.58 29.8932 2129.54
-103.73 19.236 1344.72
-124.557 36.7932 2524.89
-108.311 23.807 1604.29
-125.913 39.3043 2601.74
-118.4 33.4545 2176
-106.334 23.3416 1492.27
-116.54 32.9412 2070.59
-105.507 23.3816 1445.41
-115.318 32.9097 2001.34
-107.863 26.3852 1578.89
-125.913 44.1739 2601.74
-115.2 34.4 1994.67
-112.795 32.5466 1858.39
-110.258 30.4871 1714.61
-105.446 26.0241 1441.93
-117.447 38.8652 2121.99
-112.795 34.5342 1858.39
-125.913 49.0435 2601.74
-125.913 49.7391 2601.74
-110.171 33.1429 1709.71
-124.557 49.6203 2524.89
-115.797 40.4068 2028.47
-108.696 32.8261 1626.09
-119.699 46.015 2249.62
-106.139 30.6931 1481.19
-106.466 31.4787 1499.75
-103.467 28.2667 1329.78
-122.24 51.52 2393.6
-103.677 29.2377 1341.7
-125.913 57.3913 2601.74
-121.575 52.5984 2355.91
-107.937 35.7672 1583.07
-105.569 33.1235 1448.91
-120.93 53.6434 2319.38
-120.615 53.8462 2301.54
-118.54 51.6788 2183.94
-118.967 52.8413 2208.12
-119.111 53.6296 2216.3
-121.739 57.8656 2365.22
-118.824 54.4118 2200
-119.699 56.2406 2249.62
-120.152 57.4905 2275.29
-125.913 66.4348 2601.74
-105.263 36.9378 1431.58
-125.913 67.8261 2601.74
-103.311 34.7903 1320.97
-125.714 68.9177 2590.48
-108.932 44.0548 1639.45
-125.913 70.6087 2601.74
-117.714 58.5714 2137.14
-125.913 72 2601.74
-122.24 66.88 2393.6
-125.913 73.3913 2601.74
-125.913 74.087 2601.74
-125.913 74.7826 2601.74
-118.261 62.8986 2168.12
-121.412 68.7059 2346.67
-117.986 63.5971 2152.52
-116.667 61.9444 2077.78
-117.183 63.3803 2107.04
-125.913 78.9565 2601.74
-118.824 67.3529 2200
-108.618 50.0813 1621.68
-116.794 64.9477 2085.02
-124.746 79.661 2535.59
-116.923 66.2937 2092.31
-116.923 66.8531 2092.31
-121.575 75.9055 2355.91
-124.936 82.7234 2546.38
-119.111 72.5926 2216.3
-118.123 71.3357 2160.29
-117.447 70.6383 2121.99
-123.279 82.2951 2452.46
-120 76.6667 2266.67
-119.849 76.9811 2258.11
-121.739 81.2648 2365.22
-119.699 77.8947 2249.62
-114.623 68.459 1961.97
-123.457 86.5844 2462.55
-118.824 77.9412 2200
-125.913 92.8696 2601.74
-118.4 78.2545 2176
-117.986 77.9856 2152.52
-119.111 80.8889 2216.3
-118.824 80.8824 2200
-118.261 80.2899 2168.12
-119.257 82.974 2224.54
-118.681 82.3443 2191.94
-119.111 83.8519 2216.3
-118.824 83.8235 2200
-119.111 85.037 2216.3
-118.261 83.7681 2168.12
-118.4 84.6545 2176
-125.322 100.601 2568.24
-112.593 72.8395 1846.91
-125.913 103.304 2601.74
-104.558 55.6279 1391.63
-125.913 104.696 2601.74
-125.913 105.391 2601.74
-125.913 106.087 2601.74
-109.831 69.3785 1690.4
-110.52 71.4451 1729.48
-125.913 108.174 2601.74
-125.913 108.87 2601.74
-104 57.2727 1360
-111.429 75.4762 1780.95
-125.913 110.957 2601.74
-125.913 111.652 2601.74
-118.123 93.2852 2160.29
-103.158 57.0175 1312.28
-125.913 113.739 2601.74
-105.569 63.7288 1448.91
-115.556 89.1582 2014.81
-125.913 115.826 2601.74
-104.906 63.2075 1411.32
-121.739 106.561 2365.22
-113.846 86.9231 1917.95
-117.183 96.0563 2107.04
-103.311 60.574 1320.97
-103.363 61.0619 1323.89
-103.057 60.6114 1306.55
-103.158 61.2281 1312.28
-104.444 65 1385.19
-105.569 68.3777 1448.91
-104.501 65.8933 1388.4
-104.789 67.0423 1404.69
-104.789 67.4178 1404.69
-104.906 68.1132 1411.32
-105.631 70.4854 1452.43
-105.946 71.7445 1470.27
-104.11 67.032 1366.21
-103.624 66.0403 1338.7
-108.085 78.9362 1591.49
-113.208 93.8365 1881.76
-126.609 -130.435 2601.74
-121.712 -116.109 2328.4
-124.854 -124.184 2503.77
-106.6 -73.2506 1484.86
-104.758 -67.806 1381.99
-104.531 -66.8192 1369.34
-104.419 -66.1503 1363.1
-126.609 -125.565 2601.74
-108.36 -75.9788 1583.07
-126.609 -124.174 2601.74
-126.609 -123.478 2601.74
-126.609 -122.783 2601.74
-104.644 -64.5517 1375.63
-126.609 -121.391 2601.74
-126.609 -120.696 2601.74
-126.609 -120 2601.74
-126.609 -119.304 2601.74
-122.88 -109.12 2393.6
-114.14 -86.3694 1905.73
-112.096 -80.7186 1791.62
-105.707 -64.2686 1435.01
-126.609 -115.826 2601.74
-126.609 -115.13 2601.74
-121.712 -102.412 2328.4
-110.983 -75.6069 1729.48
-126.609 -113.043 2601.74
-104.988 -60.2331 1394.87
-106.535 -63.5644 1481.19
-110.716 -73.1232 1714.61
-110.368 -71.8414 1695.18
-126.609 -109.565 2601.74
-126.609 -108.87 2601.74
-109.451 -68.3516 1643.96
-105.164 -58.0282 1404.69
-106.469 -60.642 1477.53
-126.609 -106.087 2601.74
-126.609 -105.391 2601.74
-126.609 -104.696 2601.74
-126.609 -104 2601.74
-126.609 -103.304 2601.74
-106.935 -59.2965 1503.52
-126.609 -101.913 2601.74
-126.609 -101.217 2601.74
-108.663 -61.8182 1600
-126.609 -99.8261 2601.74
-126.609 -99.1304 2601.74
-126.609 -98.4348 2601.74
-104.036 -50.4036 1341.7
-103.56 -49.0549 1315.16
-113.292 -68.8199 1858.39
-105.894 -53.1401 1445.41
-107.558 -56.144 1538.3
-126.609 -94.2609 2601.74
-120.76 -81.8251 2275.29
-126.609 -92.8696 2601.74
-104.587 -48.6239 1372.48
-106.21 -51.4425 1463.08
-111.072 -60.5217 1734.49
-119.267 -75.8974 2191.94
-104.199 -46.4108 1350.79
-115.853 -68.2274 2001.34
-104.308 -45.8957 1356.92
-103.717 -44.4248 1323.89
-126.609 -86.6087 2601.74
-126.609 -85.913 2601.74
-126.609 -85.2174 2601.74
-108.663 -51.9786 1600
-104.036 -43.2287 1341.7
-126.609 -83.1304 2601.74
-126.609 -82.4348 2601.74
-122.372 -74.3083 2365.22
-126.609 -81.0435 2601.74
-126.609 -80.3478 2601.74
-126.609 -79.6522 2601.74
-122.205 -71.4961 2355.91
-104.419 -41.0023 1363.1
-104.758 -41.2009 1381.99
-105.894 -42.7053 1445.41
-103.457 -38.337 1309.41
-126.609 -75.4783 2601.74
-103.509 -37.7193 1312.28
-108.973 -46.0541 1617.3
-126.609 -73.3913 2601.74
-126.609 -72.6957 2601.74
-126.609 -72 2601.74
-126.609 -71.3043 2601.74
-126.609 -70.6087 2601.74
-126.609 -69.913 2601.74
-126.609 -69.2174 2601.74
-126.609 -68.5217 2601.74
-111.905 -46.4286 1780.95
-103.355 -33.6383 1303.7
-126.609 -66.4348 2601.74
-126.609 -65.7391 2601.74
-126.609 -65.0435 2601.74
-123.052 -59.4378 2403.21
-126.609 -63.6522 2601.74
-110.368 -41.0198 1695.18
-113.924 -45.3165 1893.67
-118.982 -51.4909 2176
-126.609 -60.8696 2601.74
-113.292 -42.9814 1858.39
-126.609 -59.4783 2601.74
-126.609 -58.7826 2601.74
-126.609 -58.087 2601.74
-103.406 -28.821 1306.55
-126.609 -56.6957 2601.74
-108.973 -34.8108 1617.3
-107.487 -32.6154 1534.36
-126.609 -54.6087 2601.74
-126.609 -53.913 2601.74
-126.609 -53.2174 2601.74
-103.355 -26.3181 1303.7
-126.609 -51.8261 2601.74
-121.39 -45.4054 2310.42
-111.163 -33.7209 1739.53
-104.815 -26.4815 1385.19
-123.226 -45.4839 2412.9
-126.609 -48.3478 2601.74
-112.783 -33.5168 1829.97
-114.032 -34.2857 1899.68
-120.453 -40.1509 2258.11
-112.289 -31.5663 1802.41
-116.587 -35.2218 2042.32
-104.475 -23.1963 1366.21
-126.609 -43.4783 2601.74
-106.733 -24.5387 1492.27
-115.148 -31.7377 1961.97
-126.609 -41.3913 2601.74
-126.009 -40.1717 2568.24
-126.609 -40 2601.74
-126.609 -39.3043 2601.74
-107.208 -22.5381 1518.78
-104.872 -20.232 1388.4
-123.577 -34.7967 2432.52
-126.609 -36.5217 2601.74
-116.838 -28.3162 2056.36
-104.308 -18.322 1356.92
-121.39 -30.5792 2310.42
-123.934 -31.8033 2452.46
-113.817 -23.9748 1887.7
-107.208 -18.8832 1518.78
-104.199 -16.4334 1350.79
-126.609 -30.9565 2601.74
-119.267 -25.4945 2191.94
-119.704 -25.1852 2216.3
-104.988 -15.4779 1394.87
-109.861 -18.0501 1666.85
-109.944 -17.6536 1671.51
-119.412 -22.6471 2200
-119.704 -22.2222 2216.3
-109.861 -16.2674 1666.85
-116.216 -19.1892 2021.62
-123.934 -22.623 2452.46
-126.609 -23.3043 2601.74
-126.609 -22.6087 2601.74
-104.644 -11.5862 1375.63
-123.577 -19.8374 2432.52
-104.644 -10.8506 1375.63
-106.275 -11.1765 1466.67
-126.609 -19.1304 2601.74
-109.532 -11.6804 1648.48
-126.609 -17.7391 2601.74
-123.577 -15.935 2432.52
-119.851 -13.9777 2224.54
-120.76 -13.6882 2275.29
-108.74 -9.22252 1604.29
-103.982 -7.33781 1338.7
-126.609 -13.5652 2601.74
-126.609 -12.8696 2601.74
-126.609 -12.1739 2601.74
-126.609 -11.4783 2601.74
-126.609 -10.7826 2601.74
-115.733 -7.73333 1994.67
-103.355 -4.70588 1303.7
-106.667 -4.97512 1488.56
-106.21 -4.49878 1463.08
-103.509 -3.68421 1312.28
-120.76 -5.77947 2275.29
-120.76 -5.1711 2275.29
-119.704 -4.44444 2216.3
-119.704 -3.85185 2216.3
-122.88 -3.52 2393.6
-120.606 -2.72727 2266.67
-103.612 -1.23348 1318.06
-116.966 -1.37931 2063.45
-126.609 -1.04348 2601.74
-126.609 -0.347826 2601.74
-125.424 0.338983 2535.59
-126.609 1.04348 2601.74
-126.609 1.73913 2601.74
-126.609 2.43478 2601.74
-121.875 2.8125 2337.5
-126.609 3.82609 2601.74
-126.609 4.52174 2601.74
-126.609 5.21739 2601.74
-105.831 3.27711 1441.93
-107.139 3.8481 1514.94
-104.036 3.76682 1341.7
-105.707 4.41247 1435.01
-106.469 4.93827 1477.53
-126.609 9.3913 2601.74
-117.88 8.19788 2114.49
-126.609 10.7826 2601.74
-126.609 11.4783 2601.74
-126.609 12.1739 2601.74
-105.343 6.99764 1414.66
-105.524 7.42857 1424.76
-117.483 11.4685 2092.31
-105.164 8.07512 1404.69
-126.609 15.6522 2601.74
-105.224 8.84706 1408
-126.609 17.0435 2601.74
-105.047 9.53271 1398.13
-105.047 9.90654 1398.13
-110.716 12.6074 1714.61
-121.55 17.6744 2319.38
-104.644 10.8506 1375.63
-126.609 21.2174 2601.74
-107.139 12.7595 1514.94
-110.455 14.7727 1700
-105.047 12.5234 1398.13
-105.105 12.9274 1401.41
-126.609 24.6957 2601.74
-126.609 25.3913 2601.74
-113.396 18.6916 1864.17
-114.581 19.871 1930.32
-126.609 27.4783 2601.74
-106.8 16.2 1496
-112.584 20.1824 1818.84
-104.531 15.5606 1369.34
-126.609 30.2609 2601.74
-126.609 30.9565 2601.74
-123.934 29.8361 2452.46
-126.609 32.3478 2601.74
-114.693 24.5955 1936.57
-104.93 18.0465 1391.63
-116.587 27.0307 2042.32
-126.609 35.1304 2601.74
-106.404 20.2956 1473.89
-126.609 36.5217 2601.74
-108.663 22.8877 1600
-126.609 37.913 2601.74
-126.609 38.6087 2601.74
-126.609 39.3043 2601.74
-126.609 40 2601.74
-121.39 36.139 2310.42
-119.267 34.8718 2191.94
-116.216 32.7027 2021.62
-126.609 42.7826 2601.74
-116.966 34.4828 2063.45
-105.894 24.5411 1445.41
-118.423 36.9892 2144.8
-120.76 39.8479 2275.29
-116.966 36.6897 2063.45
-111.163 31.3953 1739.53
-114.919 35.7003 1949.19
-105.769 26.7308 1438.46
-106.083 27.4453 1455.96
-126.609 49.7391 2601.74
-124.667 48.3333 2493.33
-103.875 26.1915 1332.74
-118.014 42.2695 2121.99
-105.343 28.5579 1414.66
-113.086 37.7778 1846.91
-106.667 30.8458 1488.56
-122.039 49.2549 2346.67
-113.292 39.5031 1858.39
-119.124 47.0073 2183.94
-106.935 32.7638 1503.52
-105.283 31.1321 1411.32
-126.609 58.087 2601.74
-126.609 58.7826 2601.74
-126.207 58.9655 2579.31
-120.76 52.6236 2275.29
-119.412 51.4706 2200
-118.982 51.4909 2176
-120.76 54.4487 2275.29
-123.052 58.1526 2403.21
-122.88 58.56 2393.6
-119.267 54.2125 2191.94
-122.205 58.8976 2355.91
-120.301 56.8421 2249.62
-126.609 66.4348 2601.74
-106.8 38.6 1496
-126.609 67.8261 2601.74
-106.935 39.598 1503.52
-121.39 61.4672 2310.42
-126.609 69.913 2601.74
-119.851 60.3717 2224.54
-117.614 57.5439 2099.65
-126.609 72 2601.74
-105.707 40.0959 1435.01
-125.617 71.8298 2546.38
-120.76 64.7909 2275.29
-116.587 58.7031 2042.32
-126.609 75.4783 2601.74
-121.875 68.4375 2337.5
-116.966 60.9655 2063.45
-124.115 73.4156 2462.55
-119.704 66.6667 2216.3
-126.609 78.9565 2601.74
-117.88 64.735 2114.49
-125.812 78.9744 2557.26
-121.875 72.8125 2337.5
-125.617 80 2546.38
-120.76 72.0913 2275.29
-120.76 72.6996 2275.29
-126.609 83.8261 2601.74
-119.557 71.7343 2208.12
-122.039 76.8627 2346.67
-120.916 75.4198 2283.97
-125.617 84.766 2546.38
-121.073 76.9349 2292.72
-122.54 80.3175 2374.6
-117.483 71.3287 2092.31
-119.704 76.1481 2216.3
-120.453 78.1887 2258.11
-120 77.9104 2232.84
-119.851 78.2156 2224.54
-123.934 86.8852 2452.46
-122.039 83.7647 2346.67
-124.667 89.6667 2493.33
-123.226 87.4194 2412.9
-119.412 80.2941 2200
-118.7 79.4224 2160.29
-119.704 82.0741 2216.3
-119.851 82.974 2224.54
-118.423 80.5735 2144.8
-119.267 82.9304 2191.94
-116.339 77.2881 2028.47
-119.704 85.037 2216.3
-124.298 95.5372 2472.73
-120.606 88.1818 2266.67
-119.704 86.8148 2216.3
-118.982 85.8182 2176
-119.704 88 2216.3
-118.982 86.9818 2176
-126.609 104.696 2601.74
-126.609 105.391 2601.74
-126.609 106.087 2601.74
-126.609 106.783 2601.74
-126.609 107.478 2601.74
-106.469 61.4321 1477.53
-103.875 55.7684 1332.74
-111.437 73.9003 1754.84
-112.192 76.1562 1797
-126.609 110.957 2601.74
-126.609 111.652 2601.74
-126.609 112.348 2601.74
-126.609 113.043 2601.74
-126.609 113.739 2601.74
-115.148 86.2951 1961.97
-106.146 64.5854 1459.51
-105.585 63.58 1428.16
-103.664 59.1611 1320.97
-122.205 106.142 2355.91
-106.469 66.963 1477.53
-103.509 59.8246 1312.28
-106.6 68.0893 1484.86
-103.612 60.7929 1318.06
-106.019 67.3786 1452.43
-103.769 61.9069 1326.83
-106.146 68.4878 1459.51
-105.403 66.9194 1418.01
-109.051 76.9648 1621.68
-111.529 84 1760
-116.712 98.3562 2049.32
-105.403 68.436 1418.01
-109.21 79.1281 1630.52
-110.455 82.9545 1700
-126.609 127.652 2601.74
-105.646 70.622 1431.58
-117.746 104.507 2107.04
-119.557 110.111 2208.12
-106.472 -72.9927 1455.96
-103.86 -65.4386 1312.28
-106.408 -72.0388 1452.43
-123.695 -118.554 2403.21
-105.069 -67.6498 1378.8
-127.304 -126.957 2601.74
-127.304 -126.261 2601.74
-127.304 -125.565 2601.74
-127.304 -124.87 2601.74
-127.304 -124.174 2601.74
-127.304 -123.478 2601.74
-127.304 -122.783 2601.74
-106.091 -67.3381 1435.01
-104.56 -63.0248 1350.79
-127.304 -120.696 2601.74
-127.304 -120 2601.74
-127.304 -119.304 2601.74
-127.304 -118.609 2601.74
-122.171 -105.116 2319.38
-114.322 -85.0473 1887.7
-123.871 -108.065 2412.9
-110.909 -75.6818 1700
-107.544 -67.038 1514.94
-121.846 -101.231 2301.54
-107.337 -65.7286 1503.52
-127.304 -113.043 2601.74
-104.124 -57.2949 1326.83
-104.124 -56.9401 1326.83
-127.304 -110.957 2601.74
-127.304 -110.261 2601.74
-127.304 -109.565 2601.74
-108.187 -64.8705 1550.26
-109.808 -68.1644 1639.45
-127.304 -107.478 2601.74
-104.286 -54.8214 1335.71
-127.304 -106.087 2601.74
-127.304 -105.391 2601.74
-105.6 -56.6588 1408
-115.097 -77.1613 1930.32
-111.536 -68.8696 1734.49
-127.304 -102.609 2601.74
-127.304 -101.913 2601.74
-127.304 -101.217 2601.74
-109.013 -61.6533 1595.73
-108.407 -59.9478 1562.4
-127.304 -99.1304 2601.74
-112.97 -68.6061 1813.33
-107.268 -56.3409 1499.75
-127.304 -97.0435 2601.74
-103.807 -48.4902 1309.41
-127.304 -95.6522 2601.74
-107.826 -55.8568 1530.43
-106.217 -52.241 1441.93
-113.58 -66.4198 1846.91
-127.304 -92.8696 2601.74
-121.527 -80.916 2283.97
-127.304 -91.4783 2601.74
-122.171 -80.9302 2319.38
-104.178 -46.0444 1329.78
-111.445 -59.422 1729.48
-116.267 -68 1994.67
-127.304 -88 2601.74
-127.304 -87.3043 2601.74
-127.304 -86.6087 2601.74
-127.304 -85.913 2601.74
-127.304 -85.2174 2601.74
-103.912 -42.7253 1315.16
-104.34 -43.132 1338.7
-110.909 -54.3182 1700
-127.304 -82.4348 2601.74
-112 -55.2941 1760
-110.909 -52.9545 1700
-111.628 -53.7209 1739.53
-127.304 -79.6522 2601.74
-104.505 -40.9009 1347.75
-105.069 -41.4747 1378.8
-104.124 -39.5565 1326.83
-104.395 -39.6413 1341.7
-105.244 -40.6497 1388.4
-127.304 -75.4783 2601.74
-103.807 -37.6368 1309.41
-104.232 -37.951 1332.74
-127.304 -73.3913 2601.74
-127.304 -72.6957 2601.74
-127.304 -72 2601.74
-127.304 -71.3043 2601.74
-127.304 -70.6087 2601.74
-127.304 -69.913 2601.74
-125.145 -66.0581 2482.99
-127.304 -68.5217 2601.74
-127.304 -67.8261 2601.74
-109.247 -41.5054 1608.6
-104.124 -33.8803 1326.83
-127.304 -65.7391 2601.74
-107.684 -38.0662 1522.65
-106.732 -36.3636 1470.27
-109.727 -40 1634.97
-115.097 -46.7097 1930.32
-120.296 -53.037 2216.3
-127.304 -61.5652 2601.74
-127.304 -60.8696 2601.74
-105.244 -32.1114 1388.4
-126.298 -58.2128 2546.38
-127.304 -58.7826 2601.74
-104.784 -30.4328 1363.1
-127.304 -57.3913 2601.74
-118.857 -46.5714 2137.14
-127.304 -56 2601.74
-127.304 -55.3043 2601.74
-127.304 -54.6087 2601.74
-118.857 -44.2857 2137.14
-103.704 -26.6667 1303.7
-127.304 -52.5217 2601.74
-103.704 -25.9695 1303.7
-127.304 -51.1304 2601.74
-122.171 -44.9612 2319.38
-106.732 -28.1081 1470.27
-104.727 -25.6364 1360
-107.544 -28.1519 1514.94
-113.58 -33.8272 1846.91
-108.333 -28.125 1558.33
-127.304 -46.2609 2601.74
-127.304 -45.5652 2601.74
-117.26 -35.3425 2049.32
-104.84 -23.1963 1366.21
-121.686 -38.3142 2292.72
-120.148 -36.31 2208.12
-108.783 -25.6085 1583.07
-127.304 -41.3913 2601.74
-127.304 -40.6957 2601.74
-118.719 -32.7402 2129.54
-127.304 -39.3043 2601.74
-127.304 -38.6087 2601.74
-125.714 -36.6387 2514.29
-104.615 -19.3665 1353.85
-127.304 -36.5217 2601.74
-120 -30.2941 2200
-127.304 -35.1304 2601.74
-120.902 -29.7744 2249.62
-113.07 -23.5866 1818.84
-104.56 -17.1558 1350.79
-104.56 -16.7946 1350.79
-104.56 -16.4334 1350.79
-127.304 -30.9565 2601.74
-104.727 -15.8182 1360
-127.304 -29.5652 2601.74
-104.897 -15.1945 1369.34
-127.304 -28.1739 2601.74
-116.026 -20.9272 1981.46
-105.48 -14.4262 1401.41
-118.31 -21.1268 2107.04
-104.56 -13.1828 1350.79
-127.304 -24.6957 2601.74
-107.132 -13.7656 1492.27
-121.527 -20.458 2283.97
-109.091 -13.9037 1600
-127.304 -21.913 2601.74
-127.304 -21.2174 2601.74
-127.304 -20.5217 2601.74
-127.304 -19.8261 2601.74
-109.247 -11.828 1608.6
-110.306 -11.8106 1666.85
-127.304 -17.7391 2601.74
-105.185 -9.07407 1385.19
-104.449 -8.44944 1344.72
-109.89 -9.89011 1643.96
-120 -12.6471 2200
-127.304 -14.2609 2601.74
-127.304 -13.5652 2601.74
-104.784 -6.7426 1363.1
-106.408 -6.79612 1452.43
-104.071 -5.84071 1323.89
-127.304 -10.7826 2601.74
-116.146 -7.70764 1988.04
-104.615 -4.88688 1353.85
-106.798 -4.92611 1473.89
-127.304 -8 2601.74
-119.42 -6.08696 2168.12
-121.212 -5.75758 2266.67
-109.405 -3.67568 1617.3
-120.148 -4.42804 2208.12
-108.482 -2.72251 1566.49
-118.996 -3.15412 2144.8
-103.86 -1.57895 1312.28
-127.304 -2.43478 2601.74
-127.304 -1.73913 2601.74
-127.304 -1.04348 2601.74
-127.304 -0.347826 2601.74
-127.304 0.347826 2601.74
-107.755 0.612245 1526.53
-127.304 1.73913 2601.74
-127.304 2.43478 2601.74
-127.304 3.13043 2601.74
-127.304 3.82609 2601.74
-127.304 4.52174 2601.74
-127.304 5.21739 2601.74
-106.217 3.27711 1441.93
-105.302 3.53488 1391.63
-116.757 5.67568 2021.62
-105.244 4.26914 1388.4
-127.304 8.69565 2601.74
-127.304 9.3913 2601.74
-104.727 5.27273 1360
-105.905 5.90476 1424.76
-127.304 11.4783 2601.74
-107.614 7.1066 1518.78
-104.671 6.71202 1356.92
-127.304 13.5652 2601.74
-104.897 7.50572 1369.34
-127.304 14.9565 2601.74
-106.998 8.933 1484.86
-115.556 12.2876 1955.56
-127.304 17.0435 2601.74
-127.304 17.7391 2601.74
-127.304 18.4348 2601.74
-105.843 10.4513 1421.38
-127.304 19.8261 2601.74
-119.853 17.2894 2191.94
-127.304 21.2174 2601.74
-107.475 12.7273 1511.11
-104.84 11.8721 1366.21
-127.304 23.3043 2601.74
-117.133 18.8396 2042.32
-127.304 24.6957 2601.74
-108.936 15.5319 1591.49
-106.472 14.5985 1455.96
-125.333 25.6667 2493.33
-104.784 14.3964 1363.1
-127.304 28.1739 2601.74
-127.304 28.8696 2601.74
-127.304 29.5652 2601.74
-107.065 17.3134 1488.56
-127.304 30.9565 2601.74
-127.304 31.6522 2601.74
-105.244 17.2622 1388.4
-106.931 18.8119 1481.19
-124.049 31.417 2422.67
-106.344 19.1768 1448.91
-127.304 35.1304 2601.74
-125.907 34.7679 2524.89
-123.347 33.4661 2384.06
-109.972 23.5813 1648.48
-127.304 37.913 2601.74
-122.667 34.8235 2346.67
-106.667 22.1569 1466.67
-127.304 40 2601.74
-110.476 26.2185 1676.19
-127.304 41.3913 2601.74
-104.395 21.704 1341.7
-106.217 23.7108 1441.93
-119.42 36.2319 2168.12
-106.408 24.6602 1452.43
-106.601 25.2323 1463.08
-104.449 23.5506 1344.72
-114.214 33.4591 1881.76
-114.43 34.1772 1893.67
-125.145 45.4772 2482.99
-105.905 26.4762 1424.76
-110.055 31.1602 1653.04
-107.268 28.6717 1499.75
-124.049 46.9636 2422.67
-105.843 27.9335 1421.38
-105.782 28.2464 1418.01
-109.405 32.6486 1617.3
-120.446 45.5019 2224.54
-119.42 44.9275 2168.12
-104.286 28.0357 1335.71
-103.755 27.7729 1306.55
-119.564 46.8364 2176
-109.485 35.3388 1621.68
-103.86 28.9474 1312.28
-113.789 41.4907 1858.39
-127.304 58.7826 2601.74
-122.008 52.8185 2310.42
-120.446 51.4498 2224.54
-125.907 59.0717 2524.89
-121.527 54.0458 2283.97
-120.749 53.633 2241.2
-122.008 55.9073 2310.42
-123.004 57.8656 2365.22
-119.708 54.0146 2183.94
-122.667 58.6667 2346.67
-122.335 58.8327 2328.4
-127.304 66.4348 2601.74
-104.671 35.0113 1356.92
-127.304 67.8261 2601.74
-109.169 42.252 1604.29
-110.476 44.5938 1676.19
-127.304 69.913 2601.74
-127.304 70.6087 2601.74
-127.304 71.3043 2601.74
-107.755 42.2449 1526.53
-109.808 45.8082 1639.45
-124.959 69.7521 2472.73
-120.296 63.1111 2216.3
-127.304 74.7826 2601.74
-127.304 75.4783 2601.74
-106.28 42.3188 1445.41
-122.5 69.0625 2337.5
-106.28 43.0918 1445.41
-120.148 66.4207 2208.12
-117.909 63.2753 2085.02
-119.708 66.8613 2183.94
-117.909 64.3902 2085.02
-117.647 64.4983 2070.59
-127.1 81.3853 2590.48
-125.523 79.3305 2503.77
-120.296 70.8148 2216.3
-122.171 74.7287 2319.38
-121.212 73.6364 2266.67
-119.278 70.7581 2160.29
-120.296 73.1852 2216.3
-120.597 74.3284 2232.84
-121.527 76.6412 2283.97
-119.564 73.6 2176
-121.212 77.2727 2266.67
-125.145 85.3112 2482.99
-120.902 77.8947 2249.62
-120.902 78.4962 2249.62
-124.049 85.1822 2422.67
-120.296 78.5185 2216.3
-123.004 84.4269 2365.22
-123.52 86.08 2393.6
-122.008 83.7066 2310.42
-118.996 78.2796 2144.8
-120.446 81.7844 2224.54
-119.137 79.7122 2152.52
-120.296 82.6667 2216.3
-120.296 83.2593 2216.3
-120.296 83.8519 2216.3
-119.278 82.3105 2160.29
-119.708 83.7956 2183.94
-121.686 88.5824 2292.72
-125.145 96.5975 2482.99
-115.097 75.6129 1930.32
-120.902 88.7218 2249.62
-119.708 86.7153 2183.94
-119.564 86.9818 2176
-111.264 69.1954 1719.54
-127.304 105.391 2601.74
-105.843 57.9572 1421.38
-127.304 106.783 2601.74
-127.304 107.478 2601.74
-127.304 108.174 2601.74
-104.178 55.6444 1329.78
-111.813 73.6842 1749.71
-127.304 110.261 2601.74
-109.646 69.5368 1630.52
-127.304 111.652 2601.74
-127.304 112.348 2601.74
-103.86 57.0175 1312.28
-127.304 113.739 2601.74
-106.931 65.1485 1481.19
-127.304 115.13 2601.74
-105.127 61.5243 1381.99
-104.727 60.9091 1360
-127.304 117.217 2601.74
-106.864 66.963 1477.53
-106.864 67.358 1477.53
-106.864 67.7531 1477.53
-106.217 66.506 1441.93
-106.344 67.2155 1448.91
-104.286 62.3214 1335.71
-116.388 93.913 2001.34
-105.721 66.7612 1414.66
-105.127 65.5889 1381.99
-105.361 66.5734 1394.87
-117.133 98.0205 2042.32
-105.54 67.7934 1404.69
-105.069 66.9124 1378.8
-110.648 82.2535 1685.63
-110.562 82.4719 1680.9
-105.6 69.4588 1408
-118.996 106.38 2144.8
-118.996 106.953 2144.8
-128 -130.435 2601.74
-104.158 -65.2954 1309.41
-106.223 -70.4988 1421.38
-123.125 -115.312 2337.5
-107.463 -73.0348 1488.56
-128 -126.957 2601.74
-106.993 -71.0024 1463.08
-128 -125.565 2601.74
-109.053 -75.5789 1574.74
-104.921 -64.4695 1350.79
-106.475 -68.1055 1435.01
-128 -122.783 2601.74
-128 -122.087 2601.74
-128 -121.391 2601.74
-104.809 -62.382 1344.72
-112 -80 1734.49
-128 -119.304 2601.74
-128 -118.609 2601.74
-109.44 -72.32 1595.73
-123.125 -105.312 2337.5
-128 -116.522 2601.74
-111.364 -75.6818 1700
-108.308 -67.8974 1534.36
-121.504 -98.9474 2249.62
-111.186 -73.8983 1690.4
-128 -113.043 2601.74
-128 -112.348 2601.74
-128 -111.652 2601.74
-128 -110.957 2601.74
-128 -110.261 2601.74
-128 -109.565 2601.74
-128 -108.87 2601.74
-128 -108.174 2601.74
-128 -107.478 2601.74
-128 -106.783 2601.74
-128 -106.087 2601.74
-109.519 -64.8128 1600
-115.272 -76.9329 1911.82
-123.81 -94.9206 2374.6
-109.838 -64.2162 1617.3
-128 -102.609 2601.74
-106.602 -56.4819 1441.93
-110.924 -65.2101 1676.19
-106.475 -55.4436 1435.01
-111.099 -64.6761 1685.63
-128 -99.1304 2601.74
-128 -98.4348 2601.74
-104.317 -49.5154 1318.06
-128 -97.0435 2601.74
-128 -96.3478 2601.74
-114.074 -67.9012 1846.91
-128 -94.9565 2601.74
-124.516 -87.4194 2412.9
-128 -93.5652 2601.74
-119.856 -77.1119 2160.29
-121.977 -80.6084 2275.29
-104.698 -47.0694 1338.7
-113.865 -64.0491 1835.58
-128 -90.087 2601.74
-128 -89.3913 2601.74
-116.678 -67.7741 1988.04
-128 -88 2601.74
-128 -87.3043 2601.74
-112.281 -58.2456 1749.71
-111.724 -56.7816 1719.54
-104.158 -42.8884 1309.41
-104.211 -42.6316 1312.28
-128 -83.8261 2601.74
-111.275 -54.1643 1695.18
-128 -82.4348 2601.74
-128 -81.7391 2601.74
-128 -81.0435 2601.74
-128 -80.3478 2601.74
-128 -79.6522 2601.74
-128 -78.9565 2601.74
-110.164 -49.1803 1634.97
-109.362 -47.4468 1591.49
-128 -76.8696 2601.74
-114.286 -54.4099 1858.39
-123.636 -68.6166 2365.22
-104.588 -38.3074 1332.74
-128 -74.087 2601.74
-128 -73.3913 2601.74
-128 -72.6957 2601.74
-128 -72 2601.74
-128 -71.3043 2601.74
-128 -70.6087 2601.74
-128 -69.913 2601.74
-128 -69.2174 2601.74
-128 -68.5217 2601.74
-128 -67.8261 2601.74
-104.533 -34.3111 1329.78
-128 -66.4348 2601.74
-128 -65.7391 2601.74
-128 -65.0435 2601.74
-117.679 -50.5119 2042.32
-128 -63.6522 2601.74
-105.091 -32.9091 1360
-128 -62.2609 2601.74
-105.205 -32.3288 1366.21
-128 -60.8696 2601.74
-104.753 -31.0314 1341.7
-128 -59.4783 2601.74
-105.205 -30.8676 1366.21
-128 -58.087 2601.74
-128 -57.3913 2601.74
-128 -56.6957 2601.74
-128 -56 2601.74
-108.163 -32.449 1526.53
-104.698 -28.0984 1338.7
-128 -53.913 2601.74
-128 -53.2174 2601.74
-128 -52.5217 2601.74
-128 -51.8261 2601.74
-128 -51.1304 2601.74
-104.158 -25.3829 1309.41
-112 -33.1594 1734.49
-108.092 -28.7023 1522.65
-119.288 -39.573 2129.54
-117.808 -37.5342 2049.32
-115.048 -34.2857 1899.68
-128 -46.2609 2601.74
-128 -45.5652 2601.74
-126.979 -43.9149 2546.38
-115.844 -32.987 1942.86
-112.857 -29.7619 1780.95
-116.8 -32.8 1994.67
-121.348 -36.2547 2241.2
-127.586 -41.0345 2579.31
-128 -40.6957 2601.74
-128 -40 2601.74
-128 -39.3043 2601.74
-128 -38.6087 2601.74
-110 -23.6957 1626.09
-122.462 -32.9231 2301.54
-121.504 -31.5789 2249.62
-128 -35.8261 2601.74
-124.516 -32.5806 2412.9
-113.455 -24 1813.33
-128 -33.7391 2601.74
-128 -33.0435 2601.74
-128 -32.3478 2601.74
-128 -31.6522 2601.74
-128 -30.9565 2601.74
-113.054 -20.8383 1791.62
-128 -29.5652 2601.74
-105.205 -15.1598 1366.21
-128 -28.1739 2601.74
-107.395 -15.6824 1484.86
-105.556 -14.2593 1385.19
-110.924 -16.8067 1676.19
-117.297 -19.7297 2021.62
-120.44 -20.8059 2191.94
-107.125 -13.5627 1470.27
-104.753 -12.0179 1341.7
-105.497 -12.0092 1381.99
-128 -21.913 2601.74
-128 -21.2174 2601.74
-106.796 -11.4563 1452.43
-128 -19.8261 2601.74
-128 -19.1304 2601.74
-128 -18.4348 2601.74
-104.753 -9.14798 1341.7
-105.497 -9.05312 1381.99
-128 -16.3478 2601.74
-125.809 -14.9378 2482.99
-128 -14.9565 2601.74
-128 -14.2609 2601.74
-118.873 -10.9859 2107.04
-125.061 -12.0816 2442.45
-104.211 -6.14035 1312.28
-104.371 -5.82781 1320.97
-128 -10.7826 2601.74
-106.861 -5.64477 1455.96
-106.993 -5.28117 1463.08
-107.949 -5.06329 1514.94
-126.582 -7.76371 2524.89
-120.145 -6.10909 2176
-121.041 -5.65056 2224.54
-120.889 -5.03704 2216.3
-121.348 -4.49438 2241.2
-108.825 -2.7154 1562.4
-123.81 -3.49206 2374.6
-124.16 -2.88 2393.6
-109.838 -1.51351 1617.3
-121.194 -1.49254 2232.84
-109.362 -0.638298 1591.49
-106.993 -0.195599 1463.08
-128 0.347826 2601.74
-128 1.04348 2601.74
-105.321 0.917431 1372.48
-121.818 2.12121 2266.67
-124.878 2.92683 2432.52
-106.099 2.08038 1414.66
-128 4.52174 2601.74
-128 5.21739 2601.74
-119.288 4.83986 2129.54
-104.371 3.35541 1320.97
-105.379 3.86207 1375.63
-119.856 6.6426 2160.29
-127.179 8.54701 2557.26
-128 9.3913 2601.74
-128 10.087 2601.74
-128 10.7826 2601.74
-115.272 8.4345 1911.82
-128 12.1739 2601.74
-117.808 10.137 2049.32
-128 13.5652 2601.74
-128 14.2609 2601.74
-105.556 7.96296 1385.19
-128 15.6522 2601.74
-128 16.3478 2601.74
-128 17.0435 2601.74
-128 17.7391 2601.74
-115.272 13.5463 1911.82
-106.602 10.6024 1441.93
-105.976 10.7294 1408
-104.698 10.5593 1338.7
-128 21.2174 2601.74
-105.379 11.5862 1375.63
-104.698 11.6331 1338.7
-111.275 15.1841 1695.18
-111.275 15.6374 1695.18
-114.826 17.918 1887.7
-128 25.3913 2601.74
-105.556 13.8889 1385.19
-106.038 14.5283 1411.32
-105.263 14.4622 1369.34
-110.667 18 1662.22
-128 28.8696 2601.74
-128 29.5652 2601.74
-116.556 23.0464 1981.46
-106.993 17.4083 1463.08
-107.395 18.0645 1484.86
-106.161 17.6303 1418.01
-107.192 18.7192 1473.89
-120.738 28.6347 2208.12
-117.938 27.2165 2056.36
-105.976 19.0118 1408
-128 35.8261 2601.74
-109.519 22.4599 1600
-128 37.2174 2601.74
-127.792 37.7489 2590.48
-128 38.6087 2601.74
-128 39.3043 2601.74
-128 40 2601.74
-117.172 31.5152 2014.81
-110.33 26.1538 1643.96
-110.924 27.1148 1676.19
-116.078 32.1569 1955.56
-117.808 34.2466 2049.32
-128 44.1739 2601.74
-104.533 22.9333 1329.78
-116.197 34.3607 1961.97
-104.533 23.6444 1329.78
-127.792 46.7532 2590.48
-116.197 35.9344 1961.97
-107.125 27.3219 1470.27
-109.362 30 1591.49
-118.069 39.4483 2063.45
-107.125 28.5012 1470.27
-104.809 26.427 1344.72
-121.194 44.4776 2232.84
-106.223 28.6936 1421.38
-114.286 38.0124 1858.39
-119.011 43.8163 2114.49
-123.125 49.0625 2337.5
-121.348 47.6404 2241.2
-106.223 30.5938 1421.38
-104.158 28.5339 1309.41
-115.385 42.3077 1917.95
-122.957 51.9844 2328.4
-122.137 51.6031 2283.97
-128 59.4783 2601.74
-120.588 50.8824 2200
-126.78 59.322 2535.59
-122.299 54.2529 2292.72
-124.16 57.28 2393.6
-121.041 53.829 2224.54
-120.588 53.8235 2200
-120.145 53.8182 2176
-121.041 55.6134 2224.54
-121.194 56.4179 2232.84
-121.194 57.0149 2232.84
-122.957 60.0778 2328.4
-128 67.8261 2601.74
-128 68.5217 2601.74
-104.317 35.0661 1318.06
-104.211 35.2632 1312.28
-106.286 38.6667 1424.76
-121.041 60.9665 2224.54
-110.838 46.257 1671.51
-110.164 45.6831 1634.97
-128 73.3913 2601.74
-104.698 38.1208 1338.7
-119.712 61.8705 2152.52
-122.957 67.5486 2328.4
-128 76.1739 2601.74
-120 64.058 2168.12
-119.149 63.2624 2121.99
-126.78 76.2712 2535.59
-121.504 68.2707 2249.62
-120.292 66.8613 2183.94
-126.387 77.6471 2514.29
-120.889 69.037 2216.3
-120.145 68.3636 2176
-122.299 72.6437 2292.72
-127.792 82.7706 2590.48
-120.738 71.1439 2208.12
-122.299 74.4828 2292.72
-126.979 83.4043 2546.38
-123.294 77.4902 2346.67
-123.294 78.1176 2346.67
-124.16 80.32 2393.6
-119.856 73.0686 2160.29
-120.44 74.7253 2191.94
-126.192 86.0251 2503.77
-121.348 77.603 2241.2
-116.556 69.1391 1981.46
-120.889 77.9259 2216.3
-121.194 79.1045 2232.84
-120.889 79.1111 2216.3
-123.294 84.3922 2346.67
-124.696 87.7733 2422.67
-119.429 78 2137.14
-119.856 79.4224 2160.29
-119.712 79.7122 2152.52
-120.738 82.3616 2208.12
-119.288 80 2129.54
-116.316 74.4737 1968.42
-120.588 83.8235 2200
-121.66 86.6415 2258.11
-120.588 85 2200
-120.292 84.9635 2183.94
-120.588 86.1765 2200
-122.462 90.7692 2301.54
-125.62 98.1818 2472.73
-121.977 90.9506 2275.29
-120.588 88.5294 2200
-118.601 84.7552 2092.31
-114.5 76.25 1870
-128 106.783 2601.74
-128 107.478 2601.74
-128 108.174 2601.74
-128 108.87 2601.74
-128 109.565 2601.74
-112.955 75.7015 1786.27
-108.092 64.9364 1522.65
-128 111.652 2601.74
-104.479 57.2949 1326.83
-128 113.043 2601.74
-128 113.739 2601.74
-128 114.435 2601.74
-112.76 78.5757 1775.67
-113.353 80.4834 1807.85
-128 116.522 2601.74
-119.57 96.6308 2144.8
-116.8 90.4 1994.67
-115.961 88.8599 1949.19
-104.211 60.1754 1312.28
-106.538 66.3462 1438.46
-106.667 67.0531 1445.41
-104.052 60.8279 1303.7
-105.379 64.5517 1375.63
-105.855 66.1358 1401.41
-106.861 69.0998 1455.96
-105.674 66.4186 1391.63
-106.538 69.0385 1438.46
-117.297 97.5676 2021.62
-106.411 69.4737 1431.58
-106.927 71.2195 1459.51
-110.164 80.2186 1634.97
-105.674 68.6512 1391.63
-119.429 106 2137.14
-120.145 108.509 2176
-107.184 -72.8155 1452.43
-124.444 -118.413 2374.6
-128.696 -129.043 2601.74
-125.344 -119.514 2422.67
-128.696 -127.652 2601.74
-105.629 -66.8192 1369.34
-107.317 -70.8293 1459.51
-128.696 -125.565 2601.74
-109.396 -75.3806 1570.6
-106.794 -68.3254 1431.58
-124.094 -111.811 2355.91
-128.696 -122.783 2601.74
-106.794 -67.177 1431.58
-106.794 -66.7943 1431.58
-106.73 -66.253 1428.16
-105.455 -62.7273 1360
-104.561 -60.1754 1312.28
-104.615 -59.956 1315.16
-120.58 -98.2609 2168.12
-111.728 -76.3739 1695.18
-128.696 -116.522 2601.74
-128.696 -115.826 2601.74
-108.141 -66.5327 1503.52
-124.444 -104.444 2374.6
-128.696 -113.739 2601.74
-105.397 -58.9569 1356.92
-106.667 -61.5238 1424.76
-104.454 -56.0699 1306.55
-128.696 -110.957 2601.74
-128.696 -110.261 2601.74
-128.696 -109.565 2601.74
-114.146 -76.3415 1824.39
-128.696 -108.174 2601.74
-107.586 -60.8867 1473.89
-128.696 -106.783 2601.74
-128.696 -106.087 2601.74
-116.842 -79.7368 1968.42
-115.669 -76.6879 1905.73
-116.246 -77.411 1936.57
-118.095 -80.8163 2035.37
-105.455 -53.6364 1360
-111.285 -65.4749 1671.51
-128.696 -101.217 2601.74
-106.859 -55.4436 1435.01
-128.696 -99.8261 2601.74
-109.787 -60.6383 1591.49
-109.787 -60.2128 1591.49
-128.696 -97.7391 2601.74
-112.749 -65.2632 1749.71
-128.696 -96.3478 2601.74
-107.119 -53.2688 1448.91
-128.696 -94.9565 2601.74
-128.696 -94.2609 2601.74
-110.518 -58.6376 1630.52
-128.696 -92.8696 2601.74
-128.696 -92.1739 2601.74
-105 -46.9643 1335.71
-105 -46.6071 1335.71
-128.696 -90.087 2601.74
-128.696 -89.3913 2601.74
-120.288 -73.3813 2152.52
-105.225 -45.5856 1347.75
-104.615 -44.1319 1315.16
-128.696 -86.6087 2601.74
-107.384 -48.313 1463.08
-128.696 -85.2174 2601.74
-109.708 -51.565 1587.27
-128.696 -83.8261 2601.74
-128.696 -83.1304 2601.74
-110.601 -51.8033 1634.97
-128.696 -81.7391 2601.74
-128.696 -81.0435 2601.74
-112.37 -53.4104 1729.48
-128.696 -79.6522 2601.74
-128.696 -78.9565 2601.74
-110.518 -49.0463 1630.52
-128.696 -77.5652 2601.74
-113.837 -53.4139 1807.85
-116.246 -56.699 1936.57
-116.964 -57.2937 1974.92
-128.696 -74.7826 2601.74
-128.696 -74.087 2601.74
-128.696 -73.3913 2601.74
-128.696 -72.6957 2601.74
-128.696 -72 2601.74
-128.696 -71.3043 2601.74
-110.769 -44.6154 1643.96
-128.696 -69.913 2601.74
-128.696 -69.2174 2601.74
-104.779 -34.8673 1323.89
-128.696 -67.8261 2601.74
-104.834 -34.235 1326.83
-128.696 -66.4348 2601.74
-107.586 -37.2414 1473.89
-128.696 -65.0435 2601.74
-128.696 -64.3478 2601.74
-128.696 -63.6522 2601.74
-115.443 -45.8228 1893.67
-105.455 -32.5455 1360
-128.696 -61.5652 2601.74
-128.696 -60.8696 2601.74
-105.513 -31.5262 1363.1
-128.696 -59.4783 2601.74
-105.339 -30.5882 1353.85
-128.696 -58.087 2601.74
-128.696 -57.3913 2601.74
-118.225 -44.5051 2042.32
-105.806 -29.6774 1378.8
-128.696 -55.3043 2601.74
-119.716 -44.539 2121.99
-128.696 -53.913 2601.74
-128.696 -53.2174 2601.74
-128.696 -52.5217 2601.74
-128.696 -51.8261 2601.74
-128.696 -51.1304 2601.74
-128.696 -50.4348 2601.74
-108.792 -29.4087 1538.3
-105.629 -25.8124 1369.34
-108.426 -28.2234 1518.78
-128.696 -47.6522 2601.74
-110.685 -29.589 1639.45
-128.696 -46.2609 2601.74
-128.696 -45.5652 2601.74
-127.458 -43.7288 2535.59
-105.629 -23.2494 1369.34
-128.696 -43.4783 2601.74
-116.246 -31.8447 1936.57
-118.225 -33.0375 2042.32
-128.696 -41.3913 2601.74
-128.696 -40.6957 2601.74
-128.696 -40 2601.74
-109.551 -23.8522 1578.89
-128.696 -38.6087 2601.74
-128.696 -37.913 2601.74
-122.264 -32.3019 2258.11
-127.257 -35.443 2524.89
-128.696 -35.8261 2601.74
-105.339 -18.2805 1353.85
-113.533 -23.7126 1791.62
-108.645 -19.8465 1530.43
-128.696 -33.0435 2601.74
-128.696 -32.3478 2601.74
-104.67 -16.0352 1318.06
-128.696 -30.9565 2601.74
-105.169 -15.6404 1344.72
-108.07 -17.0426 1499.75
-110.108 -17.8495 1608.6
-128.696 -28.1739 2601.74
-117.333 -21.0667 1994.67
-105.986 -14.2923 1388.4
-118.356 -20.5479 2049.32
-128.696 -25.3913 2601.74
-128.696 -24.6957 2601.74
-119.024 -19.2334 2085.02
-124.444 -21.2698 2374.6
-106.23 -12.178 1401.41
-105.225 -11.3514 1347.75
-117.086 -16.1589 1981.46
-107.317 -11.5122 1459.51
-108 -11.4 1496
-105.513 -10.0228 1363.1
-128.696 -18.4348 2601.74
-110.685 -11.1781 1639.45
-128.696 -17.0435 2601.74
-128.696 -16.3478 2601.74
-105.225 -8.10811 1347.75
-105.225 -7.74775 1347.75
-128.696 -14.2609 2601.74
-128.696 -13.5652 2601.74
-128.696 -12.8696 2601.74
-128.696 -12.1739 2601.74
-123.58 -10.2724 2328.4
-128.696 -10.7826 2601.74
-128.696 -10.087 2601.74
-104.401 -4.70588 1303.7
-108.283 -5.05051 1511.11
-122.912 -7.04981 2292.72
-120.143 -6.02151 2144.8
-121.328 -5.60886 2208.12
-109.551 -3.58839 1578.89
-119.858 -4.27046 2129.54
-121.948 -3.89513 2241.2
-121.328 -3.24723 2208.12
-128.696 -3.13043 2601.74
-107.93 -1.39651 1492.27
-104.401 -0.87146 1303.7
-109.016 -0.621762 1550.26
-128.696 -0.347826 2601.74
-128.696 0.347826 2601.74
-108.426 0.609137 1518.78
-125.344 1.61943 2422.67
-106.168 1.30841 1398.13
-128.696 3.13043 2601.74
-107.053 2.1256 1445.41
-128.696 4.52174 2601.74
-128.696 5.21739 2601.74
-120.433 4.90975 2160.29
-128.696 6.6087 2601.74
-105.866 3.87991 1381.99
-108.718 4.71795 1534.36
-128.696 8.69565 2601.74
-128.696 9.3913 2601.74
-128.696 10.087 2601.74
-121.328 9.15129 2208.12
-124.444 10.4762 2374.6
-128.696 12.1739 2601.74
-108.07 7.41855 1499.75
-128.696 13.5652 2601.74
-107.053 7.92271 1445.41
-106.667 8.19048 1424.76
-108.07 9.02256 1499.75
-128.696 16.3478 2601.74
-128.696 17.0435 2601.74
-128.696 17.7391 2601.74
-128.696 18.4348 2601.74
-128.696 19.1304 2601.74
-106.291 10.7042 1404.69
-105.747 10.8506 1375.63
-105.806 11.2442 1378.8
-105.926 11.6667 1385.19
-105 11.6071 1335.71
-107.119 12.9782 1448.91
-128.696 24 2601.74
-106.107 13.2401 1394.87
-128.696 25.3913 2601.74
-128.696 26.087 2601.74
-128.696 26.7826 2601.74
-105.806 14.5622 1378.8
-111.025 17.9501 1657.62
-120.433 23.9711 2160.29
-106.23 15.9251 1401.41
-120 24.8571 2137.14
-120.143 25.5197 2144.8
-107.518 17.887 1470.27
-115.331 23.47 1887.7
-113.837 22.9607 1807.85
-105.688 17.7982 1372.48
-113.837 23.9275 1807.85
-128.696 35.1304 2601.74
-128.696 35.8261 2601.74
-111.198 23.3983 1666.85
-128.696 37.2174 2601.74
-113.533 26.1078 1791.62
-128.696 38.6087 2601.74
-128.696 39.3043 2601.74
-122.424 34.8485 2266.67
-123.75 36.5625 2337.5
-128.696 41.3913 2601.74
-128.696 42.087 2601.74
-128.696 42.7826 2601.74
-128.696 43.4783 2601.74
-116.482 33.0945 1949.19
-122.105 38.797 2249.62
-106.794 25.0718 1431.58
-117.966 36.0678 2028.47
-122.748 41.2214 2283.97
-106.603 26.0333 1421.38
-120.727 40.4364 2176
-104.561 24.7368 1312.28
-121.026 41.9048 2191.94
-111.818 32.9545 1700
-119.716 41.7021 2121.99
-117.086 39.4702 1981.46
-106.667 28.7619 1424.76
-127.863 52.3077 2557.26
-122.264 46.7925 2258.11
-105.225 28.2883 1347.75
-125.344 51.498 2422.67
-106.168 30.0935 1398.13
-105.169 29.3034 1344.72
-115 41.25 1870
-106.353 31.4353 1408
-123.243 52.2008 2310.42
-121.328 50.4797 2208.12
-120.876 50.5109 2183.94
-120.876 51.0949 2183.94
-122.748 54.0458 2283.97
-120.876 52.2628 2183.94
-120.876 52.8467 2183.94
-120.433 52.852 2160.29
-122.264 55.8491 2258.11
-121.481 55.4074 2216.3
-123.58 58.8327 2328.4
-121.791 57.0149 2232.84
-124.622 61.5139 2384.06
-106.478 36.8794 1414.66
-112.092 45.1576 1714.61
-104.724 35.1435 1320.97
-104.508 35.186 1309.41
-108.426 41.2183 1518.78
-110.939 45.3039 1653.04
-104.508 36.2363 1309.41
-118.095 56.8707 2035.37
-127.257 71.2236 2524.89
-104.889 37.8667 1329.78
-128.696 74.7826 2601.74
-119.298 60.9123 2099.65
-128.696 76.1739 2601.74
-127.257 74.5992 2524.89
-122.586 67.8327 2275.29
-128.696 78.2609 2601.74
-126.281 75.0413 2472.73
-118.488 62.9553 2056.36
-121.026 67.6923 2191.94
-125.528 75.7724 2432.52
-124.98 75.502 2403.21
-125.714 77.3878 2442.45
-121.636 71.0781 2224.54
-122.586 73.308 2275.29
-122.912 74.4828 2292.72
-119.437 69.0141 2107.04
-120 70.5714 2137.14
-120.876 72.7007 2183.94
-120.143 71.9713 2144.8
-123.75 79.0625 2337.5
-122.105 76.6917 2249.62
-122.748 78.4733 2283.97
-123.077 79.6923 2301.54
-127.257 88.1013 2524.89
-121.481 77.9259 2216.3
-121.176 77.9412 2200
-123.922 83.7647 2346.67
-121.328 79.4096 2208.12
-120.58 78.5507 2168.12
-120 78 2137.14
-119.576 77.7385 2114.49
-120 79.1429 2137.14
-121.176 82.0588 2200
-120.876 82.0438 2183.94
-120 80.8571 2137.14
-121.636 84.7584 2224.54
-120.433 82.8881 2160.29
-120 82.5714 2137.14
-123.58 90.5837 2328.4
-116.364 76.1039 1942.86
-123.243 91.1197 2310.42
-126.091 97.7778 2462.55
-123.243 92.3552 2310.42
-122.424 91.2121 2266.67
-120.876 88.4672 2183.94
-120.727 88.7273 2176
-122.586 93.384 2275.29
-128.696 107.478 2601.74
-105.455 56.5455 1360
-128.696 108.87 2601.74
-108.212 63.4761 1507.3
-128.696 110.261 2601.74
-104.454 55.7205 1306.55
-105.169 57.7079 1344.72
-128.696 112.348 2601.74
-128.696 113.043 2601.74
-128.696 113.739 2601.74
-115.897 84.359 1917.95
-128.696 115.13 2601.74
-108.866 68.6598 1542.27
-107.723 66.3366 1481.19
-108.354 68.2532 1514.94
-128.696 117.913 2601.74
-119.858 97.0818 2129.54
-119.161 95.9441 2092.31
-104.67 60.7929 1318.06
-104.67 61.1454 1318.06
-104.67 61.4978 1318.06
-106.73 67.0167 1428.16
-106.168 65.9813 1398.13
-107.184 68.932 1452.43
-111.728 80.9065 1695.18
-118.095 97.6871 2035.37
-105.926 66.8519 1385.19
-105.688 66.6055 1372.48
-107.119 70.7022 1448.91
-105.339 66.4253 1353.85
-105.986 68.4919 1388.4
-119.024 103.415 2085.02
-119.858 106.192 2129.54
-129.391 -130.435 2601.74
-125.44 -119.36 2393.6
-129.391 -129.043 2601.74
-126.179 -120 2432.52
-129.391 -127.652 2601.74
-105.643 -65.9142 1350.79
-105.995 -66.4531 1369.34
-129.391 -125.565 2601.74
-108.832 -72.8934 1518.78
-113.412 -84 1760
-129.391 -123.478 2601.74
-129.391 -122.783 2601.74
-106.667 -65.9155 1404.69
-107.373 -67.2771 1441.93
-107.373 -66.8916 1441.93
-104.749 -60.1307 1303.7
-105.528 -61.6629 1344.72
-109.583 -71.0417 1558.33
-113.709 -80.4748 1775.67
-112.273 -76.5909 1700
-129.391 -116.522 2601.74
-129.391 -115.826 2601.74
-125.992 -107.206 2422.67
-129.391 -114.435 2601.74
-106.419 -60.8372 1391.63
-129.391 -113.043 2601.74
-105.818 -58.7273 1360
-129.391 -111.652 2601.74
-105.76 -57.8685 1356.92
-111.123 -69.4795 1639.45
-108.259 -62.6866 1488.56
-129.391 -108.87 2601.74
-129.391 -108.174 2601.74
-129.391 -107.478 2601.74
-129.391 -106.783 2601.74
-129.391 -106.087 2601.74
-129.391 -105.391 2601.74
-118.378 -81.3513 2021.62
-118.771 -81.6382 2042.32
-129.391 -103.304 2601.74
-129.391 -102.609 2601.74
-129.391 -101.913 2601.74
-106.792 -54.9057 1411.32
-107.373 -55.7108 1441.93
-129.391 -99.8261 2601.74
-106.296 -52.7778 1385.19
-129.391 -98.4348 2601.74
-118.771 -76.7235 2042.32
-105.643 -50.3837 1350.79
-104.803 -48.3843 1306.55
-113.81 -65.4762 1780.95
-111.556 -60.6667 1662.22
-129.391 -94.2609 2601.74
-111.732 -60.1117 1671.51
-122.388 -79.7015 2232.84
-122.868 -80 2258.11
-105.301 -46.8597 1332.74
-112.55 -59.8281 1714.61
-129.391 -90.087 2601.74
-129.391 -89.3913 2601.74
-121.612 -74.7253 2191.94
-124.549 -79.3726 2346.67
-107.242 -48.1535 1435.01
-129.391 -86.6087 2601.74
-110.87 -53.6957 1626.09
-129.391 -85.2174 2601.74
-129.391 -84.5217 2601.74
-120.717 -69.1039 2144.8
-105.528 -42.9663 1344.72
-129.391 -82.4348 2601.74
-129.391 -81.7391 2601.74
-112.55 -53.4097 1714.61
-129.391 -80.3478 2601.74
-129.391 -79.6522 2601.74
-129.391 -78.9565 2601.74
-107.308 -43.2692 1438.46
-129.391 -77.5652 2601.74
-129.391 -76.8696 2601.74
-105.244 -38.9333 1329.78
-118.121 -58.255 2008.05
-116.063 -54.6032 1899.68
-117.003 -55.5049 1949.19
-129.391 -73.3913 2601.74
-119.72 -58.4615 2092.31
-105.701 -37.4661 1353.85
-118.121 -55.0336 2008.05
-110.87 -44.1304 1626.09
-129.391 -69.913 2601.74
-129.391 -69.2174 2601.74
-129.391 -68.5217 2601.74
-129.391 -67.8261 2601.74
-129.391 -67.1304 2601.74
-109.506 -39.6883 1554.29
-129.391 -65.7391 2601.74
-118.639 -50.8844 2035.37
-116.294 -47.2843 1911.82
-129.391 -63.6522 2601.74
-105.701 -32.7602 1353.85
-105.76 -32.4717 1356.92
-122.547 -53.0337 2241.2
-129.391 -60.8696 2601.74
-106.542 -32.3364 1398.13
-129.391 -59.4783 2601.74
-121.919 -49.8893 2208.12
-107.308 -32.1154 1438.46
-119.172 -45.5172 2063.45
-118.639 -44.3537 2035.37
-105.701 -29.1403 1353.85
-107.573 -30.8738 1452.43
-105.76 -28.4807 1356.92
-129.391 -53.913 2601.74
-129.391 -53.2174 2601.74
-129.391 -52.5217 2601.74
-129.391 -51.8261 2601.74
-129.391 -51.1304 2601.74
-129.391 -50.4348 2601.74
-116.527 -36.7846 1924.12
-123.692 -43.3846 2301.54
-105.643 -25.1016 1350.79
-118.639 -37.2789 2035.37
-115.611 -33.8558 1875.86
-118.771 -36.314 2042.32
-129.391 -45.5652 2601.74
-108.906 -26.2595 1522.65
-105.936 -23.1963 1366.21
-129.391 -43.4783 2601.74
-129.391 -42.7826 2601.74
-128.966 -41.7241 2579.31
-105.301 -21.2027 1332.74
-108.98 -23.8776 1526.53
-115.389 -28.6604 1864.17
-129.391 -39.3043 2601.74
-122.868 -33.5094 2258.11
-129.391 -37.913 2601.74
-114.529 -26.0182 1818.84
-128.966 -36.2069 2579.31
-129.391 -35.8261 2601.74
-108.189 -20.0496 1484.86
-121.612 -29.011 2191.94
-122.388 -28.9552 2232.84
-125.079 -30.1587 2374.6
-113.51 -21.9469 1765.19
-129.391 -31.6522 2601.74
-129.391 -30.9565 2601.74
-119.308 -24.083 2070.59
-129.391 -29.5652 2601.74
-129.391 -28.8696 2601.74
-105.414 -14.4966 1338.7
-129.391 -27.4783 2601.74
-119.444 -21.3889 2077.78
-129.391 -26.087 2601.74
-125.806 -23.5484 2412.9
-126.179 -23.0894 2432.52
-117.993 -18.4615 2001.34
-129.391 -23.3043 2601.74
-129.391 -22.6087 2601.74
-129.391 -21.913 2601.74
-129.391 -21.2174 2601.74
-106.542 -11.028 1398.13
-129.391 -19.8261 2601.74
-129.391 -19.1304 2601.74
-125.079 -16.8254 2374.6
-129.391 -17.7391 2601.74
-129.391 -17.0435 2601.74
-108.049 -9.28395 1477.53
-129.391 -15.6522 2601.74
-129.391 -14.9565 2601.74
-129.391 -14.2609 2601.74
-105.077 -6.88742 1320.97
-129.391 -12.8696 2601.74
-121.011 -10.1083 2160.29
-110.293 -7.04 1595.73
-110.133 -6.57825 1587.27
-129.391 -10.087 2601.74
-104.912 -4.73684 1312.28
-120.284 -7.0922 2121.99
-121.011 -6.6426 2160.29
-120.717 -6.02151 2144.8
-121.765 -5.58824 2200
-123.692 -5.23077 2301.54
-120.427 -4.27046 2129.54
-121.309 -3.78182 2176
-105.133 -1.9469 1323.89
-129.391 -3.13043 2601.74
-105.357 -1.25 1335.71
-105.357 -0.892857 1335.71
-105.877 -0.546697 1363.1
-106.856 -0.189125 1414.66
-111.732 0.223464 1671.51
-129.391 1.04348 2601.74
-129.391 1.73913 2601.74
-106.542 1.30841 1398.13
-129.391 3.13043 2601.74
-124.549 3.45098 2346.67
-108.471 2.60652 1499.75
-129.391 5.21739 2601.74
-120.141 4.80565 2114.49
-106.115 3.49425 1375.63
-129.391 7.30435 2601.74
-123.194 6.9962 2275.29
-106.236 4.61894 1381.99
-120.571 7.71429 2137.14
-105.643 5.23702 1350.79
-105.701 5.61086 1353.85
-129.391 11.4783 2601.74
-107.048 6.66667 1424.76
-107.308 7.11538 1438.46
-107.308 7.5 1438.46
-106.419 7.62791 1391.63
-129.391 14.9565 2601.74
-129.391 15.6522 2601.74
-129.391 16.3478 2601.74
-129.391 17.0435 2601.74
-129.391 17.7391 2601.74
-129.391 18.4348 2601.74
-129.391 19.1304 2601.74
-129.391 19.8261 2601.74
-129.391 20.5217 2601.74
-106.604 11.4286 1401.41
-129.391 21.913 2601.74
-112.365 14.8148 1704.84
-106.296 12.4074 1385.19
-129.391 24 2601.74
-105.133 12.5664 1323.89
-105.133 12.9204 1323.89
-106.236 13.8568 1381.99
-129.391 26.7826 2601.74
-106.667 14.8357 1404.69
-114.424 19.6364 1813.33
