-46.9461 15.0898 1791.62
-35.3036 21.0526 2422.67
-36.875 20.9375 2337.5
-36.875 21.5625 2337.5
-34 23.6667 2493.33
-34 24.3333 2493.33
-34 25 2493.33
-34 25.6667 2493.33
-34 26.3333 2493.33
-34 27 2493.33
-34 27.6667 2493.33
-33.8075 28.4519 2503.77
-33.8075 29.1213 2503.77
-33.8075 29.7908 2503.77
-33.8075 30.4603 2503.77
-34 31 2493.33
-34 31.6667 2493.33
-34 32.3333 2493.33
-34 33 2493.33
-34 33.6667 2493.33
-34 34.3333 2493.33
-51.9084 21.374 1522.65
-24.8 42.8 2992
-24.8 43.6 2992
-24.8 44.4 2992
-48.6364 25.6818 1700
-51.9797 23.3503 1518.78
-51.9797 23.7563 1518.78
-48.8136 26.8927 1690.4
-48.8136 27.3446 1690.4
-48.8136 27.7966 1690.4
-48.8136 28.2486 1690.4
-27.4286 48.381 2849.52
-27.4286 49.1429 2849.52
-27.4286 49.9048 2849.52
-51.5464 27.4227 1542.27
-38.806 40.2985 2232.84
-38.806 40.8955 2232.84
-40.4301 39.8566 2144.8
-54.1452 26.4169 1401.41
-43.0769 38.2609 2001.34
-35.122 47.1545 2432.52
-43.2 39.2 1994.67
-38.806 44.4776 2232.84
-35.122 49.1057 2432.52
-35.122 49.7561 2432.52
-35.122 50.4065 2432.52
-35.122 51.0569 2432.52
-53.9623 30 1411.32
-35.122 52.3577 2432.52
-35.122 53.0081 2432.52
-35.122 53.6585 2432.52
-39.4118 49.1176 2200
-39.8545 49.1636 2176
-45.283 43.0189 1881.76
-45.1735 43.6593 1887.7
-35.122 56.9106 2432.52
-35.122 57.561 2432.52
-35.122 58.2114 2432.52
-35.122 58.8618 2432.52
-35.122 59.5122 2432.52
-35.122 60.1626 2432.52
-35.122 60.813 2432.52
-27.6777 71.6588 2836.02
-34.5679 62.8807 2462.55
-34.5679 63.5391 2462.55
-34.5679 64.1975 2462.55
-34.9388 64.3265 2442.45
-34.9388 64.9796 2442.45
-35.122 65.3659 2432.52
-35.122 66.0163 2432.52
-35.122 66.6667 2432.52
-35.122 67.3171 2432.52
-35.122 67.9675 2432.52
-35.122 68.6179 2432.52
-35.122 69.2683 2432.52
-35.122 69.9187 2432.52
-45.3918 54.4201 1875.86
-45.3918 54.9216 1875.86
-27.177 84.5933 2863.16
-27.177 85.3588 2863.16
-33.8075 75.3138 2503.77
-27.4286 86.4762 2849.52
-27.6777 86.8246 2836.02
-27.6777 87.5829 2836.02
-27.6777 88.3412 2836.02
-27.6777 89.0995 2836.02
-28.6512 88.186 2783.26
-27.177 91.4833 2863.16
-27.177 92.2488 2863.16
-26.9231 93.4615 2876.92
-27.6777 92.891 2836.02
-28.169 92.77 2809.39
-35.6627 80 2403.21
-35.6627 80.6426 2403.21
-44.8408 64.4586 1905.73
-35.4839 82.2581 2412.9
-35.4839 82.9032 2412.9
-35.4839 83.5484 2412.9
-29.1244 96.2212 2757.6
-29.1244 96.9585 2757.6
-45.0633 67.0886 1893.67
-29.3578 97.9817 2744.95
-29.1244 99.1705 2757.6
-29.1244 99.9078 2757.6
-35.122 88.7805 2432.52
-35.122 89.4309 2432.52
-35.122 90.0813 2432.52
-30.0452 100.995 2707.69
-35.4839 90.6452 2412.9
-30.2703 101.982 2695.5
-30.2703 102.703 2695.5
-30.2703 103.423 2695.5
-35.4839 93.2258 2412.9
-30.2703 104.865 2695.5
-35.4839 94.5161 2412.9
-29.8182 107.273 2720
-35.4839 95.8064 2412.9
-35.4839 96.4516 2412.9
-35.6627 96.7068 2403.21
-35.6627 97.3494 2403.21
-35.6627 97.992 2403.21
-47.907 71.3953 1739.53
-47.907 71.8605 1739.53
-48.547 70.8832 1704.84
-48.4571 71.5429 1709.71
-35.6627 101.205 2403.21
-35.6627 101.847 2403.21
-35.6627 102.49 2403.21
-35.6627 103.133 2403.21
-35.6627 103.775 2403.21
-35.4839 104.839 2412.9
-35.6627 105.06 2403.21
-34.9388 107.429 2442.45
-34.9388 108.082 2442.45
-34.9388 108.735 2442.45
-35.6627 107.631 2403.21
-37.2093 104.496 2319.38
-36.3636 107.194 2365.22
-36.3636 107.826 2365.22
-37.0428 106.77 2328.4
-37.8626 105.344 2283.97
-38.0228 105.551 2275.29
-39.1111 103.407 2216.3
-38.6517 105.169 2241.2
-40.7117 100.498 2129.54
-40.7117 101.068 2129.54
-36.0159 113.785 2384.06
-36.0159 114.422 2384.06
-38.806 107.761 2232.84
-34.9388 118.531 2442.45
-34 121.667 2493.33
-34 122.333 2493.33
-33.2203 125.085 2535.59
-24.8 148.4 2992
-24.8 149.2 2992
-30.5455 -136.364 2720
-30.5455 -135.636 2720
-30.5455 -134.909 2720
-30.5455 -134.182 2720
-30.5455 -133.455 2720
-30.5455 -132.727 2720
-30.5455 -132 2720
-30.5455 -131.273 2720
-25.6 -143.6 2992
-30.991 -128.649 2695.5
-30.5455 -129.091 2720
-30.5455 -128.364 2720
-30.5455 -127.636 2720
-30.5455 -126.909 2720
-30.5455 -126.182 2720
-30.5455 -125.455 2720
-30.5455 -124.727 2720
-30.5455 -124 2720
-30.5455 -123.273 2720
-30.5455 -122.545 2720
-30.5455 -121.818 2720
-30.5455 -121.091 2720
-30.5455 -120.364 2720
-30.5455 -119.636 2720
-48.8252 -74.957 1714.61
-42.7397 -89.0411 2049.32
-42.6117 -88.7972 2056.36
-42.6117 -88.2474 2056.36
-45.8934 -80 1875.86
-30.7692 -114.751 2707.69
-30.7692 -114.027 2707.69
-30.7692 -113.303 2707.69
-30.7692 -112.579 2707.69
-30.7692 -111.855 2707.69
-30.7692 -111.131 2707.69
-30.7692 -110.407 2707.69
-30.7692 -109.683 2707.69
-30.7692 -108.959 2707.69
-30.7692 -108.235 2707.69
-30.7692 -107.511 2707.69
-30.7692 -106.787 2707.69
-30.7692 -106.063 2707.69
-30.7692 -105.339 2707.69
-35.5918 -94.3673 2442.45
-30.7692 -103.891 2707.69
-30.7692 -103.167 2707.69
-30.7692 -102.443 2707.69
-30.7692 -101.719 2707.69
-30.7692 -100.995 2707.69
-30.7692 -100.271 2707.69
-30.7692 -99.5475 2707.69
-30.7692 -98.8235 2707.69
-30.7692 -98.0995 2707.69
-30.7692 -97.3756 2707.69
-30.7692 -96.6516 2707.69
-30.7692 -95.9276 2707.69
-30.7692 -95.2036 2707.69
-48.4638 -60.5217 1734.49
-30.7692 -93.7557 2707.69
-30.7692 -93.0317 2707.69
-30.7692 -92.3077 2707.69
-30.7692 -91.5837 2707.69
-30.7692 -90.8597 2707.69
-30.7692 -90.1357 2707.69
-30.7692 -89.4118 2707.69
-30.7692 -88.6878 2707.69
-30.7692 -87.9638 2707.69
-30.7692 -87.2398 2707.69
-30.7692 -86.5158 2707.69
-30.7692 -85.7919 2707.69
-30.7692 -85.0679 2707.69
-30.7692 -84.3439 2707.69
-30.7692 -83.6199 2707.69
-30.7692 -82.8959 2707.69
-30.7692 -82.1719 2707.69
-30.7692 -81.448 2707.69
-30.7692 -80.724 2707.69
-25.6 -88.4 2992
-30.7692 -79.276 2707.69
-30.7692 -78.552 2707.69
-30.7692 -77.8281 2707.69
-45.5696 -53.924 1893.67
-48.0938 -49.5015 1754.84
-48.0938 -49.0323 1754.84
-30.991 -74.5946 2695.5
-30.991 -73.8739 2695.5
-30.991 -73.1532 2695.5
-30.991 -72.4324 2695.5
-30.991 -71.7117 2695.5
-30.991 -70.991 2695.5
-30.991 -70.2703 2695.5
-30.991 -69.5496 2695.5
-30.991 -68.8288 2695.5
-30.991 -68.1081 2695.5
-30.991 -67.3874 2695.5
-30.991 -66.6667 2695.5
-30.991 -65.9459 2695.5
-30.991 -65.2252 2695.5
-30.991 -64.5045 2695.5
-30.991 -63.7838 2695.5
-30.991 -63.0631 2695.5
-30.991 -62.3423 2695.5
-30.991 -61.6216 2695.5
-30.991 -60.9009 2695.5
-30.991 -60.1802 2695.5
-30.991 -59.4595 2695.5
-30.991 -58.7387 2695.5
-30.991 -58.018 2695.5
-30.991 -57.2973 2695.5
-30.991 -56.5766 2695.5
-30.991 -55.8559 2695.5
-30.991 -55.1351 2695.5
-30.991 -54.4144 2695.5
-30.991 -53.6937 2695.5
-30.991 -52.973 2695.5
-30.991 -52.2523 2695.5
-30.991 -51.5315 2695.5
-30.991 -50.8108 2695.5
-30.991 -50.0901 2695.5
-30.991 -49.3694 2695.5
-30.991 -48.6486 2695.5
-42.6117 -36.5636 2056.36
-30.991 -47.2072 2695.5
-30.991 -46.4865 2695.5
-30.991 -45.7658 2695.5
-45.7862 -31.4465 1881.76
-51.5183 -25.7592 1566.49
-51.5183 -25.3403 1566.49
-52.4557 -24.1013 1514.94
-42.3529 -32.3875 2070.59
-47.2289 -27.7108 1802.41
-33.7021 -38.4681 2546.38
-47.2289 -26.747 1802.41
-40 -32.0588 2200
-40.1465 -31.3553 2191.94
-40.1465 -30.7692 2191.94
-33.7021 -35.0638 2546.38
-33.7021 -34.383 2546.38
-33.7021 -33.7021 2546.38
-47.7151 -23.0267 1775.67
-33.7021 -32.3404 2546.38
-33.7021 -31.6596 2546.38
-33.7021 -30.9787 2546.38
-33.7021 -30.2979 2546.38
-33.7021 -29.617 2546.38
-33.7021 -28.9362 2546.38
-33.7021 -28.2553 2546.38
-33.7021 -27.5745 2546.38
-33.7021 -26.8936 2546.38
-33.7021 -26.2128 2546.38
-34.0928 -25.3165 2524.89
-34.0928 -24.6413 2524.89
-34.0928 -23.9662 2524.89
-33.7021 -23.4894 2546.38
-33.7021 -22.8085 2546.38
-33.7021 -22.1277 2546.38
-33.7021 -21.4468 2546.38
-33.7021 -20.766 2546.38
-33.7021 -20.0851 2546.38
-33.7021 -19.4043 2546.38
-33.7021 -18.7234 2546.38
-33.7021 -18.0426 2546.38
-33.7021 -17.3617 2546.38
-33.7021 -16.6809 2546.38
-33.7021 -16 2546.38
-33.7021 -15.3191 2546.38
-33.7021 -14.6383 2546.38
-33.7021 -13.9574 2546.38
-33.7021 -13.2766 2546.38
-34.6667 -12.3333 2493.33
-33.7021 -11.9149 2546.38
-33.7021 -11.234 2546.38
-33.7021 -10.5532 2546.38
-33.8983 -9.83051 2535.59
-33.7021 -9.19149 2546.38
-33.7021 -8.51064 2546.38
-33.7021 -7.82979 2546.38
-33.7021 -7.14894 2546.38
-33.7021 -6.46809 2546.38
-33.7021 -5.78723 2546.38
-33.7021 -5.10638 2546.38
-33.7021 -4.42553 2546.38
-33.7021 -3.74468 2546.38
-33.7021 -3.06383 2546.38
-33.7021 -2.38298 2546.38
-33.7021 -1.70213 2546.38
-33.7021 -1.02128 2546.38
-33.7021 -0.340426 2546.38
-33.7021 0.340426 2546.38
-33.7021 1.02128 2546.38
-33.5043 1.7094 2557.26
-33.7021 2.38298 2546.38
-33.7021 3.06383 2546.38
-46.5231 2.70769 1841.23
-33.7021 4.42553 2546.38
-33.7021 5.10638 2546.38
-33.7021 5.78723 2546.38
-33.7021 6.46809 2546.38
-33.7021 7.14894 2546.38
-45.1282 5.89744 1917.95
-33.7021 8.51064 2546.38
-33.7021 9.19149 2546.38
-35.0413 9.58678 2472.73
-49.7778 6.88889 1662.22
-50.7527 7.09677 1608.6
-33.7021 11.9149 2546.38
-50.5149 8.02168 1621.68
-35.0413 12.8926 2472.73
-45.1282 10.5128 1917.95
-33.5043 14.7009 2557.26
-33.7021 15.3191 2546.38
-35.4098 15.4098 2452.46
-34.2857 16.4706 2514.29
-34.2857 17.1429 2514.29
-35.9514 17.166 2422.67
-45.0161 14.1479 1924.12
-34.477 19.0795 2503.77
-34.477 19.749 2503.77
-34.477 20.4184 2503.77
-47.5224 15.0448 1786.27
-35.9514 21.0526 2422.67
-36.48 21.44 2393.6
-34.6667 23 2493.33
-34.6667 23.6667 2493.33
-34.6667 24.3333 2493.33
-34.6667 25 2493.33
-34.6667 25.6667 2493.33
-34.6667 26.3333 2493.33
-34.6667 27 2493.33
-34.6667 27.6667 2493.33
-34.6667 28.3333 2493.33
-34.477 29.1213 2503.77
-34.6667 29.6667 2493.33
-34.6667 30.3333 2493.33
-34.6667 31 2493.33
-34.477 31.7992 2503.77
-34.6667 32.3333 2493.33
-34.8548 32.8631 2482.99
-52.3155 20.5598 1522.65
-48.9143 23.5429 1709.71
-49.0028 23.9316 1704.84
-25.6 42.8 2992
-49.0028 24.8433 1704.84
-49.0909 25.2273 1700
-49.0909 25.6818 1700
-25.6 46 2992
-28.1905 44.5714 2849.52
-28.1905 45.3333 2849.52
-26.9268 47.2195 2919.02
-49.2655 27.7966 1690.4
-27.9426 47.8469 2863.16
-27.9426 48.6124 2863.16
-27.9426 49.378 2863.16
-35.7724 42.6016 2432.52
-35.7724 43.252 2432.52
-35.7724 43.9024 2432.52
-41.0036 39.2832 2144.8
-35.7724 45.2033 2432.52
-35.7724 45.8537 2432.52
-39.403 42.6866 2232.84
-35.7724 47.1545 2432.52
-35.7724 47.8049 2432.52
-35.7724 48.4553 2432.52
-35.7724 49.1057 2432.52
-33.7021 52.0851 2546.38
-35.7724 50.4065 2432.52
-35.7724 51.0569 2432.52
-35.7724 51.7073 2432.52
-35.7724 52.3577 2432.52
-35.7724 53.0081 2432.52
-35.7724 53.6585 2432.52
-35.7724 54.3089 2432.52
-35.7724 54.9594 2432.52
-35.7724 55.6098 2432.52
-35.7724 56.2602 2432.52
-35.7724 56.9106 2432.52
-35.7724 57.561 2432.52
-35.7724 58.2114 2432.52
-35.7724 58.8618 2432.52
-35.7724 59.5122 2432.52
-35.7724 60.1626 2432.52
-35.7724 60.813 2432.52
-28.6792 71.3208 2822.64
-35.4098 62.623 2452.46
-35.2263 63.5391 2462.55
-35.2263 64.1975 2462.55
-35.5918 64.3265 2442.45
-35.5918 64.9796 2442.45
-51.4436 42.2047 1570.6
-35.7724 66.0163 2432.52
-35.7724 66.6667 2432.52
-35.7724 67.3171 2432.52
-35.7724 67.9675 2432.52
-35.7724 68.6179 2432.52
-34.6667 71 2493.33
-35.5918 70.2041 2442.45
-35.7724 70.5691 2432.52
-35.7724 71.2195 2432.52
-34.8548 73.361 2482.99
-35.5918 72.8163 2442.45
-35.5918 73.4694 2442.45
-34.477 75.9833 2503.77
-34.2857 76.9748 2514.29
-32.2807 81.0526 2624.56
-28.436 88.3412 2836.02
-28.436 89.0995 2836.02
-36.129 76.4516 2412.9
-36.129 77.0968 2412.9
-36.129 77.7419 2412.9
-36.129 78.3871 2412.9
-27.9426 93.7799 2863.16
-25.6 98.8 2992
-25.6 99.6 2992
-45.2396 64.1534 1911.82
-45.4603 64.254 1899.68
-36.129 82.2581 2412.9
-36.129 82.9032 2412.9
-29.6296 95.9259 2770.37
-36.129 84.1936 2412.9
-36.129 84.8387 2412.9
-36.129 85.4839 2412.9
-30.0917 97.9817 2744.95
-30.0917 98.7156 2744.95
-30.0917 99.4495 2744.95
-35.7724 88.7805 2432.52
-35.7724 89.4309 2432.52
-35.7724 90.0813 2432.52
-35.7724 90.7317 2432.52
-35.7724 91.3821 2432.52
-36.3052 90.9237 2403.21
-36.3052 91.5663 2403.21
-35.7724 93.3333 2432.52
-34.2857 97.1429 2514.29
-30.7692 105.339 2707.69
-36.129 94.5161 2412.9
-30.5455 107.273 2720
-35.2263 97.7778 2462.55
-35.2263 98.4362 2462.55
-35.2263 99.0947 2462.55
-36.8254 96.1905 2374.6
-47.619 72.619 1780.95
-35.9514 99.4332 2422.67
-49.0909 70.2273 1700
-49.0028 70.8832 1704.84
-36.3052 100.562 2403.21
-36.3052 101.205 2403.21
-36.3052 101.847 2403.21
-36.3052 102.49 2403.21
-36.3052 103.133 2403.21
-36.3052 103.775 2403.21
-36.3052 104.418 2403.21
-35.7724 106.341 2432.52
-35.7724 106.992 2432.52
-35.7724 107.642 2432.52
-35.7724 108.293 2432.52
-36.48 107.2 2393.6
-37.8295 104.496 2319.38
-39.2509 101.573 2241.2
-36.48 109.12 2393.6
-36.48 109.76 2393.6
-42.3529 95.5017 2070.59
-39.7037 102.815 2216.3
-39.7037 103.407 2216.3
-39.2509 105.169 2241.2
-40.1465 103.443 2191.94
-40.722 102.527 2160.29
-36.6534 113.785 2384.06
-36.6534 114.422 2384.06
-28.1905 137.524 2849.52
-35.5918 118.531 2442.45
-34.6667 121.667 2493.33
-36.3052 117.912 2403.21
-33.8983 125.085 2535.59
-25.6 148.4 2992
-25.6 149.2 2992
-31.2727 -136.364 2720
-31.2727 -135.636 2720
-31.2727 -134.909 2720
-31.2727 -134.182 2720
-31.2727 -133.455 2720
-31.2727 -132.727 2720
-31.2727 -132 2720
-31.2727 -131.273 2720
-31.2727 -130.545 2720
-31.2727 -129.818 2720
-31.2727 -129.091 2720
-31.2727 -128.364 2720
-31.2727 -127.636 2720
-31.2727 -126.909 2720
-31.2727 -126.182 2720
-31.2727 -125.455 2720
-31.2727 -124.727 2720
-31.4932 -123.439 2707.69
-31.2727 -123.273 2720
-31.2727 -122.545 2720
-31.2727 -121.818 2720
-31.2727 -121.091 2720
-31.2727 -120.364 2720
-31.2727 -119.636 2720
-31.4932 -118.371 2707.69
-31.4932 -117.647 2707.69
-31.4932 -116.923 2707.69
-31.4932 -116.199 2707.69
-31.4932 -115.475 2707.69
-31.4932 -114.751 2707.69
-31.4932 -114.027 2707.69
-31.4932 -113.303 2707.69
-31.4932 -112.579 2707.69
-31.4932 -111.855 2707.69
-31.4932 -111.131 2707.69
-31.4932 -110.407 2707.69
-31.4932 -109.683 2707.69
-31.4932 -108.959 2707.69
-31.4932 -108.235 2707.69
-31.4932 -107.511 2707.69
-31.4932 -106.787 2707.69
-31.4932 -106.063 2707.69
-31.4932 -105.339 2707.69
-31.4932 -104.615 2707.69
-31.4932 -103.891 2707.69
-31.4932 -103.167 2707.69
-31.4932 -102.443 2707.69
-31.4932 -101.719 2707.69
-31.4932 -100.995 2707.69
-31.4932 -100.271 2707.69
-31.4932 -99.5475 2707.69
-31.4932 -98.8235 2707.69
-31.4932 -98.0995 2707.69
-31.4932 -97.3756 2707.69
-31.4932 -96.6516 2707.69
-31.4932 -95.9276 2707.69
-48.9275 -60.9855 1734.49
-31.4932 -94.4796 2707.69
-31.4932 -93.7557 2707.69
-31.4932 -93.0317 2707.69
-31.4932 -92.3077 2707.69
-31.4932 -91.5837 2707.69
-31.4932 -90.8597 2707.69
-31.4932 -90.1357 2707.69
-31.4932 -89.4118 2707.69
-31.4932 -88.6878 2707.69
-31.4932 -87.9638 2707.69
-31.4932 -87.2398 2707.69
-31.7117 -86.1261 2695.5
-31.4932 -85.7919 2707.69
-31.4932 -85.0679 2707.69
-31.4932 -84.3439 2707.69
-31.4932 -83.6199 2707.69
-31.4932 -82.8959 2707.69
-31.4932 -82.1719 2707.69
-43.0345 -62.069 2063.45
-26.4 -89.2 2992
-26.4 -88.4 2992
-26.4 -87.6 2992
-47.3171 -52.9268 1824.39
-47.9042 -51.497 1791.62
-48.563 -49.9707 1754.84
-48.563 -49.5015 1754.84
-48.563 -49.0323 1754.84
-31.7117 -74.5946 2695.5
-31.7117 -73.8739 2695.5
-31.7117 -73.1532 2695.5
-31.7117 -72.4324 2695.5
-31.7117 -71.7117 2695.5
-31.7117 -70.991 2695.5
-31.7117 -70.2703 2695.5
-31.7117 -69.5496 2695.5
-31.7117 -68.8288 2695.5
-31.7117 -68.1081 2695.5
-31.7117 -67.3874 2695.5
-31.7117 -66.6667 2695.5
-31.7117 -65.9459 2695.5
-31.7117 -65.2252 2695.5
-31.7117 -64.5045 2695.5
-31.7117 -63.7838 2695.5
-31.7117 -63.0631 2695.5
-31.7117 -62.3423 2695.5
-31.7117 -61.6216 2695.5
-31.7117 -60.9009 2695.5
-31.7117 -60.1802 2695.5
-31.7117 -59.4595 2695.5
-31.7117 -58.7387 2695.5
-31.7117 -58.018 2695.5
-31.7117 -57.2973 2695.5
-31.7117 -56.5766 2695.5
-31.7117 -55.8559 2695.5
-31.7117 -55.1351 2695.5
-31.7117 -54.4144 2695.5
-31.7117 -53.6937 2695.5
-31.7117 -52.973 2695.5
-31.7117 -52.2523 2695.5
-31.7117 -51.5315 2695.5
-31.7117 -50.8108 2695.5
-31.7117 -50.0901 2695.5
-31.7117 -49.3694 2695.5
-31.7117 -48.6486 2695.5
-31.7117 -47.9279 2695.5
-31.7117 -47.2072 2695.5
-31.7117 -46.4865 2695.5
-31.7117 -45.7658 2695.5
-51.1051 -26.9542 1612.94
-51.9372 -25.7592 1566.49
-51.9372 -25.3403 1566.49
-52.8608 -24.1013 1514.94
-26.4 -46.8 2992
-32.9825 -40.3509 2624.56
-33.7931 -38.9655 2579.31
-33.7931 -38.2759 2579.31
-33.7931 -37.5862 2579.31
-33.7931 -36.8966 2579.31
-33.7931 -36.2069 2579.31
-47.8078 -24.7447 1797
-34.383 -34.383 2546.38
-34.383 -33.7021 2546.38
-34.383 -33.0213 2546.38
-34.383 -32.3404 2546.38
-34.383 -31.6596 2546.38
-34.383 -30.9787 2546.38
-34.383 -30.2979 2546.38
-34.383 -29.617 2546.38
-47.8078 -20.4204 1797
-34.383 -28.2553 2546.38
-34.383 -27.5745 2546.38
-34.5763 -26.7797 2535.59
-34.5763 -26.1017 2535.59
-34.7679 -25.3165 2524.89
-34.7679 -24.6413 2524.89
-34.7679 -23.9662 2524.89
-34.383 -23.4894 2546.38
-34.383 -22.8085 2546.38
-34.383 -22.1277 2546.38
-47.8078 -15.1351 1797
-47.8078 -14.6547 1797
-34.383 -20.0851 2546.38
-34.383 -19.4043 2546.38
-34.383 -18.7234 2546.38
-34.383 -18.0426 2546.38
-34.383 -17.3617 2546.38
-34.383 -16.6809 2546.38
-34.383 -16 2546.38
-34.383 -15.3191 2546.38
-34.5763 -14.5763 2535.59
-35.3333 -13.6667 2493.33
-34.5763 -13.2203 2535.59
-34.5763 -12.5424 2535.59
-34.383 -11.9149 2546.38
-34.383 -11.234 2546.38
-34.383 -10.5532 2546.38
-35.3333 -9.66667 2493.33
-34.383 -9.19149 2546.38
-35.3333 -8.33333 2493.33
-34.383 -7.82979 2546.38
-34.383 -7.14894 2546.38
-34.383 -6.46809 2546.38
-34.383 -5.78723 2546.38
-34.383 -5.10638 2546.38
-34.383 -4.42553 2546.38
-34.383 -3.74468 2546.38
-34.383 -3.06383 2546.38
-34.383 -2.38298 2546.38
-34.383 -1.70213 2546.38
-34.383 -1.02128 2546.38
-34.383 -0.340426 2546.38
-34.383 0.340426 2546.38
-34.188 1.02564 2557.26
-34.188 1.7094 2557.26
-34.383 2.38298 2546.38
-34.383 3.06383 2546.38
-34.383 3.74468 2546.38
-34.383 4.42553 2546.38
-34.383 5.10638 2546.38
-34.383 5.78723 2546.38
-34.383 6.46809 2546.38
-34.383 7.14894 2546.38
-34.383 7.82979 2546.38
-34.383 8.51064 2546.38
-34.383 9.19149 2546.38
-35.7025 9.58678 2472.73
-34.383 10.5532 2546.38
-34.383 11.234 2546.38
-34.383 11.9149 2546.38
-34.7679 12.4895 2524.89
-47.7108 9.39759 1802.41
-34.383 13.9574 2546.38
-45.7508 10.9904 1911.82
-45.4194 11.6129 1930.32
-36.4228 15.2846 2432.52
-36.4228 15.935 2432.52
-36.0656 16.7213 2452.46
-45.4194 13.6774 1930.32
-35.5187 18.2573 2482.99
-35.5187 18.9212 2482.99
-35.5187 19.5851 2482.99
-35.3333 20.3333 2493.33
-35.3333 21 2493.33
-35.3333 21.6667 2493.33
-35.3333 22.3333 2493.33
-35.3333 23 2493.33
-35.3333 23.6667 2493.33
-35.3333 24.3333 2493.33
-35.3333 25 2493.33
-35.1464 25.7741 2503.77
-35.1464 26.4435 2503.77
-35.3333 27 2493.33
-35.3333 27.6667 2493.33
-35.3333 28.3333 2493.33
-35.3333 29 2493.33
-35.5187 29.5436 2482.99
-35.5187 30.2075 2482.99
-35.5187 30.8714 2482.99
-35.3333 31.6667 2493.33
-35.3333 32.3333 2493.33
-38.4496 30.6977 2319.38
-38.4496 31.3178 2319.38
-49.4587 23.4758 1704.84
-49.5455 23.8636 1700
-26.4 42.8 2992
-49.3714 24.9143 1709.71
-54.4762 21.1429 1424.76
-26.4 45.2 2992
-26.4 46 2992
-28.9524 44.5714 2849.52
-26.4 47.6 2992
-29.434 45.6604 2822.64
-28.9524 46.8571 2849.52
-35.3333 41.6667 2493.33
-28.7081 48.6124 2863.16
-28.7081 49.378 2863.16
-36.4228 42.6016 2432.52
-36.4228 43.252 2432.52
-36.4228 43.9024 2432.52
-36.4228 44.5528 2432.52
-36.4228 45.2033 2432.52
-36.4228 45.8537 2432.52
-36.4228 46.5041 2432.52
-36.4228 47.1545 2432.52
-36.4228 47.8049 2432.52
-36.4228 48.4553 2432.52
-36.4228 49.1057 2432.52
-34.383 52.0851 2546.38
-36.4228 50.4065 2432.52
-36.4228 51.0569 2432.52
-36.4228 51.7073 2432.52
-36.4228 52.3577 2432.52
-36.4228 53.0081 2432.52
-36.4228 53.6585 2432.52
-36.4228 54.3089 2432.52
-36.4228 54.9594 2432.52
-36.4228 55.6098 2432.52
-36.4228 56.2602 2432.52
-36.4228 56.9106 2432.52
-36.4228 57.561 2432.52
-36.4228 58.2114 2432.52
-36.4228 58.8618 2432.52
-36.4228 59.5122 2432.52
-36.4228 60.1626 2432.52
-36.4228 60.813 2432.52
-29.6714 70.9859 2809.39
-36.0656 62.623 2452.46
-36.0656 63.2787 2452.46
-36.0656 63.9344 2452.46
-36.2449 64.3265 2442.45
-35.1464 66.6109 2503.77
-36.4228 65.3659 2432.52
-36.4228 66.0163 2432.52
-36.4228 66.6667 2432.52
-36.4228 67.3171 2432.52
-36.4228 67.9675 2432.52
-36.4228 68.6179 2432.52
-34.958 71.5966 2514.29
-34.958 72.2689 2514.29
-34.958 72.9412 2514.29
-34.958 73.6134 2514.29
-35.3333 73.6667 2493.33
-35.3333 74.3333 2493.33
-35.3333 75 2493.33
-34.7679 76.6245 2524.89
-35.1464 76.6527 2503.77
-35.1464 77.3222 2503.77
-29.1943 88.3412 2836.02
-36.4228 76.4228 2432.52
-36.7742 76.4516 2412.9
-36.7742 77.0968 2412.9
-36.7742 77.7419 2412.9
-34.958 81.6807 2514.29
-46.7081 60.8696 1858.39
-45.8599 62.9299 1905.73
-45.8599 63.4395 1905.73
-45.7508 64.1534 1911.82
-37.7953 79.685 2355.91
-36.5992 82.5911 2422.67
-36.5992 83.2389 2422.67
-30.5991 95.4839 2757.6
-36.7742 84.1936 2412.9
-36.7742 84.8387 2412.9
-36.7742 85.4839 2412.9
-37.2908 85.0996 2384.06
-37.2908 85.7371 2384.06
-31.4932 98.0995 2707.69
-36.4228 88.7805 2432.52
-36.4228 89.4309 2432.52
-36.4228 90.0813 2432.52
-36.4228 90.7317 2432.52
-36.4228 91.3821 2432.52
-45.7508 72.3323 1911.82
-36.4228 92.6829 2432.52
-36.4228 93.3333 2432.52
-34.958 97.1429 2514.29
-36.5992 94.251 2422.67
-34.5763 99.322 2535.59
-31.4932 106.787 2707.69
-35.7025 98.1818 2472.73
-31.4932 108.235 2707.69
-32.1429 107.5 2671.43
-35.1464 101.423 2503.77
-48.0952 72.619 1780.95
-36.5992 99.4332 2422.67
-34.5763 104.746 2535.59
-36.9478 99.9197 2403.21
-36.9478 100.562 2403.21
-36.9478 101.205 2403.21
-36.9478 101.847 2403.21
-36.9478 102.49 2403.21
-36.9478 103.133 2403.21
-36.7742 104.194 2412.9
-36.9478 104.418 2403.21
-36.4228 106.341 2432.52
-36.4228 106.992 2432.52
-36.4228 107.642 2432.52
-36.5992 107.854 2422.67
-37.12 107.2 2393.6
-37.9608 105.725 2346.67
-39.8502 101.573 2241.2
-39.8502 102.172 2241.2
-40 102.388 2232.84
-39.2395 104.943 2275.29
-39.8502 103.97 2241.2
-37.2908 111.235 2384.06
-37.2908 111.873 2384.06
-37.2908 112.51 2384.06
-40.5882 104.412 2200
-37.4603 113.333 2374.6
-37.4603 113.968 2374.6
-37.2908 115.06 2384.06
-37.2908 115.697 2384.06
-35.8848 120.165 2462.55
-29.1943 139.147 2836.02
-36.2449 120.49 2442.45
-26.4 148.4 2992
-26.4 149.2 2992
-32 -136.364 2720
-32 -135.636 2720
-32 -134.909 2720
-32 -134.182 2720
-32 -133.455 2720
-32 -132.727 2720
-32 -132 2720
-32 -131.273 2720
-32 -130.545 2720
-39.6947 -109.008 2283.97
-32 -129.091 2720
-32 -128.364 2720
-32 -127.636 2720
-32 -126.909 2720
-32 -126.182 2720
-32 -125.455 2720
-32.2172 -124.163 2707.69
-32.2172 -123.439 2707.69
-31.7808 -123.836 2732.42
-32 -122.545 2720
-32 -121.818 2720
-32 -121.091 2720
-32 -120.364 2720
-32.2172 -119.095 2707.69
-32.2172 -118.371 2707.69
-32.2172 -117.647 2707.69
-32.6457 -115.874 2683.41
-43.959 -87.6451 2042.32
-44.3243 -86.2162 2021.62
-27.2 -126.8 2992
-44.6823 -84.2809 2001.34
-32.2172 -113.303 2707.69
-32.2172 -112.579 2707.69
-32.2172 -111.855 2707.69
-32.2172 -111.131 2707.69
-32.2172 -110.407 2707.69
-32.2172 -109.683 2707.69
-32.2172 -108.959 2707.69
-32.2172 -108.235 2707.69
-32.2172 -107.511 2707.69
-32.2172 -106.787 2707.69
-32.2172 -106.063 2707.69
-32.2172 -105.339 2707.69
-32.2172 -104.615 2707.69
-32.2172 -103.891 2707.69
-32.2172 -103.167 2707.69
-32.2172 -102.443 2707.69
-32.2172 -101.719 2707.69
-32.2172 -100.995 2707.69
-32.2172 -100.271 2707.69
-32.2172 -99.5475 2707.69
-32.2172 -98.8235 2707.69
-32.2172 -98.0995 2707.69
-32.2172 -97.3756 2707.69
-32.2172 -96.6516 2707.69
-49.3913 -61.4493 1734.49
-32.2172 -95.2036 2707.69
-32.2172 -94.4796 2707.69
-32.2172 -93.7557 2707.69
-32.2172 -93.0317 2707.69
-32.2172 -92.3077 2707.69
-32.2172 -91.5837 2707.69
-32.2172 -90.8597 2707.69
-32.2172 -90.1357 2707.69
-32.2172 -89.4118 2707.69
-32.2172 -88.6878 2707.69
-32.2172 -87.9638 2707.69
-32.2172 -87.2398 2707.69
-32.2172 -86.5158 2707.69
-32.4324 -85.4054 2695.5
-32.2172 -85.0679 2707.69
-53.8614 -46.1386 1481.19
-32.2172 -83.6199 2707.69
-27.2 -91.6 2992
-27.2 -90.8 2992
-29.9526 -85.3081 2836.02
-43.5862 -61.5172 2063.45
-45.0331 -58.543 1981.46
-32.2172 -79.276 2707.69
-32.2172 -78.552 2707.69
-32.4324 -77.4775 2695.5
-32.4324 -76.7568 2695.5
-32.4324 -76.036 2695.5
-32.4324 -75.3153 2695.5
-32.4324 -74.5946 2695.5
-32.4324 -73.8739 2695.5
-32.4324 -73.1532 2695.5
-32.4324 -72.4324 2695.5
-27.2 -79.6 2992
-32.4324 -70.991 2695.5
-44.5638 -52.349 2008.05
-42.5532 -54.7518 2121.99
-32.4324 -68.8288 2695.5
-32.4324 -68.1081 2695.5
-32.4324 -67.3874 2695.5
-32.4324 -66.6667 2695.5
-32.4324 -65.9459 2695.5
-32.4324 -65.2252 2695.5
-32.4324 -64.5045 2695.5
-32.4324 -63.7838 2695.5
-32.4324 -63.0631 2695.5
-32.4324 -62.3423 2695.5
-32.4324 -61.6216 2695.5
-32.4324 -60.9009 2695.5
-32.4324 -60.1802 2695.5
-32.4324 -59.4595 2695.5
-32.4324 -58.7387 2695.5
-32.4324 -58.018 2695.5
-32.4324 -57.2973 2695.5
-32.4324 -56.5766 2695.5
-32.4324 -55.8559 2695.5
-32.4324 -55.1351 2695.5
-32.4324 -54.4144 2695.5
-32.4324 -53.6937 2695.5
-32.4324 -52.973 2695.5
-32.4324 -52.2523 2695.5
-32.4324 -51.5315 2695.5
-32.4324 -50.8108 2695.5
-32.4324 -50.0901 2695.5
-32.4324 -49.3694 2695.5
-32.4324 -48.6486 2695.5
-32.4324 -47.9279 2695.5
-32.4324 -47.2072 2695.5
-32.4324 -46.4865 2695.5
-32.4324 -45.7658 2695.5
-32.4324 -45.045 2695.5
-52.4282 -25.6919 1562.4
-32.4324 -43.6036 2695.5
-49.7421 -27.2779 1714.61
-33.8865 -40.8734 2613.1
-33.6842 -40.3509 2624.56
-28.2353 -44.3137 2933.33
-34.4828 -38.2759 2579.31
-34.4828 -37.5862 2579.31
-34.4828 -36.8966 2579.31
-34.4828 -36.2069 2579.31
-34.8718 -35.2137 2557.26
-34.8718 -34.5299 2557.26
-48.6647 -23.5015 1775.67
-35.0638 -33.0213 2546.38
-35.0638 -32.3404 2546.38
-35.0638 -31.6596 2546.38
-34.8718 -31.1111 2557.26
-48.5714 -21.1905 1780.95
-34.8718 -29.7436 2557.26
-48.2883 -20.4204 1797
-35.0638 -28.2553 2546.38
-35.0638 -27.5745 2546.38
-35.0638 -26.8936 2546.38
-35.0638 -26.2128 2546.38
-35.0638 -25.5319 2546.38
-48.2883 -17.5375 1797
-48.8496 -16.7552 1765.19
-35.0638 -23.4894 2546.38
-35.0638 -22.8085 2546.38
-35.0638 -22.1277 2546.38
-35.0638 -21.4468 2546.38
-35.0638 -20.766 2546.38
-35.0638 -20.0851 2546.38
-27.2 -22.8 2992
-35.0638 -18.7234 2546.38
-35.0638 -18.0426 2546.38
-35.0638 -17.3617 2546.38
-48.1928 -11.8072 1802.41
-35.6303 -15.7983 2514.29
-36 -15 2493.33
-36.3636 -14.2149 2472.73
-36.1826 -13.61 2482.99
-35.2542 -13.2203 2535.59
-43.0769 -10.3497 2092.31
-35.0638 -11.9149 2546.38
-35.0638 -11.234 2546.38
-35.443 -10.4641 2524.89
-35.443 -9.78903 2524.89
-35.2542 -9.15254 2535.59
-36.3636 -8.26446 2472.73
-35.2542 -7.79661 2535.59
-35.0638 -7.14894 2546.38
-35.0638 -6.46809 2546.38
-35.0638 -5.78723 2546.38
-35.0638 -5.10638 2546.38
-35.0638 -4.42553 2546.38
-35.0638 -3.74468 2546.38
-35.0638 -3.06383 2546.38
-35.0638 -2.38298 2546.38
-35.0638 -1.70213 2546.38
-35.0638 -1.02128 2546.38
-35.0638 -0.340426 2546.38
-35.0638 0.340426 2546.38
-35.0638 1.02128 2546.38
-35.0638 1.70213 2546.38
-35.0638 2.38298 2546.38
-35.0638 3.06383 2546.38
-35.0638 3.74468 2546.38
-35.0638 4.42553 2546.38
-35.0638 5.10638 2546.38
-35.0638 5.78723 2546.38
-37.247 6.15385 2422.67
-37.247 6.80162 2422.67
-37.247 7.44939 2422.67
-35.0638 8.51064 2546.38
-35.0638 9.19149 2546.38
-35.6303 9.7479 2514.29
-46.3694 7.89809 1905.73
-37.5904 10.6024 2403.21
-37.5904 11.245 2403.21
-37.4194 11.9355 2412.9
-35.0638 13.2766 2546.38
-35.2542 13.8983 2535.59
-35.2542 14.5763 2535.59
-37.0732 14.6341 2432.52
-37.0732 15.2846 2432.52
-36.3636 16.1983 2472.73
-48.4776 12.1791 1786.27
-45.9355 13.6774 1930.32
-45.9355 14.1935 1930.32
-36.1826 18.9212 2482.99
-36.1826 19.5851 2482.99
-36 20.3333 2493.33
-36 21 2493.33
-36 21.6667 2493.33
-36 22.3333 2493.33
-36 23 2493.33
-36 23.6667 2493.33
-36 24.3333 2493.33
-35.8159 25.1046 2503.77
-35.8159 25.7741 2503.77
-35.8159 26.4435 2503.77
-36 27 2493.33
-36 27.6667 2493.33
-36 28.3333 2493.33
-36 29 2493.33
-36.1826 29.5436 2482.99
-36.1826 30.2075 2482.99
-36.1826 30.8714 2482.99
-27.2 38 2992
-48.2883 23.3033 1797
-36.1826 32.8631 2482.99
-50 22.9545 1700
-50.085 23.3428 1695.18
-50.085 23.796 1695.18
-27.2 42.8 2992
-27.2 43.6 2992
-27.2 44.4 2992
-27.2 45.2 2992
-50.085 26.0623 1695.18
-27.2 46.8 2992
-54.8571 22.6667 1424.76
-29.4737 46.3158 2863.16
-29.4737 47.0813 2863.16
-35.6303 42.0168 2514.29
-50.3371 28.5393 1680.9
-36 43 2493.33
-36.898 42.7755 2442.45
-37.0732 43.252 2432.52
-37.0732 43.9024 2432.52
-37.0732 44.5528 2432.52
-37.0732 45.2033 2432.52
-37.0732 45.8537 2432.52
-37.0732 46.5041 2432.52
-37.0732 47.1545 2432.52
-37.0732 47.8049 2432.52
-37.0732 48.4553 2432.52
-37.0732 49.1057 2432.52
-37.0732 49.7561 2432.52
-37.0732 50.4065 2432.52
-37.0732 51.0569 2432.52
-37.0732 51.7073 2432.52
-37.0732 52.3577 2432.52
-37.0732 53.0081 2432.52
-37.0732 53.6585 2432.52
-37.0732 54.3089 2432.52
-37.0732 54.9594 2432.52
-37.0732 55.6098 2432.52
-37.0732 56.2602 2432.52
-37.0732 56.9106 2432.52
-37.0732 57.561 2432.52
-37.0732 58.2114 2432.52
-37.0732 58.8618 2432.52
-37.0732 59.5122 2432.52
-37.0732 60.1626 2432.52
-37.0732 60.813 2432.52
-36.898 61.7143 2442.45
-36.7213 62.623 2452.46
-36.7213 63.2787 2452.46
-36.7213 63.9344 2452.46
-36.898 64.3265 2442.45
-31.1111 73.7037 2770.37
-37.0732 65.3659 2432.52
-37.0732 66.0163 2432.52
-37.0732 66.6667 2432.52
-37.0732 67.3171 2432.52
-36.1826 69.3776 2482.99
-35.8159 70.6276 2503.77
-35.8159 71.2971 2503.77
-35.8159 71.9665 2503.77
-35.8159 72.636 2503.77
-35.8159 73.3054 2503.77
-36 73.6667 2493.33
-36 74.3333 2493.33
-36 75 2493.33
-33.8865 79.3013 2613.1
-33.8865 80 2613.1
-30.1887 87.1698 2822.64
-29.9526 88.3412 2836.02
-37.0732 76.4228 2432.52
-37.4194 76.4516 2412.9
-36.5432 78.6831 2462.55
-36.5432 79.3416 2462.55
-37.0732 79.0244 2432.52
-47.205 60.8696 1858.39
-27.7228 97.8218 2962.38
-48.0967 60.1813 1807.85
-47 62.75 1870
-46.4762 64.254 1899.68
-37.247 82.5911 2422.67
-37.247 83.2389 2422.67
-37.247 83.8866 2422.67
-37.247 84.5344 2422.67
-37.247 85.1822 2422.67
-37.247 85.83 2422.67
-37.247 86.4777 2422.67
-37.247 87.1255 2422.67
-32.4324 97.6577 2695.5
-32 99.2727 2720
-36.5432 90.535 2462.55
-37.0732 90.0813 2432.52
-37.0732 90.7317 2432.52
-37.0732 91.3821 2432.52
-37.0732 92.0325 2432.52
-35.443 96.2025 2524.89
-37.247 92.9555 2422.67
-35.8159 96.7364 2503.77
-37.247 94.251 2422.67
-32.6457 105.112 2683.41
-37.4194 95.1613 2412.9
-33.4802 104.67 2636.12
-50 67.9545 1700
-49.3023 70 1739.53
-37.5904 97.3494 2403.21
-50.4202 68.3473 1676.19
-50.3371 68.9888 1680.9
-35.2542 104.746 2535.59
-37.5904 99.9197 2403.21
-37.5904 100.562 2403.21
-37.5904 101.205 2403.21
-37.5904 101.847 2403.21
-37.5904 102.49 2403.21
-37.5904 103.133 2403.21
-37.5904 103.775 2403.21
-37.5904 104.418 2403.21
-37.5904 105.06 2403.21
-38.75 102.812 2337.5
-37.0732 107.642 2432.52
-37.4194 107.419 2412.9
-37.76 107.2 2393.6
-39.3846 103.692 2301.54
-40.7435 100.818 2224.54
-40.7435 101.413 2224.54
-37.76 109.76 2393.6
-37.76 110.4 2393.6
-40.4494 103.97 2241.2
-37.9283 111.235 2384.06
-37.9283 111.873 2384.06
-37.9283 112.51 2384.06
-41.1765 104.412 2200
-41.1765 105 2200
-41.4599 104.818 2183.94
-41.6 105.018 2176
-37.247 117.571 2422.67
-29.7143 139.048 2849.52
-37.9283 116.972 2384.06
-38.0952 117.143 2374.6
-27.2 148.4 2992
-27.2 149.2 2992
-32.7273 -136.364 2720
-32.7273 -135.636 2720
-32.7273 -134.909 2720
-32.7273 -134.182 2720
-32.7273 -133.455 2720
-32.7273 -132.727 2720
-32.7273 -132 2720
-32.7273 -131.273 2720
-32.7273 -130.545 2720
-28 -142.8 2992
-32.7273 -129.091 2720
-32.7273 -128.364 2720
-32.7273 -127.636 2720
-32.7273 -126.909 2720
-32.7273 -126.182 2720
-32.7273 -125.455 2720
-32.9412 -124.163 2707.69
-32.9412 -123.439 2707.69
-32.7273 -123.273 2720
-32.7273 -122.545 2720
-32.7273 -121.818 2720
-32.7273 -121.091 2720
-32.7273 -120.364 2720
-32.9412 -119.095 2707.69
-32.9412 -118.371 2707.69
-32.9412 -117.647 2707.69
-32.9412 -116.923 2707.69
-32.7273 -116.727 2720
-32.7273 -116 2720
-32.7273 -115.273 2720
-32.9412 -114.027 2707.69
-32.9412 -113.303 2707.69
-32.9412 -112.579 2707.69
-32.9412 -111.855 2707.69
-32.9412 -111.131 2707.69
-32.9412 -110.407 2707.69
-32.9412 -109.683 2707.69
-32.9412 -108.959 2707.69
-32.9412 -108.235 2707.69
-32.9412 -107.511 2707.69
-32.9412 -106.787 2707.69
-32.9412 -106.063 2707.69
-32.9412 -105.339 2707.69
-32.9412 -104.615 2707.69
-32.9412 -103.891 2707.69
-32.9412 -103.167 2707.69
-32.9412 -102.443 2707.69
-32.9412 -101.719 2707.69
-32.9412 -100.995 2707.69
-32.9412 -100.271 2707.69
-32.9412 -99.5475 2707.69
-32.9412 -98.8235 2707.69
-32.9412 -98.0995 2707.69
-49.6793 -62.7405 1744.61
-49.2308 -63.1953 1770.41
-36.3025 -89.0756 2514.29
-53.6041 -53.401 1518.78
-32.9412 -94.4796 2707.69
-32.9412 -93.7557 2707.69
-32.9412 -93.0317 2707.69
-32.9412 -92.3077 2707.69
-32.9412 -91.5837 2707.69
-32.9412 -90.8597 2707.69
-32.9412 -90.1357 2707.69
-32.9412 -89.4118 2707.69
-32.9412 -88.6878 2707.69
-32.9412 -87.9638 2707.69
-32.9412 -87.2398 2707.69
-33.1532 -86.1261 2695.5
-28 -94.8 2992
-32.9412 -85.0679 2707.69
-54.2574 -46.1386 1481.19
-43.3803 -65.0704 2107.04
-33.1532 -82.5225 2695.5
-33.1532 -81.8018 2695.5
-39.6899 -69.7674 2319.38
-32.9412 -80.724 2707.69
-32.9412 -80 2707.69
-32.9412 -79.276 2707.69
-33.1532 -78.1982 2695.5
-40.9023 -64.6617 2249.62
-33.1532 -76.7568 2695.5
-33.1532 -76.036 2695.5
-33.1532 -75.3153 2695.5
-33.1532 -74.5946 2695.5
-33.1532 -73.8739 2695.5
-33.1532 -73.1532 2695.5
-33.1532 -72.4324 2695.5
-48.0982 -48.8344 1835.58
-33.1532 -70.991 2695.5
-33.1532 -70.2703 2695.5
-28 -77.2 2992
-33.1532 -68.8288 2695.5
-33.1532 -68.1081 2695.5
-33.1532 -67.3874 2695.5
-33.1532 -66.6667 2695.5
-33.1532 -65.9459 2695.5
-33.1532 -65.2252 2695.5
-32.7273 -65.0909 2720
-32.7273 -64.3636 2720
-32.9412 -63.3484 2707.69
-33.1532 -62.3423 2695.5
-33.1532 -61.6216 2695.5
-33.1532 -60.9009 2695.5
-33.1532 -60.1802 2695.5
-33.1532 -59.4595 2695.5
-33.1532 -58.7387 2695.5
-33.1532 -58.018 2695.5
-33.1532 -57.2973 2695.5
-33.1532 -56.5766 2695.5
-33.1532 -55.8559 2695.5
-33.1532 -55.1351 2695.5
-33.1532 -54.4144 2695.5
-33.1532 -53.6937 2695.5
-33.1532 -52.973 2695.5
-33.1532 -52.2523 2695.5
-33.1532 -51.5315 2695.5
-33.1532 -50.8108 2695.5
-33.1532 -50.0901 2695.5
-33.1532 -49.3694 2695.5
-33.1532 -48.6486 2695.5
-33.1532 -47.9279 2695.5
-33.1532 -47.2072 2695.5
-33.1532 -46.4865 2695.5
-33.1532 -45.7658 2695.5
-33.1532 -45.045 2695.5
-52.9167 -25.625 1558.33
-33.1532 -43.6036 2695.5
-33.3632 -42.6906 2683.41
-33.3632 -41.9731 2683.41
-33.3632 -41.2556 2683.41
-43.8889 -31.3889 2077.78
-39.6899 -34.4186 2319.38
-35.1724 -37.5862 2579.31
-35.1724 -36.8966 2579.31
-35.1724 -36.2069 2579.31
-35.1724 -35.5172 2579.31
-35.5556 -34.5299 2557.26
-49.1395 -23.5015 1775.67
-31.8519 -35.9259 2770.37
-48.7688 -22.8228 1797
-35.5556 -31.7949 2557.26
-35.5556 -31.1111 2557.26
-35.5556 -30.4274 2557.26
-43.6364 -24.3357 2092.31
-48.8623 -20.3593 1791.62
-48.7688 -19.9399 1797
-35.5556 -27.6923 2557.26
-36.1181 -26.6667 2524.89
-48.9552 -18.3881 1786.27
-48.8623 -17.9641 1791.62
-48.7688 -17.5375 1797
-49.3215 -16.7552 1765.19
-49.3215 -16.2832 1765.19
-35.7447 -22.8085 2546.38
-35.7447 -22.1277 2546.38
-35.7447 -21.4468 2546.38
-35.7447 -20.766 2546.38
-35.7447 -20.0851 2546.38
-35.7447 -19.4043 2546.38
-35.7447 -18.7234 2546.38
-35.7447 -18.0426 2546.38
-48.6747 -12.2892 1802.41
-48.7688 -11.7718 1797
-48.7688 -11.2913 1797
-37.0248 -14.876 2472.73
-37.0248 -14.2149 2472.73
-36.8465 -13.61 2482.99
-36.1181 -13.1646 2524.89
-35.7447 -12.5957 2546.38
-35.9322 -11.8644 2535.59
-35.7447 -11.234 2546.38
-35.7447 -10.5532 2546.38
-35.7447 -9.87234 2546.38
-37.0248 -8.92562 2472.73
-35.7447 -8.51064 2546.38
-36.1181 -7.76371 2524.89
-34.185 -7.40088 2636.12
-37.377 -6.22951 2452.46
-37.377 -5.57377 2452.46
-35.7447 -5.10638 2546.38
-35.7447 -4.42553 2546.38
-35.7447 -3.74468 2546.38
-35.7447 -3.06383 2546.38
-35.7447 -2.38298 2546.38
-35.7447 -1.70213 2546.38
-35.7447 -1.02128 2546.38
-35.7447 -0.340426 2546.38
-35.7447 0.340426 2546.38
-35.7447 1.02128 2546.38
-35.7447 1.70213 2546.38
-35.7447 2.38298 2546.38
-35.7447 3.06383 2546.38
-35.7447 3.74468 2546.38
-35.7447 4.42553 2546.38
-35.7447 5.10638 2546.38
-35.7447 5.78723 2546.38
-35.7447 6.46809 2546.38
-35.7447 7.14894 2546.38
-35.7447 7.82979 2546.38
-35.7447 8.51064 2546.38
-35.7447 9.19149 2546.38
-35.7447 9.87234 2546.38
-35.7447 10.5532 2546.38
-38.0645 10.6452 2412.9
-35.7447 11.9149 2546.38
-46.9841 9.39683 1899.68
-35.9322 13.2203 2535.59
-37.377 13.4426 2452.46
-37.377 14.0984 2452.46
-38.0645 14.5161 2412.9
-37.551 15.3469 2442.45
-37.2016 16.1317 2462.55
-46.5595 13.119 1924.12
-46.4516 13.6774 1930.32
-46.4516 14.1935 1930.32
-36.6667 19 2493.33
-36.6667 19.6667 2493.33
-36.6667 20.3333 2493.33
-36.6667 21 2493.33
-36.6667 21.6667 2493.33
-36.6667 22.3333 2493.33
-36.6667 23 2493.33
-36.6667 23.6667 2493.33
-36.6667 24.3333 2493.33
-36.6667 25 2493.33
-36.6667 25.6667 2493.33
-36.6667 26.3333 2493.33
-36.6667 27 2493.33
-36.8465 27.5519 2482.99
-40 26.1538 2301.54
-40 26.7692 2301.54
-36.8465 29.5436 2482.99
-36.8465 30.2075 2482.99
-36.8465 30.8714 2482.99
-36.8465 31.5353 2482.99
-50.3704 22.1083 1704.84
-50.5382 22.4363 1695.18
-50.5382 22.8895 1695.18
-50.6215 23.2768 1690.4
-50.6215 23.7288 1690.4
-28 42.8 2992
-28 43.6 2992
-28 44.4 2992
-36.8465 37.5104 2482.99
-53.4015 23.5294 1530.43
-55.2381 22.2857 1424.76
-55.2381 22.6667 1424.76
-30.2392 46.3158 2863.16
-45.2174 32.9097 2001.34
-50.4545 28.4091 1700
-36.4854 42.5105 2503.77
-36.6667 43 2493.33
-36.3025 44.0336 2514.29
-37.7236 43.252 2432.52
-37.7236 43.9024 2432.52
-37.7236 44.5528 2432.52
-37.7236 45.2033 2432.52
-37.7236 45.8537 2432.52
-37.7236 46.5041 2432.52
-37.7236 47.1545 2432.52
-37.7236 47.8049 2432.52
-37.7236 48.4553 2432.52
-37.7236 49.1057 2432.52
-37.7236 49.7561 2432.52
-37.7236 50.4065 2432.52
-37.7236 51.0569 2432.52
-37.7236 51.7073 2432.52
-37.7236 52.3577 2432.52
-37.7236 53.0081 2432.52
-37.7236 53.6585 2432.52
-37.7236 54.3089 2432.52
-37.7236 54.9594 2432.52
-37.7236 55.6098 2432.52
-37.7236 56.2602 2432.52
-37.7236 56.9106 2432.52
-37.7236 57.561 2432.52
-37.7236 58.2114 2432.52
-37.7236 58.8618 2432.52
-37.7236 59.5122 2432.52
-37.7236 60.1626 2432.52
-51.3499 41.2121 1648.48
-37.551 61.7143 2442.45
-52.3404 40.6383 1591.49
-37.377 63.2787 2452.46
-37.551 63.6735 2442.45
-37.551 64.3265 2442.45
-28 79.6 2992
-37.7236 65.3659 2432.52
-37.7236 66.0163 2432.52
-30.2392 78.4689 2863.16
-36.4854 69.2887 2503.77
-36.4854 69.9582 2503.77
-36.4854 70.6276 2503.77
-36.4854 71.2971 2503.77
-36.4854 71.9665 2503.77
-31.4019 81.1215 2796.26
-36.6667 73 2493.33
-31.4019 82.6168 2796.26
-36.8465 74.0249 2482.99
-31.4019 84.1122 2796.26
-31.4019 84.8598 2796.26
-31.1737 86.0094 2809.39
-37.0248 76.3636 2472.73
-37.0248 77.0248 2472.73
-37.2016 77.3663 2462.55
-37.377 77.7049 2452.46
-37.377 78.3607 2452.46
-37.377 79.0164 2452.46
-37.2016 80 2462.55
-37.2016 80.6584 2462.55
-28.5149 97.8218 2962.38
-36.1181 84.0506 2524.89
-37.7236 81.626 2432.52
-37.7236 82.2764 2432.52
-37.7236 82.9268 2432.52
-37.8947 83.2389 2422.67
-37.8947 83.8866 2422.67
-37.8947 84.5344 2422.67
-37.8947 85.1822 2422.67
-37.8947 85.83 2422.67
-37.8947 86.4777 2422.67
-37.7236 87.4797 2432.52
-37.7236 88.1301 2432.52
-36.8465 90.6224 2482.99
-49.5906 64.3275 1749.71
-49.5906 64.7953 1749.71
-33.5714 99.6429 2671.43
-36.4854 94.0586 2503.77
-37.7236 92.0325 2432.52
-37.7236 92.6829 2432.52
-37.8947 92.9555 2422.67
-37.8947 93.6032 2422.67
-50.7865 65.3933 1680.9
-50.7865 65.8427 1680.9
-34.5852 103.057 2613.1
-34.5852 103.755 2613.1
-34.9784 103.55 2590.48
-34.9784 104.242 2590.48
-35.1724 104.483 2579.31
-50.8683 68.3473 1676.19
-38.0645 99.0323 2412.9
-38.0645 99.6774 2412.9
-38.2329 99.9197 2403.21
-38.2329 100.562 2403.21
-38.2329 101.205 2403.21
-38.2329 101.847 2403.21
-38.2329 102.49 2403.21
-38.2329 103.133 2403.21
-38.2329 103.775 2403.21
-38.2329 104.418 2403.21
-38.2329 105.06 2403.21
-38.2329 105.703 2403.21
-38.0645 106.774 2412.9
-38.2329 106.988 2403.21
-38.5657 106.773 2384.06
-38.7302 106.984 2374.6
-39.375 105.938 2337.5
-41.7647 100.294 2200
-43.8889 95.2778 2077.78
-40.7547 104.151 2258.11
-41.0487 103.97 2241.2
-38.5657 111.235 2384.06
-38.5657 111.873 2384.06
-38.5657 112.51 2384.06
-40.1533 108.812 2292.72
-40.1533 109.425 2292.72
-38.7302 113.968 2374.6
-42.1818 105.018 2176
-39.0551 114.331 2355.91
-38.7302 115.873 2374.6
-38.7302 116.508 2374.6
-38.7302 117.143 2374.6
-28 148.4 2992
-28 149.2 2992
-33.4545 -136.364 2720
-33.4545 -135.636 2720
-33.4545 -134.909 2720
-33.4545 -134.182 2720
-33.4545 -133.455 2720
-33.4545 -132.727 2720
-33.4545 -132 2720
-33.4545 -131.273 2720
-33.4545 -130.545 2720
-28.8 -142.8 2992
-33.6652 -128.507 2707.69
-33.6652 -127.783 2707.69
-33.4545 -127.636 2720
-33.4545 -126.909 2720
-33.4545 -126.182 2720
-33.4545 -125.455 2720
-33.4545 -124.727 2720
-33.6652 -123.439 2707.69
-33.4545 -123.273 2720
-33.4545 -122.545 2720
-33.4545 -121.818 2720
-33.4545 -121.091 2720
-33.4545 -120.364 2720
-33.6652 -119.095 2707.69
-33.6652 -118.371 2707.69
-33.6652 -117.647 2707.69
-33.6652 -116.923 2707.69
-33.4545 -116.727 2720
-33.6652 -115.475 2707.69
-38.7097 -102.258 2412.9
-33.6652 -114.027 2707.69
-33.6652 -113.303 2707.69
-33.6652 -112.579 2707.69
-33.6652 -111.855 2707.69
-33.6652 -111.131 2707.69
-33.6652 -110.407 2707.69
-33.6652 -109.683 2707.69
-33.6652 -108.959 2707.69
-33.6652 -108.235 2707.69
-33.6652 -107.511 2707.69
-33.6652 -106.787 2707.69
-33.6652 -106.063 2707.69
-33.6652 -105.339 2707.69
-33.6652 -104.615 2707.69
-51.5556 -63.7778 1662.22
-33.4545 -103.636 2720
-33.4545 -102.909 2720
-33.4545 -102.182 2720
-33.4545 -101.455 2720
-51.6343 -61.385 1657.62
-53.7436 -56.4103 1534.36
-51.1549 -61.5211 1685.63
-50.1458 -63.207 1744.61
-50.1458 -62.7405 1744.61
-50.3188 -61.913 1734.49
-33.6652 -95.9276 2707.69
-33.6652 -95.2036 2707.69
-33.6652 -94.4796 2707.69
-33.6652 -93.7557 2707.69
-33.6652 -93.0317 2707.69
-33.6652 -92.3077 2707.69
-33.6652 -91.5837 2707.69
-33.6652 -90.8597 2707.69
-33.6652 -90.1357 2707.69
-33.8739 -89.009 2695.5
-33.6652 -88.6878 2707.69
-33.8739 -87.5676 2695.5
-33.8739 -86.8468 2695.5
-33.6652 -86.5158 2707.69
-33.6652 -85.7919 2707.69
-28.8 -94 2992
-45.0512 -63.6177 2042.32
-43.1655 -66.4748 2152.52
-33.6652 -82.8959 2707.69
-33.6652 -82.1719 2707.69
-33.6652 -81.448 2707.69
-33.6652 -80.724 2707.69
-33.6652 -80 2707.69
-33.6652 -79.276 2707.69
-44.4444 -60.2778 2077.78
-28.8 -86 2992
-28.8 -85.2 2992
-45.5219 -56.835 2014.81
-46.7532 -54.2857 1942.86
-33.8739 -74.5946 2695.5
-33.8739 -73.8739 2695.5
-33.8739 -73.1532 2695.5
-33.8739 -72.4324 2695.5
-34.0807 -71.3901 2683.41
-45.0512 -53.7884 2042.32
-45.0512 -53.2423 2042.32
-33.8739 -69.5496 2695.5
-33.8739 -68.8288 2695.5
-33.8739 -68.1081 2695.5
-33.8739 -67.3874 2695.5
-33.8739 -66.6667 2695.5
-33.8739 -65.9459 2695.5
-33.8739 -65.2252 2695.5
-33.6652 -64.7964 2707.69
-33.6652 -64.0724 2707.69
-33.8739 -63.0631 2695.5
-33.8739 -62.3423 2695.5
-33.8739 -61.6216 2695.5
-33.8739 -60.9009 2695.5
-33.8739 -60.1802 2695.5
-33.8739 -59.4595 2695.5
-33.8739 -58.7387 2695.5
-33.8739 -58.018 2695.5
-33.8739 -57.2973 2695.5
-33.8739 -56.5766 2695.5
-33.8739 -55.8559 2695.5
-53.6082 -31.5464 1542.27
-33.8739 -54.4144 2695.5
-33.8739 -53.6937 2695.5
-33.8739 -52.973 2695.5
-33.8739 -52.2523 2695.5
-33.8739 -51.5315 2695.5
-33.8739 -50.8108 2695.5
-33.8739 -50.0901 2695.5
-33.8739 -49.3694 2695.5
-33.8739 -48.6486 2695.5
-33.8739 -47.9279 2695.5
-33.8739 -47.2072 2695.5
-33.8739 -46.4865 2695.5
-33.8739 -45.7658 2695.5
-34.0807 -44.843 2683.41
-34.2857 -43.9286 2671.43
-33.8739 -43.6036 2695.5
-33.8739 -42.8829 2695.5
-34.0807 -41.9731 2683.41
-34.0807 -41.2556 2683.41
-34.0807 -40.5381 2683.41
-54.7783 -21.8719 1473.89
-54.7783 -21.4778 1473.89
-33.8739 -38.5586 2695.5
-33.8739 -37.8378 2695.5
-33.6652 -37.2851 2707.69
-33.6652 -36.5611 2707.69
-32.3721 -36.8372 2783.26
-32.8111 -35.7604 2757.6
-33.0275 -34.8624 2744.95
-36.2393 -31.7949 2557.26
-36.2393 -31.1111 2557.26
-36.2393 -30.4274 2557.26
-36.2393 -29.7436 2557.26
-36.2393 -29.0598 2557.26
-36.2393 -28.3761 2557.26
-36.2393 -27.6923 2557.26
-44.9315 -21.6438 2049.32
-36.6102 -26.1017 2535.59
-49.6142 -17.8042 1775.67
-36.2393 -24.9573 2557.26
-36.2393 -24.2735 2557.26
-36.2393 -23.5897 2557.26
-36.2393 -22.906 2557.26
-36.2393 -22.2222 2557.26
-36.4255 -21.4468 2546.38
-36.4255 -20.766 2546.38
-36.4255 -20.0851 2546.38
-36.4255 -19.4043 2546.38
-36.4255 -18.7234 2546.38
-36.6102 -17.9661 2535.59
-36.4255 -17.3617 2546.38
-48.589 -12.0245 1835.58
-48.589 -11.5337 1835.58
-37.8601 -14.8148 2462.55
-37.8601 -14.1564 2462.55
-36.9748 -13.7815 2514.29
-36.2393 -13.3333 2557.26
-36.2393 -12.6496 2557.26
-36.2393 -11.9658 2557.26
-36.4255 -11.234 2546.38
-36.4255 -10.5532 2546.38
-36.4255 -9.87234 2546.38
-36.4255 -9.19149 2546.38
-36.4255 -8.51064 2546.38
-36.4255 -7.82979 2546.38
-36.4255 -7.14894 2546.38
-38.2041 -6.20408 2442.45
-38.2041 -5.55102 2442.45
-36.6102 -5.08475 2535.59
-36.4255 -4.42553 2546.38
-36.4255 -3.74468 2546.38
-36.4255 -3.06383 2546.38
-36.4255 -2.38298 2546.38
-36.4255 -1.70213 2546.38
-36.4255 -1.02128 2546.38
-36.4255 -0.340426 2546.38
-36.4255 0.340426 2546.38
-36.4255 1.02128 2546.38
-36.4255 1.70213 2546.38
-36.4255 2.38298 2546.38
-36.4255 3.06383 2546.38
-39.3651 3.49206 2374.6
-36.4255 4.42553 2546.38
-36.4255 5.10638 2546.38
-36.4255 5.78723 2546.38
-36.4255 6.46809 2546.38
-36.4255 7.14894 2546.38
-36.4255 7.82979 2546.38
-36.4255 8.51064 2546.38
-36.4255 9.19149 2546.38
-36.4255 9.87234 2546.38
-36.4255 10.5532 2546.38
-36.4255 11.234 2546.38
-39.04 11.2 2393.6
-39.04 11.84 2393.6
-37.3333 13 2493.33
-38.0328 13.4426 2452.46
-38.0328 14.0984 2452.46
-37.8601 14.8148 2462.55
-37.8601 15.4733 2462.55
-50.4046 11.3295 1729.48
-51.5556 11.3333 1662.22
-51.3966 11.8436 1671.51
-51.3966 12.2905 1671.51
-37.3333 19 2493.33
-37.3333 19.6667 2493.33
-37.3333 20.3333 2493.33
-37.3333 21 2493.33
-37.3333 21.6667 2493.33
-37.3333 22.3333 2493.33
-37.3333 23 2493.33
-44.5675 19.654 2070.59
-37.3333 24.3333 2493.33
-37.3333 25 2493.33
-37.5104 25.5602 2482.99
-37.5104 26.2241 2482.99
-37.5104 26.888 2482.99
-37.5104 27.5519 2482.99
-37.5104 28.2158 2482.99
-37.5104 28.8797 2482.99
-40.7663 27.2797 2292.72
-50.7429 20.8 1709.71
-41.5038 27.9699 2249.62
-37.5104 31.5353 2482.99
-50.8262 22.1083 1704.84
-40.7663 30.3448 2292.72
-50.9915 22.8895 1695.18
-50.9915 23.3428 1695.18
-50.9915 23.796 1695.18
-50.9915 24.2493 1695.18
-29.8039 42.7451 2933.33
-55.5024 21.244 1431.58
-31.4692 42.8436 2836.02
-55.5609 21.957 1428.16
-46.4262 30.6885 1961.97
-55.2657 22.9952 1445.41
-33.4545 44 2720
-30.0488 48 2919.02
-38.374 40.6504 2432.52
-33.0275 46.6055 2744.95
-37.3333 43 2493.33
-38.374 42.6016 2432.52
-38.374 43.252 2432.52
-38.374 43.9024 2432.52
-38.374 44.5528 2432.52
-38.374 45.2033 2432.52
-38.374 45.8537 2432.52
-38.374 46.5041 2432.52
-38.374 47.1545 2432.52
-38.374 47.8049 2432.52
-38.374 48.4553 2432.52
-38.374 49.1057 2432.52
-38.374 49.7561 2432.52
-38.374 50.4065 2432.52
-38.374 51.0569 2432.52
-38.374 51.7073 2432.52
-38.374 52.3577 2432.52
-38.374 53.0081 2432.52
-38.374 53.6585 2432.52
-38.374 54.3089 2432.52
-38.374 54.9594 2432.52
-38.374 55.6098 2432.52
-38.374 56.2602 2432.52
-38.374 56.9106 2432.52
-38.374 57.561 2432.52
-38.374 58.2114 2432.52
-38.374 58.8618 2432.52
-38.374 59.5122 2432.52
-38.374 60.1626 2432.52
-38.374 60.813 2432.52
-52.6933 40.32 1595.73
-52.6933 40.7467 1595.73
-38.0328 63.2787 2452.46
-37.686 64.4628 2472.73
-38.374 64.065 2432.52
-36.9748 66.8908 2514.29
-36.9748 67.563 2514.29
-36.9748 68.2353 2514.29
-36.9748 68.9076 2514.29
-37.1548 69.2887 2503.77
-36.7932 70.5485 2524.89
-37.1548 70.6276 2503.77
-37.1548 71.2971 2503.77
-32.3721 80 2783.26
-32.3721 80.7442 2783.26
-37.8601 72.0988 2462.55
-37.8601 72.7572 2462.55
-37.8601 73.4156 2462.55
-37.8601 74.0741 2462.55
-37.8601 74.7325 2462.55
-37.8601 75.3909 2462.55
-37.8601 76.0494 2462.55
-37.8601 76.7078 2462.55
-37.8601 77.3663 2462.55
-38.0328 77.7049 2452.46
-38.0328 78.3607 2452.46
-37.8601 79.3416 2462.55
-37.8601 80 2462.55
-38.0328 80.3279 2452.46
-38.0328 80.9836 2452.46
-38.0328 81.6393 2452.46
-36.6102 85.0847 2535.59
-38.374 82.2764 2432.52
