3.27138 -12.1933 2224.54
3.27138 -11.5985 2224.54
3.27138 -11.0037 2224.54
3.27138 -10.4089 2224.54
3.27138 -9.81413 2224.54
3.27138 -9.21933 2224.54
3.27138 -8.62454 2224.54
3.27138 -8.02974 2224.54
3.27138 -7.43494 2224.54
-4.83221 -6.1745 2008.05
-5.08361 -5.61873 2001.34
15.7265 -6.49573 2557.26
15.7265 -5.81197 2557.26
1.45455 -4.36364 2176
1.45455 -3.78182 2176
1.45455 -3.2 2176
1.45455 -2.61818 2176
1.75182 -2.0438 2183.94
1.75182 -1.45985 2183.94
1.75182 -0.875912 2183.94
1.75182 -0.291971 2183.94
1.75182 0.291971 2183.94
1.75182 0.875912 2183.94
1.75182 1.45985 2183.94
1.75182 2.0438 2183.94
1.75182 2.62774 2183.94
1.75182 3.21168 2183.94
1.75182 3.79562 2183.94
1.75182 4.37956 2183.94
1.75182 4.9635 2183.94
1.45455 5.52727 2176
1.75182 6.13139 2183.94
1.75182 6.71533 2183.94
1.75182 7.29927 2183.94
1.75182 7.88321 2183.94
1.75182 8.46715 2183.94
1.75182 9.0511 2183.94
1.75182 9.63504 2183.94
1.75182 10.219 2183.94
1.75182 10.8029 2183.94
1.45455 11.3455 2176
1.45455 11.9273 2176
1.45455 12.5091 2176
1.45455 13.0909 2176
1.45455 13.6727 2176
1.45455 14.2545 2176
1.45455 14.8364 2176
1.45455 15.4182 2176
1.45455 16 2176
1.45455 16.5818 2176
1.45455 17.1636 2176
1.45455 17.7455 2176
1.45455 18.3273 2176
1.45455 18.9091 2176
1.45455 19.4909 2176
1.45455 20.0727 2176
1.45455 20.6545 2176
1.75182 21.3139 2183.94
1.75182 21.8978 2183.94
1.75182 22.4818 2183.94
1.75182 23.0657 2183.94
1.75182 23.6496 2183.94
1.75182 24.2336 2183.94
1.45455 24.7273 2176
1.45455 25.3091 2176
1.45455 25.8909 2176
1.75182 26.5693 2183.94
1.75182 27.1533 2183.94
1.45455 27.6364 2176
1.45455 28.2182 2176
1.45455 28.8 2176
1.45455 29.3818 2176
-1.12676 29.0141 2107.04
-1.12676 29.5775 2107.04
-1.12676 30.1408 2107.04
-1.12676 30.7042 2107.04
-0.848057 31.3781 2114.49
-1.12676 31.831 2107.04
-1.12676 32.3944 2107.04
-1.12676 32.9577 2107.04
-1.12676 33.5211 2107.04
-1.67832 33.8462 2092.31
-2.22222 34.1667 2077.78
1.45455 36.3636 2176
1.45455 36.9455 2176
1.45455 37.5273 2176
1.45455 38.1091 2176
1.45455 38.6909 2176
1.45455 39.2727 2176
1.45455 39.8545 2176
1.45455 40.4364 2176
1.45455 41.0182 2176
1.45455 41.6 2176
1.75182 42.3358 2183.94
1.75182 42.9197 2183.94
1.75182 43.5037 2183.94
1.75182 44.0876 2183.94
1.75182 44.6715 2183.94
1.75182 45.2555 2183.94
1.75182 45.8394 2183.94
1.75182 46.4234 2183.94
1.75182 47.0073 2183.94
1.75182 47.5912 2183.94
1.75182 48.1752 2183.94
1.75182 48.7591 2183.94
1.45455 49.1636 2176
1.45455 49.7455 2176
1.45455 50.3273 2176
1.45455 50.9091 2176
1.75182 51.6788 2183.94
1.45455 52.0727 2176
-2.75862 49.931 2063.45
-2.75862 50.4828 2063.45
-2.75862 51.0345 2063.45
-7.27273 48.5714 1942.86
-2.75862 52.1379 2063.45
-3.02406 52.5086 2056.36
-2.49135 53.4256 2070.59
-5.33333 52 1994.67
-2.49135 54.5329 2070.59
0.286738 57.0609 2144.8
0.286738 57.6344 2144.8
0.286738 58.2079 2144.8
0.286738 58.7814 2144.8
0.286738 59.3548 2144.8
8.18898 65.8268 2355.91
0.57554 60.7194 2152.52
0.57554 61.295 2152.52
0.57554 61.8705 2152.52
0.57554 62.446 2152.52
0.57554 63.0216 2152.52
1.45455 64.2909 2176
-7.50809 57.7346 1936.57
-7.50809 58.2524 1936.57
-0 64.8571 2137.14
-0 65.4286 2137.14
-0 66 2137.14
-0 66.5714 2137.14
-0 67.1429 2137.14
-0 67.7143 2137.14
-0 68.2857 2137.14
-0 68.8571 2137.14
-0 69.4286 2137.14
-0 70 2137.14
-0 70.5714 2137.14
-0 71.1429 2137.14
-0 71.7143 2137.14
-0 72.2857 2137.14
-0 72.8571 2137.14
-0 73.4286 2137.14
-0 74 2137.14
-0 74.5714 2137.14
-0 75.1429 2137.14
-0 75.7143 2137.14
-0 76.2857 2137.14
-0 76.8571 2137.14
-0 77.4286 2137.14
-0 78 2137.14
-0 78.5714 2137.14
-0 79.1429 2137.14
-0 79.7143 2137.14
-0 80.2857 2137.14
-0 80.8571 2137.14
-0 81.4286 2137.14
-0 82 2137.14
-0 82.5714 2137.14
-0 83.1429 2137.14
-0 83.7143 2137.14
-0 84.2857 2137.14
-0 84.8571 2137.14
-0 85.4286 2137.14
-0 86 2137.14
-0 86.5714 2137.14
-0 87.1429 2137.14
-0 87.7143 2137.14
-0 88.2857 2137.14
-0 88.8571 2137.14
-0 89.4286 2137.14
-0 90 2137.14
-0 90.5714 2137.14
-0 91.1429 2137.14
-0 91.7143 2137.14
-0 92.2857 2137.14
-0 92.8571 2137.14
-5.82781 86.6225 1981.46
-0.284698 93.6655 2129.54
-0.284698 94.2349 2129.54
-0.567376 94.4681 2121.99
-0.567376 95.0355 2121.99
-0.567376 95.6028 2121.99
-0.567376 96.1702 2121.99
-0.567376 96.7376 2121.99
-0.567376 97.305 2121.99
-0.567376 97.8723 2121.99
-0.567376 98.4397 2121.99
-0.567376 99.0071 2121.99
-0.567376 99.5745 2121.99
-0.567376 100.142 2121.99
-13.1343 84.7761 1786.27
-13.1343 85.2537 1786.27
-13.1343 85.7313 1786.27
6.82171 111.938 2319.38
-0.848057 102.615 2114.49
4.21053 109.774 2249.62
17.3913 127.652 2601.74
17.3913 128.348 2601.74
17.3913 129.043 2601.74
17.3913 129.739 2601.74
9.31727 -120.482 2403.21
9.31727 -119.839 2403.21
9.31727 -119.197 2403.21
9.31727 -118.554 2403.21
9.31727 -117.912 2403.21
9.31727 -117.269 2403.21
9.31727 -116.627 2403.21
9.31727 -115.984 2403.21
9.31727 -115.341 2403.21
9.31727 -114.699 2403.21
9.31727 -114.056 2403.21
9.31727 -113.414 2403.21
9.31727 -112.771 2403.21
9.31727 -112.129 2403.21
9.31727 -111.486 2403.21
9.31727 -110.843 2403.21
9.31727 -110.201 2403.21
9.31727 -109.558 2403.21
9.31727 -108.916 2403.21
9.31727 -108.273 2403.21
9.31727 -107.631 2403.21
9.31727 -106.988 2403.21
9.31727 -106.345 2403.21
9.31727 -105.703 2403.21
9.31727 -105.06 2403.21
9.31727 -104.418 2403.21
9.31727 -103.775 2403.21
9.31727 -103.133 2403.21
9.31727 -102.49 2403.21
9.31727 -101.847 2403.21
9.31727 -101.205 2403.21
9.31727 -100.562 2403.21
9.31727 -99.9197 2403.21
9.31727 -99.2771 2403.21
9.31727 -98.6345 2403.21
9.31727 -97.992 2403.21
9.31727 -97.3494 2403.21
8.96 -96.32 2393.6
8.96 -95.68 2393.6
9.31727 -95.4217 2403.21
9.31727 -94.7791 2403.21
9.31727 -94.1365 2403.21
9.31727 -93.494 2403.21
8.96 -92.48 2393.6
8.96 -91.84 2393.6
8.96 -91.2 2393.6
8.96 -90.56 2393.6
8.96 -89.92 2393.6
8.96 -89.28 2393.6
8.96 -88.64 2393.6
8.96 -88 2393.6
8.96 -87.36 2393.6
8.96 -86.72 2393.6
8.96 -86.08 2393.6
8.96 -85.44 2393.6
9.31727 -85.1406 2403.21
9.67742 -84.8387 2412.9
8.96 -83.52 2393.6
8.96 -82.88 2393.6
8.96 -82.24 2393.6
8.96 -81.6 2393.6
8.96 -80.96 2393.6
8.96 -80.32 2393.6
8.96 -79.68 2393.6
8.96 -79.04 2393.6
8.96 -78.4 2393.6
8.96 -77.76 2393.6
8.96 -77.12 2393.6
8.96 -76.48 2393.6
8.96 -75.84 2393.6
8.96 -75.2 2393.6
8.96 -74.56 2393.6
8.96 -73.92 2393.6
8.96 -73.28 2393.6
8.96 -72.64 2393.6
8.96 -72 2393.6
8.96 -71.36 2393.6
8.96 -70.72 2393.6
8.96 -70.08 2393.6
8.96 -69.44 2393.6
8.96 -68.8 2393.6
8.96 -68.16 2393.6
8.96 -67.52 2393.6
8.96 -66.88 2393.6
8.96 -66.24 2393.6
8.96 -65.6 2393.6
8.96 -64.96 2393.6
8.96 -64.32 2393.6
8.96 -63.68 2393.6
8.96 -63.04 2393.6
8.96 -62.4 2393.6
8.96 -61.76 2393.6
8.96 -61.12 2393.6
8.96 -60.48 2393.6
8.96 -59.84 2393.6
8.96 -59.2 2393.6
8.96 -58.56 2393.6
8.96 -57.92 2393.6
8.96 -57.28 2393.6
8.96 -56.64 2393.6
8.96 -56 2393.6
8.96 -55.36 2393.6
8.96 -54.72 2393.6
8.96 -54.08 2393.6
8.96 -53.44 2393.6
8.96 -52.8 2393.6
8.96 -52.16 2393.6
8.96 -51.52 2393.6
8.96 -50.88 2393.6
8.60558 -50.0398 2384.06
8.60558 -49.4024 2384.06
8.60558 -48.7649 2384.06
8.60558 -48.1275 2384.06
8.60558 -47.49 2384.06
8.60558 -46.8526 2384.06
8.60558 -46.2151 2384.06
8.60558 -45.5777 2384.06
8.60558 -44.9402 2384.06
8.60558 -44.3028 2384.06
8.60558 -43.6653 2384.06
16.6957 -46.9565 2601.74
16.6957 -46.2609 2601.74
16.6957 -45.5652 2601.74
-26.9212 -24.6301 1428.16
16.6957 -44.1739 2601.74
-27.0476 -23.8095 1424.76
5.53846 -37.8462 2301.54
16.6957 -42.087 2601.74
16.6957 -41.3913 2601.74
4.8855 -35.7252 2283.97
16.6957 -40 2601.74
16.6957 -39.3043 2601.74
16.6957 -38.6087 2601.74
16.6957 -37.913 2601.74
16.6957 -37.2174 2601.74
2.67658 -31.2268 2224.54
2.67658 -30.632 2224.54
2.67658 -30.0372 2224.54
2.67658 -29.4424 2224.54
2.67658 -28.8476 2224.54
2.67658 -28.2528 2224.54
2.67658 -27.658 2224.54
2.67658 -27.0632 2224.54
2.67658 -26.4684 2224.54
2.67658 -25.8736 2224.54
2.67658 -25.2788 2224.54
2.67658 -24.684 2224.54
2.67658 -24.0892 2224.54
2.67658 -23.4944 2224.54
2.67658 -22.8996 2224.54
2.67658 -22.3048 2224.54
2.67658 -21.71 2224.54
2.67658 -21.1152 2224.54
2.67658 -20.5204 2224.54
2.67658 -19.9256 2224.54
2.67658 -19.3309 2224.54
2.67658 -18.7361 2224.54
2.67658 -18.1413 2224.54
2.67658 -17.5465 2224.54
2.67658 -16.9517 2224.54
2.67658 -16.3569 2224.54
2.67658 -15.7621 2224.54
2.67658 -15.1673 2224.54
2.67658 -14.5725 2224.54
2.37037 -13.9259 2216.3
2.37037 -13.3333 2216.3
2.37037 -12.7407 2216.3
2.67658 -12.1933 2224.54
2.67658 -11.5985 2224.54
2.67658 -11.0037 2224.54
2.67658 -10.4089 2224.54
2.67658 -9.81413 2224.54
2.67658 -9.21933 2224.54
2.67658 -8.62454 2224.54
2.67658 -8.02974 2224.54
2.37037 -7.40741 2216.3
2.37037 -6.81482 2216.3
2.67658 -6.24535 2224.54
2.67658 -5.65056 2224.54
2.67658 -5.05576 2224.54
2.67658 -4.46097 2224.54
-5.11785 -3.50168 2014.81
0.872727 -3.2 2176
0.872727 -2.61818 2176
1.16788 -2.0438 2183.94
1.16788 -1.45985 2183.94
1.16788 -0.875912 2183.94
1.16788 -0.291971 2183.94
1.16788 0.291971 2183.94
1.16788 0.875912 2183.94
1.16788 1.45985 2183.94
1.16788 2.0438 2183.94
1.16788 2.62774 2183.94
1.16788 3.21168 2183.94
1.16788 3.79562 2183.94
1.16788 4.37956 2183.94
0.872727 4.94545 2176
0.872727 5.52727 2176
1.16788 6.13139 2183.94
1.16788 6.71533 2183.94
1.16788 7.29927 2183.94
1.16788 7.88321 2183.94
1.16788 8.46715 2183.94
1.16788 9.0511 2183.94
1.16788 9.63504 2183.94
1.16788 10.219 2183.94
0.872727 10.7636 2176
0.872727 11.3455 2176
0.872727 11.9273 2176
0.872727 12.5091 2176
0.872727 13.0909 2176
0.872727 13.6727 2176
0.872727 14.2545 2176
0.872727 14.8364 2176
0.872727 15.4182 2176
0.872727 16 2176
0.872727 16.5818 2176
0.872727 17.1636 2176
1.16788 17.8102 2183.94
0.872727 18.3273 2176
0.872727 18.9091 2176
0.872727 19.4909 2176
1.16788 20.146 2183.94
1.16788 20.7299 2183.94
1.16788 21.3139 2183.94
1.16788 21.8978 2183.94
1.16788 22.4818 2183.94
1.16788 23.0657 2183.94
1.16788 23.6496 2183.94
1.16788 24.2336 2183.94
0.872727 24.7273 2176
0.872727 25.3091 2176
0.872727 25.8909 2176
0.872727 26.4727 2176
0.872727 27.0545 2176
0.872727 27.6364 2176
0.872727 28.2182 2176
0.872727 28.8 2176
0.872727 29.3818 2176
-1.69014 29.0141 2107.04
-1.69014 29.5775 2107.04
-1.69014 30.1408 2107.04
-1.69014 30.7042 2107.04
-1.41343 31.3781 2114.49
-1.69014 31.831 2107.04
-1.96491 32.2807 2099.65
-2.23776 32.7273 2092.31
-1.96491 33.4035 2099.65
-2.50871 33.7282 2085.02
-1.96491 34.5263 2099.65
0.872727 36.3636 2176
0.872727 36.9455 2176
0.872727 37.5273 2176
0.872727 38.1091 2176
0.872727 38.6909 2176
0.872727 39.2727 2176
0.872727 39.8545 2176
0.872727 40.4364 2176
0.872727 41.0182 2176
1.16788 41.7518 2183.94
1.16788 42.3358 2183.94
1.16788 42.9197 2183.94
1.16788 43.5037 2183.94
1.16788 44.0876 2183.94
1.16788 44.6715 2183.94
1.16788 45.2555 2183.94
1.16788 45.8394 2183.94
1.16788 46.4234 2183.94
1.16788 47.0073 2183.94
1.16788 47.5912 2183.94
0.872727 48 2176
1.16788 48.7591 2183.94
0.872727 49.1636 2176
0.872727 49.7455 2176
0.872727 50.3273 2176
0.872727 50.9091 2176
0.872727 51.4909 2176
-4.61017 48.5424 2028.47
-4.61017 49.0847 2028.47
-3.57388 50.3093 2056.36
-3.57388 50.8591 2056.36
-3.31034 51.5862 2063.45
-3.31034 52.1379 2063.45
-3.57388 52.5086 2056.36
-3.31034 53.2414 2063.45
-0.286738 55.914 2144.8
-0.286738 56.4875 2144.8
-0.286738 57.0609 2144.8
-0.286738 57.6344 2144.8
-0.286738 58.2079 2144.8
-0.286738 58.7814 2144.8
-0.286738 59.3548 2144.8
7.55906 65.8268 2355.91
-0 60.7194 2152.52
-0 61.295 2152.52
-1.41343 60.7774 2114.49
1.16788 63.3577 2183.94
0.872727 63.7091 2176
0.872727 64.2909 2176
-0.571429 63.7143 2137.14
-0.571429 64.2857 2137.14
-0.571429 64.8571 2137.14
-0.571429 65.4286 2137.14
-0.571429 66 2137.14
-0.571429 66.5714 2137.14
-0.286738 67.3835 2144.8
-0.571429 67.7143 2137.14
-0.571429 68.2857 2137.14
-0.571429 68.8571 2137.14
-0.571429 69.4286 2137.14
-0.571429 70 2137.14
-0.571429 70.5714 2137.14
-0.571429 71.1429 2137.14
-0.571429 71.7143 2137.14
-0.571429 72.2857 2137.14
-0.571429 72.8571 2137.14
-0.571429 73.4286 2137.14
-0.571429 74 2137.14
-0.571429 74.5714 2137.14
-0.571429 75.1429 2137.14
-0.571429 75.7143 2137.14
-0.571429 76.2857 2137.14
-0.571429 76.8571 2137.14
-0.571429 77.4286 2137.14
-0.571429 78 2137.14
-0.571429 78.5714 2137.14
-0.571429 79.1429 2137.14
-10.5 69.75 1870
-0.571429 80.2857 2137.14
-0.571429 80.8571 2137.14
-0.571429 81.4286 2137.14
-0.571429 82 2137.14
-0.571429 82.5714 2137.14
-0.571429 83.1429 2137.14
-0.571429 83.7143 2137.14
-0.571429 84.2857 2137.14
-0.571429 84.8571 2137.14
-0.571429 85.4286 2137.14
-0.571429 86 2137.14
-0.571429 86.5714 2137.14
-0.571429 87.1429 2137.14
-0.571429 87.7143 2137.14
-0.571429 88.2857 2137.14
-0.571429 88.8571 2137.14
-0.571429 89.4286 2137.14
-0.571429 90 2137.14
-0.571429 90.5714 2137.14
-0.571429 91.1429 2137.14
-0.571429 91.7143 2137.14
-0.571429 92.2857 2137.14
-0.571429 92.8571 2137.14
-0.854093 93.0961 2129.54
-0.854093 93.6655 2129.54
-0.854093 94.2349 2129.54
-0.854093 94.8043 2129.54
-1.13475 95.0355 2121.99
-1.13475 95.6028 2121.99
-1.13475 96.1702 2121.99
-1.13475 96.7376 2121.99
-1.13475 97.305 2121.99
-1.13475 97.8723 2121.99
-1.13475 98.4397 2121.99
-1.13475 99.0071 2121.99
-1.13475 99.5745 2121.99
-1.13475 100.142 2121.99
-1.41343 100.353 2114.49
-13.6119 85.2537 1786.27
-13.6119 85.7313 1786.27
-3.04498 99.9308 2070.59
3.60902 109.173 2249.62
3.60902 109.774 2249.62
16.6957 127.652 2601.74
16.6957 128.348 2601.74
16.6957 129.043 2601.74
16.6957 129.739 2601.74
8.6747 -120.482 2403.21
8.6747 -119.839 2403.21
8.6747 -119.197 2403.21
8.6747 -118.554 2403.21
8.6747 -117.912 2403.21
8.6747 -117.269 2403.21
8.6747 -116.627 2403.21
8.6747 -115.984 2403.21
8.6747 -115.341 2403.21
8.6747 -114.699 2403.21
8.6747 -114.056 2403.21
8.6747 -113.414 2403.21
8.6747 -112.771 2403.21
8.6747 -112.129 2403.21
8.6747 -111.486 2403.21
8.6747 -110.843 2403.21
8.6747 -110.201 2403.21
8.6747 -109.558 2403.21
8.6747 -108.916 2403.21
8.6747 -108.273 2403.21
8.6747 -107.631 2403.21
8.6747 -106.988 2403.21
8.6747 -106.345 2403.21
8.6747 -105.703 2403.21
8.6747 -105.06 2403.21
8.6747 -104.418 2403.21
8.6747 -103.775 2403.21
8.6747 -103.133 2403.21
8.6747 -102.49 2403.21
8.6747 -101.847 2403.21
8.6747 -101.205 2403.21
8.6747 -100.562 2403.21
8.6747 -99.9197 2403.21
8.6747 -99.2771 2403.21
8.6747 -98.6345 2403.21
8.6747 -97.992 2403.21
8.6747 -97.3494 2403.21
8.32 -96.32 2393.6
8.32 -95.68 2393.6
8.6747 -95.4217 2403.21
8.6747 -94.7791 2403.21
8.6747 -94.1365 2403.21
8.6747 -93.494 2403.21
8.32 -92.48 2393.6
8.32 -91.84 2393.6
8.32 -91.2 2393.6
8.32 -90.56 2393.6
8.32 -89.92 2393.6
8.32 -89.28 2393.6
8.32 -88.64 2393.6
8.32 -88 2393.6
8.32 -87.36 2393.6
8.32 -86.72 2393.6
8.32 -86.08 2393.6
8.32 -85.44 2393.6
8.6747 -85.1406 2403.21
8.6747 -84.498 2403.21
8.32 -83.52 2393.6
8.32 -82.88 2393.6
8.32 -82.24 2393.6
8.32 -81.6 2393.6
8.32 -80.96 2393.6
8.32 -80.32 2393.6
8.32 -79.68 2393.6
8.32 -79.04 2393.6
8.32 -78.4 2393.6
8.32 -77.76 2393.6
8.32 -77.12 2393.6
8.32 -76.48 2393.6
8.32 -75.84 2393.6
8.32 -75.2 2393.6
8.32 -74.56 2393.6
8.32 -73.92 2393.6
8.32 -73.28 2393.6
8.32 -72.64 2393.6
8.32 -72 2393.6
8.32 -71.36 2393.6
8.32 -70.72 2393.6
8.32 -70.08 2393.6
8.32 -69.44 2393.6
8.32 -68.8 2393.6
8.32 -68.16 2393.6
8.32 -67.52 2393.6
8.32 -66.88 2393.6
8.32 -66.24 2393.6
8.32 -65.6 2393.6
8.32 -64.96 2393.6
8.32 -64.32 2393.6
8.32 -63.68 2393.6
8.32 -63.04 2393.6
8.32 -62.4 2393.6
8.32 -61.76 2393.6
8.32 -61.12 2393.6
8.32 -60.48 2393.6
8.32 -59.84 2393.6
8.32 -59.2 2393.6
8.32 -58.56 2393.6
8.32 -57.92 2393.6
8.32 -57.28 2393.6
8.32 -56.64 2393.6
8.32 -56 2393.6
8.32 -55.36 2393.6
8.32 -54.72 2393.6
8.32 -54.08 2393.6
8.32 -53.44 2393.6
9.39271 -53.4413 2422.67
8.32 -52.16 2393.6
7.96813 -51.3147 2384.06
7.96813 -50.6773 2384.06
7.96813 -50.0398 2384.06
7.96813 -49.4024 2384.06
7.96813 -48.7649 2384.06
7.96813 -48.1275 2384.06
7.96813 -47.49 2384.06
7.96813 -46.8526 2384.06
7.96813 -46.2151 2384.06
7.96813 -45.5777 2384.06
7.96813 -44.9402 2384.06
7.96813 -44.3028 2384.06
7.96813 -43.6653 2384.06
3.63636 -40.9091 2266.67
16 -46.2609 2601.74
16 -45.5652 2601.74
-27.3031 -24.6301 1428.16
16 -44.1739 2601.74
-27.4286 -23.8095 1424.76
16 -42.7826 2601.74
16 -42.087 2601.74
16 -41.3913 2601.74
16 -40.6957 2601.74
-22.0472 -24.147 1570.6
2.08178 -33.6059 2224.54
2.08178 -33.0112 2224.54
2.08178 -32.4164 2224.54
2.08178 -31.8216 2224.54
2.08178 -31.2268 2224.54
2.08178 -30.632 2224.54
2.08178 -30.0372 2224.54
2.08178 -29.4424 2224.54
2.08178 -28.8476 2224.54
2.08178 -28.2528 2224.54
2.08178 -27.658 2224.54
2.08178 -27.0632 2224.54
1.77778 -26.3704 2216.3
1.77778 -25.7778 2216.3
2.08178 -25.2788 2224.54
2.08178 -24.684 2224.54
2.08178 -24.0892 2224.54
2.08178 -23.4944 2224.54
2.08178 -22.8996 2224.54
2.08178 -22.3048 2224.54
2.08178 -21.71 2224.54
2.08178 -21.1152 2224.54
2.08178 -20.5204 2224.54
2.08178 -19.9256 2224.54
2.08178 -19.3309 2224.54
2.08178 -18.7361 2224.54
2.08178 -18.1413 2224.54
1.77778 -17.4815 2216.3
2.08178 -16.9517 2224.54
2.08178 -16.3569 2224.54
2.08178 -15.7621 2224.54
2.08178 -15.1673 2224.54
2.08178 -14.5725 2224.54
1.77778 -13.9259 2216.3
1.77778 -13.3333 2216.3
1.77778 -12.7407 2216.3
1.77778 -12.1481 2216.3
2.08178 -11.5985 2224.54
2.08178 -11.0037 2224.54
2.08178 -10.4089 2224.54
2.08178 -9.81413 2224.54
2.08178 -9.21933 2224.54
2.08178 -8.62454 2224.54
2.08178 -8.02974 2224.54
2.08178 -7.43494 2224.54
1.77778 -6.81482 2216.3
2.08178 -6.24535 2224.54
2.08178 -5.65056 2224.54
2.08178 -5.05576 2224.54
2.08178 -4.46097 2224.54
2.08178 -3.86617 2224.54
2.08178 -3.27138 2224.54
2.08178 -2.67658 2224.54
2.08178 -2.08178 2224.54
2.08178 -1.48699 2224.54
0.583942 -0.875912 2183.94
0.583942 -0.291971 2183.94
0.583942 0.291971 2183.94
0.583942 0.875912 2183.94
0.583942 1.45985 2183.94
0.583942 2.0438 2183.94
0.583942 2.62774 2183.94
0.583942 3.21168 2183.94
0.583942 3.79562 2183.94
0.583942 4.37956 2183.94
0.583942 4.9635 2183.94
0.583942 5.54745 2183.94
0.583942 6.13139 2183.94
0.583942 6.71533 2183.94
0.583942 7.29927 2183.94
0.583942 7.88321 2183.94
0.583942 8.46715 2183.94
0.583942 9.0511 2183.94
0.583942 9.63504 2183.94
0.583942 10.219 2183.94
0.583942 10.8029 2183.94
0.290909 11.3455 2176
0.290909 11.9273 2176
0.290909 12.5091 2176
0.290909 13.0909 2176
0.290909 13.6727 2176
0.290909 14.2545 2176
0.290909 14.8364 2176
0.583942 15.4745 2183.94
0.583942 16.0584 2183.94
0.583942 16.6423 2183.94
0.583942 17.2263 2183.94
0.583942 17.8102 2183.94
0.583942 18.3942 2183.94
0.583942 18.9781 2183.94
0.583942 19.562 2183.94
0.583942 20.146 2183.94
0.583942 20.7299 2183.94
0.583942 21.3139 2183.94
0.583942 21.8978 2183.94
0.583942 22.4818 2183.94
0.583942 23.0657 2183.94
0.583942 23.6496 2183.94
0.583942 24.2336 2183.94
0.583942 24.8175 2183.94
0.583942 25.4015 2183.94
0.290909 25.8909 2176
0.290909 26.4727 2176
0.290909 27.0545 2176
-0 27.5362 2168.12
-0 28.1159 2168.12
-0 28.6957 2168.12
-0 29.2754 2168.12
-1.42349 29.3238 2129.54
0.290909 30.5455 2176
-2.25352 30.1408 2107.04
-2.25352 30.7042 2107.04
-2.25352 31.2676 2107.04
-2.25352 31.831 2107.04
-0.288809 33.213 2160.29
-0.288809 33.7906 2160.29
-0.288809 34.3682 2160.29
-0.288809 34.9458 2160.29
-2.7972 34.4056 2092.31
0.583942 36.4963 2183.94
0.290909 36.9455 2176
0.290909 37.5273 2176
0.290909 38.1091 2176
0.290909 38.6909 2176
0.290909 39.2727 2176
0.290909 39.8545 2176
0.290909 40.4364 2176
0.290909 41.0182 2176
0.583942 41.7518 2183.94
0.583942 42.3358 2183.94
0.583942 42.9197 2183.94
0.583942 43.5037 2183.94
0.583942 44.0876 2183.94
0.583942 44.6715 2183.94
0.583942 45.2555 2183.94
0.583942 45.8394 2183.94
0.583942 46.4234 2183.94
0.583942 47.0073 2183.94
0.290909 47.4182 2176
0.290909 48 2176
0.583942 48.7591 2183.94
0.290909 49.1636 2176
-0.288809 49.3863 2160.29
-0.288809 49.9639 2160.29
-0 50.7246 2168.12
-5.15254 48 2028.47
-5.15254 48.5424 2028.47
-5.15254 49.0847 2028.47
-4.12371 50.3093 2056.36
-4.12371 50.8591 2056.36
-4.12371 51.4089 2056.36
-3.59862 52.3183 2070.59
-0.860215 54.767 2144.8
-0.860215 55.3405 2144.8
-0.860215 55.914 2144.8
-0.860215 56.4875 2144.8
-0.860215 57.0609 2144.8
-0.860215 57.6344 2144.8
-0.860215 58.2079 2144.8
-0.860215 58.7814 2144.8
-0.860215 59.3548 2144.8
6.92913 65.8268 2355.91
-2.25352 59.4366 2107.04
-2.52632 59.7895 2099.65
3.32075 64.9057 2258.11
-0.57554 62.446 2152.52
-0 63.4783 2168.12
-1.14286 63.1429 2137.14
-1.14286 63.7143 2137.14
-1.14286 64.2857 2137.14
-1.14286 64.8571 2137.14
-1.14286 65.4286 2137.14
-1.14286 66 2137.14
-1.14286 66.5714 2137.14
-0.860215 67.3835 2144.8
-0.860215 67.957 2144.8
-1.14286 68.2857 2137.14
-1.14286 68.8571 2137.14
-1.14286 69.4286 2137.14
-1.14286 70 2137.14
-1.14286 70.5714 2137.14
-1.14286 71.1429 2137.14
-1.14286 71.7143 2137.14
-1.14286 72.2857 2137.14
-1.14286 72.8571 2137.14
-1.14286 73.4286 2137.14
-1.14286 74 2137.14
-1.14286 74.5714 2137.14
-1.14286 75.1429 2137.14
-1.14286 75.7143 2137.14
-1.14286 76.2857 2137.14
-1.14286 76.8571 2137.14
-1.14286 77.4286 2137.14
-1.14286 78 2137.14
-1.14286 78.5714 2137.14
-1.14286 79.1429 2137.14
-1.14286 79.7143 2137.14
-1.14286 80.2857 2137.14
-1.14286 80.8571 2137.14
-1.14286 81.4286 2137.14
-1.14286 82 2137.14
-1.14286 82.5714 2137.14
-1.14286 83.1429 2137.14
-1.14286 83.7143 2137.14
-1.14286 84.2857 2137.14
-1.14286 84.8571 2137.14
-1.14286 85.4286 2137.14
-1.14286 86 2137.14
-1.14286 86.5714 2137.14
-1.14286 87.1429 2137.14
-1.14286 87.7143 2137.14
-1.14286 88.2857 2137.14
-1.14286 88.8571 2137.14
-1.14286 89.4286 2137.14
-1.14286 90 2137.14
-1.14286 90.5714 2137.14
-1.14286 91.1429 2137.14
-1.14286 91.7143 2137.14
-1.14286 92.2857 2137.14
-1.42349 92.5267 2129.54
-1.42349 93.0961 2129.54
-1.42349 93.6655 2129.54
-1.42349 94.2349 2129.54
-1.42349 94.8043 2129.54
-1.42349 95.3737 2129.54
-1.70213 95.6028 2121.99
-1.70213 96.1702 2121.99
-1.70213 96.7376 2121.99
-1.70213 97.305 2121.99
-1.70213 97.8723 2121.99
-1.70213 98.4397 2121.99
-1.70213 99.0071 2121.99
-1.70213 99.5745 2121.99
-1.9788 99.788 2114.49
-1.9788 100.353 2114.49
-7.12871 94.2574 1974.92
4.92308 110.462 2301.54
-7.60656 94.6885 1961.97
3.95437 110.418 2275.29
3.00752 109.774 2249.62
16 127.652 2601.74
16 128.348 2601.74
16 129.043 2601.74
16 129.739 2601.74
8.03213 -120.482 2403.21
8.03213 -119.839 2403.21
8.03213 -119.197 2403.21
8.03213 -118.554 2403.21
8.03213 -117.912 2403.21
8.03213 -117.269 2403.21
8.03213 -116.627 2403.21
8.03213 -115.984 2403.21
8.03213 -115.341 2403.21
8.03213 -114.699 2403.21
8.03213 -114.056 2403.21
8.03213 -113.414 2403.21
8.03213 -112.771 2403.21
8.03213 -112.129 2403.21
8.03213 -111.486 2403.21
8.03213 -110.843 2403.21
8.03213 -110.201 2403.21
8.03213 -109.558 2403.21
8.03213 -108.916 2403.21
8.03213 -108.273 2403.21
8.03213 -107.631 2403.21
8.03213 -106.988 2403.21
8.03213 -106.345 2403.21
8.03213 -105.703 2403.21
8.03213 -105.06 2403.21
8.03213 -104.418 2403.21
8.03213 -103.775 2403.21
8.03213 -103.133 2403.21
8.03213 -102.49 2403.21
8.03213 -101.847 2403.21
8.03213 -101.205 2403.21
8.03213 -100.562 2403.21
8.03213 -99.9197 2403.21
8.03213 -99.2771 2403.21
8.03213 -98.6345 2403.21
7.68 -97.6 2393.6
7.68 -96.96 2393.6
7.68 -96.32 2393.6
8.03213 -96.0643 2403.21
8.03213 -95.4217 2403.21
8.03213 -94.7791 2403.21
8.03213 -94.1365 2403.21
8.03213 -93.494 2403.21
7.68 -92.48 2393.6
7.68 -91.84 2393.6
7.68 -91.2 2393.6
7.68 -90.56 2393.6
7.68 -89.92 2393.6
7.68 -89.28 2393.6
7.68 -88.64 2393.6
7.68 -88 2393.6
7.68 -87.36 2393.6
7.68 -86.72 2393.6
7.68 -86.08 2393.6
7.68 -85.44 2393.6
7.68 -84.8 2393.6
7.68 -84.16 2393.6
7.68 -83.52 2393.6
7.68 -82.88 2393.6
7.68 -82.24 2393.6
7.68 -81.6 2393.6
7.68 -80.96 2393.6
7.68 -80.32 2393.6
7.68 -79.68 2393.6
7.68 -79.04 2393.6
7.68 -78.4 2393.6
7.68 -77.76 2393.6
7.68 -77.12 2393.6
7.68 -76.48 2393.6
7.68 -75.84 2393.6
7.68 -75.2 2393.6
7.68 -74.56 2393.6
7.68 -73.92 2393.6
7.68 -73.28 2393.6
7.68 -72.64 2393.6
7.68 -72 2393.6
7.68 -71.36 2393.6
7.68 -70.72 2393.6
7.68 -70.08 2393.6
7.68 -69.44 2393.6
7.68 -68.8 2393.6
7.68 -68.16 2393.6
7.68 -67.52 2393.6
7.68 -66.88 2393.6
7.68 -66.24 2393.6
7.68 -65.6 2393.6
7.68 -64.96 2393.6
7.68 -64.32 2393.6
7.68 -63.68 2393.6
7.68 -63.04 2393.6
7.68 -62.4 2393.6
7.68 -61.76 2393.6
7.68 -61.12 2393.6
7.68 -60.48 2393.6
7.68 -59.84 2393.6
7.68 -59.2 2393.6
7.68 -58.56 2393.6
7.68 -57.92 2393.6
7.68 -57.28 2393.6
7.68 -56.64 2393.6
7.68 -56 2393.6
7.68 -55.36 2393.6
7.68 -54.72 2393.6
7.68 -54.08 2393.6
7.68 -53.44 2393.6
7.68 -52.8 2393.6
7.68 -52.16 2393.6
7.68 -51.52 2393.6
7.68 -50.88 2393.6
7.68 -50.24 2393.6
7.68 -49.6 2393.6
7.68 -48.96 2393.6
7.68 -48.32 2393.6
4.96124 -46.2015 2319.38
7.33068 -46.8526 2384.06
7.33068 -46.2151 2384.06
7.33068 -45.5777 2384.06
7.33068 -44.9402 2384.06
7.33068 -44.3028 2384.06
7.33068 -43.6653 2384.06
3.34601 -41.0646 2275.29
3.34601 -40.4563 2275.29
15.3043 -45.5652 2601.74
15.3043 -44.8696 2601.74
15.3043 -44.1739 2601.74
-27.8095 -23.8095 1424.76
15.3043 -42.7826 2601.74
15.3043 -42.087 2601.74
1.48699 -35.3903 2224.54
1.48699 -34.7955 2224.54
1.48699 -34.2007 2224.54
1.18519 -33.4815 2216.3
1.18519 -32.8889 2216.3
1.18519 -32.2963 2216.3
1.18519 -31.7037 2216.3
1.18519 -31.1111 2216.3
1.18519 -30.5185 2216.3
1.18519 -29.9259 2216.3
1.18519 -29.3333 2216.3
1.18519 -28.7407 2216.3
1.18519 -28.1481 2216.3
1.48699 -27.658 2224.54
1.48699 -27.0632 2224.54
1.48699 -26.4684 2224.54
1.48699 -25.8736 2224.54
1.48699 -25.2788 2224.54
1.48699 -24.684 2224.54
1.48699 -24.0892 2224.54
1.48699 -23.4944 2224.54
1.48699 -22.8996 2224.54
1.18519 -22.2222 2216.3
1.48699 -21.71 2224.54
1.18519 -21.037 2216.3
1.48699 -20.5204 2224.54
1.48699 -19.9256 2224.54
1.48699 -19.3309 2224.54
1.48699 -18.7361 2224.54
1.18519 -18.0741 2216.3
1.18519 -17.4815 2216.3
1.18519 -16.8889 2216.3
1.48699 -16.3569 2224.54
1.48699 -15.7621 2224.54
1.48699 -15.1673 2224.54
1.48699 -14.5725 2224.54
1.18519 -13.9259 2216.3
1.18519 -13.3333 2216.3
1.48699 -12.7881 2224.54
1.48699 -12.1933 2224.54
1.48699 -11.5985 2224.54
1.48699 -11.0037 2224.54
1.48699 -10.4089 2224.54
1.48699 -9.81413 2224.54
1.48699 -9.21933 2224.54
1.48699 -8.62454 2224.54
1.48699 -8.02974 2224.54
1.48699 -7.43494 2224.54
1.48699 -6.84015 2224.54
1.48699 -6.24535 2224.54
1.48699 -5.65056 2224.54
1.48699 -5.05576 2224.54
1.48699 -4.46097 2224.54
1.48699 -3.86617 2224.54
1.48699 -3.27138 2224.54
1.48699 -2.67658 2224.54
1.48699 -2.08178 2224.54
1.48699 -1.48699 2224.54
1.48699 -0.892193 2224.54
1.48699 -0.297398 2224.54
1.48699 0.297398 2224.54
-0 0.875912 2183.94
15.3043 1.73913 2601.74
1.18519 2.07407 2216.3
-29.3764 1.66282 1381.99
-29.2593 2.03704 1385.19
-29.2593 2.40741 1385.19
-5.69492 4.0678 2028.47
-5.69492 4.61017 2028.47
-5.69492 5.15254 2028.47
-5.69492 5.69492 2028.47
-0 6.71533 2183.94
-0 7.29927 2183.94
-0 7.88321 2183.94
-0 8.46715 2183.94
-0 9.0511 2183.94
-0 9.63504 2183.94
-0 10.219 2183.94
-0 10.8029 2183.94
-0 11.3869 2183.94
-0 11.9708 2183.94
-0.290909 12.5091 2176
-0.290909 13.0909 2176
-0.290909 13.6727 2176
-0 14.3066 2183.94
-0 14.8905 2183.94
-0 15.4745 2183.94
-0 16.0584 2183.94
-0 16.6423 2183.94
-0 17.2263 2183.94
-0 17.8102 2183.94
-0 18.3942 2183.94
-0 18.9781 2183.94
-0 19.562 2183.94
-0 20.146 2183.94
-0 20.7299 2183.94
-0 21.3139 2183.94
-0 21.8978 2183.94
-0 22.4818 2183.94
-0 23.0657 2183.94
-0 23.6496 2183.94
-0 24.2336 2183.94
-0.290909 24.7273 2176
-0.290909 25.3091 2176
-0.290909 25.8909 2176
-0 26.5693 2183.94
-0 27.1533 2183.94
-0 27.7372 2183.94
-0 28.3212 2183.94
-0 28.9051 2183.94
-0 29.4891 2183.94
-0 30.073 2183.94
-0 30.6569 2183.94
-0 31.2409 2183.94
-0 31.8248 2183.94
-0 32.4088 2183.94
-0.290909 32.8727 2176
-0.290909 33.4545 2176
-0.290909 34.0364 2176
-0.290909 34.6182 2176
-0.290909 35.2 2176
-0.290909 35.7818 2176
-0.290909 36.3636 2176
-0.290909 36.9455 2176
-0.290909 37.5273 2176
-0.290909 38.1091 2176
-0.290909 38.6909 2176
-0.290909 39.2727 2176
-0.290909 39.8545 2176
-0.290909 40.4364 2176
-0.290909 41.0182 2176
-0 41.7518 2183.94
-0 42.3358 2183.94
-0 42.9197 2183.94
-0 43.5037 2183.94
-0 44.0876 2183.94
-0 44.6715 2183.94
-0 45.2555 2183.94
-0 45.8394 2183.94
-0.290909 46.2545 2176
-0.290909 46.8364 2176
-0.290909 47.4182 2176
-0.290909 48 2176
-0.290909 48.5818 2176
-0.290909 49.1636 2176
-0.290909 49.7455 2176
-0.866426 49.9639 2160.29
-0.866426 50.5415 2160.29
-5.69492 48 2028.47
-5.69492 48.5424 2028.47
-5.44218 49.2517 2035.37
-5.44218 49.7959 2035.37
-5.44218 50.3401 2035.37
-1.43369 53.6201 2144.8
-1.43369 54.1936 2144.8
-1.43369 54.767 2144.8
-1.43369 55.3405 2144.8
-1.43369 55.914 2144.8
-1.43369 56.4875 2144.8
-1.43369 57.0609 2144.8
-1.43369 57.6344 2144.8
-9.06149 52.5566 1936.57
-9.06149 53.0744 1936.57
-9.06149 53.5922 1936.57
-9.06149 54.11 1936.57
-1.15108 60.7194 2152.52
-1.15108 61.295 2152.52
-1.15108 61.8705 2152.52
-1.43369 62.2222 2144.8
-0.57971 63.4783 2168.12
-1.71429 63.1429 2137.14
-1.71429 63.7143 2137.14
-1.71429 64.2857 2137.14
-1.71429 64.8571 2137.14
-1.71429 65.4286 2137.14
-1.71429 66 2137.14
-1.71429 66.5714 2137.14
-1.71429 67.1429 2137.14
-1.71429 67.7143 2137.14
-1.71429 68.2857 2137.14
-1.71429 68.8571 2137.14
-1.15108 69.9281 2152.52
-1.71429 70 2137.14
-1.71429 70.5714 2137.14
-1.71429 71.1429 2137.14
-1.71429 71.7143 2137.14
-1.71429 72.2857 2137.14
-1.71429 72.8571 2137.14
-1.71429 73.4286 2137.14
-1.71429 74 2137.14
-1.71429 74.5714 2137.14
-1.71429 75.1429 2137.14
-17.192 60.745 1714.61
-1.71429 76.2857 2137.14
-1.71429 76.8571 2137.14
-1.71429 77.4286 2137.14
-1.71429 78 2137.14
-1.71429 78.5714 2137.14
-1.71429 79.1429 2137.14
-1.71429 79.7143 2137.14
-1.71429 80.2857 2137.14
-1.71429 80.8571 2137.14
-1.71429 81.4286 2137.14
-1.71429 82 2137.14
-1.71429 82.5714 2137.14
-1.71429 83.1429 2137.14
-1.71429 83.7143 2137.14
-1.71429 84.2857 2137.14
-1.71429 84.8571 2137.14
-1.71429 85.4286 2137.14
-1.71429 86 2137.14
-1.71429 86.5714 2137.14
-1.99288 86.8327 2129.54
-1.99288 87.4021 2129.54
-1.99288 87.9715 2129.54
-1.99288 88.5409 2129.54
-1.71429 89.4286 2137.14
-1.71429 90 2137.14
-1.71429 90.5714 2137.14
-1.71429 91.1429 2137.14
-1.71429 91.7143 2137.14
-1.99288 91.9573 2129.54
-1.99288 92.5267 2129.54
-1.99288 93.0961 2129.54
-1.99288 93.6655 2129.54
-1.99288 94.2349 2129.54
-1.99288 94.8043 2129.54
-1.99288 95.3737 2129.54
-1.99288 95.9431 2129.54
-1.99288 96.5125 2129.54
-2.2695 96.7376 2121.99
-2.2695 97.305 2121.99
-2.2695 97.8723 2121.99
-2.2695 98.4397 2121.99
-2.2695 99.0071 2121.99
-2.2695 99.5745 2121.99
-10.1911 89.9363 1905.73
-2.54417 100.353 2114.49
-2.54417 100.919 2114.49
-2.54417 101.484 2114.49
1.18519 106.963 2216.3
1.18519 107.556 2216.3
2.40601 109.774 2249.62
15.3043 127.652 2601.74
15.3043 128.348 2601.74
15.3043 129.043 2601.74
15.3043 129.739 2601.74
7.38956 -120.482 2403.21
7.38956 -119.839 2403.21
7.38956 -119.197 2403.21
7.38956 -118.554 2403.21
7.38956 -117.912 2403.21
7.38956 -117.269 2403.21
7.38956 -116.627 2403.21
7.38956 -115.984 2403.21
7.38956 -115.341 2403.21
7.38956 -114.699 2403.21
7.38956 -114.056 2403.21
7.38956 -113.414 2403.21
7.38956 -112.771 2403.21
7.38956 -112.129 2403.21
7.38956 -111.486 2403.21
7.38956 -110.843 2403.21
7.38956 -110.201 2403.21
7.38956 -109.558 2403.21
7.38956 -108.916 2403.21
7.38956 -108.273 2403.21
7.38956 -107.631 2403.21
7.38956 -106.988 2403.21
7.38956 -106.345 2403.21
7.38956 -105.703 2403.21
7.38956 -105.06 2403.21
7.38956 -104.418 2403.21
7.38956 -103.775 2403.21
7.38956 -103.133 2403.21
7.38956 -102.49 2403.21
7.38956 -101.847 2403.21
7.38956 -101.205 2403.21
7.38956 -100.562 2403.21
7.38956 -99.9197 2403.21
7.38956 -99.2771 2403.21
7.04 -98.24 2393.6
7.04 -97.6 2393.6
7.04 -96.96 2393.6
7.04 -96.32 2393.6
7.38956 -96.0643 2403.21
7.38956 -95.4217 2403.21
7.38956 -94.7791 2403.21
7.38956 -94.1365 2403.21
7.38956 -93.494 2403.21
7.04 -92.48 2393.6
7.04 -91.84 2393.6
7.04 -91.2 2393.6
7.04 -90.56 2393.6
7.04 -89.92 2393.6
7.04 -89.28 2393.6
7.04 -88.64 2393.6
7.04 -88 2393.6
7.04 -87.36 2393.6
7.04 -86.72 2393.6
7.04 -86.08 2393.6
7.04 -85.44 2393.6
14.6087 -92.1739 2601.74
14.6087 -91.4783 2601.74
7.04 -83.52 2393.6
7.04 -82.88 2393.6
7.04 -82.24 2393.6
7.04 -81.6 2393.6
7.04 -80.96 2393.6
7.04 -80.32 2393.6
7.04 -79.68 2393.6
7.04 -79.04 2393.6
7.04 -78.4 2393.6
7.04 -77.76 2393.6
7.04 -77.12 2393.6
7.04 -76.48 2393.6
7.04 -75.84 2393.6
7.04 -75.2 2393.6
7.04 -74.56 2393.6
7.04 -73.92 2393.6
7.04 -73.28 2393.6
7.04 -72.64 2393.6
7.04 -72 2393.6
7.04 -71.36 2393.6
7.04 -70.72 2393.6
7.04 -70.08 2393.6
7.04 -69.44 2393.6
7.04 -68.8 2393.6
7.04 -68.16 2393.6
7.04 -67.52 2393.6
7.04 -66.88 2393.6
7.04 -66.24 2393.6
7.04 -65.6 2393.6
7.04 -64.96 2393.6
7.04 -64.32 2393.6
7.04 -63.68 2393.6
7.04 -63.04 2393.6
7.04 -62.4 2393.6
-24.0617 -39.6915 1538.3
-24.0617 -39.2802 1538.3
-24.0617 -38.8689 1538.3
-24.2051 -38.359 1534.36
-24.2051 -37.9487 1534.36
-24.2051 -37.5385 1534.36
-24.2051 -37.1282 1534.36
7.04 -57.28 2393.6
7.04 -56.64 2393.6
-25.7357 -34.9127 1492.27
-26.1386 -34.2574 1481.19
-31.1011 -30.7416 1344.72
-31.1011 -30.382 1344.72
-31.1011 -30.0225 1344.72
-31.1011 -29.6629 1344.72
7.04 -52.16 2393.6
7.04 -51.52 2393.6
7.04 -50.88 2393.6
7.04 -50.24 2393.6
7.04 -49.6 2393.6
7.04 -48.96 2393.6
7.04 -48.32 2393.6
7.04 -47.68 2393.6
6.69323 -46.8526 2384.06
6.69323 -46.2151 2384.06
7.04 -45.76 2393.6
6.69323 -44.9402 2384.06
6.69323 -44.3028 2384.06
7.04 -43.84 2393.6
6.34921 -42.8571 2374.6
14.6087 -46.2609 2601.74
14.6087 -45.5652 2601.74
6.00791 -40.7905 2365.22
14.6087 -44.1739 2601.74
-3.10954 -35.3357 2114.49
14.6087 -42.7826 2601.74
2.73764 -36.8061 2275.29
-21.8182 -25.4545 1600
-21.8182 -25.0267 1600
0.592593 -34.0741 2216.3
0.592593 -33.4815 2216.3
0.592593 -32.8889 2216.3
0.592593 -32.2963 2216.3
0.592593 -31.7037 2216.3
0.592593 -31.1111 2216.3
0.592593 -30.5185 2216.3
0.592593 -29.9259 2216.3
0.592593 -29.3333 2216.3
0.592593 -28.7407 2216.3
0.592593 -28.1481 2216.3
0.892193 -27.658 2224.54
0.892193 -27.0632 2224.54
0.892193 -26.4684 2224.54
0.592593 -25.7778 2216.3
0.892193 -25.2788 2224.54
0.592593 -24.5926 2216.3
0.892193 -24.0892 2224.54
0.892193 -23.4944 2224.54
0.892193 -22.8996 2224.54
0.592593 -22.2222 2216.3
0.592593 -21.6296 2216.3
0.592593 -21.037 2216.3
0.892193 -20.5204 2224.54
0.892193 -19.9256 2224.54
0.892193 -19.3309 2224.54
0.892193 -18.7361 2224.54
0.892193 -18.1413 2224.54
0.592593 -17.4815 2216.3
0.892193 -16.9517 2224.54
0.892193 -16.3569 2224.54
0.892193 -15.7621 2224.54
0.892193 -15.1673 2224.54
0.892193 -14.5725 2224.54
0.892193 -13.9777 2224.54
0.892193 -13.3829 2224.54
0.892193 -12.7881 2224.54
0.892193 -12.1933 2224.54
0.892193 -11.5985 2224.54
0.892193 -11.0037 2224.54
0.892193 -10.4089 2224.54
0.892193 -9.81413 2224.54
0.892193 -9.21933 2224.54
0.892193 -8.62454 2224.54
0.892193 -8.02974 2224.54
0.892193 -7.43494 2224.54
0.892193 -6.84015 2224.54
0.892193 -6.24535 2224.54
0.892193 -5.65056 2224.54
0.892193 -5.05576 2224.54
0.892193 -4.46097 2224.54
0.892193 -3.86617 2224.54
0.892193 -3.27138 2224.54
0.892193 -2.67658 2224.54
0.892193 -2.08178 2224.54
0.892193 -1.48699 2224.54
0.892193 -0.892193 2224.54
0.892193 -0.297398 2224.54
0.892193 0.297398 2224.54
0.892193 0.892193 2224.54
0.592593 1.48148 2216.3
0.592593 2.07407 2216.3
0.592593 2.66667 2216.3
0.295203 3.24723 2208.12
14.6087 4.52174 2601.74
14.6087 5.21739 2601.74
-0 5 2200
-0 5.58824 2200
-0 6.17647 2200
-0.29304 6.73993 2191.94
14.6087 8.69565 2601.74
14.6087 9.3913 2601.74
-0.583942 8.46715 2183.94
-0.583942 9.0511 2183.94
-0.583942 9.63504 2183.94
-0.583942 10.219 2183.94
-0.583942 10.8029 2183.94
-0.583942 11.3869 2183.94
-0.583942 11.9708 2183.94
-0.583942 12.5547 2183.94
-0.583942 13.1387 2183.94
-0.583942 13.7226 2183.94
-0.583942 14.3066 2183.94
-0.583942 14.8905 2183.94
-0.583942 15.4745 2183.94
-0.583942 16.0584 2183.94
-0.583942 16.6423 2183.94
-0.583942 17.2263 2183.94
-0.583942 17.8102 2183.94
-0.583942 18.3942 2183.94
-0.583942 18.9781 2183.94
-0.583942 19.562 2183.94
-0.583942 20.146 2183.94
-0.583942 20.7299 2183.94
-0.583942 21.3139 2183.94
-0.583942 21.8978 2183.94
-0.583942 22.4818 2183.94
-0.583942 23.0657 2183.94
-0.583942 23.6496 2183.94
-0.583942 24.2336 2183.94
-0.872727 24.7273 2176
-0.872727 25.3091 2176
-0.872727 25.8909 2176
-0.583942 26.5693 2183.94
-0.583942 27.1533 2183.94
-0.583942 27.7372 2183.94
-0.583942 28.3212 2183.94
-0.583942 28.9051 2183.94
-0.583942 29.4891 2183.94
-0.583942 30.073 2183.94
-0.583942 30.6569 2183.94
-0.583942 31.2409 2183.94
-0.583942 31.8248 2183.94
-0.583942 32.4088 2183.94
-0.872727 32.8727 2176
-0.872727 33.4545 2176
-0.872727 34.0364 2176
-0.583942 34.7445 2183.94
-0.583942 35.3285 2183.94
-0.583942 35.9124 2183.94
-0.583942 36.4963 2183.94
-0.583942 37.0803 2183.94
-0.872727 37.5273 2176
-0.583942 38.2482 2183.94
-0.872727 38.6909 2176
-0.872727 39.2727 2176
-0.583942 40 2183.94
-0.583942 40.5839 2183.94
-0.583942 41.1679 2183.94
-0.583942 41.7518 2183.94
-0.583942 42.3358 2183.94
-0.583942 42.9197 2183.94
-0.583942 43.5037 2183.94
-0.583942 44.0876 2183.94
-0.583942 44.6715 2183.94
-0.583942 45.2555 2183.94
-0.872727 45.6727 2176
-0.872727 46.2545 2176
-1.15942 46.6667 2168.12
-1.44404 47.0758 2160.29
-1.44404 47.6534 2160.29
-1.15942 48.4058 2168.12
-4.70588 46.782 2070.59
-1.72662 49.2086 2152.52
-1.44404 49.9639 2160.29
-5.98639 47.619 2035.37
-6.23729 48 2028.47
-6.23729 48.5424 2028.47
-5.98639 49.2517 2035.37
-2.00717 52.4731 2144.8
-2.00717 53.0466 2144.8
-2.00717 53.6201 2144.8
-2.00717 54.1936 2144.8
-2.00717 54.767 2144.8
-2.00717 55.3405 2144.8
-2.00717 55.914 2144.8
-2.00717 56.4875 2144.8
-2.00717 57.0609 2144.8
-9.57929 52.0388 1936.57
-9.57929 52.5566 1936.57
-9.57929 53.0744 1936.57
-10.7006 52.7389 1905.73
-0.872727 60.8 2176
-2.00717 60.5018 2144.8
-2.00717 61.0753 2144.8
-2.00717 61.6487 2144.8
-2.28571 62 2137.14
-2.00717 62.7957 2144.8
-2.28571 63.1429 2137.14
-2.28571 63.7143 2137.14
-2.28571 64.2857 2137.14
-2.28571 64.8571 2137.14
-2.28571 65.4286 2137.14
-2.28571 66 2137.14
-2.28571 66.5714 2137.14
-2.28571 67.1429 2137.14
-2.28571 67.7143 2137.14
-2.00717 68.5305 2144.8
-2.00717 69.1039 2144.8
-2.00717 69.6774 2144.8
-2.28571 70 2137.14
-2.28571 70.5714 2137.14
-2.28571 71.1429 2137.14
-2.28571 71.7143 2137.14
-2.28571 72.2857 2137.14
-2.28571 72.8571 2137.14
-2.28571 73.4286 2137.14
-2.28571 74 2137.14
-2.28571 74.5714 2137.14
-2.28571 75.1429 2137.14
-17.6504 60.745 1714.61
-2.56228 76.0142 2129.54
-17.6504 61.6619 1714.61
-17.6504 62.1203 1714.61
-17.6504 62.5788 1714.61
-2.28571 78.5714 2137.14
-2.28571 79.1429 2137.14
-2.28571 79.7143 2137.14
-2.28571 80.2857 2137.14
-2.28571 80.8571 2137.14
-2.28571 81.4286 2137.14
-2.28571 82 2137.14
-2.28571 82.5714 2137.14
-2.28571 83.1429 2137.14
-2.28571 83.7143 2137.14
-2.28571 84.2857 2137.14
-2.28571 84.8571 2137.14
-2.28571 85.4286 2137.14
-2.28571 86 2137.14
-2.56228 86.2633 2129.54
-2.56228 86.8327 2129.54
-2.56228 87.4021 2129.54
-2.56228 87.9715 2129.54
-2.56228 88.5409 2129.54
-2.56228 89.1103 2129.54
-2.28571 90 2137.14
-2.28571 90.5714 2137.14
-2.56228 90.8185 2129.54
-2.56228 91.3879 2129.54
-2.56228 91.9573 2129.54
-2.56228 92.5267 2129.54
-2.56228 93.0961 2129.54
-2.56228 93.6655 2129.54
-2.56228 94.2349 2129.54
-2.56228 94.8043 2129.54
-2.56228 95.3737 2129.54
-2.83688 95.6028 2121.99
-2.83688 96.1702 2121.99
-2.83688 96.7376 2121.99
-2.83688 97.305 2121.99
-2.83688 97.8723 2121.99
-2.83688 98.4397 2121.99
-2.83688 99.0071 2121.99
-2.83688 99.5745 2121.99
-14.2598 85.3172 1807.85
-24.631 72.2646 1522.65
-3.10954 100.919 2114.49
-3.10954 101.484 2114.49
0.892193 107.361 2224.54
0.892193 107.955 2224.54
-3.10954 103.18 2114.49
14.6087 127.652 2601.74
14.6087 128.348 2601.74
14.6087 129.043 2601.74
14.6087 129.739 2601.74
6.74699 -120.482 2403.21
6.74699 -119.839 2403.21
6.74699 -119.197 2403.21
6.74699 -118.554 2403.21
6.74699 -117.912 2403.21
6.74699 -117.269 2403.21
6.74699 -116.627 2403.21
6.74699 -115.984 2403.21
6.74699 -115.341 2403.21
6.74699 -114.699 2403.21
6.74699 -114.056 2403.21
6.74699 -113.414 2403.21
6.74699 -112.771 2403.21
6.74699 -112.129 2403.21
6.74699 -111.486 2403.21
6.74699 -110.843 2403.21
6.74699 -110.201 2403.21
6.74699 -109.558 2403.21
6.74699 -108.916 2403.21
6.74699 -108.273 2403.21
6.74699 -107.631 2403.21
6.74699 -106.988 2403.21
6.74699 -106.345 2403.21
6.74699 -105.703 2403.21
6.74699 -105.06 2403.21
6.74699 -104.418 2403.21
6.74699 -103.775 2403.21
6.74699 -103.133 2403.21
6.74699 -102.49 2403.21
6.74699 -101.847 2403.21
6.74699 -101.205 2403.21
6.74699 -100.562 2403.21
6.74699 -99.9197 2403.21
6.74699 -99.2771 2403.21
6.4 -98.24 2393.6
6.4 -97.6 2393.6
6.74699 -97.3494 2403.21
6.74699 -96.7068 2403.21
6.74699 -96.0643 2403.21
6.74699 -95.4217 2403.21
6.4 -94.4 2393.6
6.4 -93.76 2393.6
6.4 -93.12 2393.6
6.4 -92.48 2393.6
6.4 -91.84 2393.6
6.4 -91.2 2393.6
6.4 -90.56 2393.6
6.4 -89.92 2393.6
6.4 -89.28 2393.6
6.4 -88.64 2393.6
6.4 -88 2393.6
6.4 -87.36 2393.6
6.4 -86.72 2393.6
6.4 -86.08 2393.6
6.4 -85.44 2393.6
6.4 -84.8 2393.6
6.4 -84.16 2393.6
6.4 -83.52 2393.6
6.4 -82.88 2393.6
6.4 -82.24 2393.6
6.4 -81.6 2393.6
6.4 -80.96 2393.6
6.4 -80.32 2393.6
6.4 -79.68 2393.6
6.4 -79.04 2393.6
6.4 -78.4 2393.6
6.4 -77.76 2393.6
6.4 -77.12 2393.6
6.4 -76.48 2393.6
6.4 -75.84 2393.6
6.4 -75.2 2393.6
6.4 -74.56 2393.6
6.4 -73.92 2393.6
6.4 -73.28 2393.6
6.4 -72.64 2393.6
6.4 -72 2393.6
6.4 -71.36 2393.6
6.4 -70.72 2393.6
6.4 -70.08 2393.6
6.4 -69.44 2393.6
6.4 -68.8 2393.6
6.4 -68.16 2393.6
6.4 -67.52 2393.6
6.4 -66.88 2393.6
6.4 -66.24 2393.6
6.4 -65.6 2393.6
6.4 -64.96 2393.6
6.4 -64.32 2393.6
6.4 -63.68 2393.6
6.4 -63.04 2393.6
6.4 -62.4 2393.6
6.4 -61.76 2393.6
6.4 -61.12 2393.6
6.4 -60.48 2393.6
6.4 -59.84 2393.6
6.4 -59.2 2393.6
6.4 -58.56 2393.6
-24.757 -37.0332 1530.43
-26 -35.8 1496
-30.4587 -32.4771 1372.48
-26.1347 -34.9127 1492.27
6.05578 -55.1394 2384.06
6.05578 -54.502 2384.06
6.05578 -53.8645 2384.06
-0.295203 -49.2989 2208.12
-31.6779 -29.5302 1338.7
-0.588235 -47.9412 2200
-31.7857 -28.75 1335.71
-32.1064 -28.204 1326.83
-32.2124 -27.7876 1323.89
-26.402 -30.7692 1484.86
-26.402 -30.3722 1484.86
6.4 -48.32 2393.6
6.4 -47.68 2393.6
6.4 -47.04 2393.6
7.44939 -46.9636 2422.67
5.71429 -45.3968 2374.6
6.05578 -44.9402 2384.06
7.44939 -45.0202 2422.67
6.05578 -43.6653 2384.06
13.913 -46.9565 2601.74
13.913 -46.2609 2601.74
13.913 -45.5652 2601.74
13.913 -44.8696 2601.74
13.913 -44.1739 2601.74
13.913 -43.4783 2601.74
13.913 -42.7826 2601.74
2.44275 -36.9466 2283.97
-22.246 -25.4545 1600
-0 -34.6667 2216.3
-22.246 -24.5989 1600
-22.246 -24.1711 1600
3.72093 -34.4186 2319.38
3.39768 -33.668 2310.42
3.39768 -33.0502 2310.42
3.39768 -32.4324 2310.42
-8.47682 -27.2848 1981.46
-0 -29.9259 2216.3
0.297398 -29.4424 2224.54
0.297398 -28.8476 2224.54
0.297398 -28.2528 2224.54
0.297398 -27.658 2224.54
0.297398 -27.0632 2224.54
0.297398 -26.4684 2224.54
0.297398 -25.8736 2224.54
0.297398 -25.2788 2224.54
0.297398 -24.684 2224.54
0.297398 -24.0892 2224.54
0.297398 -23.4944 2224.54
0.297398 -22.8996 2224.54
0.297398 -22.3048 2224.54
0.297398 -21.71 2224.54
0.297398 -21.1152 2224.54
0.297398 -20.5204 2224.54
0.297398 -19.9256 2224.54
0.297398 -19.3309 2224.54
0.297398 -18.7361 2224.54
0.297398 -18.1413 2224.54
0.297398 -17.5465 2224.54
0.297398 -16.9517 2224.54
0.297398 -16.3569 2224.54
0.297398 -15.7621 2224.54
0.297398 -15.1673 2224.54
0.297398 -14.5725 2224.54
-0 -13.9259 2216.3
0.297398 -13.3829 2224.54
0.297398 -12.7881 2224.54
0.297398 -12.1933 2224.54
0.297398 -11.5985 2224.54
0.297398 -11.0037 2224.54
0.297398 -10.4089 2224.54
0.297398 -9.81413 2224.54
0.297398 -9.21933 2224.54
0.297398 -8.62454 2224.54
0.297398 -8.02974 2224.54
0.297398 -7.43494 2224.54
0.297398 -6.84015 2224.54
0.297398 -6.24535 2224.54
0.297398 -5.65056 2224.54
0.297398 -5.05576 2224.54
0.297398 -4.46097 2224.54
0.297398 -3.86617 2224.54
0.297398 -3.27138 2224.54
0.297398 -2.67658 2224.54
0.297398 -2.08178 2224.54
0.297398 -1.48699 2224.54
0.297398 -0.892193 2224.54
0.297398 -0.297398 2224.54
0.297398 0.297398 2224.54
0.297398 0.892193 2224.54
0.297398 1.48699 2224.54
0.297398 2.08178 2224.54
0.297398 2.67658 2224.54
-0.295203 3.24723 2208.12
13.913 4.52174 2601.74
13.913 5.21739 2601.74
-0.588235 5 2200
-0.588235 5.58824 2200
13.913 7.30435 2601.74
-0.588235 6.76471 2200
13.913 8.69565 2601.74
13.913 9.3913 2601.74
-0.879121 8.49817 2191.94
-0.879121 9.08425 2191.94
-0.879121 9.67033 2191.94
-1.16788 10.219 2183.94
-1.16788 10.8029 2183.94
-1.16788 11.3869 2183.94
-1.16788 11.9708 2183.94
-1.16788 12.5547 2183.94
-1.16788 13.1387 2183.94
-1.16788 13.7226 2183.94
-1.16788 14.3066 2183.94
-1.16788 14.8905 2183.94
-1.16788 15.4745 2183.94
-1.16788 16.0584 2183.94
-1.16788 16.6423 2183.94
-1.16788 17.2263 2183.94
-1.16788 17.8102 2183.94
-1.16788 18.3942 2183.94
-1.16788 18.9781 2183.94
-1.16788 19.562 2183.94
-1.16788 20.146 2183.94
-1.16788 20.7299 2183.94
-1.16788 21.3139 2183.94
-1.16788 21.8978 2183.94
-1.16788 22.4818 2183.94
-1.16788 23.0657 2183.94
-1.16788 23.6496 2183.94
-1.16788 24.2336 2183.94
-1.16788 24.8175 2183.94
-1.16788 25.4015 2183.94
-1.16788 25.9854 2183.94
-1.16788 26.5693 2183.94
-1.16788 27.1533 2183.94
-1.16788 27.7372 2183.94
-1.16788 28.3212 2183.94
-1.16788 28.9051 2183.94
-1.16788 29.4891 2183.94
-1.16788 30.073 2183.94
-1.16788 30.6569 2183.94
-1.16788 31.2409 2183.94
-1.16788 31.8248 2183.94
-1.16788 32.4088 2183.94
-1.45455 32.8727 2176
-1.45455 33.4545 2176
-1.45455 34.0364 2176
-1.45455 34.6182 2176
-1.45455 35.2 2176
-1.16788 35.9124 2183.94
-1.16788 36.4963 2183.94
-1.45455 36.9455 2176
-1.16788 37.6642 2183.94
-1.16788 38.2482 2183.94
-1.16788 38.8321 2183.94
-1.16788 39.4161 2183.94
-1.16788 40 2183.94
-1.16788 40.5839 2183.94
-1.16788 41.1679 2183.94
-1.16788 41.7518 2183.94
-1.45455 42.1818 2176
-1.45455 42.7636 2176
-1.45455 43.3455 2176
-1.45455 43.9273 2176
-1.45455 44.5091 2176
-1.45455 45.0909 2176
-1.45455 45.6727 2176
-1.73913 46.087 2168.12
-2.30216 46.3309 2152.52
-2.30216 46.9065 2152.52
-2.02166 47.6534 2160.29
-5 46.3889 2077.78
-5.25952 46.782 2070.59
-2.58065 49.0323 2144.8
-6.53061 47.0748 2035.37
-6.53061 47.619 2035.37
-6.77966 48 2028.47
-6.77966 48.5424 2028.47
-2.58065 51.8996 2144.8
-2.58065 52.4731 2144.8
-2.58065 53.0466 2144.8
-2.58065 53.6201 2144.8
-2.58065 54.1936 2144.8
-2.58065 54.767 2144.8
-2.58065 55.3405 2144.8
-2.58065 55.914 2144.8
-2.58065 56.4875 2144.8
-10.0971 51.521 1936.57
-10.0971 52.0388 1936.57
-10.0971 52.5566 1936.57
-11.2102 52.2293 1905.73
-2.58065 59.3548 2144.8
-2.85714 59.7143 2137.14
-2.58065 60.5018 2144.8
-2.85714 60.8571 2137.14
-2.85714 61.4286 2137.14
-2.85714 62 2137.14
-2.58065 62.7957 2144.8
-2.30216 63.5971 2152.52
-2.30216 64.1727 2152.52
-2.85714 64.2857 2137.14
-2.85714 64.8571 2137.14
-2.85714 65.4286 2137.14
-2.85714 66 2137.14
-2.85714 66.5714 2137.14
-2.85714 67.1429 2137.14
-2.85714 67.7143 2137.14
-2.85714 68.2857 2137.14
-2.85714 68.8571 2137.14
-2.85714 69.4286 2137.14
-2.85714 70 2137.14
-2.85714 70.5714 2137.14
-2.85714 71.1429 2137.14
-2.85714 71.7143 2137.14
-2.85714 72.2857 2137.14
-2.85714 72.8571 2137.14
-2.85714 73.4286 2137.14
-2.85714 74 2137.14
-2.85714 74.5714 2137.14
-2.85714 75.1429 2137.14
-2.85714 75.7143 2137.14
-3.13167 76.0142 2129.54
-10.9904 68.754 1911.82
-3.13167 77.153 2129.54
-3.13167 77.7224 2129.54
5.03937 86.6142 2355.91
-3.13167 78.8612 2129.54
-2.85714 79.7143 2137.14
-2.85714 80.2857 2137.14
-2.85714 80.8571 2137.14
-2.85714 81.4286 2137.14
-2.85714 82 2137.14
-2.85714 82.5714 2137.14
-2.85714 83.1429 2137.14
-2.85714 83.7143 2137.14
-2.85714 84.2857 2137.14
-2.85714 84.8571 2137.14
-2.85714 85.4286 2137.14
-3.13167 85.6939 2129.54
-3.13167 86.2633 2129.54
-3.13167 86.8327 2129.54
-3.13167 87.4021 2129.54
-3.13167 87.9715 2129.54
-3.13167 88.5409 2129.54
-3.13167 89.1103 2129.54
-3.13167 89.6797 2129.54
-3.13167 90.2491 2129.54
-3.13167 90.8185 2129.54
-3.13167 91.3879 2129.54
-3.13167 91.9573 2129.54
-3.13167 92.5267 2129.54
-3.13167 93.0961 2129.54
-3.13167 93.6655 2129.54
-3.13167 94.2349 2129.54
-3.13167 94.8043 2129.54
-3.13167 95.3737 2129.54
-3.40426 95.6028 2121.99
-3.40426 96.1702 2121.99
-3.40426 96.7376 2121.99
-3.40426 97.305 2121.99
-3.40426 97.8723 2121.99
-3.40426 98.4397 2121.99
-3.40426 99.0071 2121.99
-11.2102 89.4268 1905.73
