-5.13369 -34.8663 1600
10.0322 -41.4148 1924.12
10.0322 -40.9003 1924.12
10.0322 -40.3859 1924.12
10.0322 -39.8714 1924.12
10.0322 -39.3569 1924.12
10.0322 -38.8424 1924.12
10.0322 -38.328 1924.12
10.0322 -37.8135 1924.12
10.0322 -37.299 1924.12
10.0322 -36.7846 1924.12
10.0322 -36.2701 1924.12
10.0322 -35.7556 1924.12
10.0322 -35.2412 1924.12
10.0322 -34.7267 1924.12
10.0322 -34.2122 1924.12
10.0322 -33.6978 1924.12
10.0322 -33.1833 1924.12
10.0322 -32.6688 1924.12
10.0322 -32.1543 1924.12
10.0322 -31.6399 1924.12
10.0322 -31.1254 1924.12
10.0322 -30.6109 1924.12
10.0322 -30.0965 1924.12
10.0322 -29.582 1924.12
10.0322 -29.0675 1924.12
10.0322 -28.5531 1924.12
10.0322 -28.0386 1924.12
10.0322 -27.5241 1924.12
10.0322 -27.0096 1924.12
10.0322 -26.4952 1924.12
10.0322 -25.9807 1924.12
10.0322 -25.4662 1924.12
10.0322 -24.9518 1924.12
10.0322 -24.4373 1924.12
10.0322 -23.9228 1924.12
9.17197 -23.1847 1905.73
9.17197 -22.6752 1905.73
9.17197 -22.1656 1905.73
9.17197 -21.6561 1905.73
9.17197 -21.1465 1905.73
9.17197 -20.6369 1905.73
9.17197 -20.1274 1905.73
9.17197 -19.6178 1905.73
9.17197 -19.1083 1905.73
9.17197 -18.5987 1905.73
9.17197 -18.0892 1905.73
9.17197 -17.5796 1905.73
9.17197 -17.0701 1905.73
9.17197 -16.5605 1905.73
9.17197 -16.051 1905.73
9.17197 -15.5414 1905.73
9.17197 -15.0318 1905.73
9.17197 -14.5223 1905.73
9.17197 -14.0127 1905.73
10.0322 -13.6334 1924.12
9.17197 -12.9936 1905.73
9.17197 -12.4841 1905.73
9.17197 -11.9745 1905.73
9.17197 -11.465 1905.73
9.17197 -10.9554 1905.73
9.17197 -10.4459 1905.73
9.17197 -9.93631 1905.73
9.17197 -9.42675 1905.73
9.17197 -8.9172 1905.73
9.17197 -8.40764 1905.73
10.0322 -7.97428 1924.12
10.0322 -7.45981 1924.12
10.0322 -6.94534 1924.12
10.0322 -6.43087 1924.12
10.0322 -5.9164 1924.12
10.0322 -5.40193 1924.12
9.17197 -4.84076 1905.73
9.17197 -4.33121 1905.73
9.17197 -3.82166 1905.73
9.17197 -3.3121 1905.73
9.17197 -2.80255 1905.73
9.17197 -2.29299 1905.73
9.17197 -1.78344 1905.73
8.32808 -1.26183 1887.7
7.5 -0.75 1870
7.5 -0.25 1870
5.88957 0.245399 1835.58
2.11144 0.703812 1754.84
2.84024 1.18343 1770.41
3.58209 1.67164 1786.27
3.58209 2.14925 1786.27
5.10638 2.67477 1818.84
5.10638 3.16109 1818.84
5.88957 3.68098 1835.58
5.88957 4.17178 1835.58
5.88957 4.66258 1835.58
5.88957 5.15337 1835.58
5.88957 5.64417 1835.58
3.58209 5.97015 1786.27
3.58209 6.44776 1786.27
3.58209 6.92537 1786.27
-3.28767 6.79452 1639.45
-3.28767 7.23288 1639.45
-3.28767 7.67123 1639.45
-3.28767 8.10959 1639.45
-3.28767 8.54795 1639.45
-0.679887 9.29178 1695.18
-5.72944 9.12467 1587.27
21.8182 13.0909 2176
-5.72944 9.97347 1587.27
-5.72944 10.3979 1587.27
-6.31579 10.7368 1574.74
-6.31579 11.1579 1574.74
-5.13369 11.7647 1600
-2.00557 12.702 1666.85
-2.00557 13.1476 1666.85
-2.00557 13.5933 1666.85
-2.00557 14.039 1666.85
-2.00557 14.4847 1666.85
-2.00557 14.9304 1666.85
-2.00557 15.376 1666.85
-2.00557 15.8217 1666.85
-2.00557 16.2674 1666.85
-2.00557 16.7131 1666.85
-2.00557 17.1588 1666.85
-2.00557 17.6045 1666.85
-2.00557 18.0501 1666.85
-2.00557 18.4958 1666.85
-2.00557 18.9415 1666.85
-2.00557 19.3872 1666.85
-2.00557 19.8329 1666.85
-2.00557 20.2786 1666.85
-2.00557 20.7242 1666.85
-2.00557 21.1699 1666.85
-2.00557 21.6156 1666.85
-2.00557 22.0613 1666.85
-2.00557 22.507 1666.85
-2.65193 22.7624 1653.04
-2.65193 23.2044 1653.04
-2.65193 23.6464 1653.04
-2.65193 24.0884 1653.04
-2.65193 24.5304 1653.04
-2.65193 24.9724 1653.04
-2.65193 25.4144 1653.04
-2.65193 25.8564 1653.04
-2.65193 26.2983 1653.04
-2.65193 26.7403 1653.04
-2.65193 27.1823 1653.04
-2.65193 27.6243 1653.04
-2.65193 28.0663 1653.04
-2.65193 28.5083 1653.04
-2.65193 28.9503 1653.04
-2.65193 29.3923 1653.04
-2.65193 29.8343 1653.04
-2.65193 30.2762 1653.04
-2.65193 30.7182 1653.04
-2.65193 31.1602 1653.04
-2.65193 31.6022 1653.04
-2.65193 32.0442 1653.04
-2.65193 32.4862 1653.04
-2.65193 32.9282 1653.04
-2.65193 33.3702 1653.04
-2.65193 33.8122 1653.04
-2.65193 34.2541 1653.04
-2.65193 34.6961 1653.04
-2.65193 35.1381 1653.04
-2.65193 35.5801 1653.04
-2.65193 36.0221 1653.04
-2.65193 36.4641 1653.04
-2.65193 36.9061 1653.04
-2.65193 37.3481 1653.04
-2.65193 37.7901 1653.04
-2.65193 38.232 1653.04
-2.65193 38.674 1653.04
-2.65193 39.116 1653.04
-2.65193 39.558 1653.04
-2.65193 40 1653.04
-2.65193 40.442 1653.04
-2.65193 40.884 1653.04
-2.65193 41.326 1653.04
-2.65193 41.768 1653.04
-2.65193 42.2099 1653.04
-2.65193 42.6519 1653.04
-2.65193 43.0939 1653.04
-2.65193 43.5359 1653.04
-2.65193 43.9779 1653.04
-2.65193 44.4199 1653.04
-2.65193 44.8619 1653.04
-2.65193 45.3039 1653.04
-2.65193 45.7459 1653.04
-2.65193 46.1878 1653.04
-2.65193 46.6298 1653.04
-2.65193 47.0718 1653.04
-2.65193 47.5138 1653.04
-2.65193 47.9558 1653.04
-2.65193 48.3978 1653.04
-2.65193 48.8398 1653.04
-2.65193 49.2818 1653.04
-3.28767 49.3151 1639.45
-3.28767 49.7534 1639.45
-3.28767 50.1918 1639.45
-3.91304 50.2174 1626.09
-3.91304 50.6522 1626.09
-3.91304 51.087 1626.09
-3.91304 51.5217 1626.09
-3.91304 51.9565 1626.09
-3.91304 52.3913 1626.09
-3.91304 52.8261 1626.09
-3.91304 53.2609 1626.09
-3.91304 53.6957 1626.09
-4.5283 53.6927 1612.94
-4.5283 54.124 1612.94
-4.5283 54.5553 1612.94
-4.5283 54.9865 1612.94
-4.5283 55.4178 1612.94
-4.5283 55.8491 1612.94
-4.5283 56.2803 1612.94
-5.13369 56.2567 1600
-5.13369 56.6845 1600
-5.13369 57.1123 1600
-5.13369 57.5401 1600
-5.13369 57.9679 1600
-5.13369 58.3957 1600
-5.13369 58.8235 1600
-5.13369 59.2513 1600
-5.72944 59.2042 1587.27
-5.72944 59.6286 1587.27
-5.72944 60.0531 1587.27
-5.72944 60.4775 1587.27
-5.72944 60.9019 1587.27
-5.72944 61.3263 1587.27
-5.72944 61.7507 1587.27
-5.72944 62.1751 1587.27
-6.31579 62.1053 1574.74
-6.31579 62.5263 1574.74
-6.31579 62.9474 1574.74
-6.31579 63.3684 1574.74
-6.31579 63.7895 1574.74
-6.31579 64.2105 1574.74
-6.31579 64.6316 1574.74
-6.31579 65.0526 1574.74
-6.31579 65.4737 1574.74
-6.31579 65.8947 1574.74
-6.31579 66.3158 1574.74
41.7391 110.261 2601.74
41.7391 110.957 2601.74
41.7391 111.652 2601.74
41.7391 112.348 2601.74
41.7391 113.043 2601.74
41.7391 113.739 2601.74
41.7391 114.435 2601.74
41.7391 115.13 2601.74
-3.28767 72.9863 1639.45
-3.28767 73.4247 1639.45
-3.28767 73.863 1639.45
-3.91304 73.6957 1626.09
-3.91304 74.1304 1626.09
-5.72944 72.7851 1587.27
-5.72944 73.2095 1587.27
-5.72944 73.6339 1587.27
-5.72944 74.0584 1587.27
41.7391 122.087 2601.74
41.7391 122.783 2601.74
41.7391 123.478 2601.74
41.7391 124.174 2601.74
40.1717 123.262 2568.24
40.1717 123.949 2568.24
41.7391 126.261 2601.74
41.7391 126.957 2601.74
41.7391 127.652 2601.74
41.7391 128.348 2601.74
41.7391 129.043 2601.74
41.7391 129.739 2601.74
18.0282 -105.634 2107.04
18.0282 -105.07 2107.04
18.0282 -104.507 2107.04
18.0282 -103.944 2107.04
18.0282 -103.38 2107.04
18.0282 -102.817 2107.04
18.0282 -102.254 2107.04
18.0282 -101.69 2107.04
18.0282 -101.127 2107.04
18.0282 -100.563 2107.04
18.0282 -100 2107.04
18.0282 -99.4366 2107.04
18.0282 -98.8732 2107.04
18.0282 -98.3099 2107.04
18.0282 -97.7465 2107.04
18.0282 -97.1831 2107.04
18.0282 -96.6197 2107.04
18.0282 -96.0563 2107.04
18.0282 -95.493 2107.04
18.0282 -94.9296 2107.04
18.0282 -94.3662 2107.04
18.0282 -93.8028 2107.04
18.0282 -93.2394 2107.04
18.0282 -92.6761 2107.04
18.0282 -92.1127 2107.04
18.0282 -91.5493 2107.04
18.0282 -90.9859 2107.04
18.0282 -90.4225 2107.04
18.0282 -89.8592 2107.04
17.0035 -88.3624 2085.02
17.0035 -87.8049 2085.02
18.0282 -88.169 2107.04
18.0282 -87.6056 2107.04
18.0282 -87.0423 2107.04
18.0282 -86.4789 2107.04
18.0282 -85.9155 2107.04
18.0282 -85.3521 2107.04
18.0282 -84.7887 2107.04
18.0282 -84.2253 2107.04
17.0035 -82.7875 2085.02
18.0282 -83.0986 2107.04
18.0282 -82.5352 2107.04
18.0282 -81.9718 2107.04
18.0282 -81.4084 2107.04
17.0035 -80 2085.02
17.0035 -79.4425 2085.02
17.0035 -78.885 2085.02
17.0035 -78.3275 2085.02
17.0035 -77.77 2085.02
17.0035 -77.2125 2085.02
17.0035 -76.6551 2085.02
17.0035 -76.0976 2085.02
17.0035 -75.5401 2085.02
17.0035 -74.9826 2085.02
17.0035 -74.4251 2085.02
17.0035 -73.8676 2085.02
17.0035 -73.3101 2085.02
17.0035 -72.7526 2085.02
17.0035 -72.1951 2085.02
17.0035 -71.6376 2085.02
17.0035 -71.0801 2085.02
17.0035 -70.5227 2085.02
17.0035 -69.9652 2085.02
17.0035 -69.4077 2085.02
17.0035 -68.8502 2085.02
17.0035 -68.2927 2085.02
17.0035 -67.7352 2085.02
17.0035 -67.1777 2085.02
17.0035 -66.6202 2085.02
17.0035 -66.0627 2085.02
17.0035 -65.5052 2085.02
17.0035 -64.9477 2085.02
17.0035 -64.3902 2085.02
17.0035 -63.8328 2085.02
17.0035 -63.2753 2085.02
17.0035 -62.7178 2085.02
16 -61.5172 2063.45
17.0035 -61.6028 2085.02
17.0035 -61.0453 2085.02
17.0035 -60.4878 2085.02
17.0035 -59.9303 2085.02
17.0035 -59.3728 2085.02
17.0035 -58.8153 2085.02
17.0035 -58.2578 2085.02
17.0035 -57.7003 2085.02
17.0035 -57.1429 2085.02
17.0035 -56.5854 2085.02
17.0035 -56.0279 2085.02
17.0035 -55.4704 2085.02
17.0035 -54.9129 2085.02
16 -53.7931 2063.45
16 -53.2414 2063.45
16 -52.6897 2063.45
16 -52.1379 2063.45
16 -51.5862 2063.45
16 -51.0345 2063.45
16 -50.4828 2063.45
16 -49.931 2063.45
17.0035 -49.8955 2085.02
17.0035 -49.338 2085.02
17.0035 -48.7805 2085.02
17.0035 -48.223 2085.02
17.0035 -47.6655 2085.02
17.0035 -47.108 2085.02
16 -46.069 2063.45
16 -45.5172 2063.45
-5.5615 -34.8663 1600
9.51768 -41.4148 1924.12
9.51768 -40.9003 1924.12
9.51768 -40.3859 1924.12
9.51768 -39.8714 1924.12
9.51768 -39.3569 1924.12
9.51768 -38.8424 1924.12
9.51768 -38.328 1924.12
9.51768 -37.8135 1924.12
9.51768 -37.299 1924.12
9.51768 -36.7846 1924.12
9.51768 -36.2701 1924.12
41.0435 -48.3478 2601.74
41.0435 -47.6522 2601.74
41.0435 -46.9565 2601.74
41.0435 -46.2609 2601.74
9.51768 -33.6978 1924.12
9.51768 -33.1833 1924.12
9.51768 -32.6688 1924.12
9.51768 -32.1543 1924.12
9.51768 -31.6399 1924.12
9.51768 -31.1254 1924.12
9.51768 -30.6109 1924.12
9.51768 -30.0965 1924.12
9.51768 -29.582 1924.12
9.51768 -29.0675 1924.12
9.51768 -28.5531 1924.12
9.51768 -28.0386 1924.12
9.51768 -27.5241 1924.12
9.51768 -27.0096 1924.12
9.51768 -26.4952 1924.12
9.51768 -25.9807 1924.12
9.51768 -25.4662 1924.12
9.51768 -24.9518 1924.12
9.51768 -24.4373 1924.12
9.51768 -23.9228 1924.12
9.51768 -23.4084 1924.12
9.51768 -22.8939 1924.12
9.51768 -22.3794 1924.12
9.51768 -21.865 1924.12
9.51768 -21.3505 1924.12
9.51768 -20.836 1924.12
9.51768 -20.3215 1924.12
9.51768 -19.8071 1924.12
9.51768 -19.2926 1924.12
8.66242 -18.5987 1905.73
8.66242 -18.0892 1905.73
8.66242 -17.5796 1905.73
8.66242 -17.0701 1905.73
8.66242 -16.5605 1905.73
8.66242 -16.051 1905.73
8.66242 -15.5414 1905.73
8.66242 -15.0318 1905.73
8.66242 -14.5223 1905.73
8.66242 -14.0127 1905.73
9.51768 -13.6334 1924.12
8.66242 -12.9936 1905.73
8.66242 -12.4841 1905.73
8.66242 -11.9745 1905.73
8.66242 -11.465 1905.73
8.66242 -10.9554 1905.73
8.66242 -10.4459 1905.73
8.66242 -9.93631 1905.73
8.66242 -9.42675 1905.73
10.3896 -9.09091 1942.86
10.3896 -8.57143 1942.86
10.3896 -8.05195 1942.86
10.3896 -7.53247 1942.86
10.3896 -7.01299 1942.86
9.51768 -6.43087 1924.12
9.51768 -5.9164 1924.12
9.51768 -5.40193 1924.12
8.66242 -4.84076 1905.73
8.66242 -4.33121 1905.73
8.66242 -3.82166 1905.73
8.66242 -3.3121 1905.73
8.66242 -2.80255 1905.73
7.82334 -2.27129 1887.7
7.82334 -1.76656 1887.7
7 -1.25 1870
6.19195 -0.743034 1852.63
6.19195 -0.247678 1852.63
4.62006 0.243161 1818.84
0.930233 0.697674 1739.53
1.64223 1.17302 1754.84
2.36686 1.6568 1770.41
2.36686 2.13018 1770.41
4.62006 2.67477 1818.84
4.62006 3.16109 1818.84
4.62006 3.64742 1818.84
4.62006 4.13374 1818.84
4.62006 4.62006 1818.84
4.62006 5.10638 1818.84
5.39877 5.64417 1835.58
41.0435 8.69565 2601.74
-1.13314 6.11898 1695.18
-1.13314 6.57224 1695.18
-1.13314 7.0255 1695.18
-1.13314 7.47875 1695.18
-1.13314 7.93201 1695.18
-1.13314 8.38527 1695.18
-3.72603 8.54795 1639.45
-3.72603 8.9863 1639.45
-6.15385 9.12467 1587.27
24.6617 13.5338 2249.62
23.4944 13.9777 2224.54
-7.31071 10.235 1562.4
-7.31071 10.6527 1562.4
-2.45125 11.8106 1666.85
-2.45125 12.2563 1666.85
-2.45125 12.702 1666.85
-2.45125 13.1476 1666.85
-2.45125 13.5933 1666.85
-2.45125 14.039 1666.85
-2.45125 14.4847 1666.85
-2.45125 14.9304 1666.85
-2.45125 15.376 1666.85
-2.45125 15.8217 1666.85
-2.45125 16.2674 1666.85
-2.45125 16.7131 1666.85
-2.45125 17.1588 1666.85
-2.45125 17.6045 1666.85
-2.45125 18.0501 1666.85
-2.45125 18.4958 1666.85
-2.45125 18.9415 1666.85
-2.45125 19.3872 1666.85
-2.45125 19.8329 1666.85
-2.45125 20.2786 1666.85
-2.45125 20.7242 1666.85
-2.45125 21.1699 1666.85
-3.09392 21.4365 1653.04
-3.09392 21.8785 1653.04
-3.09392 22.3204 1653.04
-3.09392 22.7624 1653.04
-3.09392 23.2044 1653.04
-3.09392 23.6464 1653.04
-3.09392 24.0884 1653.04
-3.09392 24.5304 1653.04
-3.09392 24.9724 1653.04
-3.09392 25.4144 1653.04
-3.09392 25.8564 1653.04
-3.09392 26.2983 1653.04
-3.09392 26.7403 1653.04
-3.09392 27.1823 1653.04
-3.09392 27.6243 1653.04
-3.09392 28.0663 1653.04
-3.09392 28.5083 1653.04
-3.09392 28.9503 1653.04
-3.09392 29.3923 1653.04
-3.09392 29.8343 1653.04
-3.09392 30.2762 1653.04
-3.09392 30.7182 1653.04
-3.09392 31.1602 1653.04
-3.09392 31.6022 1653.04
-3.09392 32.0442 1653.04
-3.09392 32.4862 1653.04
-3.09392 32.9282 1653.04
-3.09392 33.3702 1653.04
-3.09392 33.8122 1653.04
-3.09392 34.2541 1653.04
-3.09392 34.6961 1653.04
-3.09392 35.1381 1653.04
-3.09392 35.5801 1653.04
-3.09392 36.0221 1653.04
-3.09392 36.4641 1653.04
-3.09392 36.9061 1653.04
-3.09392 37.3481 1653.04
-3.09392 37.7901 1653.04
-3.09392 38.232 1653.04
-3.09392 38.674 1653.04
-3.09392 39.116 1653.04
-3.09392 39.558 1653.04
-3.09392 40 1653.04
-3.09392 40.442 1653.04
-3.09392 40.884 1653.04
-3.09392 41.326 1653.04
-3.09392 41.768 1653.04
-3.09392 42.2099 1653.04
-3.09392 42.6519 1653.04
-3.09392 43.0939 1653.04
-3.09392 43.5359 1653.04
-3.09392 43.9779 1653.04
-3.09392 44.4199 1653.04
-3.09392 44.8619 1653.04
-3.09392 45.3039 1653.04
-3.09392 45.7459 1653.04
-3.09392 46.1878 1653.04
-3.09392 46.6298 1653.04
-3.09392 47.0718 1653.04
-3.09392 47.5138 1653.04
-3.09392 47.9558 1653.04
-3.09392 48.3978 1653.04
-3.09392 48.8398 1653.04
-3.09392 49.2818 1653.04
-3.72603 49.3151 1639.45
-3.72603 49.7534 1639.45
-3.72603 50.1918 1639.45
-4.34783 50.2174 1626.09
-4.34783 50.6522 1626.09
-4.34783 51.087 1626.09
-4.34783 51.5217 1626.09
-4.34783 51.9565 1626.09
-4.34783 52.3913 1626.09
-4.34783 52.8261 1626.09
-4.34783 53.2609 1626.09
-4.34783 53.6957 1626.09
-4.95957 53.6927 1612.94
-4.95957 54.124 1612.94
-4.95957 54.5553 1612.94
-4.95957 54.9865 1612.94
-4.95957 55.4178 1612.94
-4.95957 55.8491 1612.94
-4.95957 56.2803 1612.94
-4.95957 56.7116 1612.94
-5.5615 56.6845 1600
-5.5615 57.1123 1600
-5.5615 57.5401 1600
-5.5615 57.9679 1600
-5.5615 58.3957 1600
-5.5615 58.8235 1600
-5.5615 59.2513 1600
-5.5615 59.6791 1600
-6.15385 59.6286 1587.27
-6.15385 60.0531 1587.27
-6.15385 60.4775 1587.27
-6.15385 60.9019 1587.27
-6.15385 61.3263 1587.27
-6.15385 61.7507 1587.27
-6.15385 62.1751 1587.27
-6.73684 62.1053 1574.74
-6.73684 62.5263 1574.74
-6.73684 62.9474 1574.74
-6.73684 63.3684 1574.74
-6.73684 63.7895 1574.74
-6.73684 64.2105 1574.74
-6.73684 64.6316 1574.74
-6.73684 65.0526 1574.74
-7.31071 64.9608 1562.4
-7.31071 65.3786 1562.4
-7.31071 65.7963 1562.4
-7.31071 66.2141 1562.4
-7.31071 66.6319 1562.4
-7.31071 67.0496 1562.4
-7.31071 67.4674 1562.4
-7.31071 67.8851 1562.4
-7.31071 68.3029 1562.4
-7.31071 68.7206 1562.4
-7.31071 69.1384 1562.4
-3.09392 73.5912 1653.04
-3.09392 74.0331 1653.04
-3.09392 74.4751 1653.04
-4.34783 73.6957 1626.09
-4.34783 74.1304 1626.09
-6.15385 72.7851 1587.27
-6.15385 73.2095 1587.27
-6.15385 73.6339 1587.27
41.0435 121.391 2601.74
27.0769 108 2301.54
41.0435 122.783 2601.74
41.0435 123.478 2601.74
41.0435 124.174 2601.74
36.4854 120.167 2503.77
35.0413 119.339 2472.73
41.0435 126.261 2601.74
41.0435 126.957 2601.74
41.0435 127.652 2601.74
41.0435 128.348 2601.74
41.0435 129.043 2601.74
41.0435 129.739 2601.74
17.4648 -105.634 2107.04
17.4648 -105.07 2107.04
17.4648 -104.507 2107.04
17.4648 -103.944 2107.04
17.4648 -103.38 2107.04
17.4648 -102.817 2107.04
17.4648 -102.254 2107.04
17.4648 -101.69 2107.04
17.4648 -101.127 2107.04
17.4648 -100.563 2107.04
17.4648 -100 2107.04
17.4648 -99.4366 2107.04
17.4648 -98.8732 2107.04
17.4648 -98.3099 2107.04
17.4648 -97.7465 2107.04
17.4648 -97.1831 2107.04
17.4648 -96.6197 2107.04
17.4648 -96.0563 2107.04
17.4648 -95.493 2107.04
17.4648 -94.9296 2107.04
17.4648 -94.3662 2107.04
17.4648 -93.8028 2107.04
17.4648 -93.2394 2107.04
17.4648 -92.6761 2107.04
17.4648 -92.1127 2107.04
17.4648 -91.5493 2107.04
17.4648 -90.9859 2107.04
17.4648 -90.4225 2107.04
16.446 -88.9199 2085.02
16.446 -88.3624 2085.02
16.446 -87.8049 2085.02
16.446 -87.2474 2085.02
17.4648 -87.6056 2107.04
17.4648 -87.0423 2107.04
17.4648 -86.4789 2107.04
17.4648 -85.9155 2107.04
17.4648 -85.3521 2107.04
17.4648 -84.7887 2107.04
16.446 -83.3449 2085.02
16.446 -82.7875 2085.02
16.446 -82.23 2085.02
16.446 -81.6725 2085.02
16.446 -81.115 2085.02
16.446 -80.5575 2085.02
16.446 -80 2085.02
16.446 -79.4425 2085.02
16.446 -78.885 2085.02
16.446 -78.3275 2085.02
16.446 -77.77 2085.02
16.446 -77.2125 2085.02
16.446 -76.6551 2085.02
16.446 -76.0976 2085.02
16.446 -75.5401 2085.02
16.446 -74.9826 2085.02
16.446 -74.4251 2085.02
16.446 -73.8676 2085.02
16.446 -73.3101 2085.02
16.446 -72.7526 2085.02
16.446 -72.1951 2085.02
16.446 -71.6376 2085.02
16.446 -71.0801 2085.02
16.446 -70.5227 2085.02
16.446 -69.9652 2085.02
16.446 -69.4077 2085.02
16.446 -68.8502 2085.02
16.446 -68.2927 2085.02
16.446 -67.7352 2085.02
16.446 -67.1777 2085.02
16.446 -66.6202 2085.02
16.446 -66.0627 2085.02
16.446 -65.5052 2085.02
16.446 -64.9477 2085.02
16.446 -64.3902 2085.02
16.446 -63.8328 2085.02
16.446 -63.2753 2085.02
16.446 -62.7178 2085.02
16.446 -62.1603 2085.02
16.446 -61.6028 2085.02
16.446 -61.0453 2085.02
16.446 -60.4878 2085.02
16.446 -59.9303 2085.02
16.446 -59.3728 2085.02
16.446 -58.8153 2085.02
16.446 -58.2578 2085.02
15.4483 -57.1034 2063.45
15.4483 -56.5517 2063.45
16.446 -56.5854 2085.02
16.446 -56.0279 2085.02
16.446 -55.4704 2085.02
16.446 -54.9129 2085.02
15.4483 -53.7931 2063.45
15.4483 -53.2414 2063.45
15.4483 -52.6897 2063.45
15.4483 -52.1379 2063.45
15.4483 -51.5862 2063.45
15.4483 -51.0345 2063.45
15.4483 -50.4828 2063.45
15.4483 -49.931 2063.45
16.446 -49.8955 2085.02
16.446 -49.338 2085.02
16.446 -48.7805 2085.02
16.446 -48.223 2085.02
16.446 -47.6655 2085.02
16.446 -47.108 2085.02
15.4483 -46.069 2063.45
15.4483 -45.5172 2063.45
15.4483 -44.9655 2063.45
-5.39084 -34.717 1612.94
-5.39084 -34.2857 1612.94
9.00322 -40.3859 1924.12
9.00322 -39.8714 1924.12
9.00322 -39.3569 1924.12
9.00322 -38.8424 1924.12
9.00322 -38.328 1924.12
9.00322 -37.8135 1924.12
40.3478 -50.4348 2601.74
9.00322 -36.7846 1924.12
40.3478 -49.0435 2601.74
40.3478 -48.3478 2601.74
40.3478 -47.6522 2601.74
40.3478 -46.9565 2601.74
40.3478 -46.2609 2601.74
40.3478 -45.5652 2601.74
40.3478 -44.8696 2601.74
40.3478 -44.1739 2601.74
40.3478 -43.4783 2601.74
-16.659 -22.5172 1369.34
-16.659 -22.151 1369.34
9.00322 -30.6109 1924.12
8.15287 -29.8089 1905.73
5.69659 -28.483 1852.63
5.69659 -27.9876 1852.63
5.69659 -27.4923 1852.63
5.69659 -26.9969 1852.63
5.69659 -26.5015 1852.63
4.90798 -25.7669 1835.58
4.90798 -25.2761 1835.58
4.90798 -24.7853 1835.58
4.90798 -24.2945 1835.58
9.00322 -24.9518 1924.12
9.00322 -24.4373 1924.12
9.00322 -23.9228 1924.12
9.00322 -23.4084 1924.12
9.00322 -22.8939 1924.12
-16.659 -15.9268 1369.34
-16.659 -15.5606 1369.34
-16.2212 -15.2995 1378.8
-17.5169 -14.6275 1350.79
-17.5169 -14.2664 1350.79
-16.659 -14.0961 1369.34
6.5 -18.75 1870
-16.2212 -13.4562 1378.8
9.00322 -18.2637 1924.12
8.15287 -17.5796 1905.73
8.15287 -17.0701 1905.73
8.15287 -16.5605 1905.73
8.15287 -16.051 1905.73
8.15287 -15.5414 1905.73
8.15287 -15.0318 1905.73
8.15287 -14.5223 1905.73
8.15287 -14.0127 1905.73
9.00322 -13.6334 1924.12
8.15287 -12.9936 1905.73
8.15287 -12.4841 1905.73
8.15287 -11.9745 1905.73
8.15287 -11.465 1905.73
8.15287 -10.9554 1905.73
8.15287 -10.4459 1905.73
8.15287 -9.93631 1905.73
9.00322 -9.51768 1924.12
9.00322 -9.00322 1924.12
9.87013 -8.57143 1942.86
9.87013 -8.05195 1942.86
9.87013 -7.53247 1942.86
9.87013 -7.01299 1942.86
9.00322 -6.43087 1924.12
9.00322 -5.9164 1924.12
9.00322 -5.40193 1924.12
9.00322 -4.88746 1924.12
8.15287 -4.33121 1905.73
7.31861 -3.78549 1887.7
7.31861 -3.28076 1887.7
7.31861 -2.77603 1887.7
6.5 -2.25 1870
6.5 -1.75 1870
5.69659 -1.23839 1852.63
4.90798 -0.736196 1835.58
40.3478 -0.347826 2601.74
40.3478 0.347826 2601.74
-0.230548 0.691643 1724.5
0.465116 1.16279 1739.53
1.17302 1.64223 1754.84
1.17302 2.11144 1754.84
3.37349 2.6506 1802.41
3.37349 3.13253 1802.41
2.62687 3.58209 1786.27
1.89349 4.02367 1770.41
2.62687 4.53731 1786.27
2.62687 5.01493 1786.27
4.90798 5.64417 1835.58
-1.5864 5.66572 1695.18
-1.5864 6.11898 1695.18
-1.5864 6.57224 1695.18
-1.5864 7.0255 1695.18
-1.5864 7.47875 1695.18
-1.5864 7.93201 1695.18
28.9764 11.6535 2355.91
-7.15789 8.21053 1574.74
-4.16438 8.9863 1639.45
-6.57825 9.12467 1587.27
25.2471 13.6882 2275.29
24.0602 14.1353 2249.62
-2.89694 10.9192 1666.85
-2.89694 11.3649 1666.85
-2.89694 11.8106 1666.85
-2.89694 12.2563 1666.85
-2.89694 12.702 1666.85
-2.89694 13.1476 1666.85
-2.89694 13.5933 1666.85
-2.89694 14.039 1666.85
-2.89694 14.4847 1666.85
-2.89694 14.9304 1666.85
-2.89694 15.376 1666.85
-2.89694 15.8217 1666.85
-2.89694 16.2674 1666.85
-2.89694 16.7131 1666.85
-2.89694 17.1588 1666.85
-2.89694 17.6045 1666.85
-2.89694 18.0501 1666.85
-2.89694 18.4958 1666.85
-2.89694 18.9415 1666.85
-2.89694 19.3872 1666.85
-2.89694 19.8329 1666.85
-2.89694 20.2786 1666.85
-3.53591 20.5525 1653.04
-3.53591 20.9945 1653.04
-3.53591 21.4365 1653.04
-3.53591 21.8785 1653.04
-3.53591 22.3204 1653.04
-3.53591 22.7624 1653.04
-3.53591 23.2044 1653.04
-3.53591 23.6464 1653.04
-3.53591 24.0884 1653.04
-3.53591 24.5304 1653.04
-3.53591 24.9724 1653.04
-3.53591 25.4144 1653.04
-3.53591 25.8564 1653.04
-3.53591 26.2983 1653.04
-3.53591 26.7403 1653.04
-3.53591 27.1823 1653.04
-3.53591 27.6243 1653.04
-3.53591 28.0663 1653.04
-3.53591 28.5083 1653.04
-3.53591 28.9503 1653.04
-3.53591 29.3923 1653.04
-3.53591 29.8343 1653.04
-3.53591 30.2762 1653.04
-3.53591 30.7182 1653.04
-3.53591 31.1602 1653.04
-3.53591 31.6022 1653.04
-3.53591 32.0442 1653.04
-3.53591 32.4862 1653.04
-3.53591 32.9282 1653.04
-3.53591 33.3702 1653.04
-3.53591 33.8122 1653.04
-3.53591 34.2541 1653.04
-3.53591 34.6961 1653.04
-3.53591 35.1381 1653.04
-3.53591 35.5801 1653.04
-3.53591 36.0221 1653.04
-3.53591 36.4641 1653.04
-3.53591 36.9061 1653.04
-3.53591 37.3481 1653.04
-3.53591 37.7901 1653.04
-3.53591 38.232 1653.04
-3.53591 38.674 1653.04
-3.53591 39.116 1653.04
-3.53591 39.558 1653.04
-3.53591 40 1653.04
-3.53591 40.442 1653.04
-3.53591 40.884 1653.04
-3.53591 41.326 1653.04
-3.53591 41.768 1653.04
-3.53591 42.2099 1653.04
-3.53591 42.6519 1653.04
-3.53591 43.0939 1653.04
-3.53591 43.5359 1653.04
-3.53591 43.9779 1653.04
-3.53591 44.4199 1653.04
-3.53591 44.8619 1653.04
-3.53591 45.3039 1653.04
-3.53591 45.7459 1653.04
-3.53591 46.1878 1653.04
-3.53591 46.6298 1653.04
-3.53591 47.0718 1653.04
-3.53591 47.5138 1653.04
-3.53591 47.9558 1653.04
-3.53591 48.3978 1653.04
-3.53591 48.8398 1653.04
-3.53591 49.2818 1653.04
-4.16438 49.3151 1639.45
-4.16438 49.7534 1639.45
-4.16438 50.1918 1639.45
-4.78261 50.2174 1626.09
-4.78261 50.6522 1626.09
-4.78261 51.087 1626.09
-4.78261 51.5217 1626.09
-4.78261 51.9565 1626.09
-4.78261 52.3913 1626.09
-4.78261 52.8261 1626.09
-4.78261 53.2609 1626.09
-4.78261 53.6957 1626.09
-5.39084 53.6927 1612.94
-5.39084 54.124 1612.94
-5.39084 54.5553 1612.94
-5.39084 54.9865 1612.94
-5.39084 55.4178 1612.94
-5.39084 55.8491 1612.94
-5.39084 56.2803 1612.94
-5.39084 56.7116 1612.94
-5.98931 56.6845 1600
-5.98931 57.1123 1600
-5.98931 57.5401 1600
-5.98931 57.9679 1600
-5.98931 58.3957 1600
-5.98931 58.8235 1600
-5.98931 59.2513 1600
-5.98931 59.6791 1600
-6.57825 59.6286 1587.27
-6.57825 60.0531 1587.27
-6.57825 60.4775 1587.27
-6.57825 60.9019 1587.27
-6.57825 61.3263 1587.27
-6.57825 61.7507 1587.27
-6.57825 62.1751 1587.27
-7.15789 62.1053 1574.74
-7.15789 62.5263 1574.74
-7.15789 62.9474 1574.74
-7.15789 63.3684 1574.74
-7.15789 63.7895 1574.74
-7.15789 64.2105 1574.74
-7.15789 64.6316 1574.74
-7.15789 65.0526 1574.74
-7.72846 64.9608 1562.4
-7.72846 65.3786 1562.4
-7.72846 65.7963 1562.4
-7.72846 66.2141 1562.4
-7.72846 66.6319 1562.4
-7.72846 67.0496 1562.4
-7.72846 67.4674 1562.4
-7.72846 67.8851 1562.4
-7.72846 68.3029 1562.4
-8.29016 68.1865 1550.26
-8.29016 68.601 1550.26
-8.29016 69.0155 1550.26
-8.29016 69.4301 1550.26
-8.29016 69.8446 1550.26
-8.29016 70.2591 1550.26
-8.29016 70.6736 1550.26
-8.29016 71.0881 1550.26
-8.29016 71.5026 1550.26
-8.29016 71.9171 1550.26
-8.29016 72.3316 1550.26
26.4615 108 2301.54
40.3478 122.783 2601.74
40.3478 123.478 2601.74
40.3478 124.174 2601.74
35.8159 120.167 2503.77
32.9796 117.878 2442.45
40.3478 126.261 2601.74
40.3478 126.957 2601.74
40.3478 127.652 2601.74
40.3478 128.348 2601.74
40.3478 129.043 2601.74
40.3478 129.739 2601.74
16.9014 -105.634 2107.04
16.9014 -105.07 2107.04
16.9014 -104.507 2107.04
16.9014 -103.944 2107.04
16.9014 -103.38 2107.04
16.9014 -102.817 2107.04
16.9014 -102.254 2107.04
16.9014 -101.69 2107.04
16.9014 -101.127 2107.04
16.9014 -100.563 2107.04
16.9014 -100 2107.04
16.9014 -99.4366 2107.04
16.9014 -98.8732 2107.04
16.9014 -98.3099 2107.04
16.9014 -97.7465 2107.04
16.9014 -97.1831 2107.04
16.9014 -96.6197 2107.04
16.9014 -96.0563 2107.04
16.9014 -95.493 2107.04
16.9014 -94.9296 2107.04
16.9014 -94.3662 2107.04
16.9014 -93.8028 2107.04
16.9014 -93.2394 2107.04
16.9014 -92.6761 2107.04
16.9014 -92.1127 2107.04
16.9014 -91.5493 2107.04
16.9014 -90.9859 2107.04
15.8885 -89.4773 2085.02
15.8885 -88.9199 2085.02
15.8885 -88.3624 2085.02
15.8885 -87.8049 2085.02
15.8885 -87.2474 2085.02
16.9014 -87.6056 2107.04
16.9014 -87.0423 2107.04
16.9014 -86.4789 2107.04
16.9014 -85.9155 2107.04
16.9014 -85.3521 2107.04
15.8885 -83.9024 2085.02
15.8885 -83.3449 2085.02
15.8885 -82.7875 2085.02
15.8885 -82.23 2085.02
15.8885 -81.6725 2085.02
15.8885 -81.115 2085.02
15.8885 -80.5575 2085.02
15.8885 -80 2085.02
15.8885 -79.4425 2085.02
15.8885 -78.885 2085.02
15.8885 -78.3275 2085.02
15.8885 -77.77 2085.02
15.8885 -77.2125 2085.02
15.8885 -76.6551 2085.02
15.8885 -76.0976 2085.02
15.8885 -75.5401 2085.02
15.8885 -74.9826 2085.02
15.8885 -74.4251 2085.02
15.8885 -73.8676 2085.02
15.8885 -73.3101 2085.02
15.8885 -72.7526 2085.02
15.8885 -72.1951 2085.02
15.8885 -71.6376 2085.02
15.8885 -71.0801 2085.02
15.8885 -70.5227 2085.02
15.8885 -69.9652 2085.02
15.8885 -69.4077 2085.02
15.8885 -68.8502 2085.02
15.8885 -68.2927 2085.02
15.8885 -67.7352 2085.02
15.8885 -67.1777 2085.02
15.8885 -66.6202 2085.02
15.8885 -66.0627 2085.02
15.8885 -65.5052 2085.02
15.8885 -64.9477 2085.02
15.8885 -64.3902 2085.02
15.8885 -63.8328 2085.02
15.8885 -63.2753 2085.02
15.8885 -62.7178 2085.02
15.8885 -62.1603 2085.02
15.8885 -61.6028 2085.02
15.8885 -61.0453 2085.02
15.8885 -60.4878 2085.02
15.8885 -59.9303 2085.02
15.8885 -59.3728 2085.02
15.8885 -58.8153 2085.02
14.8966 -57.6552 2063.45
14.8966 -57.1034 2063.45
14.8966 -56.5517 2063.45
14.8966 -56 2063.45
14.8966 -55.4483 2063.45
14.8966 -54.8966 2063.45
14.8966 -54.3448 2063.45
14.8966 -53.7931 2063.45
14.8966 -53.2414 2063.45
14.8966 -52.6897 2063.45
14.8966 -52.1379 2063.45
14.8966 -51.5862 2063.45
14.8966 -51.0345 2063.45
14.8966 -50.4828 2063.45
14.8966 -49.931 2063.45
14.8966 -49.3793 2063.45
14.8966 -48.8276 2063.45
14.8966 -48.2759 2063.45
14.8966 -47.7241 2063.45
14.8966 -47.1724 2063.45
14.8966 -46.6207 2063.45
14.8966 -46.069 2063.45
14.8966 -45.5172 2063.45
14.8966 -44.9655 2063.45
14.8966 -44.4138 2063.45
14.8966 -43.8621 2063.45
14.8966 -43.3103 2063.45
8.48875 -39.8714 1924.12
8.48875 -39.3569 1924.12
8.48875 -38.8424 1924.12
8.48875 -38.328 1924.12
8.48875 -37.8135 1924.12
39.6522 -50.4348 2601.74
39.6522 -49.7391 2601.74
39.6522 -49.0435 2601.74
39.6522 -48.3478 2601.74
39.6522 -47.6522 2601.74
39.6522 -46.9565 2601.74
39.6522 -46.2609 2601.74
39.6522 -45.5652 2601.74
39.6522 -44.8696 2601.74
39.6522 -44.1739 2601.74
39.6522 -43.4783 2601.74
-16.5899 -22.6728 1378.8
-16.5899 -22.3041 1378.8
-16.5899 -21.9355 1378.8
2.89157 -28.1928 1802.41
4.41718 -28.2209 1835.58
4.41718 -27.7301 1835.58
5.20124 -27.4923 1852.63
5.20124 -26.9969 1852.63
4.41718 -26.2577 1835.58
4.41718 -25.7669 1835.58
5.20124 -25.5108 1852.63
5.20124 -25.0155 1852.63
5.20124 -24.5201 1852.63
-17.0252 -17.7574 1369.34
8.48875 -24.4373 1924.12
8.48875 -23.9228 1924.12
8.48875 -23.4084 1924.12
8.48875 -22.8939 1924.12
8.48875 -22.3794 1924.12
8.48875 -21.865 1924.12
7.64331 -21.1465 1905.73
7.64331 -20.6369 1905.73
7.64331 -20.1274 1905.73
7.64331 -19.6178 1905.73
7.64331 -19.1083 1905.73
7.64331 -18.5987 1905.73
8.48875 -18.2637 1924.12
7.64331 -17.5796 1905.73
7.64331 -17.0701 1905.73
7.64331 -16.5605 1905.73
7.64331 -16.051 1905.73
7.64331 -15.5414 1905.73
7.64331 -15.0318 1905.73
7.64331 -14.5223 1905.73
7.64331 -14.0127 1905.73
8.48875 -13.6334 1924.12
8.48875 -13.119 1924.12
8.48875 -12.6045 1924.12
8.48875 -12.09 1924.12
8.48875 -11.5756 1924.12
8.48875 -11.0611 1924.12
8.48875 -10.5466 1924.12
8.48875 -10.0322 1924.12
8.48875 -9.51768 1924.12
8.48875 -9.00322 1924.12
8.48875 -8.48875 1924.12
8.48875 -7.97428 1924.12
8.48875 -7.45981 1924.12
8.48875 -6.94534 1924.12
8.48875 -6.43087 1924.12
8.48875 -5.9164 1924.12
8.48875 -5.40193 1924.12
8.48875 -4.88746 1924.12
6.81388 -4.29022 1887.7
6.81388 -3.78549 1887.7
6 -3.25 1870
6 -2.75 1870
5.20124 -2.2291 1852.63
5.20124 -1.73375 1852.63
39.6522 -1.73913 2601.74
4.41718 -0.736196 1835.58
39.6522 -0.347826 2601.74
39.6522 0.347826 2601.74
39.6522 1.04348 2601.74
39.6522 1.73913 2601.74
39.6522 2.43478 2601.74
39.6522 3.13043 2601.74
2.14925 2.62687 1786.27
2.14925 3.10448 1786.27
2.14925 3.58209 1786.27
2.14925 4.0597 1786.27
2.14925 4.53731 1786.27
2.14925 5.01493 1786.27
2.14925 5.49254 1786.27
-2.03966 5.66572 1695.18
-2.03966 6.11898 1695.18
39.6522 10.087 2601.74
-2.03966 7.0255 1695.18
-2.03966 7.47875 1695.18
-2.69663 7.86517 1680.9
28.3465 11.6535 2355.91
-9.2545 8.02057 1538.3
-9.2545 8.43188 1538.3
-7.00265 9.12467 1587.27
22.3048 13.3829 2224.54
-3.34262 10.4735 1666.85
-3.34262 10.9192 1666.85
-3.34262 11.3649 1666.85
-3.34262 11.8106 1666.85
-3.34262 12.2563 1666.85
-3.34262 12.702 1666.85
-3.34262 13.1476 1666.85
-3.34262 13.5933 1666.85
-3.34262 14.039 1666.85
-3.34262 14.4847 1666.85
-3.34262 14.9304 1666.85
-3.34262 15.376 1666.85
-3.34262 15.8217 1666.85
-3.34262 16.2674 1666.85
-3.34262 16.7131 1666.85
-3.34262 17.1588 1666.85
-3.34262 17.6045 1666.85
-3.34262 18.0501 1666.85
-3.34262 18.4958 1666.85
-3.34262 18.9415 1666.85
-3.9779 19.2265 1653.04
-3.9779 19.6685 1653.04
-3.9779 20.1105 1653.04
-3.9779 20.5525 1653.04
-3.9779 20.9945 1653.04
-3.9779 21.4365 1653.04
-3.9779 21.8785 1653.04
-3.9779 22.3204 1653.04
-3.9779 22.7624 1653.04
-3.9779 23.2044 1653.04
-3.9779 23.6464 1653.04
-3.9779 24.0884 1653.04
-3.9779 24.5304 1653.04
-3.9779 24.9724 1653.04
-3.9779 25.4144 1653.04
-3.9779 25.8564 1653.04
-3.9779 26.2983 1653.04
-3.9779 26.7403 1653.04
-3.9779 27.1823 1653.04
-3.9779 27.6243 1653.04
-3.9779 28.0663 1653.04
-3.9779 28.5083 1653.04
-3.9779 28.9503 1653.04
-3.9779 29.3923 1653.04
-3.9779 29.8343 1653.04
-3.9779 30.2762 1653.04
-3.9779 30.7182 1653.04
-3.9779 31.1602 1653.04
-3.9779 31.6022 1653.04
-3.9779 32.0442 1653.04
-3.9779 32.4862 1653.04
-3.9779 32.9282 1653.04
-3.9779 33.3702 1653.04
-3.9779 33.8122 1653.04
-3.9779 34.2541 1653.04
-3.9779 34.6961 1653.04
-3.9779 35.1381 1653.04
-3.9779 35.5801 1653.04
-3.9779 36.0221 1653.04
-3.9779 36.4641 1653.04
-3.9779 36.9061 1653.04
-3.9779 37.3481 1653.04
-3.9779 37.7901 1653.04
-3.9779 38.232 1653.04
-3.9779 38.674 1653.04
-3.9779 39.116 1653.04
-3.9779 39.558 1653.04
-3.9779 40 1653.04
-3.9779 40.442 1653.04
-3.9779 40.884 1653.04
-3.9779 41.326 1653.04
-3.9779 41.768 1653.04
-3.9779 42.2099 1653.04
-3.9779 42.6519 1653.04
-3.9779 43.0939 1653.04
-3.9779 43.5359 1653.04
-3.9779 43.9779 1653.04
-3.9779 44.4199 1653.04
-3.9779 44.8619 1653.04
-3.9779 45.3039 1653.04
-3.9779 45.7459 1653.04
-3.9779 46.1878 1653.04
-3.9779 46.6298 1653.04
-3.9779 47.0718 1653.04
-3.9779 47.5138 1653.04
-3.9779 47.9558 1653.04
-3.9779 48.3978 1653.04
-3.9779 48.8398 1653.04
-3.9779 49.2818 1653.04
-3.9779 49.7238 1653.04
-4.60274 49.7534 1639.45
-4.60274 50.1918 1639.45
-5.21739 50.2174 1626.09
-5.21739 50.6522 1626.09
-5.21739 51.087 1626.09
-5.21739 51.5217 1626.09
-5.21739 51.9565 1626.09
-5.21739 52.3913 1626.09
-5.21739 52.8261 1626.09
-5.21739 53.2609 1626.09
-5.21739 53.6957 1626.09
-5.8221 53.6927 1612.94
-5.8221 54.124 1612.94
-5.8221 54.5553 1612.94
-5.8221 54.9865 1612.94
-5.8221 55.4178 1612.94
-5.8221 55.8491 1612.94
-5.8221 56.2803 1612.94
-5.8221 56.7116 1612.94
-6.41711 56.6845 1600
-6.41711 57.1123 1600
-6.41711 57.5401 1600
-6.41711 57.9679 1600
-6.41711 58.3957 1600
-6.41711 58.8235 1600
-6.41711 59.2513 1600
-6.41711 59.6791 1600
-6.41711 60.107 1600
-7.00265 60.0531 1587.27
-7.00265 60.4775 1587.27
-7.00265 60.9019 1587.27
-7.00265 61.3263 1587.27
-7.00265 61.7507 1587.27
-7.00265 62.1751 1587.27
-7.57895 62.1053 1574.74
-7.57895 62.5263 1574.74
-7.57895 62.9474 1574.74
-7.57895 63.3684 1574.74
-7.57895 63.7895 1574.74
-7.57895 64.2105 1574.74
-7.57895 64.6316 1574.74
-7.57895 65.0526 1574.74
-8.14621 64.9608 1562.4
-8.14621 65.3786 1562.4
-8.14621 65.7963 1562.4
-8.14621 66.2141 1562.4
-8.14621 66.6319 1562.4
-8.14621 67.0496 1562.4
-8.14621 67.4674 1562.4
-8.14621 67.8851 1562.4
-8.14621 68.3029 1562.4
-8.70466 68.1865 1550.26
-8.70466 68.601 1550.26
-8.70466 69.0155 1550.26
-8.70466 69.4301 1550.26
-8.70466 69.8446 1550.26
-8.70466 70.2591 1550.26
-8.70466 70.6736 1550.26
-9.2545 70.5398 1538.3
-9.2545 70.9512 1538.3
-9.2545 71.3625 1538.3
-9.2545 71.7738 1538.3
-9.2545 72.1851 1538.3
-9.2545 72.5964 1538.3
-9.2545 73.0077 1538.3
-9.2545 73.419 1538.3
-9.2545 73.8303 1538.3
-9.2545 74.2416 1538.3
39.6522 126.261 2601.74
39.6522 126.957 2601.74
39.6522 127.652 2601.74
39.6522 128.348 2601.74
39.6522 129.043 2601.74
39.6522 129.739 2601.74
16.338 -105.634 2107.04
16.338 -105.07 2107.04
16.338 -104.507 2107.04
16.338 -103.944 2107.04
16.338 -103.38 2107.04
16.338 -102.817 2107.04
16.338 -102.254 2107.04
16.338 -101.69 2107.04
16.338 -101.127 2107.04
16.338 -100.563 2107.04
16.338 -100 2107.04
16.338 -99.4366 2107.04
16.338 -98.8732 2107.04
16.338 -98.3099 2107.04
16.338 -97.7465 2107.04
16.338 -97.1831 2107.04
16.338 -96.6197 2107.04
16.338 -96.0563 2107.04
16.338 -95.493 2107.04
16.338 -94.9296 2107.04
16.338 -94.3662 2107.04
16.338 -93.8028 2107.04
16.338 -93.2394 2107.04
16.338 -92.6761 2107.04
16.338 -92.1127 2107.04
15.331 -90.5923 2085.02
15.331 -90.0348 2085.02
15.331 -89.4773 2085.02
15.331 -88.9199 2085.02
15.331 -88.3624 2085.02
15.331 -87.8049 2085.02
15.331 -87.2474 2085.02
16.338 -87.6056 2107.04
16.338 -87.0423 2107.04
16.338 -86.4789 2107.04
16.338 -85.9155 2107.04
16.338 -85.3521 2107.04
15.331 -83.9024 2085.02
15.331 -83.3449 2085.02
15.331 -82.7875 2085.02
15.331 -82.23 2085.02
15.331 -81.6725 2085.02
15.331 -81.115 2085.02
15.331 -80.5575 2085.02
15.331 -80 2085.02
15.331 -79.4425 2085.02
15.331 -78.885 2085.02
15.331 -78.3275 2085.02
15.331 -77.77 2085.02
15.331 -77.2125 2085.02
15.331 -76.6551 2085.02
15.331 -76.0976 2085.02
15.331 -75.5401 2085.02
15.331 -74.9826 2085.02
15.331 -74.4251 2085.02
15.331 -73.8676 2085.02
15.331 -73.3101 2085.02
15.331 -72.7526 2085.02
15.331 -72.1951 2085.02
15.331 -71.6376 2085.02
15.331 -71.0801 2085.02
15.331 -70.5227 2085.02
15.331 -69.9652 2085.02
15.331 -69.4077 2085.02
15.331 -68.8502 2085.02
15.331 -68.2927 2085.02
15.331 -67.7352 2085.02
15.331 -67.1777 2085.02
15.331 -66.6202 2085.02
15.331 -66.0627 2085.02
15.331 -65.5052 2085.02
15.331 -64.9477 2085.02
15.331 -64.3902 2085.02
15.331 -63.8328 2085.02
15.331 -63.2753 2085.02
15.331 -62.7178 2085.02
15.331 -62.1603 2085.02
15.331 -61.6028 2085.02
15.331 -61.0453 2085.02
14.3448 -59.8621 2063.45
15.331 -59.9303 2085.02
15.331 -59.3728 2085.02
15.331 -58.8153 2085.02
14.3448 -57.6552 2063.45
14.3448 -57.1034 2063.45
14.3448 -56.5517 2063.45
14.3448 -56 2063.45
14.3448 -55.4483 2063.45
14.3448 -54.8966 2063.45
14.3448 -54.3448 2063.45
14.3448 -53.7931 2063.45
14.3448 -53.2414 2063.45
14.3448 -52.6897 2063.45
14.3448 -52.1379 2063.45
14.3448 -51.5862 2063.45
14.3448 -51.0345 2063.45
14.3448 -50.4828 2063.45
14.3448 -49.931 2063.45
14.3448 -49.3793 2063.45
14.3448 -48.8276 2063.45
14.3448 -48.2759 2063.45
14.3448 -47.7241 2063.45
14.3448 -47.1724 2063.45
14.3448 -46.6207 2063.45
14.3448 -46.069 2063.45
14.3448 -45.5172 2063.45
14.3448 -44.9655 2063.45
14.3448 -44.4138 2063.45
14.3448 -43.8621 2063.45
14.3448 -43.3103 2063.45
14.3448 -42.7586 2063.45
14.3448 -42.2069 2063.45
14.3448 -41.6552 2063.45
14.3448 -41.1034 2063.45
14.3448 -40.5517 2063.45
14.3448 -40 2063.45
14.3448 -39.4483 2063.45
38.9565 -49.0435 2601.74
38.9565 -48.3478 2601.74
38.9565 -47.6522 2601.74
38.9565 -46.9565 2601.74
38.9565 -46.2609 2601.74
38.9565 -45.5652 2601.74
38.9565 -44.8696 2601.74
38.9565 -44.1739 2601.74
-16.9585 -23.0415 1378.8
-16.9585 -22.6728 1378.8
-16.9585 -22.3041 1378.8
-16.9585 -21.9355 1378.8
38.9565 -40.6957 2601.74
38.9565 -40 2601.74
38.9565 -39.3043 2601.74
3.92638 -27.2393 1835.58
3.92638 -26.7485 1835.58
3.92638 -26.2577 1835.58
3.92638 -25.7669 1835.58
-16.0748 -19.2523 1398.13
-16.9585 -18.6175 1378.8
-17.3913 -18.1236 1369.34
-17.3913 -17.7574 1369.34
-17.3913 -17.3913 1369.34
7.97428 -23.9228 1924.12
7.97428 -23.4084 1924.12
7.97428 -22.8939 1924.12
7.97428 -22.3794 1924.12
7.97428 -21.865 1924.12
7.97428 -21.3505 1924.12
7.97428 -20.836 1924.12
7.97428 -20.3215 1924.12
7.97428 -19.8071 1924.12
7.97428 -19.2926 1924.12
7.97428 -18.7781 1924.12
7.97428 -18.2637 1924.12
7.13376 -17.5796 1905.73
7.13376 -17.0701 1905.73
7.13376 -16.5605 1905.73
7.13376 -16.051 1905.73
7.13376 -15.5414 1905.73
7.13376 -15.0318 1905.73
7.13376 -14.5223 1905.73
7.13376 -14.0127 1905.73
7.97428 -13.6334 1924.12
7.97428 -13.119 1924.12
7.97428 -12.6045 1924.12
7.97428 -12.09 1924.12
7.97428 -11.5756 1924.12
7.97428 -11.0611 1924.12
7.97428 -10.5466 1924.12
7.97428 -10.0322 1924.12
7.97428 -9.51768 1924.12
7.97428 -9.00322 1924.12
7.97428 -8.48875 1924.12
7.97428 -7.97428 1924.12
7.97428 -7.45981 1924.12
7.97428 -6.94534 1924.12
7.97428 -6.43087 1924.12
7.97428 -5.9164 1924.12
7.97428 -5.40193 1924.12
7.13376 -4.84076 1905.73
6.30915 -4.29022 1887.7
5.5 -3.75 1870
4.70588 -3.21981 1852.63
4.70588 -2.72446 1852.63
3.92638 -2.20859 1835.58
3.92638 -1.71779 1835.58
38.9565 -1.73913 2601.74
38.9565 -1.04348 2601.74
38.9565 -0.347826 2601.74
38.9565 0.347826 2601.74
38.9565 1.04348 2601.74
38.9565 1.73913 2601.74
38.9565 2.43478 2601.74
38.9565 3.13043 2601.74
0.946746 2.60355 1770.41
0.946746 3.07692 1770.41
0.946746 3.5503 1770.41
0.234604 3.98827 1754.84
0.234604 4.45748 1754.84
0.234604 4.92669 1754.84
1.67164 5.49254 1786.27
-2.49292 5.66572 1695.18
-3.14607 6.06742 1680.9
-3.14607 6.51685 1680.9
-5.0411 6.79452 1639.45
-5.0411 7.23288 1639.45
-5.0411 7.67123 1639.45
38.9565 12.8696 2601.74
-5.0411 8.54795 1639.45
-5.0411 8.9863 1639.45
-3.7883 9.58217 1666.85
21.71 13.3829 2224.54
-3.7883 10.4735 1666.85
-3.7883 10.9192 1666.85
-3.7883 11.3649 1666.85
-3.7883 11.8106 1666.85
-3.7883 12.2563 1666.85
-3.7883 12.702 1666.85
-3.7883 13.1476 1666.85
-3.7883 13.5933 1666.85
-3.7883 14.039 1666.85
-3.7883 14.4847 1666.85
-3.7883 14.9304 1666.85
-3.7883 15.376 1666.85
-3.7883 15.8217 1666.85
-3.7883 16.2674 1666.85
-3.7883 16.7131 1666.85
-3.7883 17.1588 1666.85
-3.7883 17.6045 1666.85
-3.7883 18.0501 1666.85
-3.7883 18.4958 1666.85
-4.41989 18.7845 1653.04
-4.41989 19.2265 1653.04
-4.41989 19.6685 1653.04
-4.41989 20.1105 1653.04
-4.41989 20.5525 1653.04
-4.41989 20.9945 1653.04
-4.41989 21.4365 1653.04
-4.41989 21.8785 1653.04
-4.41989 22.3204 1653.04
-4.41989 22.7624 1653.04
-4.41989 23.2044 1653.04
-4.41989 23.6464 1653.04
-4.41989 24.0884 1653.04
-4.41989 24.5304 1653.04
-4.41989 24.9724 1653.04
-4.41989 25.4144 1653.04
-4.41989 25.8564 1653.04
-4.41989 26.2983 1653.04
-4.41989 26.7403 1653.04
-4.41989 27.1823 1653.04
-4.41989 27.6243 1653.04
-4.41989 28.0663 1653.04
-4.41989 28.5083 1653.04
-4.41989 28.9503 1653.04
-4.41989 29.3923 1653.04
-4.41989 29.8343 1653.04
-4.41989 30.2762 1653.04
-4.41989 30.7182 1653.04
-4.41989 31.1602 1653.04
-4.41989 31.6022 1653.04
-4.41989 32.0442 1653.04
-4.41989 32.4862 1653.04
-4.41989 32.9282 1653.04
-4.41989 33.3702 1653.04
-4.41989 33.8122 1653.04
-4.41989 34.2541 1653.04
-4.41989 34.6961 1653.04
-4.41989 35.1381 1653.04
-4.41989 35.5801 1653.04
-4.41989 36.0221 1653.04
-4.41989 36.4641 1653.04
-4.41989 36.9061 1653.04
-4.41989 37.3481 1653.04
-4.41989 37.7901 1653.04
-4.41989 38.232 1653.04
-4.41989 38.674 1653.04
-4.41989 39.116 1653.04
-4.41989 39.558 1653.04
-4.41989 40 1653.04
-4.41989 40.442 1653.04
-4.41989 40.884 1653.04
-4.41989 41.326 1653.04
-4.41989 41.768 1653.04
-4.41989 42.2099 1653.04
-4.41989 42.6519 1653.04
-4.41989 43.0939 1653.04
-4.41989 43.5359 1653.04
-4.41989 43.9779 1653.04
-4.41989 44.4199 1653.04
-4.41989 44.8619 1653.04
-4.41989 45.3039 1653.04
-4.41989 45.7459 1653.04
-4.41989 46.1878 1653.04
-4.41989 46.6298 1653.04
-4.41989 47.0718 1653.04
-4.41989 47.5138 1653.04
-4.41989 47.9558 1653.04
-4.41989 48.3978 1653.04
-4.41989 48.8398 1653.04
-4.41989 49.2818 1653.04
-4.41989 49.7238 1653.04
-5.0411 49.7534 1639.45
-5.0411 50.1918 1639.45
-5.65217 50.2174 1626.09
-5.65217 50.6522 1626.09
-5.65217 51.087 1626.09
-5.65217 51.5217 1626.09
-5.65217 51.9565 1626.09
-5.65217 52.3913 1626.09
-5.65217 52.8261 1626.09
-5.65217 53.2609 1626.09
-5.65217 53.6957 1626.09
-6.25337 53.6927 1612.94
-6.25337 54.124 1612.94
-6.25337 54.5553 1612.94
-6.25337 54.9865 1612.94
-6.25337 55.4178 1612.94
-6.25337 55.8491 1612.94
-6.25337 56.2803 1612.94
-6.84492 56.2567 1600
-6.84492 56.6845 1600
-6.84492 57.1123 1600
-6.84492 57.5401 1600
-6.84492 57.9679 1600
-6.84492 58.3957 1600
-6.84492 58.8235 1600
-6.84492 59.2513 1600
-6.84492 59.6791 1600
-7.42706 59.6286 1587.27
-7.42706 60.0531 1587.27
-7.42706 60.4775 1587.27
-7.42706 60.9019 1587.27
-7.42706 61.3263 1587.27
-7.42706 61.7507 1587.27
-7.42706 62.1751 1587.27
-8 62.1053 1574.74
-8 62.5263 1574.74
-8 62.9474 1574.74
-8 63.3684 1574.74
-8 63.7895 1574.74
-8 64.2105 1574.74
-8 64.6316 1574.74
-8 65.0526 1574.74
-8.56397 64.9608 1562.4
-8.56397 65.3786 1562.4
-8.56397 65.7963 1562.4
-8.56397 66.2141 1562.4
-8.56397 66.6319 1562.4
-8.56397 67.0496 1562.4
-8.56397 67.4674 1562.4
-8.56397 67.8851 1562.4
-8.56397 68.3029 1562.4
-9.11917 68.1865 1550.26
-9.11917 68.601 1550.26
-9.11917 69.0155 1550.26
-9.11917 69.4301 1550.26
-9.11917 69.8446 1550.26
-9.11917 70.2591 1550.26
-9.11917 70.6736 1550.26
-9.66581 70.5398 1538.3
-9.66581 70.9512 1538.3
-9.66581 71.3625 1538.3
-9.66581 71.7738 1538.3
-9.66581 72.1851 1538.3
-9.66581 72.5964 1538.3
-9.66581 73.0077 1538.3
-9.66581 73.419 1538.3
-10.2041 73.2653 1526.53
-10.2041 73.6735 1526.53
38.9565 126.261 2601.74
38.9565 126.957 2601.74
38.9565 127.652 2601.74
38.9565 128.348 2601.74
38.9565 129.043 2601.74
38.9565 129.739 2601.74
15.7746 -105.634 2107.04
15.7746 -105.07 2107.04
15.7746 -104.507 2107.04
15.7746 -103.944 2107.04
15.7746 -103.38 2107.04
15.7746 -102.817 2107.04
15.7746 -102.254 2107.04
15.7746 -101.69 2107.04
15.7746 -101.127 2107.04
15.7746 -100.563 2107.04
15.7746 -100 2107.04
15.7746 -99.4366 2107.04
15.7746 -98.8732 2107.04
15.7746 -98.3099 2107.04
15.7746 -97.7465 2107.04
15.7746 -97.1831 2107.04
15.7746 -96.6197 2107.04
15.7746 -96.0563 2107.04
15.7746 -95.493 2107.04
15.7746 -94.9296 2107.04
15.7746 -94.3662 2107.04
15.7746 -93.8028 2107.04
15.7746 -93.2394 2107.04
15.7746 -92.6761 2107.04
15.7746 -92.1127 2107.04
15.7746 -91.5493 2107.04
15.7746 -90.9859 2107.04
15.7746 -90.4225 2107.04
14.7735 -88.9199 2085.02
14.7735 -88.3624 2085.02
14.7735 -87.8049 2085.02
14.7735 -87.2474 2085.02
14.7735 -86.6899 2085.02
15.7746 -87.0423 2107.04
15.7746 -86.4789 2107.04
14.7735 -85.0174 2085.02
14.7735 -84.4599 2085.02
14.7735 -83.9024 2085.02
14.7735 -83.3449 2085.02
14.7735 -82.7875 2085.02
14.7735 -82.23 2085.02
14.7735 -81.6725 2085.02
14.7735 -81.115 2085.02
14.7735 -80.5575 2085.02
14.7735 -80 2085.02
14.7735 -79.4425 2085.02
14.7735 -78.885 2085.02
14.7735 -78.3275 2085.02
14.7735 -77.77 2085.02
14.7735 -77.2125 2085.02
14.7735 -76.6551 2085.02
14.7735 -76.0976 2085.02
15.7746 -76.338 2107.04
14.7735 -74.9826 2085.02
14.7735 -74.4251 2085.02
14.7735 -73.8676 2085.02
14.7735 -73.3101 2085.02
14.7735 -72.7526 2085.02
14.7735 -72.1951 2085.02
14.7735 -71.6376 2085.02
14.7735 -71.0801 2085.02
14.7735 -70.5227 2085.02
14.7735 -69.9652 2085.02
14.7735 -69.4077 2085.02
14.7735 -68.8502 2085.02
14.7735 -68.2927 2085.02
14.7735 -67.7352 2085.02
14.7735 -67.1777 2085.02
14.7735 -66.6202 2085.02
14.7735 -66.0627 2085.02
14.7735 -65.5052 2085.02
14.7735 -64.9477 2085.02
14.7735 -64.3902 2085.02
14.7735 -63.8328 2085.02
14.7735 -63.2753 2085.02
14.7735 -62.7178 2085.02
14.7735 -62.1603 2085.02
14.7735 -61.6028 2085.02
14.7735 -61.0453 2085.02
14.7735 -60.4878 2085.02
14.7735 -59.9303 2085.02
14.7735 -59.3728 2085.02
14.7735 -58.8153 2085.02
14.7735 -58.2578 2085.02
13.7931 -57.1034 2063.45
13.7931 -56.5517 2063.45
13.7931 -56 2063.45
13.7931 -55.4483 2063.45
13.7931 -54.8966 2063.45
13.7931 -54.3448 2063.45
13.7931 -53.7931 2063.45
13.7931 -53.2414 2063.45
13.7931 -52.6897 2063.45
13.7931 -52.1379 2063.45
13.7931 -51.5862 2063.45
13.7931 -51.0345 2063.45
13.7931 -50.4828 2063.45
13.7931 -49.931 2063.45
13.7931 -49.3793 2063.45
13.7931 -48.8276 2063.45
13.7931 -48.2759 2063.45
13.7931 -47.7241 2063.45
13.7931 -47.1724 2063.45
13.7931 -46.6207 2063.45
13.7931 -46.069 2063.45
13.7931 -45.5172 2063.45
13.7931 -44.9655 2063.45
13.7931 -44.4138 2063.45
13.7931 -43.8621 2063.45
13.7931 -43.3103 2063.45
13.7931 -42.7586 2063.45
13.7931 -42.2069 2063.45
13.7931 -41.6552 2063.45
13.7931 -41.1034 2063.45
13.7931 -40.5517 2063.45
13.7931 -40 2063.45
13.7931 -39.4483 2063.45
13.7931 -38.8966 2063.45
13.7931 -38.3448 2063.45
13.7931 -37.7931 2063.45
13.7931 -37.2414 2063.45
12.8328 -36.314 2042.32
13.7931 -36.1379 2063.45
13.7931 -35.5862 2063.45
38.2609 -44.1739 2601.74
-17.3272 -23.0415 1378.8
-17.3272 -22.6728 1378.8
38.2609 -42.087 2601.74
38.2609 -41.3913 2601.74
38.2609 -40.6957 2601.74
38.2609 -40 2601.74
38.2609 -39.3043 2601.74
1.19403 -26.5075 1786.27
2.67477 -26.5046 1818.84
2.67477 -26.0182 1818.84
2.67477 -25.5319 1818.84
38.2609 -35.8261 2601.74
-17.3272 -18.6175 1378.8
-17.7574 -18.1236 1369.34
-17.7574 -17.7574 1369.34
-17.7574 -17.3913 1369.34
7.45981 -23.9228 1924.12
7.45981 -23.4084 1924.12
7.45981 -22.8939 1924.12
7.45981 -22.3794 1924.12
7.45981 -21.865 1924.12
7.45981 -21.3505 1924.12
7.45981 -20.836 1924.12
7.45981 -20.3215 1924.12
7.45981 -19.8071 1924.12
7.45981 -19.2926 1924.12
7.45981 -18.7781 1924.12
7.45981 -18.2637 1924.12
7.45981 -17.7492 1924.12
7.45981 -17.2347 1924.12
6.6242 -16.5605 1905.73
6.6242 -16.051 1905.73
6.6242 -15.5414 1905.73
6.6242 -15.0318 1905.73
6.6242 -14.5223 1905.73
6.6242 -14.0127 1905.73
7.45981 -13.6334 1924.12
7.45981 -13.119 1924.12
7.45981 -12.6045 1924.12
7.45981 -12.09 1924.12
7.45981 -11.5756 1924.12
7.45981 -11.0611 1924.12
7.45981 -10.5466 1924.12
7.45981 -10.0322 1924.12
7.45981 -9.51768 1924.12
7.45981 -9.00322 1924.12
7.45981 -8.48875 1924.12
7.45981 -7.97428 1924.12
7.45981 -7.45981 1924.12
7.45981 -6.94534 1924.12
7.45981 -6.43087 1924.12
7.45981 -5.9164 1924.12
6.6242 -5.35032 1905.73
5.80442 -4.79495 1887.7
4.21053 -4.21053 1852.63
4.21053 -3.71517 1852.63
4.21053 -3.21981 1852.63
3.43558 -2.69939 1835.58
2.67477 -2.18845 1818.84
2.67477 -1.70213 1818.84
38.2609 -1.73913 2601.74
38.2609 -1.04348 2601.74
38.2609 -0.347826 2601.74
38.2609 0.347826 2601.74
38.2609 1.04348 2601.74
38.2609 1.73913 2601.74
38.2609 2.43478 2601.74
38.2609 3.13043 2601.74
38.2609 3.82609 2601.74
-0.234604 3.04985 1754.84
