-178.773 88.6643 2160.29
-178.773 89.2419 2160.29
-178.773 89.8195 2160.29
-178.773 90.3971 2160.29
-178.773 90.9747 2160.29
-178.773 91.5523 2160.29
-178.773 92.13 2160.29
-178.773 92.7076 2160.29
-178.773 93.2852 2160.29
-178.773 93.8628 2160.29
-178.773 94.4404 2160.29
-178.773 95.0181 2160.29
-178.773 95.5957 2160.29
-179.13 96.5217 2168.12
-179.13 97.1014 2168.12
-179.13 97.6812 2168.12
-179.13 98.2609 2168.12
-179.13 98.8406 2168.12
-179.13 99.4203 2168.12
-179.13 100 2168.12
-179.13 100.58 2168.12
-179.13 101.159 2168.12
-179.13 101.739 2168.12
-179.13 102.319 2168.12
-178.773 102.527 2160.29
-181.71 106.171 2224.54
-177.367 102.206 2129.54
-178.773 104.26 2160.29
-198.957 126.261 2601.74
-198.957 126.957 2601.74
-198.957 127.652 2601.74
-198.957 128.348 2601.74
-198.957 129.043 2601.74
-198.957 129.739 2601.74
-185.846 -115.385 2301.54
-185.846 -114.769 2301.54
-185.441 -113.716 2292.72
-185.441 -113.103 2292.72
-185.441 -112.49 2292.72
-185.441 -111.877 2292.72
-185.441 -111.264 2292.72
-185.441 -110.651 2292.72
-146.154 -69.0385 1438.46
-146.154 -68.6538 1438.46
-146.154 -68.2692 1438.46
-146.154 -67.8846 1438.46
-199.652 -122.087 2601.74
-199.652 -121.391 2601.74
-142.831 -63.379 1366.21
-142.831 -63.0137 1366.21
-189.641 -109.323 2384.06
-199.652 -118.609 2601.74
-199.652 -117.913 2601.74
-146.959 -65.5961 1455.96
-146.959 -65.2068 1455.96
-146.959 -64.8175 1455.96
-189.641 -105.498 2384.06
-189.641 -104.861 2384.06
-189.641 -104.223 2384.06
-189.641 -103.586 2384.06
-189.641 -102.948 2384.06
-189.641 -102.311 2384.06
-152.612 -67.3351 1578.89
-189.641 -101.036 2384.06
-189.641 -100.398 2384.06
-189.641 -99.761 2384.06
-189.641 -99.1235 2384.06
-189.641 -98.4861 2384.06
-189.641 -97.8486 2384.06
-189.641 -97.2112 2384.06
-189.641 -96.5737 2384.06
-189.641 -95.9363 2384.06
-190.08 -95.68 2393.6
-168.489 -76.3987 1924.12
-190.08 -94.4 2393.6
-190.522 -94.1365 2403.21
-190.522 -93.494 2403.21
-190.968 -93.2258 2412.9
-190.968 -92.5806 2412.9
-191.417 -92.3077 2422.67
-191.417 -91.6599 2422.67
-179.71 -81.4493 2168.12
-167.923 -71.3099 1911.82
-182.687 -82.6866 2232.84
-168.774 -70.9677 1930.32
-183.849 -82.4151 2258.11
-166 -67.75 1870
-189.641 -85.7371 2384.06
-189.641 -85.0996 2384.06
-189.641 -84.4622 2384.06
-189.641 -83.8247 2384.06
-189.641 -83.1872 2384.06
-189.641 -82.5498 2384.06
-189.641 -81.9124 2384.06
-189.641 -81.2749 2384.06
-189.641 -80.6375 2384.06
-189.641 -80 2384.06
-189.641 -79.3625 2384.06
-189.641 -78.7251 2384.06
-189.641 -78.0876 2384.06
-185.441 -74.4828 2292.72
-185.441 -73.8697 2292.72
-185.441 -73.2567 2292.72
-185.846 -72.9231 2301.54
-186.667 -72.8682 2319.38
-187.082 -72.5292 2328.4
-186.667 -71.6279 2319.38
-187.082 -71.284 2328.4
-187.5 -70.9375 2337.5
-188.346 -70.8661 2355.91
-188.346 -70.2362 2355.91
-188.346 -69.6063 2355.91
-189.641 -69.8008 2384.06
-189.641 -69.1633 2384.06
-189.641 -68.5259 2384.06
-189.641 -67.8884 2384.06
-189.641 -67.251 2384.06
-189.641 -66.6135 2384.06
-189.641 -65.9761 2384.06
-189.641 -65.3386 2384.06
-189.641 -64.7012 2384.06
-189.641 -64.0637 2384.06
-189.641 -63.4263 2384.06
-189.641 -62.7888 2384.06
-189.641 -62.1514 2384.06
-189.641 -61.5139 2384.06
-189.641 -60.8765 2384.06
-189.641 -60.239 2384.06
-189.641 -59.6016 2384.06
-189.641 -58.9641 2384.06
-189.641 -58.3267 2384.06
-189.641 -57.6892 2384.06
-189.641 -57.0518 2384.06
-189.641 -56.4143 2384.06
-187.5 -54.6875 2337.5
-199.652 -60.1739 2601.74
-199.652 -59.4783 2601.74
-191.417 -54.7368 2422.67
-191.87 -54.3089 2432.52
-191.87 -53.6585 2432.52
-191.87 -53.0081 2432.52
-191.87 -52.3577 2432.52
-191.87 -51.7073 2432.52
-191.87 -51.0569 2432.52
-191.87 -50.4065 2432.52
-190.08 -48.96 2393.6
-190.522 -48.5141 2403.21
-190.968 -48.0645 2412.9
-191.417 -47.6113 2422.67
-176.224 -40.5594 2092.31
-175.889 -39.8606 2085.02
-199.652 -49.0435 2601.74
-187.5 -43.4375 2337.5
-187.5 -42.8125 2337.5
-189.641 -43.0279 2384.06
-189.641 -42.3904 2384.06
-189.641 -41.753 2384.06
-189.641 -41.1155 2384.06
-189.641 -40.4781 2384.06
-187.922 -39.2157 2346.67
-188.346 -38.7402 2355.91
-187.922 -37.9608 2346.67
-187.5 -37.1875 2337.5
-185.846 -36 2301.54
-185.846 -35.3846 2301.54
-187.5 -35.3125 2337.5
-187.5 -34.6875 2337.5
-187.922 -34.1961 2346.67
-187.922 -33.5686 2346.67
-187.922 -32.9412 2346.67
-189.206 -32.6984 2374.6
-189.641 -32.1912 2384.06
-189.641 -31.5538 2384.06
-189.641 -30.9163 2384.06
-191.417 -30.7692 2422.67
-189.206 -29.5238 2374.6
-189.206 -28.8889 2374.6
-189.206 -28.254 2374.6
-189.206 -27.619 2374.6
-189.206 -26.9841 2374.6
-189.206 -26.3492 2374.6
-187.082 -25.214 2328.4
-187.082 -24.5914 2328.4
-187.082 -23.9689 2328.4
-187.082 -23.3463 2328.4
-187.082 -22.7237 2328.4
-187.082 -22.1012 2328.4
-187.082 -21.4786 2328.4
-186.667 -20.7752 2319.38
-186.667 -20.155 2319.38
-186.667 -19.5349 2319.38
-186.667 -18.9147 2319.38
-186.667 -18.2946 2319.38
-186.255 -17.6062 2310.42
-186.255 -16.9884 2310.42
-186.255 -16.3707 2310.42
-186.255 -15.7529 2310.42
-186.255 -15.1351 2310.42
-186.255 -14.5174 2310.42
-186.255 -13.8996 2310.42
-186.255 -13.2819 2310.42
-186.255 -12.6641 2310.42
-186.255 -12.0463 2310.42
-186.255 -11.4286 2310.42
-186.255 -10.8108 2310.42
-186.255 -10.1931 2310.42
-199.652 -10.7826 2601.74
-199.652 -10.087 2601.74
-199.652 -9.3913 2601.74
-199.652 -8.69565 2601.74
-199.652 -8 2601.74
-199.652 -7.30435 2601.74
-199.652 -6.6087 2601.74
-199.652 -5.91304 2601.74
-199.652 -5.21739 2601.74
-199.652 -4.52174 2601.74
-199.652 -3.82609 2601.74
-199.652 -3.13043 2601.74
-185.038 -2.1374 2283.97
-185.038 -1.52672 2283.97
-185.038 -0.916031 2283.97
-185.038 -0.305344 2283.97
-185.038 0.305344 2283.97
-185.038 0.916031 2283.97
-185.038 1.52672 2283.97
-184.639 2.12928 2275.29
-184.639 2.73764 2275.29
-184.639 3.34601 2275.29
-184.639 3.95437 2275.29
-184.639 4.56274 2275.29
-184.639 5.1711 2275.29
-184.639 5.77947 2275.29
-184.639 6.38783 2275.29
-184.639 6.9962 2275.29
-184.639 7.60456 2275.29
-184.639 8.21293 2275.29
-184.639 8.82129 2275.29
-184.639 9.42966 2275.29
-184.639 10.038 2275.29
-184.639 10.6464 2275.29
-184.639 11.2548 2275.29
-184.639 11.8631 2275.29
-184.639 12.4715 2275.29
-184.639 13.0798 2275.29
-184.639 13.6882 2275.29
-184.639 14.2966 2275.29
-184.639 14.9049 2275.29
-184.242 15.4545 2266.67
-184.242 16.0606 2266.67
-184.242 16.6667 2266.67
-184.242 17.2727 2266.67
-184.242 17.8788 2266.67
-184.242 18.4848 2266.67
-199.652 21.913 2601.74
-199.652 22.6087 2601.74
-199.652 23.3043 2601.74
-199.652 24 2601.74
-199.652 24.6957 2601.74
-199.652 25.3913 2601.74
-199.652 26.087 2601.74
-199.652 26.7826 2601.74
-199.652 27.4783 2601.74
-199.652 28.1739 2601.74
-199.652 28.8696 2601.74
-199.652 29.5652 2601.74
-199.652 30.2609 2601.74
-199.652 30.9565 2601.74
-199.652 31.6522 2601.74
-199.652 32.3478 2601.74
-199.652 33.0435 2601.74
-199.652 33.7391 2601.74
-199.652 34.4348 2601.74
-199.652 35.1304 2601.74
-199.652 35.8261 2601.74
-199.652 36.5217 2601.74
-199.652 37.2174 2601.74
-199.652 37.913 2601.74
-199.652 38.6087 2601.74
-199.652 39.3043 2601.74
-199.652 40 2601.74
-199.652 40.6957 2601.74
-199.652 41.3913 2601.74
-199.652 42.087 2601.74
-199.652 42.7826 2601.74
-199.652 43.4783 2601.74
-199.652 44.1739 2601.74
-199.652 44.8696 2601.74
-199.652 45.5652 2601.74
-180.806 38.9744 2191.94
-199.652 46.9565 2601.74
-199.652 47.6522 2601.74
-199.652 48.3478 2601.74
-199.652 49.0435 2601.74
-199.652 49.7391 2601.74
-199.652 50.4348 2601.74
-199.652 51.1304 2601.74
-186.255 46.0232 2310.42
-186.255 46.6409 2310.42
-186.255 47.2587 2310.42
-199.652 53.913 2601.74
-186.255 48.4942 2310.42
-186.255 49.112 2310.42
-186.255 49.7297 2310.42
-185.846 50.1538 2301.54
-179.35 47.6534 2160.29
-179.35 48.231 2160.29
-179.35 48.8087 2160.29
-179.35 49.3863 2160.29
-179.35 49.9639 2160.29
-179.35 50.5415 2160.29
-179.35 51.1191 2160.29
-179.35 51.6968 2160.29
-179.35 52.2744 2160.29
-179.35 52.852 2160.29
-179.35 53.4296 2160.29
-179.35 54.0072 2160.29
-179.35 54.5848 2160.29
-179.35 55.1625 2160.29
-179.35 55.7401 2160.29
-179.35 56.3177 2160.29
-179.35 56.8953 2160.29
-179.35 57.4729 2160.29
-179.35 58.0505 2160.29
-179.35 58.6282 2160.29
-179.35 59.2058 2160.29
-179.35 59.7834 2160.29
-179.35 60.361 2160.29
-179.35 60.9386 2160.29
-179.35 61.5162 2160.29
-179.35 62.0939 2160.29
-179.71 62.8986 2168.12
-179.71 63.4783 2168.12
-179.71 64.058 2168.12
-179.71 64.6377 2168.12
-179.71 65.2174 2168.12
-179.71 65.7971 2168.12
-179.35 66.1372 2160.29
-179.35 66.7148 2160.29
-179.35 67.2924 2160.29
-179.35 67.87 2160.29
-179.35 68.4477 2160.29
-179.35 69.0253 2160.29
-179.35 69.6029 2160.29
-179.71 70.4348 2168.12
-179.35 70.7581 2160.29
-179.35 71.3357 2160.29
-179.35 71.9134 2160.29
-179.35 72.491 2160.29
-179.35 73.0686 2160.29
-179.35 73.6462 2160.29
-179.35 74.2238 2160.29
-179.71 75.0725 2168.12
-181.55 77.048 2208.12
-179.71 76.2319 2168.12
-179.71 76.8116 2168.12
-179.35 77.1119 2160.29
-179.71 77.971 2168.12
-179.35 78.2672 2160.29
-179.35 78.8448 2160.29
-179.35 79.4224 2160.29
-179.35 80 2160.29
-179.35 80.5776 2160.29
-179.35 81.1552 2160.29
-179.35 81.7328 2160.29
-181.926 84.4444 2216.3
-179.35 82.8881 2160.29
-179.35 83.4657 2160.29
-179.35 84.0433 2160.29
-179.35 84.6209 2160.29
-179.35 85.1986 2160.29
-179.35 85.7762 2160.29
-179.35 86.3538 2160.29
-179.35 86.9314 2160.29
-179.35 87.509 2160.29
-179.35 88.0866 2160.29
-179.35 88.6643 2160.29
-179.35 89.2419 2160.29
-179.35 89.8195 2160.29
-179.35 90.3971 2160.29
-179.35 90.9747 2160.29
-179.35 91.5523 2160.29
-179.35 92.13 2160.29
-179.35 92.7076 2160.29
-179.35 93.2852 2160.29
-179.35 93.8628 2160.29
-179.35 94.4404 2160.29
-179.35 95.0181 2160.29
-179.35 95.5957 2160.29
-179.71 96.5217 2168.12
-179.71 97.1014 2168.12
-179.71 97.6812 2168.12
-179.71 98.2609 2168.12
-179.71 98.8406 2168.12
-179.71 99.4203 2168.12
-179.71 100 2168.12
-179.71 100.58 2168.12
-179.71 101.159 2168.12
-179.71 101.739 2168.12
-179.71 102.319 2168.12
-179.35 102.527 2160.29
-182.305 106.171 2224.54
-179.35 103.682 2160.29
-179.35 104.26 2160.29
-199.652 126.261 2601.74
-199.652 126.957 2601.74
-199.652 127.652 2601.74
-199.652 128.348 2601.74
-199.652 129.043 2601.74
-199.652 129.739 2601.74
-186.462 -115.385 2301.54
-186.462 -114.769 2301.54
-186.054 -113.716 2292.72
-186.054 -113.103 2292.72
-186.054 -112.49 2292.72
-186.054 -111.877 2292.72
-186.054 -111.264 2292.72
-186.054 -110.651 2292.72
-186.054 -110.038 2292.72
-146.379 -68.4892 1435.01
-146.379 -68.1055 1435.01
-186.462 -108.615 2301.54
-200.348 -122.087 2601.74
-200.348 -121.391 2601.74
-200.348 -120.696 2601.74
-200.348 -120 2601.74
-200.348 -119.304 2601.74
-200.348 -118.609 2601.74
-200.348 -117.913 2601.74
-190.279 -107.41 2384.06
-147.184 -65.0485 1452.43
-147.184 -64.6602 1452.43
-146.86 -63.9614 1445.41
-146.86 -63.5749 1445.41
-190.279 -104.223 2384.06
-190.279 -103.586 2384.06
-190.279 -102.948 2384.06
-190.279 -102.311 2384.06
-190.279 -101.673 2384.06
-190.279 -101.036 2384.06
-190.279 -100.398 2384.06
-190.279 -99.761 2384.06
-190.279 -99.1235 2384.06
-190.279 -98.4861 2384.06
-190.279 -97.8486 2384.06
-190.279 -97.2112 2384.06
-190.279 -96.5737 2384.06
-190.279 -95.9363 2384.06
-190.72 -95.68 2393.6
-190.72 -95.04 2393.6
-190.72 -94.4 2393.6
-190.72 -93.76 2393.6
-169.29 -75.0968 1930.32
-191.165 -92.8514 2403.21
-200.348 -99.8261 2601.74
-200.348 -99.1304 2601.74
-192.065 -91.6599 2422.67
-192.065 -91.0121 2422.67
-167.873 -70.8571 1899.68
-182.519 -82.0741 2216.3
-167.595 -69.6203 1893.67
-167.595 -69.1139 1893.67
-190.279 -86.3745 2384.06
-190.279 -85.7371 2384.06
-190.279 -85.0996 2384.06
-190.279 -84.4622 2384.06
-190.279 -83.8247 2384.06
-190.279 -83.1872 2384.06
-190.279 -82.5498 2384.06
-190.279 -81.9124 2384.06
-190.279 -81.2749 2384.06
-190.279 -80.6375 2384.06
-190.279 -80 2384.06
-190.279 -79.3625 2384.06
-190.279 -78.7251 2384.06
-190.279 -78.0876 2384.06
-190.279 -77.4502 2384.06
-172.886 -64.698 2008.05
-185.649 -72.9771 2283.97
-186.054 -72.6437 2292.72
-186.873 -72.5869 2310.42
-187.287 -72.2481 2319.38
-187.287 -71.6279 2319.38
-187.287 -71.0078 2319.38
-187.704 -70.6615 2328.4
-188.125 -70.3125 2337.5
-188.125 -69.6875 2337.5
-188.549 -69.3333 2346.67
-188.976 -68.9764 2355.91
-189.841 -68.8889 2374.6
-190.279 -68.5259 2384.06
-190.279 -67.8884 2384.06
-190.279 -67.251 2384.06
-190.279 -66.6135 2384.06
-190.279 -65.9761 2384.06
-190.279 -65.3386 2384.06
-190.279 -64.7012 2384.06
-190.279 -64.0637 2384.06
-190.279 -63.4263 2384.06
-190.279 -62.7888 2384.06
-190.279 -62.1514 2384.06
-190.279 -61.5139 2384.06
-190.279 -60.8765 2384.06
-190.279 -60.239 2384.06
-190.279 -59.6016 2384.06
-190.279 -58.9641 2384.06
-190.279 -58.3267 2384.06
-190.279 -57.6892 2384.06
-190.279 -57.0518 2384.06
-188.125 -55.3125 2337.5
-188.125 -54.6875 2337.5
-200.348 -60.1739 2601.74
-200.348 -59.4783 2601.74
-200.348 -58.7826 2601.74
-192.52 -54.3089 2432.52
-192.52 -53.6585 2432.52
-192.52 -53.0081 2432.52
-192.52 -52.3577 2432.52
-192.52 -51.7073 2432.52
-192.52 -51.0569 2432.52
-192.52 -50.4065 2432.52
-192.52 -49.7561 2432.52
-192.52 -49.1057 2432.52
-191.165 -47.8715 2403.21
-191.613 -47.4194 2412.9
-191.613 -46.7742 2412.9
-176.446 -39.8606 2085.02
-176.111 -39.1667 2077.78
-176.111 -38.6111 2077.78
-188.125 -42.8125 2337.5
-190.279 -43.0279 2384.06
-190.279 -42.3904 2384.06
-190.279 -41.753 2384.06
-190.279 -41.1155 2384.06
-190.279 -40.4781 2384.06
-190.279 -39.8406 2384.06
-190.279 -39.2032 2384.06
-189.407 -38.2609 2365.22
-188.549 -37.3333 2346.67
-186.462 -36 2301.54
-186.462 -35.3846 2301.54
-186.462 -34.7692 2301.54
-188.125 -34.6875 2337.5
-188.125 -34.0625 2337.5
-188.125 -33.4375 2337.5
-188.549 -32.9412 2346.67
-188.549 -32.3137 2346.67
-190.279 -32.1912 2384.06
-190.279 -31.5538 2384.06
-190.279 -30.9163 2384.06
-192.065 -30.7692 2422.67
-189.841 -29.5238 2374.6
-189.841 -28.8889 2374.6
-189.841 -28.254 2374.6
-189.841 -27.619 2374.6
-189.407 -26.8775 2365.22
-189.407 -26.2451 2365.22
-187.704 -25.214 2328.4
-187.704 -24.5914 2328.4
-187.704 -23.9689 2328.4
-187.704 -23.3463 2328.4
-187.704 -22.7237 2328.4
-187.287 -22.0155 2319.38
-187.287 -21.3953 2319.38
-187.287 -20.7752 2319.38
-187.287 -20.155 2319.38
-187.287 -19.5349 2319.38
-187.287 -18.9147 2319.38
-187.287 -18.2946 2319.38
-186.873 -17.6062 2310.42
-186.873 -16.9884 2310.42
-186.873 -16.3707 2310.42
-186.462 -15.6923 2301.54
-186.873 -15.1351 2310.42
-186.873 -14.5174 2310.42
-186.873 -13.8996 2310.42
-186.873 -13.2819 2310.42
-186.873 -12.6641 2310.42
-186.873 -12.0463 2310.42
-186.873 -11.4286 2310.42
-186.873 -10.8108 2310.42
-186.873 -10.1931 2310.42
-186.873 -9.57529 2310.42
-186.873 -8.95753 2310.42
-186.873 -8.33977 2310.42
-200.348 -8.69565 2601.74
-200.348 -8 2601.74
-200.348 -7.30435 2601.74
-200.348 -6.6087 2601.74
-200.348 -5.91304 2601.74
-200.348 -5.21739 2601.74
-200.348 -4.52174 2601.74
-200.348 -3.82609 2601.74
-200.348 -3.13043 2601.74
-185.649 -2.1374 2283.97
-185.649 -1.52672 2283.97
-185.649 -0.916031 2283.97
-185.649 -0.305344 2283.97
-185.649 0.305344 2283.97
-185.649 0.916031 2283.97
-185.649 1.52672 2283.97
-185.247 2.12928 2275.29
-185.247 2.73764 2275.29
-185.247 3.34601 2275.29
-185.247 3.95437 2275.29
-185.247 4.56274 2275.29
-185.247 5.1711 2275.29
-185.247 5.77947 2275.29
-185.247 6.38783 2275.29
-185.247 6.9962 2275.29
-185.247 7.60456 2275.29
-185.247 8.21293 2275.29
-185.247 8.82129 2275.29
-185.247 9.42966 2275.29
-185.247 10.038 2275.29
-185.247 10.6464 2275.29
-185.247 11.2548 2275.29
-185.247 11.8631 2275.29
-200.348 14.2609 2601.74
-200.348 14.9565 2601.74
-184.848 13.6364 2266.67
-184.848 14.2424 2266.67
-200.348 17.0435 2601.74
-200.348 17.7391 2601.74
-200.348 18.4348 2601.74
-200.348 19.1304 2601.74
-200.348 19.8261 2601.74
-200.348 20.5217 2601.74
-200.348 21.2174 2601.74
-200.348 21.913 2601.74
-200.348 22.6087 2601.74
-200.348 23.3043 2601.74
-200.348 24 2601.74
-200.348 24.6957 2601.74
-200.348 25.3913 2601.74
-200.348 26.087 2601.74
-200.348 26.7826 2601.74
-200.348 27.4783 2601.74
-200.348 28.1739 2601.74
-200.348 28.8696 2601.74
-200.348 29.5652 2601.74
-200.348 30.2609 2601.74
-200.348 30.9565 2601.74
-200.348 31.6522 2601.74
-200.348 32.3478 2601.74
-200.348 33.0435 2601.74
-200.348 33.7391 2601.74
-200.348 34.4348 2601.74
-200.348 35.1304 2601.74
-200.348 35.8261 2601.74
-200.348 36.5217 2601.74
-200.348 37.2174 2601.74
-200.348 37.913 2601.74
-200.348 38.6087 2601.74
-200.348 39.3043 2601.74
-200.348 40 2601.74
-200.348 40.6957 2601.74
-200.348 41.3913 2601.74
-200.348 42.087 2601.74
-200.348 42.7826 2601.74
-200.348 43.4783 2601.74
-200.348 44.1739 2601.74
-200.348 44.8696 2601.74
-200.348 45.5652 2601.74
-181.392 38.9744 2191.94
-200.348 46.9565 2601.74
-200.348 47.6522 2601.74
-186.873 42.9344 2310.42
-186.873 43.5521 2310.42
-186.873 44.1699 2310.42
-186.873 44.7876 2310.42
-186.873 45.4054 2310.42
-186.873 46.0232 2310.42
-186.462 46.4615 2301.54
-186.462 47.0769 2301.54
-200.348 53.913 2601.74
-186.462 48.3077 2301.54
-186.462 48.9231 2301.54
-186.462 49.5385 2301.54
-186.462 50.1538 2301.54
-186.462 50.7692 2301.54
-186.462 51.3846 2301.54
-186.462 52 2301.54
-179.928 49.3863 2160.29
-179.928 49.9639 2160.29
-179.928 50.5415 2160.29
-179.928 51.1191 2160.29
-179.928 51.6968 2160.29
-179.928 52.2744 2160.29
-179.928 52.852 2160.29
-179.928 53.4296 2160.29
-179.928 54.0072 2160.29
-179.928 54.5848 2160.29
-179.928 55.1625 2160.29
-179.928 55.7401 2160.29
-179.928 56.3177 2160.29
-179.928 56.8953 2160.29
-179.928 57.4729 2160.29
-179.928 58.0505 2160.29
-179.928 58.6282 2160.29
-179.928 59.2058 2160.29
-179.928 59.7834 2160.29
-179.928 60.361 2160.29
-179.928 60.9386 2160.29
-179.928 61.5162 2160.29
-179.928 62.0939 2160.29
-180.29 62.8986 2168.12
-180.29 63.4783 2168.12
-180.29 64.058 2168.12
-180.29 64.6377 2168.12
-180.29 65.2174 2168.12
-180.29 65.7971 2168.12
-180.29 66.3768 2168.12
-179.928 66.7148 2160.29
-179.928 67.2924 2160.29
-179.928 67.87 2160.29
-179.928 68.4477 2160.29
-179.928 69.0253 2160.29
-179.928 69.6029 2160.29
-179.928 70.1805 2160.29
-179.928 70.7581 2160.29
-179.928 71.3357 2160.29
-179.928 71.9134 2160.29
-179.928 72.491 2160.29
-179.928 73.0686 2160.29
-179.928 73.6462 2160.29
-179.928 74.2238 2160.29
-179.928 74.8014 2160.29
-182.14 77.048 2208.12
-180.29 76.2319 2168.12
-179.928 76.5343 2160.29
-179.928 77.1119 2160.29
-179.928 77.6895 2160.29
-179.928 78.2672 2160.29
-179.928 78.8448 2160.29
-179.928 79.4224 2160.29
-179.928 80 2160.29
-179.928 80.5776 2160.29
-179.928 81.1552 2160.29
-179.928 81.7328 2160.29
-182.519 84.4444 2216.3
-179.928 82.8881 2160.29
-179.928 83.4657 2160.29
-179.928 84.0433 2160.29
-179.928 84.6209 2160.29
-179.928 85.1986 2160.29
-179.928 85.7762 2160.29
-179.928 86.3538 2160.29
-179.928 86.9314 2160.29
-179.928 87.509 2160.29
-179.928 88.0866 2160.29
-179.928 88.6643 2160.29
-179.928 89.2419 2160.29
-179.928 89.8195 2160.29
-179.928 90.3971 2160.29
-179.928 90.9747 2160.29
-179.928 91.5523 2160.29
-179.928 92.13 2160.29
-179.928 92.7076 2160.29
-179.928 93.2852 2160.29
-179.928 93.8628 2160.29
-179.928 94.4404 2160.29
-179.928 95.0181 2160.29
-179.928 95.5957 2160.29
-180.29 96.5217 2168.12
-180.29 97.1014 2168.12
-180.29 97.6812 2168.12
-180.29 98.2609 2168.12
-180.29 98.8406 2168.12
-180.29 99.4203 2168.12
-180.29 100 2168.12
-180.29 100.58 2168.12
-180.29 101.159 2168.12
-180.29 101.739 2168.12
-180.29 102.319 2168.12
-179.928 102.527 2160.29
-182.519 105.778 2216.3
-179.568 103.309 2152.52
-179.568 103.885 2152.52
-200.348 126.261 2601.74
-200.348 126.957 2601.74
-200.348 127.652 2601.74
-200.348 128.348 2601.74
-200.348 129.043 2601.74
-200.348 129.739 2601.74
-141.322 -66.0793 1318.06
-186.667 -114.329 2292.72
-186.667 -113.716 2292.72
-186.667 -113.103 2292.72
-186.667 -112.49 2292.72
-186.667 -111.877 2292.72
-186.667 -111.264 2292.72
-186.667 -110.651 2292.72
-186.667 -110.038 2292.72
-146.603 -68.3254 1431.58
-146.603 -67.9426 1431.58
-186.667 -108.199 2292.72
-187.077 -108 2301.54
-201.043 -121.391 2601.74
-201.043 -120.696 2601.74
-201.043 -120 2601.74
-201.043 -119.304 2601.74
-201.043 -118.609 2601.74
-201.043 -117.913 2601.74
-190.916 -107.41 2384.06
-147.409 -64.891 1448.91
-147.409 -64.5036 1448.91
-147.084 -63.8072 1441.93
-147.246 -63.5749 1445.41
-147.246 -63.1884 1445.41
-190.916 -103.586 2384.06
-190.916 -102.948 2384.06
-190.916 -102.311 2384.06
-190.916 -101.673 2384.06
-190.916 -101.036 2384.06
-190.916 -100.398 2384.06
-190.916 -99.761 2384.06
-190.916 -99.1235 2384.06
-190.916 -98.4861 2384.06
-190.916 -97.8486 2384.06
-190.916 -97.2112 2384.06
-190.916 -96.5737 2384.06
-190.916 -95.9363 2384.06
-190.916 -95.2988 2384.06
-191.36 -95.04 2393.6
-191.36 -94.4 2393.6
-191.36 -93.76 2393.6
-191.36 -93.12 2393.6
-191.36 -92.48 2393.6
-201.043 -99.8261 2601.74
-201.043 -99.1304 2601.74
-201.043 -98.4348 2601.74
-192.713 -91.0121 2422.67
-168.381 -70.8571 1899.68
-168.381 -70.3492 1899.68
-168.381 -69.8413 1899.68
-190.916 -87.012 2384.06
-190.916 -86.3745 2384.06
-190.916 -85.7371 2384.06
-190.916 -85.0996 2384.06
-190.916 -84.4622 2384.06
-190.916 -83.8247 2384.06
-190.916 -83.1872 2384.06
-190.916 -82.5498 2384.06
-190.916 -81.9124 2384.06
-190.916 -81.2749 2384.06
-173.423 -67.9195 2008.05
-190.916 -80 2384.06
-190.916 -79.3625 2384.06
-190.916 -78.7251 2384.06
-190.916 -78.0876 2384.06
-190.916 -77.4502 2384.06
-190.916 -76.8128 2384.06
-190.916 -76.1753 2384.06
-186.26 -72.3664 2283.97
-186.667 -72.0307 2292.72
-187.077 -71.6923 2301.54
-187.49 -71.3513 2310.42
-187.49 -70.7336 2310.42
-187.907 -70.3876 2319.38
-188.75 -70.3125 2337.5
-188.75 -69.6875 2337.5
-188.75 -69.0625 2337.5
-189.176 -68.7059 2346.67
-190.04 -68.6166 2365.22
-190.04 -67.9842 2365.22
-190.04 -67.3518 2365.22
-190.916 -67.251 2384.06
-190.916 -66.6135 2384.06
-190.916 -65.9761 2384.06
-190.916 -65.3386 2384.06
-190.916 -64.7012 2384.06
-190.916 -64.0637 2384.06
-190.916 -63.4263 2384.06
-190.916 -62.7888 2384.06
-190.916 -62.1514 2384.06
-190.916 -61.5139 2384.06
-190.916 -60.8765 2384.06
-190.916 -60.239 2384.06
-190.916 -59.6016 2384.06
-190.916 -58.9641 2384.06
-190.916 -58.3267 2384.06
-190.916 -57.6892 2384.06
-188.75 -55.9375 2337.5
-188.75 -55.3125 2337.5
-201.043 -60.8696 2601.74
-201.043 -60.1739 2601.74
-201.043 -59.4783 2601.74
-201.043 -58.7826 2601.74
-192.713 -54.0891 2422.67
-193.171 -53.6585 2432.52
-193.171 -53.0081 2432.52
-193.171 -52.3577 2432.52
-193.171 -51.7073 2432.52
-193.171 -51.0569 2432.52
-193.171 -50.4065 2432.52
-193.171 -49.7561 2432.52
-193.171 -49.1057 2432.52
-193.171 -48.4553 2432.52
-193.171 -47.8049 2432.52
-192.258 -46.7742 2412.9
-192.258 -46.129 2412.9
-176.667 -39.1667 2077.78
-176.667 -38.6111 2077.78
-190.916 -43.6653 2384.06
-190.916 -43.0279 2384.06
-190.916 -42.3904 2384.06
-190.916 -41.753 2384.06
-190.916 -41.1155 2384.06
-190.916 -40.4781 2384.06
-190.916 -39.8406 2384.06
-190.916 -39.2032 2384.06
-190.916 -38.5657 2384.06
-189.606 -37.4803 2355.91
-186.667 -35.8621 2292.72
-187.077 -35.3846 2301.54
-187.077 -34.7692 2301.54
-187.077 -34.1538 2301.54
-188.327 -33.93 2328.4
-188.75 -33.4375 2337.5
-188.75 -32.8125 2337.5
-189.176 -32.3137 2346.67
-189.176 -31.6863 2346.67
-190.916 -31.5538 2384.06
-190.916 -30.9163 2384.06
-190.916 -30.2789 2384.06
-190.476 -29.5238 2374.6
-190.476 -28.8889 2374.6
-190.476 -28.254 2374.6
-190.476 -27.619 2374.6
-189.606 -26.7717 2355.91
-189.606 -26.1417 2355.91
-188.327 -25.214 2328.4
-188.327 -24.5914 2328.4
-188.327 -23.9689 2328.4
-188.327 -23.3463 2328.4
-188.327 -22.7237 2328.4
-188.327 -22.1012 2328.4
-188.327 -21.4786 2328.4
-187.907 -20.7752 2319.38
-187.907 -20.155 2319.38
-187.907 -19.5349 2319.38
-187.907 -18.9147 2319.38
-187.907 -18.2946 2319.38
-187.907 -17.6744 2319.38
-187.49 -16.9884 2310.42
-187.49 -16.3707 2310.42
-187.49 -15.7529 2310.42
-187.49 -15.1351 2310.42
-187.49 -14.5174 2310.42
-187.49 -13.8996 2310.42
-187.49 -13.2819 2310.42
-187.49 -12.6641 2310.42
-187.49 -12.0463 2310.42
-187.49 -11.4286 2310.42
-187.49 -10.8108 2310.42
-187.49 -10.1931 2310.42
-187.49 -9.57529 2310.42
-187.49 -8.95753 2310.42
-187.49 -8.33977 2310.42
-187.49 -7.72201 2310.42
-187.49 -7.10425 2310.42
-187.49 -6.48649 2310.42
-187.49 -5.86873 2310.42
-201.043 -5.91304 2601.74
-201.043 -5.21739 2601.74
-201.043 -4.52174 2601.74
-201.043 -3.82609 2601.74
-201.043 -3.13043 2601.74
-201.043 -2.43478 2601.74
-186.26 -1.52672 2283.97
-186.26 -0.916031 2283.97
-186.26 -0.305344 2283.97
-186.26 0.305344 2283.97
-186.26 0.916031 2283.97
-186.26 1.52672 2283.97
-185.856 2.12928 2275.29
-185.856 2.73764 2275.29
-185.856 3.34601 2275.29
-185.856 3.95437 2275.29
-185.856 4.56274 2275.29
-185.856 5.1711 2275.29
-185.856 5.77947 2275.29
-185.856 6.38783 2275.29
-185.856 6.9962 2275.29
-185.856 7.60456 2275.29
-185.856 8.21293 2275.29
-185.856 8.82129 2275.29
-201.043 10.7826 2601.74
-201.043 11.4783 2601.74
-201.043 12.1739 2601.74
-201.043 12.8696 2601.74
-201.043 13.5652 2601.74
-201.043 14.2609 2601.74
-201.043 14.9565 2601.74
-201.043 15.6522 2601.74
-201.043 16.3478 2601.74
-201.043 17.0435 2601.74
-201.043 17.7391 2601.74
-201.043 18.4348 2601.74
-189.606 17.3228 2355.91
-189.606 17.9528 2355.91
-189.606 18.5827 2355.91
-189.606 19.2126 2355.91
-189.606 19.8425 2355.91
-189.606 20.4724 2355.91
-184.662 20.1504 2249.62
-182.353 20.2941 2200
-201.043 24.6957 2601.74
-201.043 25.3913 2601.74
-201.043 26.087 2601.74
-201.043 26.7826 2601.74
-201.043 27.4783 2601.74
-201.043 28.1739 2601.74
-201.043 28.8696 2601.74
-201.043 29.5652 2601.74
-201.043 30.2609 2601.74
-201.043 30.9565 2601.74
-201.043 31.6522 2601.74
-201.043 32.3478 2601.74
-201.043 33.0435 2601.74
-201.043 33.7391 2601.74
-201.043 34.4348 2601.74
-201.043 35.1304 2601.74
-201.043 35.8261 2601.74
-201.043 36.5217 2601.74
-201.043 37.2174 2601.74
-201.043 37.913 2601.74
-201.043 38.6087 2601.74
-201.043 39.3043 2601.74
-201.043 40 2601.74
-201.043 40.6957 2601.74
-201.043 41.3913 2601.74
-201.043 42.087 2601.74
-201.043 42.7826 2601.74
-201.043 43.4783 2601.74
-187.49 39.2278 2310.42
-201.043 44.8696 2601.74
-187.49 40.4633 2310.42
-187.49 41.0811 2310.42
-187.49 41.6988 2310.42
-187.49 42.3166 2310.42
-187.49 42.9344 2310.42
-187.49 43.5521 2310.42
-187.49 44.1699 2310.42
-187.49 44.7876 2310.42
-187.49 45.4054 2310.42
-187.49 46.0232 2310.42
-187.077 46.4615 2301.54
-187.077 47.0769 2301.54
-187.077 47.6923 2301.54
-187.077 48.3077 2301.54
-187.077 48.9231 2301.54
-187.077 49.5385 2301.54
-187.077 50.1538 2301.54
-187.077 50.7692 2301.54
-187.077 51.3846 2301.54
-187.077 52 2301.54
-180.505 49.3863 2160.29
-180.505 49.9639 2160.29
-180.505 50.5415 2160.29
-180.505 51.1191 2160.29
-180.505 51.6968 2160.29
-180.505 52.2744 2160.29
-180.505 52.852 2160.29
-180.505 53.4296 2160.29
-180.505 54.0072 2160.29
-180.505 54.5848 2160.29
-180.505 55.1625 2160.29
-180.505 55.7401 2160.29
-180.505 56.3177 2160.29
-180.505 56.8953 2160.29
-180.505 57.4729 2160.29
-180.505 58.0505 2160.29
-180.505 58.6282 2160.29
-180.505 59.2058 2160.29
-180.505 59.7834 2160.29
-180.505 60.361 2160.29
-180.505 60.9386 2160.29
-180.505 61.5162 2160.29
-180.505 62.0939 2160.29
-180.87 62.8986 2168.12
-180.87 63.4783 2168.12
-180.87 64.058 2168.12
-180.87 64.6377 2168.12
-180.87 65.2174 2168.12
-180.87 65.7971 2168.12
-180.87 66.3768 2168.12
-180.505 66.7148 2160.29
-180.505 67.2924 2160.29
-180.505 67.87 2160.29
-180.505 68.4477 2160.29
-180.505 69.0253 2160.29
-180.505 69.6029 2160.29
-180.505 70.1805 2160.29
-180.505 70.7581 2160.29
-180.505 71.3357 2160.29
-180.505 71.9134 2160.29
-180.87 72.7536 2168.12
-180.87 73.3333 2168.12
-180.505 73.6462 2160.29
-180.505 74.2238 2160.29
-180.505 74.8014 2160.29
-180.505 75.3791 2160.29
-180.505 75.9567 2160.29
-180.505 76.5343 2160.29
-180.505 77.1119 2160.29
-180.505 77.6895 2160.29
-180.505 78.2672 2160.29
-180.505 78.8448 2160.29
-180.505 79.4224 2160.29
-180.505 80 2160.29
-180.505 80.5776 2160.29
-180.505 81.1552 2160.29
-180.505 81.7328 2160.29
-182.731 84.1328 2208.12
-180.505 82.8881 2160.29
-180.505 83.4657 2160.29
-180.505 84.0433 2160.29
-180.505 84.6209 2160.29
-180.505 85.1986 2160.29
-180.505 85.7762 2160.29
-180.505 86.3538 2160.29
-180.505 86.9314 2160.29
-180.505 87.509 2160.29
-180.505 88.0866 2160.29
-180.505 88.6643 2160.29
-180.505 89.2419 2160.29
-180.505 89.8195 2160.29
-180.505 90.3971 2160.29
-180.505 90.9747 2160.29
-180.505 91.5523 2160.29
-180.505 92.13 2160.29
-180.505 92.7076 2160.29
-180.505 93.2852 2160.29
-180.505 93.8628 2160.29
-180.505 94.4404 2160.29
-180.505 95.0181 2160.29
-180.87 95.942 2168.12
-180.87 96.5217 2168.12
-180.87 97.1014 2168.12
-180.87 97.6812 2168.12
-180.87 98.2609 2168.12
-180.87 98.8406 2168.12
-180.87 99.4203 2168.12
-180.87 100 2168.12
-180.87 100.58 2168.12
-180.87 101.159 2168.12
-180.87 101.739 2168.12
-180.87 102.319 2168.12
-180.505 102.527 2160.29
-183.111 105.778 2216.3
-180.144 103.309 2152.52
-179.785 103.513 2144.8
-201.043 126.261 2601.74
-201.043 126.957 2601.74
-201.043 127.652 2601.74
-201.043 128.348 2601.74
-201.043 129.043 2601.74
-201.043 129.739 2601.74
-141.674 -66.0793 1318.06
-141.674 -65.7269 1318.06
-187.28 -113.716 2292.72
-141.538 -64.8791 1315.16
-190.236 -115.591 2355.91
-187.28 -111.877 2292.72
-187.28 -111.264 2292.72
-187.28 -110.651 2292.72
-146.826 -68.5442 1428.16
-146.826 -68.1623 1428.16
-146.826 -67.7804 1428.16
-187.692 -108.615 2301.54
-187.692 -108 2301.54
-187.692 -107.385 2301.54
-187.692 -106.769 2301.54
-188.108 -106.564 2310.42
-201.739 -119.304 2601.74
-201.739 -118.609 2601.74
-201.739 -117.913 2601.74
-191.111 -106.984 2374.6
-191.111 -106.349 2374.6
-191.554 -106.135 2384.06
-147.308 -63.6538 1438.46
-147.47 -63.4217 1441.93
-191.554 -104.223 2384.06
-191.554 -103.586 2384.06
-191.554 -102.948 2384.06
-191.554 -102.311 2384.06
-191.554 -101.673 2384.06
-191.554 -101.036 2384.06
-191.554 -100.398 2384.06
-191.554 -99.761 2384.06
-191.554 -99.1235 2384.06
-191.554 -98.4861 2384.06
-191.554 -97.8486 2384.06
-191.554 -97.2112 2384.06
-191.554 -96.5737 2384.06
-191.554 -95.9363 2384.06
-191.554 -95.2988 2384.06
-191.554 -94.6614 2384.06
-192 -94.4 2393.6
-192 -93.76 2393.6
-192 -93.12 2393.6
-192 -92.48 2393.6
-192 -91.84 2393.6
-201.739 -99.1304 2601.74
-201.739 -98.4348 2601.74
-192.903 -90.6452 2412.9
-201.739 -97.0435 2601.74
-168.608 -70.1266 1893.67
-169.457 -70.2875 1911.82
-201.739 -94.9565 2601.74
-201.739 -94.2609 2601.74
-191.554 -85.7371 2384.06
-191.554 -85.0996 2384.06
-191.554 -84.4622 2384.06
-191.554 -83.8247 2384.06
-191.554 -83.1872 2384.06
-191.554 -82.5498 2384.06
-191.554 -81.9124 2384.06
-191.554 -81.2749 2384.06
-191.554 -80.6375 2384.06
-191.554 -80 2384.06
-191.554 -79.3625 2384.06
-191.554 -78.7251 2384.06
-191.554 -78.0876 2384.06
-191.554 -77.4502 2384.06
-191.554 -76.8128 2384.06
-191.554 -76.1753 2384.06
-191.554 -75.5378 2384.06
-186.87 -71.7557 2283.97
-188.108 -71.9691 2310.42
-188.108 -71.3513 2310.42
-188.108 -70.7336 2310.42
-188.108 -70.1158 2310.42
-188.949 -70.0389 2328.4
-188.949 -69.4163 2328.4
-188.949 -68.7938 2328.4
-189.375 -68.4375 2337.5
-190.236 -68.3465 2355.91
-190.236 -67.7165 2355.91
-190.236 -67.0866 2355.91
-191.554 -67.251 2384.06
-191.554 -66.6135 2384.06
-191.554 -65.9761 2384.06
-201.739 -71.3043 2601.74
-191.554 -64.7012 2384.06
-191.554 -64.0637 2384.06
-191.554 -63.4263 2384.06
-191.554 -62.7888 2384.06
-191.554 -62.1514 2384.06
-191.554 -61.5139 2384.06
-191.554 -60.8765 2384.06
-191.554 -60.239 2384.06
-191.554 -59.6016 2384.06
-191.554 -58.9641 2384.06
-191.554 -58.3267 2384.06
-191.554 -57.6892 2384.06
-189.375 -55.9375 2337.5
-189.375 -55.3125 2337.5
-189.375 -54.6875 2337.5
-201.739 -60.1739 2601.74
-201.739 -59.4783 2601.74
-201.739 -58.7826 2601.74
-193.36 -54.0891 2422.67
-193.36 -53.4413 2422.67
-193.821 -53.0081 2432.52
-193.821 -52.3577 2432.52
-193.821 -51.7073 2432.52
-193.821 -51.0569 2432.52
-193.821 -50.4065 2432.52
-193.821 -49.7561 2432.52
-193.821 -49.1057 2432.52
-193.821 -48.4553 2432.52
-193.821 -47.8049 2432.52
-193.821 -47.1545 2432.52
-192.45 -45.9438 2403.21
-191.554 -44.9402 2384.06
-191.554 -44.3028 2384.06
-191.554 -43.6653 2384.06
-191.554 -43.0279 2384.06
-191.554 -42.3904 2384.06
-191.554 -41.753 2384.06
-191.554 -41.1155 2384.06
-191.554 -40.4781 2384.06
-191.554 -39.8406 2384.06
-191.554 -39.2032 2384.06
-191.554 -38.5657 2384.06
-190.672 -37.6285 2365.22
-187.28 -35.8621 2292.72
-187.28 -35.249 2292.72
-187.692 -34.7692 2301.54
-187.692 -34.1538 2301.54
-187.692 -33.5385 2301.54
-189.375 -33.4375 2337.5
-189.375 -32.8125 2337.5
-189.375 -32.1875 2337.5
-189.375 -31.5625 2337.5
-191.554 -31.5538 2384.06
-191.554 -30.9163 2384.06
-191.554 -30.2789 2384.06
-191.554 -29.6414 2384.06
-191.111 -28.8889 2374.6
-191.111 -28.254 2374.6
-191.111 -27.619 2374.6
-189.804 -26.6667 2346.67
-189.804 -26.0392 2346.67
-188.949 -25.214 2328.4
-188.949 -24.5914 2328.4
-188.949 -23.9689 2328.4
-188.949 -23.3463 2328.4
-188.949 -22.7237 2328.4
-188.949 -22.1012 2328.4
-188.949 -21.4786 2328.4
-188.527 -20.7752 2319.38
-188.527 -20.155 2319.38
-188.527 -19.5349 2319.38
-188.527 -18.9147 2319.38
-188.527 -18.2946 2319.38
-188.527 -17.6744 2319.38
-188.108 -16.9884 2310.42
-188.108 -16.3707 2310.42
-188.108 -15.7529 2310.42
-188.108 -15.1351 2310.42
-188.108 -14.5174 2310.42
-188.108 -13.8996 2310.42
-188.108 -13.2819 2310.42
-188.108 -12.6641 2310.42
-188.108 -12.0463 2310.42
-188.108 -11.4286 2310.42
-188.108 -10.8108 2310.42
-188.108 -10.1931 2310.42
-188.108 -9.57529 2310.42
-188.108 -8.95753 2310.42
-188.108 -8.33977 2310.42
-188.108 -7.72201 2310.42
-188.108 -7.10425 2310.42
-188.108 -6.48649 2310.42
-188.108 -5.86873 2310.42
-201.739 -5.91304 2601.74
-201.739 -5.21739 2601.74
-201.739 -4.52174 2601.74
-201.739 -3.82609 2601.74
-201.739 -3.13043 2601.74
-201.739 -2.43478 2601.74
-201.739 -1.73913 2601.74
-201.739 -1.04348 2601.74
-201.739 -0.347826 2601.74
-201.739 0.347826 2601.74
-201.739 1.04348 2601.74
-186.464 1.52091 2275.29
-186.464 2.12928 2275.29
-186.464 2.73764 2275.29
-186.464 3.34601 2275.29
-186.464 3.95437 2275.29
-186.464 4.56274 2275.29
-186.464 5.1711 2275.29
-186.464 5.77947 2275.29
-186.464 6.38783 2275.29
-201.739 8 2601.74
-201.739 8.69565 2601.74
-201.739 9.3913 2601.74
-201.739 10.087 2601.74
-201.739 10.7826 2601.74
-201.739 11.4783 2601.74
-201.739 12.1739 2601.74
-201.739 12.8696 2601.74
-201.739 13.5652 2601.74
-201.739 14.2609 2601.74
-201.739 14.9565 2601.74
-201.739 15.6522 2601.74
-201.739 16.3478 2601.74
-190.236 15.4331 2355.91
-190.236 16.063 2355.91
-190.236 16.6929 2355.91
-190.236 17.3228 2355.91
-190.236 17.9528 2355.91
-191.111 18.7302 2374.6
-191.111 19.3651 2374.6
-189.804 19.7647 2346.67
-189.804 20.3922 2346.67
-189.804 21.0196 2346.67
-189.804 21.6471 2346.67
-190.672 22.4506 2365.22
-190.672 23.083 2365.22
-190.236 23.622 2355.91
-189.804 24.1569 2346.67
-190.672 24.9802 2365.22
-201.739 28.1739 2601.74
-201.739 28.8696 2601.74
-190.672 26.8775 2365.22
-190.672 27.5099 2365.22
-190.672 28.1423 2365.22
-190.672 28.7747 2365.22
-201.739 32.3478 2601.74
-190.672 30.0395 2365.22
-201.739 33.7391 2601.74
-201.739 34.4348 2601.74
-201.739 35.1304 2601.74
-201.739 35.8261 2601.74
-201.739 36.5217 2601.74
-201.739 37.2174 2601.74
-201.739 37.913 2601.74
-201.739 38.6087 2601.74
-201.739 39.3043 2601.74
-201.739 40 2601.74
-201.739 40.6957 2601.74
-201.739 41.3913 2601.74
-188.108 37.3745 2310.42
-201.739 42.7826 2601.74
-201.739 43.4783 2601.74
-201.739 44.1739 2601.74
-201.739 44.8696 2601.74
-201.739 45.5652 2601.74
-201.739 46.2609 2601.74
-187.692 41.5385 2301.54
-187.692 42.1538 2301.54
-187.692 42.7692 2301.54
-187.692 43.3846 2301.54
-187.692 44 2301.54
-187.692 44.6154 2301.54
-187.692 45.2308 2301.54
-187.692 45.8462 2301.54
-187.692 46.4615 2301.54
-187.692 47.0769 2301.54
-187.692 47.6923 2301.54
-187.692 48.3077 2301.54
-187.692 48.9231 2301.54
-187.692 49.5385 2301.54
-187.692 50.1538 2301.54
-187.692 50.7692 2301.54
-187.692 51.3846 2301.54
-187.692 52 2301.54
-181.083 49.3863 2160.29
-181.083 49.9639 2160.29
-181.083 50.5415 2160.29
-181.083 51.1191 2160.29
-181.083 51.6968 2160.29
-181.083 52.2744 2160.29
-181.083 52.852 2160.29
-181.083 53.4296 2160.29
-181.083 54.0072 2160.29
-181.083 54.5848 2160.29
-181.083 55.1625 2160.29
-181.083 55.7401 2160.29
-181.083 56.3177 2160.29
-181.083 56.8953 2160.29
-181.083 57.4729 2160.29
-181.083 58.0505 2160.29
-181.083 58.6282 2160.29
-181.083 59.2058 2160.29
-181.083 59.7834 2160.29
-181.083 60.361 2160.29
-181.449 61.1594 2168.12
-181.083 61.5162 2160.29
-181.083 62.0939 2160.29
-181.083 62.6715 2160.29
-185.263 65.8647 2249.62
-181.083 63.8267 2160.29
-181.083 64.4043 2160.29
-181.083 64.9819 2160.29
-181.449 65.7971 2168.12
-181.449 66.3768 2168.12
-181.083 66.7148 2160.29
-181.083 67.2924 2160.29
-181.083 67.87 2160.29
-181.083 68.4477 2160.29
-181.083 69.0253 2160.29
-181.083 69.6029 2160.29
-181.083 70.1805 2160.29
-181.083 70.7581 2160.29
-181.449 71.5942 2168.12
-181.449 72.1739 2168.12
-181.449 72.7536 2168.12
-181.449 73.3333 2168.12
-181.083 73.6462 2160.29
-181.083 74.2238 2160.29
-181.083 74.8014 2160.29
-181.083 75.3791 2160.29
-181.083 75.9567 2160.29
-181.083 76.5343 2160.29
-181.083 77.1119 2160.29
-181.083 77.6895 2160.29
-181.083 78.2672 2160.29
-181.083 78.8448 2160.29
-181.083 79.4224 2160.29
-181.449 80.2899 2168.12
-181.449 80.8696 2168.12
-181.449 81.4493 2168.12
-181.449 82.029 2168.12
-183.321 84.1328 2208.12
-181.083 82.8881 2160.29
-181.083 83.4657 2160.29
-181.083 84.0433 2160.29
-181.083 84.6209 2160.29
-181.083 85.1986 2160.29
-181.083 85.7762 2160.29
-181.083 86.3538 2160.29
-181.083 86.9314 2160.29
-181.083 87.509 2160.29
-181.083 88.0866 2160.29
-181.083 88.6643 2160.29
-181.083 89.2419 2160.29
-181.083 89.8195 2160.29
-181.083 90.3971 2160.29
-181.083 90.9747 2160.29
-181.083 91.5523 2160.29
-181.083 92.13 2160.29
-181.083 92.7076 2160.29
-181.083 93.2852 2160.29
-181.083 93.8628 2160.29
-181.083 94.4404 2160.29
-181.083 95.0181 2160.29
-181.449 95.942 2168.12
-181.449 96.5217 2168.12
-181.449 97.1014 2168.12
-181.449 97.6812 2168.12
-181.449 98.2609 2168.12
-181.449 98.8406 2168.12
-181.449 99.4203 2168.12
-181.449 100 2168.12
-181.449 100.58 2168.12
-181.449 101.159 2168.12
-181.449 101.739 2168.12
-181.449 102.319 2168.12
-181.449 102.899 2168.12
-183.704 105.778 2216.3
-180 102.571 2137.14
-180 103.143 2137.14
-201.739 126.261 2601.74
-201.739 126.957 2601.74
-201.739 127.652 2601.74
-201.739 128.348 2601.74
-201.739 129.043 2601.74
-201.739 129.739 2601.74
-141.89 -65.9341 1315.16
-141.89 -65.5824 1315.16
-141.89 -65.2308 1315.16
-141.89 -64.8791 1315.16
-190.866 -115.591 2355.91
-190.866 -114.961 2355.91
-202.435 -126.261 2601.74
-187.481 -110.229 2283.97
-147.048 -68.381 1424.76
-147.048 -68 1424.76
-146.888 -67.4584 1421.38
-202.435 -122.783 2601.74
-187.481 -107.176 2283.97
-187.893 -106.973 2292.72
-188.308 -106.769 2301.54
-188.308 -106.154 2301.54
-188.726 -105.946 2310.42
-202.435 -118.609 2601.74
-202.435 -117.913 2601.74
-191.304 -106.561 2365.22
-191.304 -105.929 2365.22
-192.191 -106.135 2384.06
-192.191 -105.498 2384.06
-192.191 -104.861 2384.06
-192.191 -104.223 2384.06
-192.191 -103.586 2384.06
-192.64 -103.36 2393.6
-192.191 -102.311 2384.06
-192.191 -101.673 2384.06
-192.191 -101.036 2384.06
-192.191 -100.398 2384.06
-192.191 -99.761 2384.06
-192.191 -99.1235 2384.06
-192.191 -98.4861 2384.06
-192.191 -97.8486 2384.06
-192.191 -97.2112 2384.06
-192.191 -96.5737 2384.06
-192.191 -95.9363 2384.06
-192.191 -95.2988 2384.06
-192.191 -94.6614 2384.06
-192.191 -94.0239 2384.06
-192.64 -93.76 2393.6
-192.64 -93.12 2393.6
-192.64 -92.48 2393.6
-192.64 -91.84 2393.6
-192.64 -91.2 2393.6
-202.435 -98.4348 2601.74
-202.435 -97.7391 2601.74
-202.435 -97.0435 2601.74
-169.114 -70.1266 1893.67
-202.435 -95.6522 2601.74
-192.191 -87.012 2384.06
-192.191 -86.3745 2384.06
-192.191 -85.7371 2384.06
-192.191 -85.0996 2384.06
-192.191 -84.4622 2384.06
-192.191 -83.8247 2384.06
-192.191 -83.1872 2384.06
-194.472 -84.2276 2432.52
-194.472 -83.5772 2432.52
-194.472 -82.9268 2432.52
-192.191 -80.6375 2384.06
-192.191 -80 2384.06
-192.191 -79.3625 2384.06
-192.191 -78.7251 2384.06
-192.191 -78.0876 2384.06
-192.191 -77.4502 2384.06
-192.191 -76.8128 2384.06
-192.191 -76.1753 2384.06
-192.191 -75.5378 2384.06
-192.191 -74.9004 2384.06
-192.191 -74.2629 2384.06
-187.481 -70.5343 2283.97
-188.726 -70.7336 2310.42
-188.726 -70.1158 2310.42
-188.726 -69.4981 2310.42
-188.726 -68.8803 2310.42
-189.147 -68.5271 2319.38
-189.572 -68.1712 2328.4
-190.431 -68.0784 2346.67
-190 -67.1875 2337.5
-190.431 -66.8235 2346.67
-191.304 -66.7194 2365.22
-192.191 -66.6135 2384.06
-192.191 -65.9761 2384.06
-202.435 -71.3043 2601.74
-192.191 -64.7012 2384.06
-192.191 -64.0637 2384.06
-192.191 -63.4263 2384.06
-192.191 -62.7888 2384.06
-192.191 -62.1514 2384.06
-192.191 -61.5139 2384.06
-192.191 -60.8765 2384.06
-192.191 -60.239 2384.06
-192.191 -59.6016 2384.06
-192.191 -58.9641 2384.06
-192.191 -58.3267 2384.06
-192.191 -57.6892 2384.06
-192.191 -57.0518 2384.06
-192.191 -56.4143 2384.06
-190 -54.6875 2337.5
-202.435 -60.1739 2601.74
-202.435 -59.4783 2601.74
-202.435 -58.7826 2601.74
-202.435 -58.087 2601.74
-194.008 -53.4413 2422.67
-194.008 -52.7935 2422.67
-194.472 -52.3577 2432.52
-194.472 -51.7073 2432.52
-194.472 -51.0569 2432.52
-194.472 -50.4065 2432.52
-194.472 -49.7561 2432.52
-194.472 -49.1057 2432.52
-194.472 -48.4553 2432.52
-194.472 -47.8049 2432.52
-194.008 -46.9636 2422.67
-192.191 -45.5777 2384.06
-192.191 -44.9402 2384.06
-192.191 -44.3028 2384.06
-192.191 -43.6653 2384.06
-192.191 -43.0279 2384.06
-192.191 -42.3904 2384.06
-192.191 -41.753 2384.06
-192.191 -41.1155 2384.06
-192.191 -40.4781 2384.06
-192.191 -39.8406 2384.06
-192.191 -39.2032 2384.06
-192.191 -38.5657 2384.06
-186.667 -36.0606 2266.67
-186.667 -35.4545 2266.67
-187.893 -35.249 2292.72
-187.893 -34.636 2292.72
-188.308 -34.1538 2301.54
-188.308 -33.5385 2301.54
-188.308 -32.9231 2301.54
-190 -32.8125 2337.5
-190 -32.1875 2337.5
-190 -31.5625 2337.5
-192.191 -31.5538 2384.06
-192.191 -30.9163 2384.06
-192.191 -30.2789 2384.06
-191.746 -29.5238 2374.6
-191.746 -28.8889 2374.6
-191.746 -28.254 2374.6
-191.746 -27.619 2374.6
-191.746 -26.9841 2374.6
-190 -25.9375 2337.5
-189.572 -25.214 2328.4
-189.572 -24.5914 2328.4
-189.572 -23.9689 2328.4
-189.572 -23.3463 2328.4
-189.572 -22.7237 2328.4
-189.572 -22.1012 2328.4
-189.572 -21.4786 2328.4
-189.147 -20.7752 2319.38
-189.147 -20.155 2319.38
-189.147 -19.5349 2319.38
-189.147 -18.9147 2319.38
-189.147 -18.2946 2319.38
-189.147 -17.6744 2319.38
-188.726 -16.9884 2310.42
-188.726 -16.3707 2310.42
-188.726 -15.7529 2310.42
-188.726 -15.1351 2310.42
-188.726 -14.5174 2310.42
-188.726 -13.8996 2310.42
-188.726 -13.2819 2310.42
-188.726 -12.6641 2310.42
-188.726 -12.0463 2310.42
-188.726 -11.4286 2310.42
-188.726 -10.8108 2310.42
-188.726 -10.1931 2310.42
-188.726 -9.57529 2310.42
-188.726 -8.95753 2310.42
-188.726 -8.33977 2310.42
-188.726 -7.72201 2310.42
-188.726 -7.10425 2310.42
-188.726 -6.48649 2310.42
-188.726 -5.86873 2310.42
-202.435 -5.91304 2601.74
-202.435 -5.21739 2601.74
-202.435 -4.52174 2601.74
-202.435 -3.82609 2601.74
-202.435 -3.13043 2601.74
-202.435 -2.43478 2601.74
-202.435 -1.73913 2601.74
-202.435 -1.04348 2601.74
-202.435 -0.347826 2601.74
-202.435 0.347826 2601.74
-202.435 1.04348 2601.74
-202.435 1.73913 2601.74
-202.435 2.43478 2601.74
-202.435 3.13043 2601.74
-202.435 3.82609 2601.74
-202.435 4.52174 2601.74
-202.435 5.21739 2601.74
-202.435 5.91304 2601.74
-202.435 6.6087 2601.74
-202.435 7.30435 2601.74
-202.435 8 2601.74
-202.435 8.69565 2601.74
-202.435 9.3913 2601.74
-202.435 10.087 2601.74
-202.435 10.7826 2601.74
-202.435 11.4783 2601.74
-202.435 12.1739 2601.74
-202.435 12.8696 2601.74
-202.435 13.5652 2601.74
-202.435 14.2609 2601.74
-202.435 14.9565 2601.74
-190.866 14.1732 2355.91
-191.304 14.8617 2365.22
-191.304 15.4941 2365.22
-191.304 16.1265 2365.22
-191.304 16.7589 2365.22
-191.304 17.3913 2365.22
-191.304 18.0237 2365.22
-191.304 18.6561 2365.22
-191.304 19.2885 2365.22
-190.866 19.8425 2355.91
-190.866 20.4724 2355.91
-190.866 21.1024 2355.91
-190.866 21.7323 2355.91
-190 22.1875 2337.5
-190 22.8125 2337.5
-190 23.4375 2337.5
-190 24.0625 2337.5
-190 24.6875 2337.5
-190 25.3125 2337.5
-190 25.9375 2337.5
-191.304 26.8775 2365.22
-191.304 27.5099 2365.22
-191.304 28.1423 2365.22
-191.304 28.7747 2365.22
-202.435 32.3478 2601.74
-202.435 33.0435 2601.74
-202.435 33.7391 2601.74
-202.435 34.4348 2601.74
-202.435 35.1304 2601.74
-188.726 31.8147 2310.42
-188.726 32.4324 2310.42
-188.726 33.0502 2310.42
-188.726 33.668 2310.42
-188.726 34.2857 2310.42
-202.435 39.3043 2601.74
-202.435 40 2601.74
-188.726 36.139 2310.42
-188.726 36.7568 2310.42
-188.726 37.3745 2310.42
-188.726 37.9923 2310.42
-188.726 38.61 2310.42
-188.726 39.2278 2310.42
-188.308 39.6923 2301.54
-188.308 40.3077 2301.54
-188.308 40.9231 2301.54
-188.308 41.5385 2301.54
-188.308 42.1538 2301.54
-188.308 42.7692 2301.54
-188.308 43.3846 2301.54
-188.308 44 2301.54
-188.308 44.6154 2301.54
-188.308 45.2308 2301.54
-188.308 45.8462 2301.54
-188.308 46.4615 2301.54
-188.308 47.0769 2301.54
-188.308 47.6923 2301.54
-188.308 48.3077 2301.54
-188.308 48.9231 2301.54
-182.029 46.6667 2168.12
-182.029 47.2464 2168.12
-182.029 47.8261 2168.12
-182.029 48.4058 2168.12
-182.029 48.9855 2168.12
-182.029 49.5652 2168.12
-181.661 49.9639 2160.29
-181.661 50.5415 2160.29
-181.661 51.1191 2160.29
-181.295 51.5108 2152.52
-181.295 52.0863 2152.52
-181.661 52.852 2160.29
-181.661 53.4296 2160.29
-181.661 54.0072 2160.29
-181.661 54.5848 2160.29
-181.661 55.1625 2160.29
-181.661 55.7401 2160.29
-181.661 56.3177 2160.29
-181.661 56.8953 2160.29
-181.661 57.4729 2160.29
-181.661 58.0505 2160.29
-181.661 58.6282 2160.29
-181.661 59.2058 2160.29
-181.661 59.7834 2160.29
-181.661 60.361 2160.29
-181.661 60.9386 2160.29
-181.661 61.5162 2160.29
-181.661 62.0939 2160.29
-181.661 62.6715 2160.29
-181.661 63.2491 2160.29
-181.661 63.8267 2160.29
-181.661 64.4043 2160.29
-181.661 64.9819 2160.29
-182.029 65.7971 2168.12
-181.661 66.1372 2160.29
-181.661 66.7148 2160.29
-181.661 67.2924 2160.29
-181.661 67.87 2160.29
-181.661 68.4477 2160.29
-181.661 69.0253 2160.29
-181.661 69.6029 2160.29
-181.661 70.1805 2160.29
-181.661 70.7581 2160.29
-181.661 71.3357 2160.29
-181.661 71.9134 2160.29
-181.661 72.491 2160.29
-182.774 73.8686 2183.94
-181.661 73.6462 2160.29
-181.661 74.2238 2160.29
-181.661 74.8014 2160.29
-181.661 75.3791 2160.29
-181.661 75.9567 2160.29
-181.661 76.5343 2160.29
-181.661 77.1119 2160.29
-181.661 77.6895 2160.29
-181.661 78.2672 2160.29
-181.661 78.8448 2160.29
-181.661 79.4224 2160.29
-181.661 80 2160.29
-182.029 80.8696 2168.12
-182.029 81.4493 2168.12
-183.911 83.5424 2208.12
-183.911 84.1328 2208.12
-181.661 82.8881 2160.29
-181.661 83.4657 2160.29
-181.661 84.0433 2160.29
-181.661 84.6209 2160.29
-181.661 85.1986 2160.29
-181.661 85.7762 2160.29
-181.661 86.3538 2160.29
-181.661 86.9314 2160.29
-181.661 87.509 2160.29
-181.661 88.0866 2160.29
-181.661 88.6643 2160.29
-181.661 89.2419 2160.29
-181.661 89.8195 2160.29
-181.661 90.3971 2160.29
-181.661 90.9747 2160.29
-181.661 91.5523 2160.29
-181.661 92.13 2160.29
-181.661 92.7076 2160.29
-181.661 93.2852 2160.29
-181.661 93.8628 2160.29
-181.661 94.4404 2160.29
-181.661 95.0181 2160.29
-181.661 95.5957 2160.29
-181.661 96.1733 2160.29
-182.029 97.1014 2168.12
-182.029 97.6812 2168.12
-182.029 98.2609 2168.12
-182.029 98.8406 2168.12
-182.029 99.4203 2168.12
-182.029 100 2168.12
-182.029 100.58 2168.12
-182.029 101.159 2168.12
-182.029 101.739 2168.12
-182.029 102.319 2168.12
-182.029 102.899 2168.12
-182.774 104.234 2183.94
-187.481 109.618 2283.97
-187.481 110.229 2283.97
-202.435 126.261 2601.74
-202.435 126.957 2601.74
-202.435 127.652 2601.74
-202.435 128.348 2601.74
-202.435 129.043 2601.74
-202.435 129.739 2601.74
-142.105 -65.7895 1312.28
-142.105 -65.4386 1312.28
-142.105 -65.0877 1312.28
-141.969 -64.5952 1309.41
-191.059 -115.137 2346.67
-191.059 -114.51 2346.67
-191.059 -113.882 2346.67
-187.681 -109.81 2275.29
