-216.348 33.0435 2601.74
-216.348 33.7391 2601.74
-216.348 34.4348 2601.74
-216.348 35.1304 2601.74
-216.348 35.8261 2601.74
-216.348 36.5217 2601.74
-216.348 37.2174 2601.74
-216.348 37.913 2601.74
-209.053 36.5432 2462.55
-209.053 37.2016 2462.55
-209.053 37.8601 2462.55
-210.667 39 2493.33
-216.348 41.3913 2601.74
-214.592 41.5451 2568.24
-216.348 42.7826 2601.74
-215.758 43.29 2590.48
-216.348 44.1739 2601.74
-216.348 44.8696 2601.74
-211.765 44.0336 2514.29
-211.213 44.5188 2503.77
-211.213 45.1883 2503.77
-216.348 47.6522 2601.74
-216.348 48.3478 2601.74
-216.348 49.0435 2601.74
-216.348 49.7391 2601.74
-216.348 50.4348 2601.74
-216.348 51.1304 2601.74
-216.348 51.8261 2601.74
-216.348 52.5217 2601.74
-216.348 53.2174 2601.74
-216.348 53.913 2601.74
-216.348 54.6087 2601.74
-197.895 47.8195 2249.62
-197.895 48.4211 2249.62
-197.895 49.0226 2249.62
-197.895 49.6241 2249.62
-197.895 50.2256 2249.62
-195.294 49.7059 2200
-194.036 49.7455 2176
-193.623 50.1449 2168.12
-193.623 50.7246 2168.12
-193.623 51.3043 2168.12
-193.213 51.6968 2160.29
-193.213 52.2744 2160.29
-193.623 53.0435 2168.12
-193.623 53.6232 2168.12
-193.623 54.2029 2168.12
-193.213 54.5848 2160.29
-193.213 55.1625 2160.29
-193.623 55.942 2168.12
-193.623 56.5217 2168.12
-194.036 57.3091 2176
-194.036 57.8909 2176
-193.623 58.2609 2168.12
-194.036 59.0545 2176
-194.453 59.854 2183.94
-193.213 59.7834 2160.29
-193.213 60.361 2160.29
-193.213 60.9386 2160.29
-216.348 74.087 2601.74
-194.036 62.5455 2176
-216.348 75.4783 2601.74
-216.348 76.1739 2601.74
-216.348 76.8696 2601.74
-216.348 77.5652 2601.74
-216.348 78.2609 2601.74
-216.348 78.9565 2601.74
-216.348 79.6522 2601.74
-216.348 80.3478 2601.74
-216.348 81.0435 2601.74
-216.348 81.7391 2601.74
-192.401 67.957 2144.8
-193.623 69.2754 2168.12
-193.623 69.8551 2168.12
-193.623 70.4348 2168.12
-194.036 71.2727 2176
-194.036 71.8545 2176
-194.036 72.4364 2176
-193.623 72.7536 2168.12
-193.623 73.3333 2168.12
-193.623 73.913 2168.12
-193.623 74.4928 2168.12
-216.348 90.087 2601.74
-216.348 90.7826 2601.74
-216.348 91.4783 2601.74
-216.348 92.1739 2601.74
-216.348 92.8696 2601.74
-216.348 93.5652 2601.74
-216.348 94.2609 2601.74
-193.623 79.1304 2168.12
-193.623 79.7101 2168.12
-193.623 80.2899 2168.12
-193.213 80.5776 2160.29
-193.213 81.1552 2160.29
-193.623 82.029 2168.12
-193.623 82.6087 2168.12
-193.623 83.1884 2168.12
-193.213 83.4657 2160.29
-193.213 84.0433 2160.29
-193.213 84.6209 2160.29
-193.213 85.1986 2160.29
-193.213 85.7762 2160.29
-193.213 86.3538 2160.29
-193.623 87.2464 2168.12
-193.623 87.8261 2168.12
-193.623 88.4058 2168.12
-193.623 88.9855 2168.12
-193.623 89.5652 2168.12
-193.623 90.1449 2168.12
-193.623 90.7246 2168.12
-193.623 91.3043 2168.12
-193.623 91.8841 2168.12
-193.623 92.4638 2168.12
-193.623 93.0435 2168.12
-193.623 93.6232 2168.12
-193.623 94.2029 2168.12
-193.213 94.4404 2160.29
-193.213 95.0181 2160.29
-193.213 95.5957 2160.29
-193.213 96.1733 2160.29
-193.213 96.7509 2160.29
-193.213 97.3285 2160.29
-193.213 97.9061 2160.29
-193.213 98.4838 2160.29
-193.623 99.4203 2168.12
-193.623 100 2168.12
-193.623 100.58 2168.12
-193.623 101.159 2168.12
-193.623 101.739 2168.12
-193.623 102.319 2168.12
-193.623 102.899 2168.12
-193.623 103.478 2168.12
-193.623 104.058 2168.12
-194.036 105.018 2176
-194.036 105.6 2176
-193.623 105.797 2168.12
-194.036 106.764 2176
-192.806 106.187 2152.52
-192.401 106.38 2144.8
-216.348 129.739 2601.74
-217.043 -130.435 2601.74
-206.08 -119.36 2393.6
-206.08 -118.72 2393.6
-217.043 -128.348 2601.74
-217.043 -127.652 2601.74
-217.043 -126.957 2601.74
-211.883 -121.506 2503.77
-214.701 -123.419 2557.26
-208.13 -116.748 2432.52
-208.13 -116.098 2432.52
-208.13 -115.447 2432.52
-208.13 -114.797 2432.52
-208.13 -114.146 2432.52
-208.13 -113.496 2432.52
-208.653 -113.306 2442.45
-208.653 -112.653 2442.45
-208.653 -112 2442.45
-209.18 -111.803 2452.46
-205.578 -108.048 2384.06
-205.578 -107.41 2384.06
-205.578 -106.773 2384.06
-205.578 -106.135 2384.06
-206.08 -105.92 2393.6
-206.08 -105.28 2393.6
-206.08 -104.64 2393.6
-206.08 -104 2393.6
-206.08 -103.36 2393.6
-206.08 -102.72 2393.6
-206.08 -102.08 2393.6
-211.333 -105.667 2493.33
-212.996 -106.329 2524.89
-213.559 -106.102 2535.59
-211.883 -104.1 2503.77
-215.279 -106.094 2568.24
-205.578 -97.8486 2384.06
-206.08 -97.6 2393.6
-205.578 -96.5737 2384.06
-205.578 -95.9363 2384.06
-205.578 -95.2988 2384.06
-205.578 -94.6614 2384.06
-205.578 -94.0239 2384.06
-205.578 -93.3865 2384.06
-205.578 -92.749 2384.06
-205.578 -92.1116 2384.06
-205.578 -91.4741 2384.06
-205.578 -90.8367 2384.06
-205.578 -90.1992 2384.06
-205.578 -89.5618 2384.06
-205.578 -88.9243 2384.06
-205.578 -88.2868 2384.06
-205.578 -87.6494 2384.06
-205.578 -87.012 2384.06
-205.578 -86.3745 2384.06
-205.578 -85.7371 2384.06
-205.578 -85.0996 2384.06
-205.578 -84.4622 2384.06
-205.578 -83.8247 2384.06
-206.586 -83.8554 2403.21
-206.08 -82.88 2393.6
-205.578 -81.9124 2384.06
-205.578 -81.2749 2384.06
-217.043 -88 2601.74
-217.043 -87.3043 2601.74
-208.653 -81.3061 2442.45
-209.712 -81.3169 2462.55
-209.18 -80.3279 2452.46
-205.578 -77.4502 2384.06
-205.578 -76.8128 2384.06
-205.578 -76.1753 2384.06
-205.578 -75.5378 2384.06
-205.578 -74.9004 2384.06
-205.578 -74.2629 2384.06
-205.578 -73.6255 2384.06
-205.578 -72.988 2384.06
-205.578 -72.3506 2384.06
-205.578 -71.7132 2384.06
-205.578 -71.0757 2384.06
-205.578 -70.4382 2384.06
-205.578 -69.8008 2384.06
-205.578 -69.1633 2384.06
-205.578 -68.5259 2384.06
-207.097 -68.7097 2412.9
-207.097 -68.0645 2412.9
-206.08 -66.88 2393.6
-207.097 -66.7742 2412.9
-207.097 -66.129 2412.9
-206.08 -64.96 2393.6
-206.08 -64.32 2393.6
-206.08 -63.68 2393.6
-205.578 -62.7888 2384.06
-205.578 -62.1514 2384.06
-205.578 -61.5139 2384.06
-205.578 -60.8765 2384.06
-205.578 -60.239 2384.06
-205.578 -59.6016 2384.06
-205.578 -58.9641 2384.06
-205.578 -58.3267 2384.06
-205.578 -57.6892 2384.06
-205.578 -57.0518 2384.06
-205.578 -56.4143 2384.06
-205.578 -55.7769 2384.06
-205.578 -55.1394 2384.06
-205.578 -54.502 2384.06
-205.578 -53.8645 2384.06
-205.578 -53.2271 2384.06
-205.578 -52.5896 2384.06
-205.578 -51.9522 2384.06
-205.578 -51.3147 2384.06
-205.578 -50.6773 2384.06
-205.578 -50.0398 2384.06
-205.578 -49.4024 2384.06
-205.578 -48.7649 2384.06
-205.578 -48.1275 2384.06
-205.578 -47.49 2384.06
-205.578 -46.8526 2384.06
-205.578 -46.2151 2384.06
-205.578 -45.5777 2384.06
-205.578 -44.9402 2384.06
-205.578 -44.3028 2384.06
-205.578 -43.6653 2384.06
-205.578 -43.0279 2384.06
-205.578 -42.3904 2384.06
-205.578 -41.753 2384.06
-205.578 -41.1155 2384.06
-205.578 -40.4781 2384.06
-205.578 -39.8406 2384.06
-205.578 -39.2032 2384.06
-205.578 -38.5657 2384.06
-205.578 -37.9283 2384.06
-205.578 -37.2908 2384.06
-205.578 -36.6534 2384.06
-205.578 -36.0159 2384.06
-205.578 -35.3785 2384.06
-205.578 -34.741 2384.06
-205.578 -34.1036 2384.06
-205.578 -33.4661 2384.06
-205.578 -32.8287 2384.06
-205.578 -32.1912 2384.06
-207.097 -31.9355 2412.9
-207.611 -31.417 2422.67
-208.13 -30.8943 2432.52
-208.13 -30.2439 2432.52
-208.13 -29.5935 2432.52
-208.13 -28.9431 2432.52
-208.13 -28.2927 2432.52
-207.611 -27.5304 2422.67
-207.611 -26.8826 2422.67
-208.13 -26.3415 2432.52
-208.13 -25.6911 2432.52
-208.13 -25.0407 2432.52
-205.578 -23.9044 2384.06
-205.079 -23.1746 2374.6
-204.585 -22.4506 2365.22
-205.079 -21.9048 2374.6
-205.079 -21.2698 2374.6
-203.125 -20.3125 2337.5
-203.125 -19.6875 2337.5
-202.646 -18.9883 2328.4
-202.646 -18.3658 2328.4
-202.646 -17.7432 2328.4
-202.646 -17.1206 2328.4
-202.646 -16.4981 2328.4
-202.646 -15.8755 2328.4
-202.171 -15.1938 2319.38
-202.171 -14.5736 2319.38
-202.171 -13.9535 2319.38
-202.171 -13.3333 2319.38
-202.171 -12.7132 2319.38
-201.699 -12.0463 2310.42
-201.699 -11.4286 2310.42
-201.699 -10.8108 2310.42
-201.699 -10.1931 2310.42
-201.699 -9.57529 2310.42
-201.699 -8.95753 2310.42
-201.699 -8.33977 2310.42
-201.699 -7.72201 2310.42
-201.699 -7.10425 2310.42
-201.699 -6.48649 2310.42
-201.699 -5.86873 2310.42
-201.699 -5.25097 2310.42
-201.699 -4.6332 2310.42
-201.699 -4.01544 2310.42
-201.699 -3.39768 2310.42
-201.699 -2.77992 2310.42
-201.699 -2.16216 2310.42
-202.171 -1.55039 2319.38
-207.611 -0.97166 2422.67
-201.699 -0.30888 2310.42
-200.305 0.305344 2283.97
-201.231 0.923077 2301.54
-202.171 1.55039 2319.38
-200.305 2.1374 2283.97
-200.305 2.74809 2283.97
-198.943 3.32075 2258.11
-198.943 3.92453 2258.11
-200.766 4.5977 2292.72
-217.043 5.91304 2601.74
-199.394 5.75758 2266.67
-199.394 6.36364 2266.67
-217.043 8 2601.74
-217.043 8.69565 2601.74
-217.043 9.3913 2601.74
-217.043 10.087 2601.74
-217.043 10.7826 2601.74
-217.043 11.4783 2601.74
-217.043 12.1739 2601.74
-217.043 12.8696 2601.74
-217.043 13.5652 2601.74
-217.043 14.2609 2601.74
-217.043 14.9565 2601.74
-217.043 15.6522 2601.74
-217.043 16.3478 2601.74
-217.043 17.0435 2601.74
-200.766 15.6322 2292.72
-217.043 18.4348 2601.74
-201.699 16.9884 2310.42
-201.699 17.6062 2310.42
-201.231 18.1538 2301.54
-201.231 18.7692 2301.54
-201.231 19.3846 2301.54
-201.231 20 2301.54
-201.231 20.6154 2301.54
-201.699 21.3127 2310.42
-201.699 21.9305 2310.42
-201.699 22.5483 2310.42
-201.699 23.166 2310.42
-201.699 23.7838 2310.42
-201.699 24.4015 2310.42
-201.699 25.0193 2310.42
-201.699 25.6371 2310.42
-201.699 26.2548 2310.42
-201.699 26.8726 2310.42
-201.699 27.4903 2310.42
-201.699 28.1081 2310.42
-201.699 28.7259 2310.42
-201.699 29.3436 2310.42
-201.699 29.9614 2310.42
-201.699 30.5792 2310.42
-201.699 31.1969 2310.42
-201.699 31.8147 2310.42
-217.043 36.5217 2601.74
-201.699 33.0502 2310.42
-201.699 33.668 2310.42
-209.712 36.5432 2462.55
-209.712 37.2016 2462.55
-209.712 37.8601 2462.55
-211.333 39 2493.33
-201.699 36.7568 2310.42
-215.279 41.5451 2568.24
-215.279 42.2318 2568.24
-216.45 43.29 2590.48
-217.043 44.1739 2601.74
-217.043 44.8696 2601.74
-212.437 44.0336 2514.29
-211.883 44.5188 2503.77
-211.883 45.1883 2503.77
-217.043 47.6522 2601.74
-210.248 45.9504 2472.73
-217.043 49.0435 2601.74
-217.043 49.7391 2601.74
-217.043 50.4348 2601.74
-217.043 51.1304 2601.74
-217.043 51.8261 2601.74
-217.043 52.5217 2601.74
-217.043 53.2174 2601.74
-217.043 53.913 2601.74
-217.043 54.6087 2601.74
-217.043 55.3043 2601.74
-204.094 50.7087 2355.91
-217.043 56.6957 2601.74
-217.043 57.3913 2601.74
-198.496 50.2256 2249.62
-195.882 49.7059 2200
-194.618 49.7455 2176
-194.203 50.1449 2168.12
-194.203 50.7246 2168.12
-194.203 51.3043 2168.12
-193.791 51.6968 2160.29
-193.791 52.2744 2160.29
-194.203 53.0435 2168.12
-194.203 53.6232 2168.12
-194.203 54.2029 2168.12
-193.791 54.5848 2160.29
-193.791 55.1625 2160.29
-194.203 55.942 2168.12
-194.203 56.5217 2168.12
-194.618 57.3091 2176
-194.618 57.8909 2176
-194.203 58.2609 2168.12
-194.618 59.0545 2176
-195.036 59.854 2183.94
-193.791 59.7834 2160.29
-193.791 60.361 2160.29
-193.791 60.9386 2160.29
-193.791 61.5162 2160.29
-217.043 74.7826 2601.74
-217.043 75.4783 2601.74
-217.043 76.1739 2601.74
-217.043 76.8696 2601.74
-217.043 77.5652 2601.74
-217.043 78.2609 2601.74
-217.043 78.9565 2601.74
-217.043 79.6522 2601.74
-217.043 80.3478 2601.74
-217.043 81.0435 2601.74
-217.043 81.7391 2601.74
-192.975 67.957 2144.8
-194.203 69.2754 2168.12
-194.203 69.8551 2168.12
-194.203 70.4348 2168.12
-217.043 85.2174 2601.74
-217.043 85.913 2601.74
-217.043 86.6087 2601.74
-194.203 72.7536 2168.12
-194.203 73.3333 2168.12
-194.203 73.913 2168.12
-194.203 74.4928 2168.12
-217.043 90.087 2601.74
-217.043 90.7826 2601.74
-217.043 91.4783 2601.74
-217.043 92.1739 2601.74
-217.043 92.8696 2601.74
-199.394 81.5152 2266.67
-217.043 94.2609 2601.74
-194.203 79.1304 2168.12
-194.203 79.7101 2168.12
-194.203 80.2899 2168.12
-193.791 80.5776 2160.29
-193.791 81.1552 2160.29
-194.203 82.029 2168.12
-194.203 82.6087 2168.12
-194.203 83.1884 2168.12
-193.791 83.4657 2160.29
-193.791 84.0433 2160.29
-193.791 84.6209 2160.29
-193.791 85.1986 2160.29
-193.791 85.7762 2160.29
-193.791 86.3538 2160.29
-194.203 87.2464 2168.12
-194.203 87.8261 2168.12
-194.203 88.4058 2168.12
-194.203 88.9855 2168.12
-194.203 89.5652 2168.12
-194.203 90.1449 2168.12
-194.203 90.7246 2168.12
-194.203 91.3043 2168.12
-194.203 91.8841 2168.12
-194.203 92.4638 2168.12
-194.203 93.0435 2168.12
-194.203 93.6232 2168.12
-194.203 94.2029 2168.12
-193.791 94.4404 2160.29
-193.791 95.0181 2160.29
-193.791 95.5957 2160.29
-193.791 96.1733 2160.29
-193.791 96.7509 2160.29
-193.791 97.3285 2160.29
-193.791 97.9061 2160.29
-193.791 98.4838 2160.29
-194.203 99.4203 2168.12
-194.203 100 2168.12
-194.203 100.58 2168.12
-194.203 101.159 2168.12
-194.203 101.739 2168.12
-194.203 102.319 2168.12
-194.203 102.899 2168.12
-194.203 103.478 2168.12
-194.203 104.058 2168.12
-194.618 105.018 2176
-194.618 105.6 2176
-194.203 105.797 2168.12
-194.618 106.764 2176
-193.381 106.187 2152.52
-192.975 106.38 2144.8
-217.043 129.739 2601.74
-217.739 -130.435 2601.74
-206.72 -119.36 2393.6
-206.72 -118.72 2393.6
-210.909 -121.983 2472.73
-217.739 -127.652 2601.74
-217.739 -126.957 2601.74
-217.739 -126.261 2601.74
-217.739 -125.565 2601.74
-213.671 -121.181 2524.89
-208.78 -116.098 2432.52
-208.78 -115.447 2432.52
-208.78 -114.797 2432.52
-208.78 -114.146 2432.52
-208.78 -113.496 2432.52
-209.306 -113.306 2442.45
-209.306 -112.653 2442.45
-209.306 -112 2442.45
-209.836 -111.803 2452.46
-206.215 -108.048 2384.06
-206.215 -107.41 2384.06
-206.72 -107.2 2393.6
-206.72 -106.56 2393.6
-206.72 -105.92 2393.6
-206.72 -105.28 2393.6
-206.72 -104.64 2393.6
-206.72 -104 2393.6
-206.72 -103.36 2393.6
-206.72 -102.72 2393.6
-206.72 -102.08 2393.6
-212.552 -106.109 2503.77
-214.809 -107.234 2546.38
-214.237 -106.102 2535.59
-212 -103.667 2493.33
-213.109 -103.866 2514.29
-206.215 -97.8486 2384.06
-206.72 -97.6 2393.6
-206.215 -96.5737 2384.06
-206.215 -95.9363 2384.06
-206.215 -95.2988 2384.06
-206.215 -94.6614 2384.06
-206.215 -94.0239 2384.06
-206.215 -93.3865 2384.06
-206.215 -92.749 2384.06
-206.215 -92.1116 2384.06
-206.215 -91.4741 2384.06
-206.215 -90.8367 2384.06
-206.215 -90.1992 2384.06
-206.215 -89.5618 2384.06
-206.215 -88.9243 2384.06
-206.215 -88.2868 2384.06
-206.215 -87.6494 2384.06
-206.215 -87.012 2384.06
-206.215 -86.3745 2384.06
-206.215 -85.7371 2384.06
-206.215 -85.0996 2384.06
-206.215 -84.4622 2384.06
-206.215 -83.8247 2384.06
-207.229 -83.8554 2403.21
-206.72 -82.88 2393.6
-206.72 -82.24 2393.6
-206.215 -81.2749 2384.06
-207.229 -81.2851 2403.21
-209.306 -81.9592 2442.45
-217.739 -86.6087 2601.74
-217.739 -85.913 2601.74
-217.739 -85.2174 2601.74
-206.215 -77.4502 2384.06
-206.215 -76.8128 2384.06
-206.215 -76.1753 2384.06
-206.215 -75.5378 2384.06
-206.215 -74.9004 2384.06
-206.215 -74.2629 2384.06
-206.215 -73.6255 2384.06
-206.215 -72.988 2384.06
-206.215 -72.3506 2384.06
-206.215 -71.7132 2384.06
-206.215 -71.0757 2384.06
-206.215 -70.4382 2384.06
-206.215 -69.8008 2384.06
-206.215 -69.1633 2384.06
-206.215 -68.5259 2384.06
-207.742 -68.7097 2412.9
-207.742 -68.0645 2412.9
-206.72 -66.88 2393.6
-207.742 -66.7742 2412.9
-207.742 -66.129 2412.9
-206.72 -64.96 2393.6
-206.72 -64.32 2393.6
-206.72 -63.68 2393.6
-206.215 -62.7888 2384.06
-206.215 -62.1514 2384.06
-206.215 -61.5139 2384.06
-206.215 -60.8765 2384.06
-206.215 -60.239 2384.06
-206.215 -59.6016 2384.06
-206.215 -58.9641 2384.06
-206.215 -58.3267 2384.06
-206.215 -57.6892 2384.06
-206.215 -57.0518 2384.06
-206.215 -56.4143 2384.06
-206.215 -55.7769 2384.06
-206.215 -55.1394 2384.06
-206.215 -54.502 2384.06
-206.215 -53.8645 2384.06
-206.215 -53.2271 2384.06
-206.215 -52.5896 2384.06
-206.215 -51.9522 2384.06
-206.215 -51.3147 2384.06
-206.215 -50.6773 2384.06
-206.215 -50.0398 2384.06
-206.215 -49.4024 2384.06
-206.215 -48.7649 2384.06
-206.215 -48.1275 2384.06
-206.215 -47.49 2384.06
-206.215 -46.8526 2384.06
-206.215 -46.2151 2384.06
-206.215 -45.5777 2384.06
-206.215 -44.9402 2384.06
-206.215 -44.3028 2384.06
-206.215 -43.6653 2384.06
-206.215 -43.0279 2384.06
-206.215 -42.3904 2384.06
-206.215 -41.753 2384.06
-206.215 -41.1155 2384.06
-206.215 -40.4781 2384.06
-206.215 -39.8406 2384.06
-206.215 -39.2032 2384.06
-206.215 -38.5657 2384.06
-206.215 -37.9283 2384.06
-206.215 -37.2908 2384.06
-206.215 -36.6534 2384.06
-206.215 -36.0159 2384.06
-206.215 -35.3785 2384.06
-206.215 -34.741 2384.06
-206.215 -34.1036 2384.06
-206.215 -33.4661 2384.06
-206.215 -32.8287 2384.06
-206.215 -32.1912 2384.06
-208.259 -32.0648 2422.67
-208.259 -31.417 2422.67
-208.78 -30.8943 2432.52
-208.78 -30.2439 2432.52
-208.78 -29.5935 2432.52
-208.78 -28.9431 2432.52
-208.78 -28.2927 2432.52
-208.78 -27.6423 2432.52
-208.78 -26.9919 2432.52
-208.78 -26.3415 2432.52
-208.78 -25.6911 2432.52
-208.78 -25.0407 2432.52
-206.215 -23.9044 2384.06
-205.714 -23.1746 2374.6
-205.217 -22.4506 2365.22
-205.714 -21.9048 2374.6
-205.714 -21.2698 2374.6
-203.75 -20.3125 2337.5
-203.75 -19.6875 2337.5
-203.268 -18.9883 2328.4
-203.268 -18.3658 2328.4
-203.268 -17.7432 2328.4
-203.268 -17.1206 2328.4
-203.268 -16.4981 2328.4
-203.268 -15.8755 2328.4
-202.791 -15.1938 2319.38
-202.791 -14.5736 2319.38
-202.791 -13.9535 2319.38
-202.791 -13.3333 2319.38
-202.791 -12.7132 2319.38
-202.791 -12.093 2319.38
-202.791 -11.4729 2319.38
-202.317 -10.8108 2310.42
-202.317 -10.1931 2310.42
-202.317 -9.57529 2310.42
-202.317 -8.95753 2310.42
-202.317 -8.33977 2310.42
-202.317 -7.72201 2310.42
-202.317 -7.10425 2310.42
-202.317 -6.48649 2310.42
-202.317 -5.86873 2310.42
-202.317 -5.25097 2310.42
-202.317 -4.6332 2310.42
-202.317 -4.01544 2310.42
-202.317 -3.39768 2310.42
-202.317 -2.77992 2310.42
-202.317 -2.16216 2310.42
-217.739 -1.73913 2601.74
-208.259 -0.97166 2422.67
-202.317 -0.30888 2310.42
-200.916 0.305344 2283.97
-217.739 1.04348 2601.74
-202.791 1.55039 2319.38
-200.916 2.1374 2283.97
-200.916 2.74809 2283.97
-199.547 3.32075 2258.11
-199.547 3.92453 2258.11
-201.379 4.5977 2292.72
-217.739 5.91304 2601.74
-200 5.75758 2266.67
-200 6.36364 2266.67
-217.739 8 2601.74
-217.739 8.69565 2601.74
-217.739 9.3913 2601.74
-217.739 10.087 2601.74
-217.739 10.7826 2601.74
-217.739 11.4783 2601.74
-217.739 12.1739 2601.74
-217.739 12.8696 2601.74
-217.739 13.5652 2601.74
-217.739 14.2609 2601.74
-202.317 13.2819 2310.42
-217.739 15.6522 2601.74
-217.739 16.3478 2601.74
-217.739 17.0435 2601.74
-201.379 15.6322 2292.72
-217.739 18.4348 2601.74
-202.317 16.9884 2310.42
-202.317 17.6062 2310.42
-202.317 18.2239 2310.42
-202.317 18.8417 2310.42
-202.317 19.4595 2310.42
-202.317 20.0772 2310.42
-202.317 20.695 2310.42
-202.317 21.3127 2310.42
-202.317 21.9305 2310.42
-202.317 22.5483 2310.42
-202.317 23.166 2310.42
-202.317 23.7838 2310.42
-202.317 24.4015 2310.42
-202.317 25.0193 2310.42
-202.317 25.6371 2310.42
-202.317 26.2548 2310.42
-202.317 26.8726 2310.42
-202.317 27.4903 2310.42
-202.317 28.1081 2310.42
-202.317 28.7259 2310.42
-202.317 29.3436 2310.42
-202.317 29.9614 2310.42
-202.317 30.5792 2310.42
-202.317 31.1969 2310.42
-202.317 31.8147 2310.42
-217.739 36.5217 2601.74
-217.739 37.2174 2601.74
-202.317 33.668 2310.42
-210.37 36.5432 2462.55
-210.37 37.2016 2462.55
-210.37 37.8601 2462.55
-212 39 2493.33
-202.317 36.7568 2310.42
-215.966 41.5451 2568.24
-215.966 42.2318 2568.24
-217.143 43.29 2590.48
-217.739 44.1739 2601.74
-217.739 44.8696 2601.74
-213.109 44.0336 2514.29
-212.552 44.5188 2503.77
-212.552 45.1883 2503.77
-214.237 46.4407 2535.59
-210.909 45.9504 2472.73
-217.739 49.0435 2601.74
-217.739 49.7391 2601.74
-217.739 50.4348 2601.74
-217.739 51.1304 2601.74
-217.739 51.8261 2601.74
-217.739 52.5217 2601.74
-217.739 53.2174 2601.74
-217.739 53.913 2601.74
-217.739 54.6087 2601.74
-204.724 50.0787 2355.91
-204.724 50.7087 2355.91
-217.739 56.6957 2601.74
-217.739 57.3913 2601.74
-217.739 58.087 2601.74
-196.471 49.7059 2200
-195.2 49.7455 2176
-194.783 50.1449 2168.12
-194.783 50.7246 2168.12
-194.783 51.3043 2168.12
-194.368 51.6968 2160.29
-194.368 52.2744 2160.29
-194.783 53.0435 2168.12
-194.783 53.6232 2168.12
-194.783 54.2029 2168.12
-194.368 54.5848 2160.29
-194.368 55.1625 2160.29
-194.783 55.942 2168.12
-194.783 56.5217 2168.12
-195.2 57.3091 2176
-195.2 57.8909 2176
-194.783 58.2609 2168.12
-195.2 59.0545 2176
-195.62 59.854 2183.94
-194.368 59.7834 2160.29
-194.368 60.361 2160.29
-194.368 60.9386 2160.29
-217.739 74.087 2601.74
-194.783 62.3188 2168.12
-196.471 63.8235 2200
-217.739 76.1739 2601.74
-217.739 76.8696 2601.74
-217.739 77.5652 2601.74
-217.739 78.2609 2601.74
-217.739 78.9565 2601.74
-217.739 79.6522 2601.74
-217.739 80.3478 2601.74
-217.739 81.0435 2601.74
-217.739 81.7391 2601.74
-193.548 67.957 2144.8
-217.739 83.1304 2601.74
-217.739 83.8261 2601.74
-217.739 84.5217 2601.74
-217.739 85.2174 2601.74
-217.739 85.913 2601.74
-217.739 86.6087 2601.74
-217.739 87.3043 2601.74
-194.783 73.3333 2168.12
-194.783 73.913 2168.12
-194.783 74.4928 2168.12
-217.739 90.087 2601.74
-217.739 90.7826 2601.74
-217.739 91.4783 2601.74
-217.739 92.1739 2601.74
-217.739 92.8696 2601.74
-217.739 93.5652 2601.74
-199.547 81.8113 2258.11
-194.783 79.1304 2168.12
-194.783 79.7101 2168.12
-194.783 80.2899 2168.12
-194.368 80.5776 2160.29
-194.368 81.1552 2160.29
-194.783 82.029 2168.12
-194.783 82.6087 2168.12
-194.783 83.1884 2168.12
-194.368 83.4657 2160.29
-194.368 84.0433 2160.29
-194.368 84.6209 2160.29
-194.368 85.1986 2160.29
-194.368 85.7762 2160.29
-194.368 86.3538 2160.29
-194.783 87.2464 2168.12
-194.783 87.8261 2168.12
-194.783 88.4058 2168.12
-194.783 88.9855 2168.12
-194.783 89.5652 2168.12
-194.783 90.1449 2168.12
-194.783 90.7246 2168.12
-194.783 91.3043 2168.12
-194.783 91.8841 2168.12
-194.783 92.4638 2168.12
-194.783 93.0435 2168.12
-194.783 93.6232 2168.12
-194.783 94.2029 2168.12
-194.368 94.4404 2160.29
-194.368 95.0181 2160.29
-194.368 95.5957 2160.29
-194.368 96.1733 2160.29
-194.368 96.7509 2160.29
-194.368 97.3285 2160.29
-194.368 97.9061 2160.29
-194.368 98.4838 2160.29
-194.783 99.4203 2168.12
-194.783 100 2168.12
-194.783 100.58 2168.12
-194.783 101.159 2168.12
-194.783 101.739 2168.12
-194.783 102.319 2168.12
-194.783 102.899 2168.12
-194.783 103.478 2168.12
-194.783 104.058 2168.12
-195.2 105.018 2176
-195.2 105.6 2176
-194.783 105.797 2168.12
-195.2 106.764 2176
-193.957 106.187 2152.52
-193.548 106.38 2144.8
-217.739 129.739 2601.74
-218.435 -130.435 2601.74
-207.36 -119.36 2393.6
-207.36 -118.72 2393.6
-211.57 -121.983 2472.73
-211.029 -120.823 2462.55
-218.435 -126.957 2601.74
-218.435 -126.261 2601.74
-218.435 -125.565 2601.74
-218.435 -124.87 2601.74
-218.435 -124.174 2601.74
-209.431 -115.447 2432.52
-209.431 -114.797 2432.52
-209.431 -114.146 2432.52
-209.431 -113.496 2432.52
-209.959 -113.306 2442.45
-209.959 -112.653 2442.45
-209.959 -112 2442.45
-210.492 -111.803 2452.46
-206.853 -108.048 2384.06
-207.36 -107.84 2393.6
-207.36 -107.2 2393.6
-207.36 -106.56 2393.6
-207.36 -105.92 2393.6
-207.36 -105.28 2393.6
-207.36 -104.64 2393.6
-207.36 -104 2393.6
-207.36 -103.36 2393.6
-207.36 -102.72 2393.6
-207.36 -102.08 2393.6
-213.222 -106.109 2503.77
-215.489 -107.234 2546.38
-214.915 -106.102 2535.59
-212.667 -103.667 2493.33
-212.667 -103 2493.33
-206.853 -97.8486 2384.06
-207.36 -97.6 2393.6
-206.853 -96.5737 2384.06
-206.853 -95.9363 2384.06
-206.853 -95.2988 2384.06
-206.853 -94.6614 2384.06
-206.853 -94.0239 2384.06
-206.853 -93.3865 2384.06
-206.853 -92.749 2384.06
-206.853 -92.1116 2384.06
-206.853 -91.4741 2384.06
-206.853 -90.8367 2384.06
-206.853 -90.1992 2384.06
-206.853 -89.5618 2384.06
-206.853 -88.9243 2384.06
-206.853 -88.2868 2384.06
-206.853 -87.6494 2384.06
-206.853 -87.012 2384.06
-206.853 -86.3745 2384.06
-206.853 -85.7371 2384.06
-206.853 -85.0996 2384.06
-206.853 -84.4622 2384.06
-206.853 -83.8247 2384.06
-207.871 -83.8554 2403.21
-207.36 -82.88 2393.6
-207.36 -82.24 2393.6
-206.853 -81.2749 2384.06
-207.871 -81.2851 2403.21
-209.959 -81.9592 2442.45
-209.431 -80.9756 2432.52
-210.492 -80.9836 2452.46
-218.435 -85.2174 2601.74
-206.853 -77.4502 2384.06
-206.853 -76.8128 2384.06
-206.853 -76.1753 2384.06
-206.853 -75.5378 2384.06
-206.853 -74.9004 2384.06
-206.853 -74.2629 2384.06
-206.853 -73.6255 2384.06
-206.853 -72.988 2384.06
-206.853 -72.3506 2384.06
-206.853 -71.7132 2384.06
-206.853 -71.0757 2384.06
-206.853 -70.4382 2384.06
-206.853 -69.8008 2384.06
-206.853 -69.1633 2384.06
-206.853 -68.5259 2384.06
-208.387 -68.7097 2412.9
-208.387 -68.0645 2412.9
-207.36 -66.88 2393.6
-208.387 -66.7742 2412.9
-208.387 -66.129 2412.9
-207.36 -64.96 2393.6
-207.36 -64.32 2393.6
-207.36 -63.68 2393.6
-206.853 -62.7888 2384.06
-206.853 -62.1514 2384.06
-207.36 -61.76 2393.6
-206.853 -60.8765 2384.06
-206.853 -60.239 2384.06
-206.853 -59.6016 2384.06
-206.853 -58.9641 2384.06
-206.853 -58.3267 2384.06
-206.853 -57.6892 2384.06
-206.853 -57.0518 2384.06
-206.853 -56.4143 2384.06
-206.853 -55.7769 2384.06
-206.853 -55.1394 2384.06
-206.853 -54.502 2384.06
-206.853 -53.8645 2384.06
-206.853 -53.2271 2384.06
-206.853 -52.5896 2384.06
-206.853 -51.9522 2384.06
-206.853 -51.3147 2384.06
-206.853 -50.6773 2384.06
-206.853 -50.0398 2384.06
-206.853 -49.4024 2384.06
-206.853 -48.7649 2384.06
-206.853 -48.1275 2384.06
-206.853 -47.49 2384.06
-206.853 -46.8526 2384.06
-206.853 -46.2151 2384.06
-206.853 -45.5777 2384.06
-206.853 -44.9402 2384.06
-206.853 -44.3028 2384.06
-206.853 -43.6653 2384.06
-206.853 -43.0279 2384.06
-206.853 -42.3904 2384.06
-206.853 -41.753 2384.06
-206.853 -41.1155 2384.06
-206.853 -40.4781 2384.06
-206.853 -39.8406 2384.06
-206.853 -39.2032 2384.06
-206.853 -38.5657 2384.06
-206.853 -37.9283 2384.06
-206.853 -37.2908 2384.06
-206.853 -36.6534 2384.06
-206.853 -36.0159 2384.06
-206.853 -35.3785 2384.06
-206.853 -34.741 2384.06
-206.853 -34.1036 2384.06
-206.853 -33.4661 2384.06
-209.431 -33.4959 2432.52
-209.431 -32.8455 2432.52
-209.431 -32.1951 2432.52
-209.431 -31.5447 2432.52
-209.431 -30.8943 2432.52
-209.431 -30.2439 2432.52
-209.431 -29.5935 2432.52
-209.431 -28.9431 2432.52
-209.431 -28.2927 2432.52
-209.431 -27.6423 2432.52
-209.431 -26.9919 2432.52
-209.431 -26.3415 2432.52
-209.431 -25.6911 2432.52
-209.431 -25.0407 2432.52
-218.435 -26.087 2601.74
-206.349 -23.1746 2374.6
-205.85 -22.4506 2365.22
-206.349 -21.9048 2374.6
-206.349 -21.2698 2374.6
-204.375 -20.3125 2337.5
-204.375 -19.6875 2337.5
-203.891 -18.9883 2328.4
-203.891 -18.3658 2328.4
-203.891 -17.7432 2328.4
-203.891 -17.1206 2328.4
-203.891 -16.4981 2328.4
-203.891 -15.8755 2328.4
-203.891 -15.2529 2328.4
-203.411 -14.5736 2319.38
-203.411 -13.9535 2319.38
-203.411 -13.3333 2319.38
-203.411 -12.7132 2319.38
-203.411 -12.093 2319.38
-203.411 -11.4729 2319.38
-202.934 -10.8108 2310.42
-202.934 -10.1931 2310.42
-202.934 -9.57529 2310.42
-202.934 -8.95753 2310.42
-202.934 -8.33977 2310.42
-202.934 -7.72201 2310.42
-202.934 -7.10425 2310.42
-202.934 -6.48649 2310.42
-202.934 -5.86873 2310.42
-202.934 -5.25097 2310.42
-202.934 -4.6332 2310.42
-202.934 -4.01544 2310.42
-202.934 -3.39768 2310.42
-202.934 -2.77992 2310.42
-202.934 -2.16216 2310.42
-218.435 -1.73913 2601.74
-208.907 -0.97166 2422.67
-202.934 -0.30888 2310.42
-201.992 0.306513 2292.72
-201.992 0.91954 2292.72
-203.411 1.55039 2319.38
-201.527 2.1374 2283.97
-201.527 2.74809 2283.97
-200.151 3.32075 2258.11
-200.151 3.92453 2258.11
-202.462 4.61538 2301.54
-218.435 5.91304 2601.74
-200.606 5.75758 2266.67
-200.606 6.36364 2266.67
-203.891 7.15953 2328.4
-218.435 8.69565 2601.74
-218.435 9.3913 2601.74
-218.435 10.087 2601.74
-218.435 10.7826 2601.74
-218.435 11.4783 2601.74
-203.411 10.8527 2319.38
-218.435 12.8696 2601.74
-218.435 13.5652 2601.74
-218.435 14.2609 2601.74
-202.934 13.2819 2310.42
-202.934 13.8996 2310.42
-202.934 14.5174 2310.42
-202.934 15.1351 2310.42
-202.934 15.7529 2310.42
-202.934 16.3707 2310.42
-202.934 16.9884 2310.42
-202.934 17.6062 2310.42
-202.934 18.2239 2310.42
-202.934 18.8417 2310.42
-202.934 19.4595 2310.42
-202.934 20.0772 2310.42
-202.934 20.695 2310.42
-202.934 21.3127 2310.42
-202.934 21.9305 2310.42
-202.934 22.5483 2310.42
-202.934 23.166 2310.42
-202.934 23.7838 2310.42
-202.934 24.4015 2310.42
-202.934 25.0193 2310.42
-202.934 25.6371 2310.42
-202.934 26.2548 2310.42
-202.934 26.8726 2310.42
-202.934 27.4903 2310.42
-202.934 28.1081 2310.42
-202.934 28.7259 2310.42
-202.934 29.3436 2310.42
-202.934 29.9614 2310.42
-202.934 30.5792 2310.42
-202.934 31.1969 2310.42
-202.934 31.8147 2310.42
-218.435 36.5217 2601.74
-202.462 32.9231 2301.54
-202.934 33.668 2310.42
-211.029 36.5432 2462.55
-211.029 37.2016 2462.55
-211.029 37.8601 2462.55
-212.667 39 2493.33
-208.907 38.5425 2422.67
-216.652 41.5451 2568.24
-216.652 42.2318 2568.24
-217.835 43.29 2590.48
-218.435 44.1739 2601.74
-218.435 44.8696 2601.74
-213.782 44.0336 2514.29
-213.222 44.5188 2503.77
-213.222 45.1883 2503.77
-214.915 46.4407 2535.59
-211.57 45.9504 2472.73
-218.435 49.0435 2601.74
-218.435 49.7391 2601.74
-216.068 49.5727 2557.26
-218.435 51.1304 2601.74
-218.435 51.8261 2601.74
-218.435 52.5217 2601.74
-218.435 53.2174 2601.74
-218.435 53.913 2601.74
-218.435 54.6087 2601.74
-205.354 50.0787 2355.91
-205.354 50.7087 2355.91
-218.435 56.6957 2601.74
-218.435 57.3913 2601.74
-218.435 58.087 2601.74
-197.059 49.7059 2200
-195.782 49.7455 2176
-195.362 50.1449 2168.12
-195.362 50.7246 2168.12
-195.362 51.3043 2168.12
-194.946 51.6968 2160.29
-194.946 52.2744 2160.29
-195.362 53.0435 2168.12
-195.362 53.6232 2168.12
-195.362 54.2029 2168.12
-194.946 54.5848 2160.29
-194.946 55.1625 2160.29
-195.362 55.942 2168.12
-195.362 56.5217 2168.12
-195.782 57.3091 2176
-195.782 57.8909 2176
-195.362 58.2609 2168.12
-218.435 70.6087 2601.74
-196.204 59.854 2183.94
-194.946 59.7834 2160.29
-194.946 60.361 2160.29
-194.946 60.9386 2160.29
-194.532 61.295 2152.52
-195.362 62.3188 2168.12
-197.059 63.8235 2200
-196.63 64.1758 2191.94
-218.435 76.8696 2601.74
-218.435 77.5652 2601.74
-218.435 78.2609 2601.74
-218.435 78.9565 2601.74
-218.435 79.6522 2601.74
-218.435 80.3478 2601.74
-218.435 81.0435 2601.74
-218.435 81.7391 2601.74
-194.122 67.957 2144.8
-218.435 83.1304 2601.74
-218.435 83.8261 2601.74
-218.435 84.5217 2601.74
-218.435 85.2174 2601.74
-218.435 85.913 2601.74
-218.435 86.6087 2601.74
-218.435 87.3043 2601.74
-218.435 88 2601.74
-218.435 88.6957 2601.74
-218.435 89.3913 2601.74
-218.435 90.087 2601.74
-218.435 90.7826 2601.74
-218.435 91.4783 2601.74
-218.435 92.1739 2601.74
-218.435 92.8696 2601.74
-218.435 93.5652 2601.74
-218.435 94.2609 2601.74
-218.435 94.9565 2601.74
-195.362 79.7101 2168.12
-218.435 96.3478 2601.74
-194.946 80.5776 2160.29
-194.946 81.1552 2160.29
-195.362 82.029 2168.12
-195.362 82.6087 2168.12
-195.362 83.1884 2168.12
-194.946 83.4657 2160.29
-194.946 84.0433 2160.29
-194.946 84.6209 2160.29
-194.946 85.1986 2160.29
-194.946 85.7762 2160.29
-194.946 86.3538 2160.29
-195.362 87.2464 2168.12
-195.362 87.8261 2168.12
-195.362 88.4058 2168.12
-195.362 88.9855 2168.12
-195.362 89.5652 2168.12
-195.362 90.1449 2168.12
-195.362 90.7246 2168.12
-195.362 91.3043 2168.12
-195.362 91.8841 2168.12
-195.362 92.4638 2168.12
-195.362 93.0435 2168.12
-195.362 93.6232 2168.12
-195.362 94.2029 2168.12
-194.946 94.4404 2160.29
-194.946 95.0181 2160.29
-194.946 95.5957 2160.29
-194.946 96.1733 2160.29
-194.946 96.7509 2160.29
-194.946 97.3285 2160.29
-194.946 97.9061 2160.29
-194.946 98.4838 2160.29
-195.362 99.4203 2168.12
-195.362 100 2168.12
-195.362 100.58 2168.12
-195.362 101.159 2168.12
-195.362 101.739 2168.12
-195.362 102.319 2168.12
-195.362 102.899 2168.12
-195.362 103.478 2168.12
-195.362 104.058 2168.12
-195.782 105.018 2176
-195.782 105.6 2176
-195.362 105.797 2168.12
-195.782 106.764 2176
-194.532 106.187 2152.52
-194.122 106.38 2144.8
-218.435 129.739 2601.74
-219.13 -130.435 2601.74
-209.555 -120.81 2422.67
-208 -118.72 2393.6
-212.231 -121.983 2472.73
-212.231 -121.322 2472.73
-212.231 -120.661 2472.73
-219.13 -126.261 2601.74
-219.13 -125.565 2601.74
-219.13 -124.87 2601.74
-219.13 -124.174 2601.74
-219.13 -123.478 2601.74
-210.081 -114.797 2432.52
-210.081 -114.146 2432.52
-210.081 -113.496 2432.52
-210.612 -113.306 2442.45
-219.13 -120 2601.74
-219.13 -119.304 2601.74
-214.454 -114.622 2514.29
-208 -108.48 2393.6
-208 -107.84 2393.6
-208 -107.2 2393.6
-208 -106.56 2393.6
-208 -105.92 2393.6
-208 -105.28 2393.6
-208 -104.64 2393.6
-208 -104 2393.6
-208 -103.36 2393.6
-208 -102.72 2393.6
-208 -102.08 2393.6
-213.891 -106.109 2503.77
-216.17 -107.234 2546.38
-215.593 -106.102 2535.59
-213.333 -103.667 2493.33
-213.333 -103 2493.33
-207.49 -97.8486 2384.06
-208 -97.6 2393.6
-207.49 -96.5737 2384.06
-207.49 -95.9363 2384.06
-207.49 -95.2988 2384.06
-207.49 -94.6614 2384.06
-207.49 -94.0239 2384.06
-207.49 -93.3865 2384.06
-207.49 -92.749 2384.06
-207.49 -92.1116 2384.06
-207.49 -91.4741 2384.06
-207.49 -90.8367 2384.06
-207.49 -90.1992 2384.06
-207.49 -89.5618 2384.06
-207.49 -88.9243 2384.06
-207.49 -88.2868 2384.06
-207.49 -87.6494 2384.06
-207.49 -87.012 2384.06
-207.49 -86.3745 2384.06
-207.49 -85.7371 2384.06
-207.49 -85.0996 2384.06
-207.49 -84.4622 2384.06
-207.49 -83.8247 2384.06
-208.514 -83.8554 2403.21
-208 -82.88 2393.6
-208 -82.24 2393.6
-207.49 -81.2749 2384.06
-208.514 -81.2851 2403.21
-210.612 -81.9592 2442.45
-210.081 -80.9756 2432.52
-211.148 -80.9836 2452.46
-219.13 -85.2174 2601.74
-207.49 -77.4502 2384.06
-207.49 -76.8128 2384.06
-207.49 -76.1753 2384.06
-207.49 -75.5378 2384.06
-207.49 -74.9004 2384.06
-207.49 -74.2629 2384.06
-207.49 -73.6255 2384.06
-207.49 -72.988 2384.06
-207.49 -72.3506 2384.06
-207.49 -71.7132 2384.06
-207.49 -71.0757 2384.06
-207.49 -70.4382 2384.06
-207.49 -69.8008 2384.06
-207.49 -69.1633 2384.06
-207.49 -68.5259 2384.06
-209.032 -68.7097 2412.9
-209.032 -68.0645 2412.9
-208 -66.88 2393.6
-209.032 -66.7742 2412.9
-209.032 -66.129 2412.9
-208 -64.96 2393.6
-208 -64.32 2393.6
-208 -63.68 2393.6
-208.514 -63.2932 2403.21
-207.49 -62.1514 2384.06
-208 -61.76 2393.6
-209.555 -61.8623 2422.67
-209.555 -61.2146 2422.67
-209.555 -60.5668 2422.67
-207.49 -58.9641 2384.06
-207.49 -58.3267 2384.06
-207.49 -57.6892 2384.06
-207.49 -57.0518 2384.06
-207.49 -56.4143 2384.06
-207.49 -55.7769 2384.06
-207.49 -55.1394 2384.06
-207.49 -54.502 2384.06
-207.49 -53.8645 2384.06
-207.49 -53.2271 2384.06
-207.49 -52.5896 2384.06
-207.49 -51.9522 2384.06
-207.49 -51.3147 2384.06
-207.49 -50.6773 2384.06
-207.49 -50.0398 2384.06
-207.49 -49.4024 2384.06
-207.49 -48.7649 2384.06
-207.49 -48.1275 2384.06
-207.49 -47.49 2384.06
-207.49 -46.8526 2384.06
-207.49 -46.2151 2384.06
-207.49 -45.5777 2384.06
-207.49 -44.9402 2384.06
-207.49 -44.3028 2384.06
-207.49 -43.6653 2384.06
-207.49 -43.0279 2384.06
-207.49 -42.3904 2384.06
-207.49 -41.753 2384.06
-207.49 -41.1155 2384.06
-207.49 -40.4781 2384.06
-207.49 -39.8406 2384.06
-207.49 -39.2032 2384.06
-207.49 -38.5657 2384.06
-207.49 -37.9283 2384.06
-207.49 -37.2908 2384.06
-207.49 -36.6534 2384.06
-207.49 -36.0159 2384.06
-207.49 -35.3785 2384.06
-207.49 -34.741 2384.06
-207.49 -34.1036 2384.06
-219.13 -36.5217 2601.74
-210.081 -33.4959 2432.52
-210.081 -32.8455 2432.52
-210.081 -32.1951 2432.52
-210.081 -31.5447 2432.52
-210.081 -30.8943 2432.52
-210.081 -30.2439 2432.52
-210.081 -29.5935 2432.52
-210.081 -28.9431 2432.52
-210.081 -28.2927 2432.52
-210.081 -27.6423 2432.52
-210.081 -26.9919 2432.52
-210.081 -26.3415 2432.52
-210.081 -25.6911 2432.52
-210.081 -25.0407 2432.52
-219.13 -26.087 2601.74
-206.984 -23.1746 2374.6
-206.482 -22.4506 2365.22
-206.984 -21.9048 2374.6
-206.984 -21.2698 2374.6
-205 -20.3125 2337.5
-205 -19.6875 2337.5
-204.514 -18.9883 2328.4
-204.514 -18.3658 2328.4
-204.514 -17.7432 2328.4
-204.514 -17.1206 2328.4
-204.514 -16.4981 2328.4
-204.514 -15.8755 2328.4
-204.514 -15.2529 2328.4
-204.514 -14.6304 2328.4
-204.031 -13.9535 2319.38
-204.031 -13.3333 2319.38
-204.031 -12.7132 2319.38
-204.031 -12.093 2319.38
-204.031 -11.4729 2319.38
-203.552 -10.8108 2310.42
-203.552 -10.1931 2310.42
-203.552 -9.57529 2310.42
-203.552 -8.95753 2310.42
-203.552 -8.33977 2310.42
-203.552 -7.72201 2310.42
-203.552 -7.10425 2310.42
-203.552 -6.48649 2310.42
-203.552 -5.86873 2310.42
-203.552 -5.25097 2310.42
-203.552 -4.6332 2310.42
-203.552 -4.01544 2310.42
-203.552 -3.39768 2310.42
-203.552 -2.77992 2310.42
-203.552 -2.16216 2310.42
-219.13 -1.73913 2601.74
-219.13 -1.04348 2601.74
-219.13 -0.347826 2601.74
-202.605 0.306513 2292.72
-202.605 0.91954 2292.72
-204.031 1.55039 2319.38
-202.137 2.1374 2283.97
-202.137 2.74809 2283.97
-200.755 3.32075 2258.11
-200.755 3.92453 2258.11
-203.552 4.6332 2310.42
-219.13 5.91304 2601.74
-201.212 5.75758 2266.67
-201.212 6.36364 2266.67
-219.13 8 2601.74
-219.13 8.69565 2601.74
-219.13 9.3913 2601.74
-203.552 8.95753 2310.42
-219.13 10.7826 2601.74
-203.552 10.1931 2310.42
-219.13 12.1739 2601.74
-203.077 11.3846 2301.54
-204.031 12.093 2319.38
-203.552 12.6641 2310.42
-203.552 13.2819 2310.42
-203.552 13.8996 2310.42
-203.552 14.5174 2310.42
-203.552 15.1351 2310.42
-203.552 15.7529 2310.42
-203.552 16.3707 2310.42
-203.552 16.9884 2310.42
-203.552 17.6062 2310.42
-203.552 18.2239 2310.42
-203.552 18.8417 2310.42
-203.552 19.4595 2310.42
-203.552 20.0772 2310.42
-203.552 20.695 2310.42
-203.552 21.3127 2310.42
-203.552 21.9305 2310.42
-203.552 22.5483 2310.42
-203.552 23.166 2310.42
-203.552 23.7838 2310.42
-203.552 24.4015 2310.42
-203.552 25.0193 2310.42
-203.552 25.6371 2310.42
-203.552 26.2548 2310.42
-203.552 26.8726 2310.42
-203.552 27.4903 2310.42
-203.552 28.1081 2310.42
-203.552 28.7259 2310.42
-203.552 29.3436 2310.42
-203.552 29.9614 2310.42
-203.552 30.5792 2310.42
-203.552 31.1969 2310.42
-203.552 31.8147 2310.42
-219.13 36.5217 2601.74
-219.13 37.2174 2601.74
-203.552 33.668 2310.42
-211.687 36.5432 2462.55
-211.687 37.2016 2462.55
-211.687 37.8601 2462.55
-213.333 39 2493.33
-209.555 38.5425 2422.67
-217.339 41.5451 2568.24
-217.339 42.2318 2568.24
-218.528 43.29 2590.48
-219.13 44.1739 2601.74
-219.13 44.8696 2601.74
-214.454 44.0336 2514.29
-213.891 44.5188 2503.77
-213.891 45.1883 2503.77
-215.593 46.4407 2535.59
-212.231 45.9504 2472.73
-219.13 49.0435 2601.74
-219.13 49.7391 2601.74
-216.752 49.5727 2557.26
-211.148 48.1967 2452.46
-210.612 48.6531 2442.45
-210.612 49.3061 2442.45
-211.148 50.1639 2452.46
-219.13 53.913 2601.74
-219.13 54.6087 2601.74
-205.984 50.0787 2355.91
-205.984 50.7087 2355.91
-219.13 56.6957 2601.74
-219.13 57.3913 2601.74
-219.13 58.087 2601.74
-197.647 49.7059 2200
-196.364 49.7455 2176
-195.942 50.1449 2168.12
-195.942 50.7246 2168.12
-195.942 51.3043 2168.12
-195.523 51.6968 2160.29
-195.523 52.2744 2160.29
-195.942 53.0435 2168.12
-195.942 53.6232 2168.12
-195.942 54.2029 2168.12
-195.942 54.7826 2168.12
-195.523 55.1625 2160.29
-195.942 55.942 2168.12
-195.942 56.5217 2168.12
-196.364 57.3091 2176
-196.364 57.8909 2176
-195.942 58.2609 2168.12
-195.942 58.8406 2168.12
-196.788 59.854 2183.94
-195.523 59.7834 2160.29
-195.523 60.361 2160.29
-195.523 60.9386 2160.29
-195.108 61.295 2152.52
-195.942 62.3188 2168.12
-197.647 63.8235 2200
-197.216 64.1758 2191.94
-197.647 65 2200
-219.13 77.5652 2601.74
-219.13 78.2609 2601.74
-219.13 78.9565 2601.74
-219.13 79.6522 2601.74
-219.13 80.3478 2601.74
-219.13 81.0435 2601.74
-219.13 81.7391 2601.74
-194.695 67.957 2144.8
-219.13 83.1304 2601.74
-219.13 83.8261 2601.74
-219.13 84.5217 2601.74
-219.13 85.2174 2601.74
-219.13 85.913 2601.74
-219.13 86.6087 2601.74
-219.13 87.3043 2601.74
-219.13 88 2601.74
-219.13 88.6957 2601.74
-219.13 89.3913 2601.74
-219.13 90.087 2601.74
-219.13 90.7826 2601.74
-219.13 91.4783 2601.74
-219.13 92.1739 2601.74
-219.13 92.8696 2601.74
-219.13 93.5652 2601.74
-219.13 94.2609 2601.74
-219.13 94.9565 2601.74
-195.942 79.7101 2168.12
-219.13 96.3478 2601.74
-195.523 80.5776 2160.29
-195.523 81.1552 2160.29
-195.942 82.029 2168.12
-195.942 82.6087 2168.12
-195.942 83.1884 2168.12
-195.523 83.4657 2160.29
-195.523 84.0433 2160.29
-195.523 84.6209 2160.29
-195.523 85.1986 2160.29
-195.523 85.7762 2160.29
-195.523 86.3538 2160.29
-195.942 87.2464 2168.12
-195.942 87.8261 2168.12
-195.942 88.4058 2168.12
-195.942 88.9855 2168.12
-195.942 89.5652 2168.12
-195.942 90.1449 2168.12
-195.942 90.7246 2168.12
-195.942 91.3043 2168.12
-195.942 91.8841 2168.12
-195.942 92.4638 2168.12
-195.942 93.0435 2168.12
-195.942 93.6232 2168.12
-219.13 113.043 2601.74
-195.523 94.4404 2160.29
-195.523 95.0181 2160.29
-195.523 95.5957 2160.29
-195.523 96.1733 2160.29
-195.523 96.7509 2160.29
-195.523 97.3285 2160.29
-195.523 97.9061 2160.29
-195.523 98.4838 2160.29
-195.942 99.4203 2168.12
-195.942 100 2168.12
-195.942 100.58 2168.12
-195.942 101.159 2168.12
-195.942 101.739 2168.12
-195.942 102.319 2168.12
-195.942 102.899 2168.12
-195.942 103.478 2168.12
-195.942 104.058 2168.12
-196.364 105.018 2176
-196.364 105.6 2176
-195.942 105.797 2168.12
-196.364 106.764 2176
-195.108 106.187 2152.52
-194.695 106.38 2144.8
-219.13 129.739 2601.74
-219.826 -130.435 2601.74
-210.202 -120.81 2422.67
-209.677 -119.677 2412.9
-212.893 -121.983 2472.73
-212.893 -121.322 2472.73
-212.893 -120.661 2472.73
-212.893 -120 2472.73
-219.826 -125.565 2601.74
-219.826 -124.87 2601.74
-219.826 -124.174 2601.74
-219.826 -123.478 2601.74
-210.732 -114.797 2432.52
-210.732 -114.146 2432.52
-210.732 -113.496 2432.52
-211.803 -113.77 2452.46
-212.346 -113.58 2462.55
-214.561 -114.812 2503.77
-215.126 -114.622 2514.29
-208.64 -108.48 2393.6
-208.64 -107.84 2393.6
-208.64 -107.2 2393.6
-208.64 -106.56 2393.6
-208.64 -105.92 2393.6
-208.64 -105.28 2393.6
-208.64 -104.64 2393.6
-208.64 -104 2393.6
-208.64 -103.36 2393.6
-208.64 -102.72 2393.6
-208.64 -102.08 2393.6
-219.221 -109.784 2590.48
-216.271 -106.78 2535.59
-215.696 -105.654 2524.89
-214 -103.667 2493.33
-214 -103 2493.33
-208.127 -97.8486 2384.06
-208.64 -97.6 2393.6
-208.127 -96.5737 2384.06
-208.127 -95.9363 2384.06
-208.127 -95.2988 2384.06
-208.127 -94.6614 2384.06
-208.127 -94.0239 2384.06
-208.127 -93.3865 2384.06
-208.127 -92.749 2384.06
-208.127 -92.1116 2384.06
-208.127 -91.4741 2384.06
-208.127 -90.8367 2384.06
-208.127 -90.1992 2384.06
-208.127 -89.5618 2384.06
-208.127 -88.9243 2384.06
-208.64 -88.64 2393.6
-208.127 -87.6494 2384.06
-208.127 -87.012 2384.06
-208.127 -86.3745 2384.06
-208.127 -85.7371 2384.06
-208.127 -85.0996 2384.06
-208.127 -84.4622 2384.06
-208.127 -83.8247 2384.06
-209.157 -83.8554 2403.21
-208.64 -82.88 2393.6
-208.64 -82.24 2393.6
-208.127 -81.2749 2384.06
-209.157 -81.2851 2403.21
-211.265 -81.9592 2442.45
-210.732 -80.9756 2432.52
-211.803 -80.9836 2452.46
-210.202 -79.3522 2422.67
-208.127 -77.4502 2384.06
-208.127 -76.8128 2384.06
-208.127 -76.1753 2384.06
-208.127 -75.5378 2384.06
-208.127 -74.9004 2384.06
-208.127 -74.2629 2384.06
-208.127 -73.6255 2384.06
-208.127 -72.988 2384.06
-208.127 -72.3506 2384.06
-208.127 -71.7132 2384.06
-208.127 -71.0757 2384.06
-208.127 -70.4382 2384.06
-208.127 -69.8008 2384.06
-208.127 -69.1633 2384.06
-208.127 -68.5259 2384.06
-209.677 -68.7097 2412.9
-209.677 -68.0645 2412.9
-208.64 -66.88 2393.6
-209.677 -66.7742 2412.9
-210.202 -66.3968 2422.67
-210.202 -65.749 2422.67
-210.202 -65.1012 2422.67
-208.64 -63.68 2393.6
-209.157 -63.2932 2403.21
-208.127 -62.1514 2384.06
-208.64 -61.76 2393.6
-210.202 -61.8623 2422.67
-210.202 -61.2146 2422.67
-210.202 -60.5668 2422.67
-210.202 -59.919 2422.67
-208.127 -58.3267 2384.06
-208.127 -57.6892 2384.06
-208.127 -57.0518 2384.06
-208.127 -56.4143 2384.06
-208.127 -55.7769 2384.06
-208.64 -55.36 2393.6
-208.64 -54.72 2393.6
-208.127 -53.8645 2384.06
-208.127 -53.2271 2384.06
-208.127 -52.5896 2384.06
-208.127 -51.9522 2384.06
-208.127 -51.3147 2384.06
-208.127 -50.6773 2384.06
-208.127 -50.0398 2384.06
-208.127 -49.4024 2384.06
-208.127 -48.7649 2384.06
-208.127 -48.1275 2384.06
-208.127 -47.49 2384.06
-208.127 -46.8526 2384.06
-208.127 -46.2151 2384.06
-208.127 -45.5777 2384.06
-208.127 -44.9402 2384.06
-208.127 -44.3028 2384.06
-208.127 -43.6653 2384.06
-208.127 -43.0279 2384.06
-208.127 -42.3904 2384.06
-208.127 -41.753 2384.06
-208.127 -41.1155 2384.06
-208.127 -40.4781 2384.06
-208.127 -39.8406 2384.06
-208.127 -39.2032 2384.06
-208.127 -38.5657 2384.06
-208.127 -37.9283 2384.06
-208.127 -37.2908 2384.06
-208.127 -36.6534 2384.06
-208.127 -36.0159 2384.06
-208.127 -35.3785 2384.06
-219.826 -37.913 2601.74
-219.826 -37.2174 2601.74
-219.826 -36.5217 2601.74
-210.732 -33.4959 2432.52
-210.732 -32.8455 2432.52
-210.732 -32.1951 2432.52
-210.732 -31.5447 2432.52
-210.732 -30.8943 2432.52
-210.732 -30.2439 2432.52
-210.732 -29.5935 2432.52
-219.826 -30.9565 2601.74
-210.732 -28.2927 2432.52
-210.732 -27.6423 2432.52
-219.826 -28.8696 2601.74
-219.826 -28.1739 2601.74
-210.732 -25.6911 2432.52
-210.732 -25.0407 2432.52
-219.826 -26.087 2601.74
-207.619 -23.1746 2374.6
-207.115 -22.4506 2365.22
-207.619 -21.9048 2374.6
-207.619 -21.2698 2374.6
-205.625 -20.3125 2337.5
-205.625 -19.6875 2337.5
-205.136 -18.9883 2328.4
-205.136 -18.3658 2328.4
-205.136 -17.7432 2328.4
-205.136 -17.1206 2328.4
-205.136 -16.4981 2328.4
-205.136 -15.8755 2328.4
-205.136 -15.2529 2328.4
-205.136 -14.6304 2328.4
-204.651 -13.9535 2319.38
-204.651 -13.3333 2319.38
-204.651 -12.7132 2319.38
-204.651 -12.093 2319.38
-204.651 -11.4729 2319.38
-204.17 -10.8108 2310.42
-204.17 -10.1931 2310.42
-204.17 -9.57529 2310.42
-204.17 -8.95753 2310.42
-204.17 -8.33977 2310.42
-204.17 -7.72201 2310.42
-204.17 -7.10425 2310.42
-204.17 -6.48649 2310.42
-204.17 -5.86873 2310.42
-204.17 -5.25097 2310.42
-204.17 -4.6332 2310.42
-204.17 -4.01544 2310.42
-204.17 -3.39768 2310.42
-204.17 -2.77992 2310.42
-204.17 -2.16216 2310.42
-219.826 -1.73913 2601.74
-219.826 -1.04348 2601.74
-204.651 -0.310078 2319.38
-204.651 0.310078 2319.38
-219.826 1.04348 2601.74
-219.826 1.73913 2601.74
-202.748 2.1374 2283.97
-202.748 2.74809 2283.97
-201.358 3.32075 2258.11
-201.358 3.92453 2258.11
-204.17 4.6332 2310.42
-204.17 5.25097 2310.42
-201.818 5.75758 2266.67
-201.818 6.36364 2266.67
-219.826 8 2601.74
-204.17 7.72201 2310.42
-204.17 8.33977 2310.42
-204.17 8.95753 2310.42
-204.17 9.57529 2310.42
-204.17 10.1931 2310.42
-204.17 10.8108 2310.42
-203.692 11.3846 2301.54
-219.826 13.5652 2601.74
-204.17 12.6641 2310.42
-204.17 13.2819 2310.42
-204.17 13.8996 2310.42
-204.17 14.5174 2310.42
-204.17 15.1351 2310.42
-204.17 15.7529 2310.42
-204.17 16.3707 2310.42
-204.17 16.9884 2310.42
-204.17 17.6062 2310.42
-204.17 18.2239 2310.42
-204.17 18.8417 2310.42
-204.17 19.4595 2310.42
-204.17 20.0772 2310.42
-204.17 20.695 2310.42
-204.17 21.3127 2310.42
-204.17 21.9305 2310.42
-204.17 22.5483 2310.42
-204.17 23.166 2310.42
-204.17 23.7838 2310.42
-204.17 24.4015 2310.42
-204.17 25.0193 2310.42
-204.17 25.6371 2310.42
-204.17 26.2548 2310.42
-204.17 26.8726 2310.42
-204.17 27.4903 2310.42
-204.17 28.1081 2310.42
-204.17 28.7259 2310.42
-204.17 29.3436 2310.42
-204.17 29.9614 2310.42
-204.17 30.5792 2310.42
-204.17 31.1969 2310.42
-204.17 31.8147 2310.42
-219.826 36.5217 2601.74
-203.218 32.7969 2292.72
-204.17 33.668 2310.42
-212.346 36.5432 2462.55
-212.346 37.2016 2462.55
-212.346 37.8601 2462.55
-214.561 39.1632 2503.77
-212.893 39.3388 2472.73
-218.026 41.5451 2568.24
-218.026 42.2318 2568.24
-219.221 43.29 2590.48
-219.826 44.1739 2601.74
-219.826 44.8696 2601.74
-215.126 44.0336 2514.29
-214.561 44.5188 2503.77
-214.561 45.1883 2503.77
-216.271 46.4407 2535.59
-212.893 45.9504 2472.73
-219.826 49.0435 2601.74
-219.826 49.7391 2601.74
-217.436 49.5727 2557.26
-219.826 51.1304 2601.74
-219.826 51.8261 2601.74
-219.826 52.5217 2601.74
-211.803 50.1639 2452.46
-219.826 53.913 2601.74
-219.826 54.6087 2601.74
-219.826 55.3043 2601.74
-219.826 56 2601.74
-219.826 56.6957 2601.74
-219.826 57.3913 2601.74
-219.826 58.087 2601.74
-198.235 49.7059 2200
-196.945 49.7455 2176
-196.522 50.1449 2168.12
-196.522 50.7246 2168.12
-196.522 51.3043 2168.12
-196.101 51.6968 2160.29
-196.101 52.2744 2160.29
-196.522 53.0435 2168.12
-196.522 53.6232 2168.12
-196.522 54.2029 2168.12
-196.522 54.7826 2168.12
-196.101 55.1625 2160.29
-196.522 55.942 2168.12
-196.522 56.5217 2168.12
-196.945 57.3091 2176
-196.945 57.8909 2176
-196.522 58.2609 2168.12
-196.522 58.8406 2168.12
-219.826 71.3043 2601.74
-196.101 59.7834 2160.29
