-34.4664 -67.3518 2365.22
-34.2857 -66.9841 2374.6
-34.2857 -66.3492 2374.6
-34.2857 -65.7143 2374.6
-34.2857 -65.0794 2374.6
-47.1795 -46.2678 1704.84
-48.0886 -44.5429 1657.62
-39.5789 -55.8596 2099.65
-34.2857 -62.5397 2374.6
-34.2857 -61.9048 2374.6
-34.2857 -61.2698 2374.6
-34.2857 -60.6349 2374.6
-34.2857 -60 2374.6
-54.6255 -32.9515 1318.06
-32 -61.6667 2493.33
-34.2857 -58.0952 2374.6
-34.2857 -57.4603 2374.6
-34.2857 -56.8254 2374.6
-34.2857 -56.1905 2374.6
-34.2857 -55.5556 2374.6
-54.4 -30.7556 1329.78
-54.4568 -30.3326 1326.83
-54.4 -30.0444 1329.78
-54.4 -29.6889 1329.78
-45.509 -39.521 1791.62
-45.4054 -39.1592 1797
-49.443 -34.1645 1587.27
-45.4054 -38.1982 1797
-34.2857 -49.8413 2374.6
-34.2857 -49.2063 2374.6
-34.2857 -48.5714 2374.6
-34.2857 -47.9365 2374.6
-34.2857 -47.3016 2374.6
-34.2857 -46.6667 2374.6
-34.2857 -46.0317 2374.6
-34.2857 -45.3968 2374.6
-34.2857 -44.7619 2374.6
-34.2857 -44.127 2374.6
-34.2857 -43.4921 2374.6
-34.2857 -42.8571 2374.6
-34.2857 -42.2222 2374.6
-34.2857 -41.5873 2374.6
-34.2857 -40.9524 2374.6
-34.2857 -40.3175 2374.6
-34.2857 -39.6825 2374.6
-34.2857 -39.0476 2374.6
-34.2857 -38.4127 2374.6
-34.2857 -37.7778 2374.6
-34.2857 -37.1429 2374.6
-51.9708 -22.3844 1455.96
-52.7014 -21.4218 1418.01
-29.913 -38.6087 2601.74
-44.5538 -26.8308 1841.23
-43.8871 -26.8339 1875.86
-36.3636 -31.8182 2266.67
-36.3636 -31.2121 2266.67
-36.3636 -30.6061 2266.67
-36.3636 -30 2266.67
-36.3636 -29.3939 2266.67
-36.3636 -28.7879 2266.67
-36.3636 -28.1818 2266.67
-36.3636 -27.5758 2266.67
-36.3636 -26.9697 2266.67
-36.1977 -26.4639 2275.29
-48 -18.8889 1662.22
-36.3636 -25.1515 2266.67
-36.3636 -24.5455 2266.67
-36.3636 -23.9394 2266.67
-36.3636 -23.3333 2266.67
-36.3636 -22.7273 2266.67
-36.1977 -22.2053 2275.29
-36.1977 -21.597 2275.29
-36.1977 -20.9886 2275.29
-36.5283 -20.2264 2258.11
-36.3636 -19.697 2266.67
-29.913 -21.913 2601.74
-29.913 -21.2174 2601.74
-36.3636 -17.8788 2266.67
-36.3636 -17.2727 2266.67
-36.3636 -16.6667 2266.67
-36.3636 -16.0606 2266.67
-36.3636 -15.4545 2266.67
-36.3636 -14.8485 2266.67
-36.3636 -14.2424 2266.67
-47.3654 -10.1983 1695.18
-35.8621 -13.1801 2292.72
-36.5283 -12.3774 2258.11
-36.5283 -11.7736 2258.11
-36.5283 -11.1698 2258.11
-36.5283 -10.566 2258.11
-36.5283 -9.96226 2258.11
-36.5283 -9.35849 2258.11
-36.3636 -8.78788 2266.67
-36.1977 -8.21293 2275.29
-36.3636 -7.57576 2266.67
-36.3636 -6.9697 2266.67
-36.3636 -6.36364 2266.67
-36.3636 -5.75758 2266.67
-36.3636 -5.15152 2266.67
-36.5283 -4.5283 2258.11
-36.5283 -3.92453 2258.11
-35.8621 -3.37165 2292.72
-36.3636 -2.72727 2266.67
-36.3636 -2.12121 2266.67
-36.3636 -1.51515 2266.67
-36.3636 -0.909091 2266.67
-36.3636 -0.30303 2266.67
-36.3636 0.30303 2266.67
-36.5283 0.90566 2258.11
-36.5283 1.50943 2258.11
-36.5283 2.11321 2258.11
-36.5283 2.71698 2258.11
-36.5283 3.32075 2258.11
-36.1977 3.95437 2275.29
-36.5283 4.5283 2258.11
-36.0305 5.19084 2283.97
-36.5283 5.73585 2258.11
-36.5283 6.33962 2258.11
-36.5283 6.9434 2258.11
-36.5283 7.54717 2258.11
-36.5283 8.15094 2258.11
-35.8621 8.88889 2292.72
-37.4908 9.15129 2208.12
-36.1977 10.038 2275.29
-36.5283 10.566 2258.11
-36.5283 11.1698 2258.11
-36.5283 11.7736 2258.11
-36.6917 12.3308 2249.62
-37.3333 12.7407 2216.3
-37.3333 13.3333 2216.3
-36.8539 14.0824 2241.2
-50 10.2083 1558.33
-36.5283 15.3962 2258.11
-36.5283 16 2258.11
-36.5283 16.6038 2258.11
-45.7143 13.5714 1780.95
-36.5283 17.8113 2258.11
-36.5283 18.4151 2258.11
-36.5283 19.0189 2258.11
-38.1091 18.9091 2176
-39.4366 18.8732 2107.04
-39.4366 19.4366 2107.04
-37.4908 20.9594 2208.12
-31.7992 24.4351 2503.77
-31.5966 25.2101 2514.29
-32.3967 25.4545 2472.73
-32 26.3333 2493.33
-31.3924 27.3418 2524.89
-37.3333 24.5926 2216.3
-37.3333 25.1852 2216.3
-48.2645 19.1736 1648.48
-37.6471 26.1765 2200
-37.6471 26.7647 2200
-37.3333 27.5556 2216.3
-37.1747 28.2528 2224.54
-37.1747 28.8476 2224.54
-37.1747 29.4424 2224.54
-37.1747 30.0372 2224.54
-37.1747 30.632 2224.54
-37.1747 31.2268 2224.54
-37.1747 31.8216 2224.54
-37.1747 32.4164 2224.54
-37.3333 32.8889 2216.3
-29.913 39.3043 2601.74
-29.913 40 2601.74
-29.913 40.6957 2601.74
-29.913 41.3913 2601.74
-29.913 42.087 2601.74
-29.913 42.7826 2601.74
-29.913 43.4783 2601.74
-29.913 44.1739 2601.74
-29.913 44.8696 2601.74
-32.5926 43.1276 2462.55
-54.7368 23.3333 1312.28
-49.6042 28.496 1578.89
-49.6042 28.9182 1578.89
-49.6042 29.3404 1578.89
-35.3488 43.7209 2319.38
-35.3488 44.3411 2319.38
-52.6366 27.5534 1421.38
-31.5966 49.4118 2514.29
-48 33.1111 1662.22
-38.1091 43.9273 2176
-38.1091 44.5091 2176
-38.1091 45.0909 2176
-38.1091 45.6727 2176
-38.1091 46.2545 2176
-38.1091 46.8364 2176
-53.9955 29.4357 1350.79
-48.9488 35.5795 1612.94
-45.6119 39.8806 1786.27
-45.6119 40.3582 1786.27
-33.92 54.72 2393.6
-38.2609 50.1449 2168.12
-44 43.75 1870
-52.8302 33.3962 1411.32
-38.2609 51.8841 2168.12
-38.2609 52.4638 2168.12
-29.913 63.6522 2601.74
-38.5611 53.2374 2152.52
-29.913 65.0435 2601.74
-37.4908 55.7934 2208.12
-37.4908 56.3838 2208.12
-37.4908 56.9742 2208.12
-37.8022 57.1429 2191.94
-29.913 68.5217 2601.74
-38.2609 57.6812 2168.12
-38.2609 58.2609 2168.12
-38.2609 58.8406 2168.12
-49.443 43.5013 1587.27
-42.2295 54.2951 1961.97
-42.2295 54.8197 1961.97
-42.2295 55.3443 1961.97
-42.2295 55.8689 1961.97
-42.2295 56.3934 1961.97
-42.2295 56.918 1961.97
-38.5611 63.0216 2152.52
-38.5611 63.5971 2152.52
-38.5611 64.1727 2152.52
-46.0177 53.0973 1765.19
-38.7097 65.0896 2144.8
-38.7097 65.6631 2144.8
-38.7097 66.2366 2144.8
-33.3603 75.4656 2422.67
-33.3603 76.1134 2422.67
-33.5484 76.4516 2412.9
-46.6087 55.4203 1734.49
-46.6087 55.8841 1734.49
-35.5212 75.0579 2310.42
-30.7692 83.7607 2557.26
-38.7097 70.8244 2144.8
-38.7097 71.3979 2144.8
-38.7097 71.9713 2144.8
-38.7097 72.5448 2144.8
-38.7097 73.1183 2144.8
-38.7097 73.6918 2144.8
-38.7097 74.2652 2144.8
-38.7097 74.8387 2144.8
-38.7097 75.4122 2144.8
-46.0177 62.5369 1765.19
-32.7869 87.541 2452.46
-33.3603 87.1255 2422.67
-33.5484 87.4194 2412.9
-37.8022 80 2191.94
-34.2857 87.3016 2374.6
-46.8012 63.8617 1724.5
-39.8606 77.77 2085.02
-40.2759 77.5172 2063.45
-33.3603 91.6599 2422.67
-38.7097 81.7204 2144.8
-38.7097 82.2939 2144.8
-38.7097 82.8674 2144.8
-37.8022 85.2747 2191.94
-38.1091 85.2364 2176
-40.2759 81.3793 2063.45
-38.5611 85.4676 2152.52
-38.7097 85.7348 2144.8
-38.7097 86.3082 2144.8
-38.7097 86.8817 2144.8
-38.7097 87.4552 2144.8
-38.7097 88.0287 2144.8
-38.1091 89.8909 2176
-48.9488 67.062 1612.94
-48.8649 67.6757 1617.3
-31.5966 105.882 2514.29
-47.5493 71.4366 1685.63
-38.8571 91.1429 2137.14
-38.8571 91.7143 2137.14
-38.8571 92.2857 2137.14
-38.8571 92.8571 2137.14
-38.8571 93.4286 2137.14
-37.4908 97.1218 2208.12
-38.8571 94.5714 2137.14
-37.4908 98.3026 2208.12
-38.2609 97.1014 2168.12
-39.4366 94.9296 2107.04
-40.6826 92.5597 2042.32
-39.4366 96.0563 2107.04
-39.8606 95.6098 2085.02
-43.1949 88.1789 1911.82
-42.2295 91.0164 1961.97
-42.2295 91.541 1961.97
-42.1053 92.3684 1968.42
-43.4286 89.6508 1899.68
-41.2121 95.6229 2014.81
-42.8387 92.129 1930.32
-42.5974 93.2467 1942.86
-43.5443 91.3924 1893.67
-30.9787 123.574 2546.38
-38.4116 105.415 2160.29
-38.2609 106.377 2168.12
-36.5283 111.396 2258.11
-29.913 129.043 2601.74
-29.913 129.739 2601.74
-34.56 -120 2393.6
-34.56 -119.36 2393.6
-34.56 -118.72 2393.6
-34.56 -118.08 2393.6
-34.56 -117.44 2393.6
-34.56 -116.8 2393.6
-34.56 -116.16 2393.6
-34.56 -115.52 2393.6
-34.56 -114.88 2393.6
-34.56 -114.24 2393.6
-34.56 -113.6 2393.6
-36.6412 -107.786 2283.97
-45.5758 -85.0909 1813.33
-34.56 -111.68 2393.6
-34.56 -111.04 2393.6
-50.9463 -70.5882 1530.43
-34.56 -109.76 2393.6
-34.56 -109.12 2393.6
-34.56 -108.48 2393.6
-34.3775 -108.273 2403.21
-34.56 -107.2 2393.6
-34.56 -106.56 2393.6
-34.56 -105.92 2393.6
-34.741 -104.861 2384.06
-34.741 -104.223 2384.06
-33.251 -106.996 2462.55
-36.8061 -98.251 2275.29
-36.9697 -97.2727 2266.67
-35.2756 -100.472 2355.91
-34.741 -101.036 2384.06
-34.741 -100.398 2384.06
-31.8644 -106.102 2535.59
-34.741 -99.1235 2384.06
-34.741 -98.4861 2384.06
-34.741 -97.8486 2384.06
-34.741 -97.2112 2384.06
-34.741 -96.5737 2384.06
-34.741 -95.9363 2384.06
-34.741 -95.2988 2384.06
-34.741 -94.6614 2384.06
-34.741 -94.0239 2384.06
-34.741 -93.3865 2384.06
-34.741 -92.749 2384.06
-34.741 -92.1116 2384.06
-41.8792 -77.047 2008.05
-34.741 -90.8367 2384.06
-34.741 -90.1992 2384.06
-34.741 -89.5618 2384.06
-34.741 -88.9243 2384.06
-34.741 -88.2868 2384.06
-34.741 -87.6494 2384.06
-34.741 -87.012 2384.06
-34.741 -86.3745 2384.06
-34.741 -85.7371 2384.06
-34.741 -85.0996 2384.06
-34.741 -84.4622 2384.06
-34.741 -83.8247 2384.06
-34.741 -83.1872 2384.06
-34.741 -82.5498 2384.06
-42.0067 -68.7625 2001.34
-34.741 -81.2749 2384.06
-34.741 -80.6375 2384.06
-34.741 -80 2384.06
-34.741 -79.3625 2384.06
-34.741 -78.7251 2384.06
-34.741 -78.0876 2384.06
-34.741 -77.4502 2384.06
-34.741 -76.8128 2384.06
-34.741 -76.1753 2384.06
-34.741 -75.5378 2384.06
-34.741 -74.9004 2384.06
-34.741 -74.2629 2384.06
-34.741 -73.6255 2384.06
-30.6087 -79.6522 2601.74
-34.9206 -72.0635 2374.6
-34.9206 -71.4286 2374.6
-34.741 -71.0757 2384.06
-34.741 -70.4382 2384.06
-34.741 -69.8008 2384.06
-34.9206 -68.8889 2374.6
-34.9206 -68.254 2374.6
-34.9206 -67.619 2374.6
-34.9206 -66.9841 2374.6
-34.9206 -66.3492 2374.6
-34.9206 -65.7143 2374.6
-34.9206 -65.0794 2374.6
-34.9206 -64.4444 2374.6
-34.9206 -63.8095 2374.6
-54.4719 -35.7753 1344.72
-54.4719 -35.4157 1344.72
-34.9206 -61.9048 2374.6
-34.9206 -61.2698 2374.6
-34.9206 -60.6349 2374.6
-34.9206 -60 2374.6
-34.9206 -59.3651 2374.6
-34.9206 -58.7302 2374.6
-34.9206 -58.0952 2374.6
-34.9206 -57.4603 2374.6
-34.9206 -56.8254 2374.6
-34.9206 -56.1905 2374.6
-34.9206 -55.5556 2374.6
-34.9206 -54.9206 2374.6
-35.0988 -54.0711 2365.22
-50.0264 -35.6728 1578.89
-50.0264 -35.2507 1578.89
-46.4897 -38.9381 1765.19
-46.4897 -38.4661 1765.19
-50.8718 -33.0256 1534.36
-45.8859 -38.1982 1797
-44.7205 -39.0062 1858.39
-34.9206 -49.2063 2374.6
-34.9206 -48.5714 2374.6
-34.9206 -47.9365 2374.6
-34.9206 -47.3016 2374.6
-34.9206 -46.6667 2374.6
-34.9206 -46.0317 2374.6
-34.9206 -45.3968 2374.6
-34.9206 -44.7619 2374.6
-34.9206 -44.127 2374.6
-34.9206 -43.4921 2374.6
-34.9206 -42.8571 2374.6
-34.9206 -42.2222 2374.6
-34.9206 -41.5873 2374.6
-34.9206 -40.9524 2374.6
-34.9206 -40.3175 2374.6
-34.9206 -39.6825 2374.6
-34.9206 -39.0476 2374.6
-34.9206 -38.4127 2374.6
-35.0988 -37.6285 2365.22
-51.7413 -23.2836 1488.56
-53.8851 -21.1494 1375.63
-36.9697 -34.2424 2266.67
-36.9697 -33.6364 2266.67
-36.9697 -33.0303 2266.67
-36.9697 -32.4242 2266.67
-36.9697 -31.8182 2266.67
-36.9697 -31.2121 2266.67
-36.9697 -30.6061 2266.67
-36.9697 -30 2266.67
-36.9697 -29.3939 2266.67
-36.9697 -28.7879 2266.67
-36.9697 -28.1818 2266.67
-36.9697 -27.5758 2266.67
-36.9697 -26.9697 2266.67
-36.9697 -26.3636 2266.67
-36.8061 -25.8555 2275.29
-36.9697 -25.1515 2266.67
-36.9697 -24.5455 2266.67
-36.9697 -23.9394 2266.67
-41.0959 -21.0959 2049.32
-36.9697 -22.7273 2266.67
-36.9697 -22.1212 2266.67
-36.9697 -21.5152 2266.67
-36.9697 -20.9091 2266.67
-37.1321 -20.2264 2258.11
-37.1321 -19.6226 2258.11
-30.6087 -21.913 2601.74
-30.6087 -21.2174 2601.74
-30.6087 -20.5217 2601.74
-30.6087 -19.8261 2601.74
-30.6087 -19.1304 2601.74
-37.1321 -16 2258.11
-37.1321 -15.3962 2258.11
-37.1321 -14.7925 2258.11
-37.1321 -14.1887 2258.11
-47.9096 -10.1695 1690.4
-36.9697 -13.0303 2266.67
-36.9697 -12.4242 2266.67
-37.1321 -11.7736 2258.11
-37.1321 -11.1698 2258.11
-37.1321 -10.566 2258.11
-37.1321 -9.96226 2258.11
-37.1321 -9.35849 2258.11
-37.1321 -8.75472 2258.11
-37.1321 -8.15094 2258.11
-36.9697 -7.57576 2266.67
-36.9697 -6.9697 2266.67
-36.9697 -6.36364 2266.67
-36.9697 -5.75758 2266.67
-36.9697 -5.15152 2266.67
-37.1321 -4.5283 2258.11
-37.1321 -3.92453 2258.11
-36.4751 -3.37165 2292.72
-37.1321 -2.71698 2258.11
-36.9697 -2.12121 2266.67
-36.9697 -1.51515 2266.67
-36.9697 -0.909091 2266.67
-36.9697 -0.30303 2266.67
-36.9697 0.30303 2266.67
-37.1321 0.90566 2258.11
-37.7695 1.48699 2224.54
-35.451 2.19608 2346.67
-37.1321 2.71698 2258.11
-36.9697 3.33333 2266.67
-36.6412 3.96947 2283.97
-37.1321 4.5283 2258.11
-37.1321 5.13208 2258.11
-37.1321 5.73585 2258.11
-37.1321 6.33962 2258.11
-37.1321 6.9434 2258.11
-37.1321 7.54717 2258.11
-37.1321 8.15094 2258.11
-36.9697 8.78788 2266.67
-38.0812 9.15129 2208.12
-38.2353 9.70588 2200
-37.1321 10.566 2258.11
-37.1321 11.1698 2258.11
-37.1321 11.7736 2258.11
-37.6119 12.2388 2232.84
-37.9259 12.7407 2216.3
-37.9259 13.3333 2216.3
-37.9259 13.9259 2216.3
-37.1321 14.7925 2258.11
-37.1321 15.3962 2258.11
-46.3905 12.5444 1770.41
-37.1321 16.6038 2258.11
-37.1321 17.2075 2258.11
-37.2932 17.7444 2249.62
-37.2932 18.3459 2249.62
-37.2932 18.9474 2249.62
-40.2797 18.1818 2092.31
-40.2797 18.7413 2092.31
-37.6119 20.597 2232.84
-37.9259 21.037 2216.3
-32.6667 24.3333 2493.33
-32.4686 25.1046 2503.77
-33.0578 25.4545 2472.73
-37.9259 23.4074 2216.3
-37.9259 24 2216.3
-37.9259 24.5926 2216.3
-37.9259 25.1852 2216.3
-49.9471 18.4127 1583.07
-37.9259 26.3704 2216.3
-37.9259 26.963 2216.3
-37.7695 27.658 2224.54
-37.7695 28.2528 2224.54
-37.9259 28.7407 2216.3
-37.9259 29.3333 2216.3
-37.9259 29.9259 2216.3
-37.7695 30.632 2224.54
-37.7695 31.2268 2224.54
-37.9259 31.7037 2216.3
-37.9259 32.2963 2216.3
-30.6087 38.6087 2601.74
-30.6087 39.3043 2601.74
-30.6087 40 2601.74
-30.6087 40.6957 2601.74
-30.6087 41.3913 2601.74
-30.6087 42.087 2601.74
-38.0812 36.31 2208.12
-50.3394 26.1097 1562.4
-54.978 22.3789 1318.06
-52.9524 24.5714 1424.76
-32.0675 44.2194 2524.89
-32.8631 44.1494 2482.99
-32.6667 45 2493.33
-50.1053 28.8421 1574.74
-50.0264 29.3404 1578.89
-31.2446 48.412 2568.24
-33.0578 47.2727 2472.73
-50.7969 29.8201 1538.3
-38.6909 42.7636 2176
-38.6909 43.3455 2176
-50.1053 31.7895 1574.74
-50.1053 32.2105 1574.74
-54.3567 27.991 1350.79
-30.6087 54.6087 2601.74
-38.6909 46.2545 2176
-45.3659 39.2683 1824.39
-49.9471 34.4974 1583.07
-42.1333 44 1994.67
-42.1333 44.5333 1994.67
-38.8406 48.9855 2168.12
-38.8406 49.5652 2168.12
-38.8406 50.1449 2168.12
-38.8406 50.7246 2168.12
-53.2075 33.3962 1411.32
-38.8406 51.8841 2168.12
-38.8406 52.4638 2168.12
-38.8406 53.0435 2168.12
-38.8406 53.6232 2168.12
-38.8406 54.2029 2168.12
-38.0812 55.7934 2208.12
-38.0812 56.3838 2208.12
-38.0812 56.9742 2208.12
-38.2353 57.3529 2200
-38.6909 57.3091 2176
-38.6909 57.8909 2176
-38.8406 58.2609 2168.12
-38.8406 58.8406 2168.12
-38.8406 59.4203 2168.12
-38.8406 60 2168.12
-38.8406 60.5797 2168.12
-44.7205 52.4224 1858.39
-42.7541 55.8689 1961.97
-42.7541 56.3934 1961.97
-35.451 68.0784 2346.67
-30.6087 76.1739 2601.74
-30.6087 76.8696 2601.74
-33.4426 73.1148 2452.46
-32.8631 74.6888 2482.99
-32.8631 75.3527 2482.99
-32.8631 76.0166 2482.99
-32.8631 76.6805 2482.99
-32.8631 77.3444 2482.99
-46.5882 55.2941 1760
-46.7836 55.4386 1749.71
-32.0675 80.6751 2524.89
-39.2832 69.1039 2144.8
-47.0725 56.3478 1734.49
-36.6412 74.8092 2283.97
-39.2832 70.8244 2144.8
-39.2832 71.3979 2144.8
-39.2832 71.9713 2144.8
-39.2832 72.5448 2144.8
-30.6087 88.6957 2601.74
-39.2832 73.6918 2144.8
-39.2832 74.2652 2144.8
-39.2832 74.8387 2144.8
-39.2832 75.4122 2144.8
-39.2832 75.9857 2144.8
-33.6327 87.1837 2442.45
-33.6327 87.8367 2442.45
-34.0081 87.7733 2422.67
-34.9206 86.6667 2374.6
-34.9206 87.3016 2374.6
-34.9206 87.9365 2374.6
-34.741 88.9243 2384.06
-34.741 89.5618 2384.06
-34.0081 91.6599 2422.67
-39.2832 81.7204 2144.8
-39.2832 82.2939 2144.8
-38.5401 84.3796 2183.94
-38.5401 84.9635 2183.94
-39.2832 84.0143 2144.8
-38.6909 85.8182 2176
-39.1367 85.4676 2152.52
-39.2832 85.7348 2144.8
-48.8767 65.9726 1639.45
-40.8276 83.5862 2063.45
-39.2832 87.4552 2144.8
-36.8061 93.384 2275.29
-48.7052 68.0992 1648.48
-50.2618 65.1309 1566.49
-49.2973 67.6757 1617.3
-49.2973 68.1081 1617.3
-32.6667 105.667 2493.33
-39.2832 91.4695 2144.8
-39.2832 92.043 2144.8
-39.2832 92.6165 2144.8
-43.8217 82.8026 1905.73
-39.4286 93.4286 2137.14
-38.2353 96.7647 2200
-38.0812 97.7122 2208.12
-38.0812 98.3026 2208.12
-38.8406 97.1014 2168.12
-40.1404 94.5965 2099.65
-41.2287 92.5597 2042.32
-41.2287 93.1058 2042.32
-38.9892 99.0614 2160.29
-44.164 87.0662 1887.7
-43.1169 90.1299 1942.86
-42.5083 92.1452 1974.92
-42.5083 92.6733 1974.92
-43.5897 90.5128 1917.95
-41.6216 95.9459 2021.62
-43.7061 91.246 1911.82
-43.1169 93.2467 1942.86
-43.1169 93.7662 1942.86
-31.6596 123.574 2546.38
-31.6596 124.255 2546.38
-40.2797 102.657 2092.31
-40.2797 103.217 2092.31
-30.6087 129.043 2601.74
-30.6087 129.739 2601.74
-35.2 -120 2393.6
-35.2 -119.36 2393.6
-35.2 -118.72 2393.6
-35.2 -118.08 2393.6
-35.2 -117.44 2393.6
-35.2 -116.8 2393.6
-35.2 -116.16 2393.6
-35.2 -115.52 2393.6
-35.2 -114.88 2393.6
-35.2 -114.24 2393.6
-36.0784 -111.373 2346.67
-53.8928 -65.8275 1394.87
-46.0606 -85.0909 1813.33
-35.2 -111.68 2393.6
-35.2 -111.04 2393.6
-53.3333 -65.7143 1424.76
-35.2 -109.76 2393.6
-35.2 -109.12 2393.6
-35.0201 -108.916 2403.21
-35.2 -107.84 2393.6
-35.2 -107.2 2393.6
-35.2 -106.56 2393.6
-34.8387 -106.774 2412.9
-35.3785 -104.861 2384.06
-35.3785 -104.223 2384.06
-37.4144 -98.8593 2275.29
-44.2173 -82.5559 1911.82
-35.2 -102.72 2393.6
-43.0363 -84.2244 1974.92
-35.3785 -101.036 2384.06
-35.3785 -100.398 2384.06
-35.3785 -99.761 2384.06
-35.3785 -99.1235 2384.06
-35.3785 -98.4861 2384.06
-35.3785 -97.8486 2384.06
-35.3785 -97.2112 2384.06
-35.3785 -96.5737 2384.06
-35.3785 -95.9363 2384.06
-35.3785 -95.2988 2384.06
-35.3785 -94.6614 2384.06
-35.3785 -94.0239 2384.06
-35.3785 -93.3865 2384.06
-35.3785 -92.749 2384.06
-35.3785 -92.1116 2384.06
-35.3785 -91.4741 2384.06
-35.3785 -90.8367 2384.06
-35.3785 -90.1992 2384.06
-35.3785 -89.5618 2384.06
-35.3785 -88.9243 2384.06
-35.3785 -88.2868 2384.06
-35.3785 -87.6494 2384.06
-35.3785 -87.012 2384.06
-35.3785 -86.3745 2384.06
-35.3785 -85.7371 2384.06
-35.3785 -85.0996 2384.06
-35.3785 -84.4622 2384.06
-35.3785 -83.8247 2384.06
-35.3785 -83.1872 2384.06
-35.3785 -82.5498 2384.06
-35.3785 -81.9124 2384.06
-35.3785 -81.2749 2384.06
-35.3785 -80.6375 2384.06
-35.3785 -80 2384.06
-35.3785 -79.3625 2384.06
-35.3785 -78.7251 2384.06
-35.3785 -78.0876 2384.06
-35.3785 -77.4502 2384.06
-35.3785 -76.8128 2384.06
-35.3785 -76.1753 2384.06
-35.3785 -75.5378 2384.06
-35.3785 -74.9004 2384.06
-35.3785 -74.2629 2384.06
-35.3785 -73.6255 2384.06
-35.5556 -72.6984 2374.6
-35.5556 -72.0635 2374.6
-35.5556 -71.4286 2374.6
-35.3785 -71.0757 2384.06
-35.3785 -70.4382 2384.06
-35.3785 -69.8008 2384.06
-36.9231 -66.7692 2301.54
-35.5556 -68.254 2374.6
-35.3785 -67.8884 2384.06
-35.3785 -67.251 2384.06
-35.3785 -66.6135 2384.06
-35.5556 -65.7143 2374.6
-35.5556 -65.0794 2374.6
-35.5556 -64.4444 2374.6
-35.5556 -63.8095 2374.6
-54.8315 -35.7753 1344.72
-35.9055 -62.0472 2355.91
-35.5556 -61.9048 2374.6
-49.3151 -42.3014 1639.45
-35.5556 -60.6349 2374.6
-35.5556 -60 2374.6
-35.5556 -59.3651 2374.6
-35.5556 -58.7302 2374.6
-35.5556 -58.0952 2374.6
-35.5556 -57.4603 2374.6
-35.5556 -56.8254 2374.6
-35.5556 -56.1905 2374.6
-35.5556 -55.5556 2374.6
-35.5556 -54.9206 2374.6
-35.5556 -54.2857 2374.6
-35.5556 -53.6508 2374.6
-54.9441 -29.8881 1338.7
-50.0535 -35.2941 1600
-46.9617 -38.4661 1765.19
-46.2651 -38.7952 1802.41
-46.3664 -38.1982 1797
-31.3043 -54.6087 2601.74
-35.5556 -49.2063 2374.6
-35.5556 -48.5714 2374.6
-35.5556 -47.9365 2374.6
-35.5556 -47.3016 2374.6
-35.5556 -46.6667 2374.6
-35.5556 -46.0317 2374.6
-35.5556 -45.3968 2374.6
-35.5556 -44.7619 2374.6
-35.5556 -44.127 2374.6
-35.5556 -43.4921 2374.6
-35.5556 -42.8571 2374.6
-35.5556 -42.2222 2374.6
-35.5556 -41.5873 2374.6
-35.5556 -40.9524 2374.6
-35.5556 -40.3175 2374.6
-51.7172 -25.2525 1511.11
-51.7172 -24.8485 1511.11
-52.8155 -23.4951 1452.43
-31.3043 -41.3913 2601.74
-44.8903 -29.3417 1875.86
-44.8903 -28.8401 1875.86
-44.8903 -28.3386 1875.86
-37.5758 -33.6364 2266.67
-37.5758 -33.0303 2266.67
-37.5758 -32.4242 2266.67
-37.5758 -31.8182 2266.67
-49.0608 -22.7624 1653.04
-49.0608 -22.3204 1653.04
-37.5758 -30 2266.67
-37.5758 -29.3939 2266.67
-37.5758 -28.7879 2266.67
-37.5758 -28.1818 2266.67
-37.5758 -27.5758 2266.67
-37.5758 -26.9697 2266.67
-37.5758 -26.3636 2266.67
-37.5758 -25.7576 2266.67
-37.5758 -25.1515 2266.67
-37.5758 -24.5455 2266.67
-37.5758 -23.9394 2266.67
-37.7358 -23.2453 2258.11
-37.7358 -22.6415 2258.11
-37.7358 -22.0377 2258.11
-37.5758 -21.5152 2266.67
-37.5758 -20.9091 2266.67
-31.3043 -23.3043 2601.74
-37.7358 -19.6226 2258.11
-31.3043 -21.913 2601.74
-31.3043 -21.2174 2601.74
-31.3043 -20.5217 2601.74
-37.7358 -17.2075 2258.11
-37.7358 -16.6038 2258.11
-37.7358 -16 2258.11
-37.7358 -15.3962 2258.11
-37.7358 -14.7925 2258.11
-37.7358 -14.1887 2258.11
-48.7151 -10.0559 1671.51
-37.5758 -13.0303 2266.67
-37.5758 -12.4242 2266.67
-37.5758 -11.8182 2266.67
-37.7358 -11.1698 2258.11
-37.7358 -10.566 2258.11
-37.7358 -9.96226 2258.11
-45.5385 -7.63077 1841.23
-37.7358 -8.75472 2258.11
-37.7358 -8.15094 2258.11
-37.7358 -7.54717 2258.11
-37.7358 -6.9434 2258.11
-37.7358 -6.33962 2258.11
-37.7358 -5.73585 2258.11
-37.5758 -5.15152 2266.67
-37.5758 -4.54545 2266.67
-37.7358 -3.92453 2258.11
-37.2519 -3.35878 2283.97
-37.7358 -2.71698 2258.11
-37.5758 -2.12121 2266.67
-37.5758 -1.51515 2266.67
-37.5758 -0.909091 2266.67
-37.7358 -0.301887 2258.11
-37.7358 0.301887 2258.11
-37.7358 0.90566 2258.11
-38.3643 1.48699 2224.54
-38.3643 2.08178 2224.54
-37.7358 2.71698 2258.11
-37.5758 3.33333 2266.67
-37.5758 3.93939 2266.67
-37.7358 4.5283 2258.11
-37.7358 5.13208 2258.11
-37.7358 5.73585 2258.11
-37.7358 6.33962 2258.11
-37.7358 6.9434 2258.11
-37.7358 7.54717 2258.11
-37.7358 8.15094 2258.11
-37.5758 8.78788 2266.67
-38.6716 9.15129 2208.12
-37.7358 9.96226 2258.11
-52.1393 6.96517 1488.56
-48.7151 8.26816 1671.51
-38.3643 11.5985 2224.54
-38.3643 12.1933 2224.54
-37.5758 13.0303 2266.67
-37.5758 13.6364 2266.67
-38.5185 13.9259 2216.3
-38.209 14.6269 2232.84
-46.6667 12.1429 1780.95
-38.0524 15.8801 2241.2
-46.8639 13.0178 1770.41
-38.0524 17.0787 2241.2
-38.0524 17.6779 2241.2
-38.0524 18.2772 2241.2
-49.146 13.8843 1648.48
-40.7018 18.2456 2099.65
-40.8392 18.7413 2092.31
-38.6716 20.369 2208.12
-38.5185 21.037 2216.3
-33.527 24.2324 2482.99
-38.5185 22.2222 2216.3
-38.5185 22.8148 2216.3
-38.5185 23.4074 2216.3
-38.5185 24 2216.3
-38.5185 24.5926 2216.3
-38.5185 25.1852 2216.3
-38.209 25.9701 2232.84
-38.3643 26.4684 2224.54
-38.3643 27.0632 2224.54
-38.3643 27.658 2224.54
-38.209 28.3582 2232.84
-38.5185 28.7407 2216.3
-38.5185 29.3333 2216.3
-38.3643 30.0372 2224.54
-38.3643 30.632 2224.54
-53.5849 19.8113 1411.32
-31.3043 37.2174 2601.74
-31.3043 37.913 2601.74
-31.3043 38.6087 2601.74
-31.3043 39.3043 2601.74
-31.3043 40 2601.74
-31.3043 40.6957 2601.74
-31.3043 41.3913 2601.74
-31.3043 42.087 2601.74
-50.8333 25.625 1558.33
-50.8333 26.0417 1558.33
-50.8333 26.4583 1558.33
-50.8333 26.875 1558.33
-50.8333 27.2917 1558.33
-55.3304 23.4361 1318.06
-50.7572 28.1984 1562.4
-37.0881 41.9923 2292.72
-32.3404 47.3191 2546.38
-32.3404 48 2546.38
-51.5736 29.0355 1518.78
-39.2727 42.1818 2176
-39.2727 42.7636 2176
-39.2727 43.3455 2176
-39.4203 43.7681 2168.12
-34.4715 49.7561 2432.52
-34.4715 50.4065 2432.52
-55.4923 27.4836 1309.41
-39.2727 46.2545 2176
-39.4203 46.6667 2168.12
-31.7241 56.2069 2579.31
-39.8566 47.3118 2144.8
-39.8566 47.8853 2144.8
-39.8566 48.4588 2144.8
-39.2727 49.7455 2176
-39.2727 50.3273 2176
-39.4203 50.7246 2168.12
-39.4203 51.3043 2168.12
-39.4203 51.8841 2168.12
-39.4203 52.4638 2168.12
-39.4203 53.0435 2168.12
-39.4203 53.6232 2168.12
-39.4203 54.2029 2168.12
-31.3043 65.7391 2601.74
-33.3333 63.6667 2493.33
-33.3333 64.3333 2493.33
-38.8235 57.3529 2200
-38.9744 57.7289 2191.94
-39.2727 57.8909 2176
-39.4203 58.2609 2168.12
-39.4203 58.8406 2168.12
-39.4203 59.4203 2168.12
-39.4203 60 2168.12
-39.4203 60.5797 2168.12
-39.4203 61.1594 2168.12
-39.4203 61.7391 2168.12
-39.4203 62.3188 2168.12
-39.4203 62.8986 2168.12
-47.9083 50.2006 1714.61
-47.9083 50.659 1714.61
-34.0984 73.1148 2452.46
-33.1381 75.3138 2503.77
-33.3333 75.6667 2493.33
-33.3333 76.3333 2493.33
-33.527 76.6805 2482.99
-33.527 77.3444 2482.99
-47.0588 55.2941 1760
-34.2857 77.3878 2442.45
-47.6301 55.2601 1729.48
-47.6301 55.7225 1729.48
-47.5362 56.3478 1734.49
-47.6301 56.6474 1729.48
-37.2519 75.4198 2283.97
-39.8566 71.3979 2144.8
-39.8566 71.9713 2144.8
-39.7122 72.8058 2152.52
-33.719 84.2975 2472.73
-39.8566 73.6918 2144.8
-39.8566 74.2652 2144.8
-39.8566 74.8387 2144.8
-39.8566 75.4122 2144.8
-47.6301 61.2717 1729.48
-47.5362 61.913 1734.49
-39.2727 78.2545 2176
-34.4715 88.1301 2432.52
-35.5556 86.6667 2374.6
-35.5556 87.3016 2374.6
-35.5556 87.9365 2374.6
-35.3785 88.9243 2384.06
-35.3785 89.5618 2384.06
-35.3785 90.1992 2384.06
-39.8566 81.7204 2144.8
-39.8566 82.2939 2144.8
-35.7312 91.3834 2365.22
-35.7312 92.0158 2365.22
-39.2727 85.2364 2176
-39.2727 85.8182 2176
-39.7122 85.4676 2152.52
-34.2857 97.6327 2442.45
-34.2857 98.2857 2442.45
-39.8566 86.8817 2144.8
-39.8566 87.4552 2144.8
-39.8566 88.0287 2144.8
-39.8566 88.6021 2144.8
-50.6037 65.3018 1570.6
-42.9139 82.9139 1981.46
-50.5263 66.3158 1574.74
-39.8566 90.8961 2144.8
-39.8566 91.4695 2144.8
-39.8566 92.043 2144.8
-39.8566 92.6165 2144.8
-44.3312 82.8026 1905.73
-39.4203 94.7826 2168.12
-38.8235 96.7647 2200
-38.8235 97.3529 2200
-39.1241 97.2263 2183.94
-39.7122 96.4029 2152.52
-40 96.2857 2137.14
-42.1622 91.6216 2021.62
-39.5668 98.4838 2160.29
-40.8392 95.9441 2092.31
-44.1026 88.4615 1917.95
-40.1423 98.79 2129.54
-42.6667 93.0667 1994.67
-42.2896 94.5455 2014.81
-42.1622 95.4054 2021.62
-44.1026 91.0256 1917.95
-43.6364 92.7273 1942.86
-43.6364 93.2467 1942.86
-43.6364 93.7662 1942.86
-41.9048 98.7755 2035.37
-41.512 100.344 2056.36
-41.2457 101.592 2070.59
-40.9756 102.857 2085.02
-31.3043 129.043 2601.74
-31.3043 129.739 2601.74
-35.84 -120 2393.6
-35.84 -119.36 2393.6
-35.84 -118.72 2393.6
-35.84 -118.08 2393.6
-35.84 -117.44 2393.6
-35.84 -116.8 2393.6
-35.84 -116.16 2393.6
-35.84 -115.52 2393.6
-36.3636 -113.518 2365.22
-36.7059 -112 2346.67
-36.1905 -112.698 2374.6
-46.5455 -85.5758 1813.33
-35.84 -112.32 2393.6
-35.84 -111.68 2393.6
-35.84 -111.04 2393.6
-35.84 -110.4 2393.6
-35.84 -109.76 2393.6
-35.84 -109.12 2393.6
-35.84 -108.48 2393.6
-35.84 -107.84 2393.6
-35.84 -107.2 2393.6
-35.84 -106.56 2393.6
-35.84 -105.92 2393.6
-36.0159 -104.861 2384.06
-36.0159 -104.223 2384.06
-42.5763 -88.1356 2028.47
-40.5714 -92.2857 2137.14
-46.747 -77.3494 1802.41
-43.5644 -84.2244 1974.92
-36.0159 -101.036 2384.06
-36.0159 -100.398 2384.06
-36.0159 -99.761 2384.06
-36.0159 -99.1235 2384.06
-36.0159 -98.4861 2384.06
-36.0159 -97.8486 2384.06
-36.0159 -97.2112 2384.06
-36.0159 -96.5737 2384.06
-36.0159 -95.9363 2384.06
-36.0159 -95.2988 2384.06
-36.0159 -94.6614 2384.06
-36.0159 -94.0239 2384.06
-36.0159 -93.3865 2384.06
-36.0159 -92.749 2384.06
-43.0769 -77.3244 2001.34
-36.0159 -91.4741 2384.06
-36.0159 -90.8367 2384.06
-36.0159 -90.1992 2384.06
-36.0159 -89.5618 2384.06
-36.0159 -88.9243 2384.06
-36.0159 -88.2868 2384.06
-36.0159 -87.6494 2384.06
-36.0159 -87.012 2384.06
-36.0159 -86.3745 2384.06
-36.0159 -85.7371 2384.06
-36.0159 -85.0996 2384.06
-36.0159 -84.4622 2384.06
-36.0159 -83.8247 2384.06
-36.0159 -83.1872 2384.06
-36.0159 -82.5498 2384.06
-36.0159 -81.9124 2384.06
-36.0159 -81.2749 2384.06
-36.0159 -80.6375 2384.06
-36.0159 -80 2384.06
-36.0159 -79.3625 2384.06
-36.0159 -78.7251 2384.06
-36.0159 -78.0876 2384.06
-36.7059 -76.2353 2346.67
-36.0159 -76.8128 2384.06
-36.0159 -76.1753 2384.06
-36.0159 -75.5378 2384.06
-36.0159 -74.9004 2384.06
-36.0159 -74.2629 2384.06
-36.7059 -72.4706 2346.67
-48.6364 -52.0455 1700
-50 -49.3478 1626.09
-50.7937 -47.619 1583.07
-36.0159 -71.0757 2384.06
-36.0159 -70.4382 2384.06
-36.0159 -69.8008 2384.06
-36.0159 -69.1633 2384.06
-36.0159 -68.5259 2384.06
-36.0159 -67.8884 2384.06
-36.0159 -67.251 2384.06
-36.0159 -66.6135 2384.06
-36.1905 -65.7143 2374.6
-36.0159 -65.3386 2384.06
-36.1905 -64.4444 2374.6
-36.1905 -63.8095 2374.6
-50.4813 -42.5668 1600
-36.5354 -62.0472 2355.91
-36.1905 -61.9048 2374.6
-36.1905 -61.2698 2374.6
-36.1905 -60.6349 2374.6
-36.1905 -60 2374.6
-36.1905 -59.3651 2374.6
-36.1905 -58.7302 2374.6
-36.1905 -58.0952 2374.6
-36.1905 -57.4603 2374.6
-36.1905 -56.8254 2374.6
-36.1905 -56.1905 2374.6
-36.1905 -55.5556 2374.6
-36.1905 -54.9206 2374.6
-36.1905 -54.2857 2374.6
-36.1905 -53.6508 2374.6
-51.1749 -34.8825 1562.4
-46.6465 -39.8792 1807.85
-36.7059 -51.1373 2346.67
-36.7059 -50.5098 2346.67
-36.1905 -50.4762 2374.6
-36.1905 -49.8413 2374.6
-36.1905 -49.2063 2374.6
-36.1905 -48.5714 2374.6
-36.1905 -47.9365 2374.6
-36.1905 -47.3016 2374.6
-36.1905 -46.6667 2374.6
-36.1905 -46.0317 2374.6
-36.1905 -45.3968 2374.6
-36.1905 -44.7619 2374.6
-36.1905 -44.127 2374.6
-32 -47.6522 2601.74
-32 -46.9565 2601.74
-32 -46.2609 2601.74
-36.1905 -41.5873 2374.6
-36.1905 -40.9524 2374.6
-47.5294 -29.8824 1760
-46.5455 -30.303 1813.33
-49.162 -27.486 1671.51
-44.9524 -30.7302 1899.68
-45.3918 -29.8433 1875.86
-38.1818 -35.4545 2266.67
-38.1818 -34.8485 2266.67
-49.5868 -24.9036 1648.48
-49.5028 -24.5304 1653.04
-38.1818 -33.0303 2266.67
-49.5028 -23.6464 1653.04
-49.5028 -23.2044 1653.04
-49.5028 -22.7624 1653.04
-49.5028 -22.3204 1653.04
-35.122 -32.1951 2432.52
-35.122 -31.5447 2432.52
-38.3396 -28.6792 2258.11
-38.3396 -28.0755 2258.11
-38.3396 -27.4717 2258.11
-38.3396 -26.8679 2258.11
-38.3396 -26.2642 2258.11
-38.3396 -25.6604 2258.11
-38.3396 -25.0566 2258.11
-38.3396 -24.4528 2258.11
-38.3396 -23.8491 2258.11
-38.3396 -23.2453 2258.11
-38.4962 -22.5564 2249.62
-38.4962 -21.9549 2249.62
-38.3396 -21.434 2258.11
-38.3396 -20.8302 2258.11
-38.3396 -20.2264 2258.11
-38.3396 -19.6226 2258.11
-38.3396 -19.0189 2258.11
-32 -21.2174 2601.74
-38.3396 -17.8113 2258.11
-38.3396 -17.2075 2258.11
-38.3396 -16.6038 2258.11
-38.3396 -16 2258.11
-38.3396 -15.3962 2258.11
-38.3396 -14.7925 2258.11
-49.3333 -10.4444 1662.22
-49.162 -10.0559 1671.51
-38.3396 -12.9811 2258.11
-38.3396 -12.3774 2258.11
-38.3396 -11.7736 2258.11
-38.3396 -11.1698 2258.11
-38.3396 -10.566 2258.11
-38.3396 -9.96226 2258.11
-38.3396 -9.35849 2258.11
-38.3396 -8.75472 2258.11
-38.3396 -8.15094 2258.11
-38.3396 -7.54717 2258.11
-38.3396 -6.9434 2258.11
-38.3396 -6.33962 2258.11
-38.3396 -5.73585 2258.11
-38.3396 -5.13208 2258.11
-38.3396 -4.5283 2258.11
-38.3396 -3.92453 2258.11
-38.3396 -3.32075 2258.11
-38.3396 -2.71698 2258.11
-38.3396 -2.11321 2258.11
-38.3396 -1.50943 2258.11
-48.547 -0.683761 1704.84
-38.3396 -0.301887 2258.11
-38.3396 0.301887 2258.11
-38.3396 0.90566 2258.11
-38.3396 1.50943 2258.11
-38.3396 2.11321 2258.11
-38.3396 2.71698 2258.11
-38.1818 3.33333 2266.67
-38.1818 3.93939 2266.67
-38.3396 4.5283 2258.11
-38.3396 5.13208 2258.11
-38.3396 5.73585 2258.11
-38.3396 6.33962 2258.11
-38.3396 6.9434 2258.11
-38.3396 7.54717 2258.11
-39.262 7.97048 2208.12
-38.1818 8.78788 2266.67
-38.3396 9.35849 2258.11
-38.3396 9.96226 2258.11
-38.3396 10.566 2258.11
-38.3396 11.1698 2258.11
-38.3396 11.7736 2258.11
-38.3396 12.3774 2258.11
-38.1818 13.0303 2266.67
-38.1818 13.6364 2266.67
-39.1111 13.9259 2216.3
-51.0236 10.2887 1570.6
-38.6517 15.2809 2241.2
-47.5294 12.4706 1760
-47.5294 12.9412 1760
-38.806 17.0149 2232.84
-38.806 17.6119 2232.84
-38.806 18.209 2232.84
-49.6703 13.8462 1643.96
-40.1444 18.7726 2160.29
-41.3986 18.7413 2092.31
-41.3986 19.3007 2092.31
-39.1111 21.037 2216.3
-39.1111 21.6296 2216.3
-39.1111 22.2222 2216.3
-39.1111 22.8148 2216.3
-39.1111 23.4074 2216.3
-39.1111 24 2216.3
-39.1111 24.5926 2216.3
-38.9591 25.2788 2224.54
-38.9591 25.8736 2224.54
-38.9591 26.4684 2224.54
-38.9591 27.0632 2224.54
-39.1111 27.5556 2216.3
-39.1111 28.1481 2216.3
-39.1111 28.7407 2216.3
-39.1111 29.3333 2216.3
-39.1111 29.9259 2216.3
-39.1111 30.5185 2216.3
-53.9007 19.8582 1414.66
-32 37.2174 2601.74
-32 37.913 2601.74
-32 38.6087 2601.74
-51.0995 23.6649 1566.49
-53.9623 21.6981 1411.32
-53.9623 22.0755 1411.32
-51.25 24.7917 1558.33
-51.25 25.2083 1558.33
-51.25 25.625 1558.33
-51.25 26.0417 1558.33
-34 42.3333 2493.33
-34 43 2493.33
-34 43.6667 2493.33
-53.5885 25.4545 1431.58
-42.953 36.2416 2008.05
-42.953 36.7785 2008.05
-44.2718 35.9871 1936.57
-55.8424 24.6827 1309.41
-46.4438 34.772 1818.84
-40 42.029 2168.12
-46.5455 35.6364 1813.33
-42.953 40 2008.05
-40 43.7681 2168.12
-40 44.3478 2168.12
-40 44.9275 2168.12
-40 45.5072 2168.12
-55.6828 28.0176 1318.06
-40 46.6667 2168.12
-40 47.2464 2168.12
-40 47.8261 2168.12
-43.4437 44.2384 1981.46
-43.8033 44.3279 1961.97
-48.2759 39.3103 1719.54
-48.1844 39.8847 1724.5
-40 50.7246 2168.12
-40 51.3043 2168.12
-40 51.8841 2168.12
-40 52.4638 2168.12
-40 53.0435 2168.12
-40 53.6232 2168.12
-40 54.2029 2168.12
-34.1909 62.7386 2482.99
-39.5604 55.9707 2191.94
-39.5604 56.5568 2191.94
-39.5604 57.1429 2191.94
-39.8545 57.3091 2176
-39.8545 57.8909 2176
-40 58.2609 2168.12
-40 58.8406 2168.12
-40 59.4203 2168.12
-40 60 2168.12
-40 60.5797 2168.12
-40 61.1594 2168.12
-40 61.7391 2168.12
-40 62.3188 2168.12
-48.3668 49.7421 1714.61
-48.3668 50.2006 1714.61
-33.8075 73.9749 2503.77
-33.8075 74.6443 2503.77
-38.9591 66.9145 2224.54
-34 75.6667 2493.33
-34.1909 76.0166 2482.99
-34.1909 76.6805 2482.99
-34.1909 77.3444 2482.99
-34.1909 78.0083 2482.99
-34.9388 77.3878 2442.45
-33.8075 80 2503.77
-33.8075 80.6695 2503.77
-33.6134 81.6807 2514.29
-34.1909 81.3278 2482.99
-34.5679 81.3169 2462.55
-40.4301 71.3979 2144.8
-40.4301 71.9713 2144.8
-47.907 58.8372 1739.53
-40.2878 73.3813 2152.52
-40.2878 73.9568 2152.52
-40.2878 74.5324 2152.52
-35.3036 84.5344 2422.67
-35.3036 85.1822 2422.67
-48.0925 61.2717 1729.48
-35.4839 86.129 2412.9
-35.3036 87.1255 2422.67
-35.3036 87.7733 2422.67
-40 79.1304 2168.12
-40 79.7101 2168.12
-40 80.2899 2168.12
-36.0159 88.9243 2384.06
-40.2878 80.8633 2152.52
-36.1905 89.8413 2374.6
-36.1905 90.4762 2374.6
-36.1905 91.1111 2374.6
-40.2878 83.1655 2152.52
-36.1905 92.381 2374.6
-40.2878 84.3165 2152.52
-35.84 94.4 2393.6
-40.2878 85.4676 2152.52
-40.2878 86.0432 2152.52
-40.4301 86.3082 2144.8
-40.4301 86.8817 2144.8
-40.4301 87.4552 2144.8
-50.4813 65.6684 1600
-50.4813 66.0963 1600
-51.0236 65.3018 1570.6
-50.9474 65.8947 1574.74
-40.4301 90.3226 2144.8
-40.4301 90.8961 2144.8
-40.4301 91.4695 2144.8
-40.4301 92.043 2144.8
-40.4301 92.6165 2144.8
-40.2878 93.5252 2152.52
-40.4301 93.7634 2144.8
-39.8545 95.7091 2176
-39.8545 96.2909 2176
-39.8545 96.8727 2176
-40.4301 96.0574 2144.8
-41.6667 93.6111 2077.78
-40.9894 95.8304 2114.49
-40.9894 96.3958 2114.49
-41.5331 95.6098 2085.02
-42.1918 94.5205 2049.32
-42.3208 94.744 2042.32
-43.2 93.0667 1994.67
-42.8283 94.5455 2014.81
-44.5016 90.8039 1924.12
-44.5016 91.3183 1924.12
-40.7117 101.637 2129.54
-40.7117 102.206 2129.54
-42.953 96.9128 2008.05
-39.8545 105.6 2176
-39.1111 108.148 2216.3
-39.1111 108.741 2216.3
-38.4962 110.977 2249.62
-32 129.043 2601.74
-32 129.739 2601.74
-36.48 -120 2393.6
-36.48 -119.36 2393.6
-36.48 -118.72 2393.6
-36.48 -118.08 2393.6
-36.48 -117.44 2393.6
-36.48 -116.8 2393.6
-36.48 -116.16 2393.6
-36.48 -115.52 2393.6
-32.6957 -124.87 2601.74
-36.8254 -113.333 2374.6
-36.48 -113.6 2393.6
-36.48 -112.96 2393.6
-36.48 -112.32 2393.6
-36.48 -111.68 2393.6
-36.48 -111.04 2393.6
-36.48 -110.4 2393.6
-36.48 -109.76 2393.6
-36.48 -109.12 2393.6
-36.48 -108.48 2393.6
-36.48 -107.84 2393.6
-36.48 -107.2 2393.6
-36.48 -106.56 2393.6
-36.48 -105.92 2393.6
-36.48 -105.28 2393.6
-51.2929 -69.0238 1578.89
-46.2112 -80.7453 1858.39
-46.1059 -80.4984 1864.17
-46.1059 -80 1864.17
-48.8252 -73.1232 1714.61
-36.6534 -101.036 2384.06
-36.6534 -100.398 2384.06
-36.6534 -99.761 2384.06
-36.6534 -99.1235 2384.06
-36.6534 -98.4861 2384.06
-36.6534 -97.8486 2384.06
-36.6534 -97.2112 2384.06
-36.6534 -96.5737 2384.06
-36.6534 -95.9363 2384.06
-36.6534 -95.2988 2384.06
-36.6534 -94.6614 2384.06
-36.6534 -94.0239 2384.06
-36.6534 -93.3865 2384.06
-36.6534 -92.749 2384.06
-40.4364 -84.0727 2176
-36.6534 -91.4741 2384.06
-36.6534 -90.8367 2384.06
-36.6534 -90.1992 2384.06
-36.6534 -89.5618 2384.06
-36.6534 -88.9243 2384.06
-36.6534 -88.2868 2384.06
-36.6534 -87.6494 2384.06
-36.6534 -87.012 2384.06
-36.6534 -86.3745 2384.06
-36.6534 -85.7371 2384.06
-36.6534 -85.0996 2384.06
-36.6534 -84.4622 2384.06
-36.6534 -83.8247 2384.06
-50.9867 -55.68 1595.73
-36.6534 -82.5498 2384.06
-36.6534 -81.9124 2384.06
-36.6534 -81.2749 2384.06
-36.6534 -80.6375 2384.06
-36.6534 -80 2384.06
-36.6534 -79.3625 2384.06
-36.6534 -78.7251 2384.06
-36.6534 -78.0876 2384.06
-36.6534 -77.4502 2384.06
-36.6534 -76.8128 2384.06
-36.6534 -76.1753 2384.06
-36.6534 -75.5378 2384.06
-36.6534 -74.9004 2384.06
-36.6534 -74.2629 2384.06
-36.6534 -73.6255 2384.06
-36.6534 -72.988 2384.06
-36.6534 -72.3506 2384.06
-36.6534 -71.7132 2384.06
-36.6534 -71.0757 2384.06
-32.6957 -76.8696 2601.74
-36.6534 -69.8008 2384.06
-36.6534 -69.1633 2384.06
-36.6534 -68.5259 2384.06
-48.5549 -49.2486 1729.48
-50.6739 -45.4987 1612.94
-50.6739 -45.0674 1612.94
-36.8254 -65.7143 2374.6
-36.8254 -65.0794 2374.6
-36.8254 -64.4444 2374.6
-36.8254 -63.8095 2374.6
-36.8254 -63.1746 2374.6
-36.8254 -62.5397 2374.6
-36.8254 -61.9048 2374.6
-36.8254 -61.2698 2374.6
-36.8254 -60.6349 2374.6
-36.8254 -60 2374.6
-36.8254 -59.3651 2374.6
-36.8254 -58.7302 2374.6
-36.8254 -58.0952 2374.6
-36.8254 -57.4603 2374.6
-36.8254 -56.8254 2374.6
-36.8254 -56.1905 2374.6
-36.8254 -55.5556 2374.6
-36.8254 -54.9206 2374.6
-36.8254 -54.2857 2374.6
-36.8254 -53.6508 2374.6
-36.8254 -53.0159 2374.6
-36.8254 -52.381 2374.6
-36.8254 -51.746 2374.6
-36.8254 -51.1111 2374.6
-36.8254 -50.4762 2374.6
-36.8254 -49.8413 2374.6
-36.8254 -49.2063 2374.6
-36.8254 -48.5714 2374.6
-36.8254 -47.9365 2374.6
-36.8254 -47.3016 2374.6
-36.8254 -46.6667 2374.6
-36.8254 -46.0317 2374.6
-36.8254 -45.3968 2374.6
-36.8254 -44.7619 2374.6
-36.8254 -44.127 2374.6
-36.8254 -43.4921 2374.6
-36.8254 -42.8571 2374.6
-46.1059 -33.1464 1864.17
-36.8254 -41.5873 2374.6
-36.8254 -40.9524 2374.6
-36.8254 -40.3175 2374.6
-48.7356 -28.7356 1719.54
-53.5922 -23.8835 1452.43
-53.5922 -23.4951 1452.43
-54.4 -22.4 1408
-45.8934 -29.3417 1875.86
-49.9448 -25.4144 1653.04
-38.9434 -34.1132 2258.11
-49.9448 -24.5304 1653.04
-43.9735 -28.8742 1981.46
-44.0924 -28.2508 1974.92
-44.0924 -27.7228 1974.92
-38.9434 -31.0943 2258.11
-38.9434 -30.4906 2258.11
-38.9434 -29.8868 2258.11
-50.3542 -21.1444 1630.52
-38.9434 -28.6792 2258.11
-38.9434 -28.0755 2258.11
-38.9434 -27.4717 2258.11
-38.9434 -26.8679 2258.11
-38.9434 -26.2642 2258.11
-38.9434 -25.6604 2258.11
-38.9434 -25.0566 2258.11
-38.9434 -24.4528 2258.11
-38.9434 -23.8491 2258.11
-38.9434 -23.2453 2258.11
-39.2509 -22.4719 2241.2
-39.2509 -21.8727 2241.2
-39.2509 -21.2734 2241.2
-38.9434 -20.8302 2258.11
-38.9434 -20.2264 2258.11
-38.9434 -19.6226 2258.11
-38.9434 -19.0189 2258.11
-38.9434 -18.4151 2258.11
-38.9434 -17.8113 2258.11
-38.9434 -17.2075 2258.11
-38.9434 -16.6038 2258.11
-38.9434 -16 2258.11
-38.9434 -15.3962 2258.11
-38.9434 -14.7925 2258.11
-38.9434 -14.1887 2258.11
-38.9434 -13.5849 2258.11
-38.9434 -12.9811 2258.11
-38.9434 -12.3774 2258.11
-38.9434 -11.7736 2258.11
-39.7037 -10.963 2216.3
-38.9434 -10.566 2258.11
-38.9434 -9.96226 2258.11
-38.9434 -9.35849 2258.11
-39.0977 -8.7218 2249.62
-38.9434 -8.15094 2258.11
-38.9434 -7.54717 2258.11
-38.9434 -6.9434 2258.11
-38.9434 -6.33962 2258.11
-38.9434 -5.73585 2258.11
-38.9434 -5.13208 2258.11
-38.9434 -4.5283 2258.11
-38.9434 -3.92453 2258.11
-38.9434 -3.32075 2258.11
-38.9434 -2.71698 2258.11
-38.9434 -2.11321 2258.11
-38.9434 -1.50943 2258.11
-38.9434 -0.90566 2258.11
-38.9434 -0.301887 2258.11
-38.9434 0.301887 2258.11
-38.9434 0.90566 2258.11
-38.7879 1.51515 2266.67
-38.9434 2.11321 2258.11
-38.9434 2.71698 2258.11
-49.3521 2.47887 1685.63
-38.9434 3.92453 2258.11
-38.9434 4.5283 2258.11
-38.9434 5.13208 2258.11
-38.9434 5.73585 2258.11
-38.9434 6.33962 2258.11
-48.1871 5.38012 1749.71
-38.9434 7.54717 2258.11
-38.9434 8.15094 2258.11
-40 8.52941 2200
-52.1026 6.35897 1534.36
-52.9353 6.56716 1488.56
-38.9434 10.566 2258.11
-52.7318 7.41855 1499.75
-40 11.4706 2200
-48.1871 9.59064 1749.71
-38.7879 13.0303 2266.67
-38.9434 13.5849 2258.11
-40.292 13.7226 2183.94
-39.403 14.6269 2232.84
-39.403 15.2239 2232.84
-40.722 15.3069 2160.29
-48.0938 12.9032 1754.84
-39.5539 16.9517 2224.54
-39.5539 17.5465 2224.54
-39.5539 18.1413 2224.54
-50.1918 13.8082 1639.45
-40.722 18.7726 2160.29
-41.1429 19.1429 2137.14
-39.7037 20.4444 2216.3
-39.7037 21.037 2216.3
-39.7037 21.6296 2216.3
-39.7037 22.2222 2216.3
-39.7037 22.8148 2216.3
-39.7037 23.4074 2216.3
-39.7037 24 2216.3
-39.7037 24.5926 2216.3
-39.7037 25.1852 2216.3
-39.5539 25.8736 2224.54
-39.7037 26.3704 2216.3
-39.7037 26.963 2216.3
-39.7037 27.5556 2216.3
-39.5539 28.2528 2224.54
-39.7037 28.7407 2216.3
-39.8524 29.2251 2208.12
-54.279 19.1017 1414.66
-51.3684 21.6842 1574.74
-51.4436 22.0472 1570.6
-32.6957 37.2174 2601.74
-51.4436 22.8871 1570.6
-51.5183 23.2461 1566.49
-51.5183 23.6649 1566.49
-32.6957 40 2601.74
-34.6667 39 2493.33
-34.6667 39.6667 2493.33
-33.7021 41.1915 2546.38
-51.6667 25.625 1558.33
-34.477 41.841 2503.77
-34.477 42.5105 2503.77
-34.477 43.1799 2503.77
-40.5797 37.971 2168.12
-40.5797 38.5507 2168.12
-40.5797 39.1304 2168.12
-44.7896 35.4693 1936.57
-40.5797 40.2899 2168.12
-40.5797 40.8696 2168.12
-43.4899 38.3893 2008.05
-40.5797 42.029 2168.12
-40.5797 42.6087 2168.12
-40.5797 43.1884 2168.12
-40.5797 43.7681 2168.12
-38.9434 46.1887 2258.11
-40.5797 44.9275 2168.12
-40.5797 45.5072 2168.12
-40.5797 46.087 2168.12
-40.5797 46.6667 2168.12
-40.5797 47.2464 2168.12
-40.5797 47.8261 2168.12
-40.5797 48.4058 2168.12
-40.5797 48.9855 2168.12
-40.5797 49.5652 2168.12
-40.5797 50.1449 2168.12
-40.5797 50.7246 2168.12
-40.5797 51.3043 2168.12
-40.5797 51.8841 2168.12
-40.5797 52.4638 2168.12
-40.5797 53.0435 2168.12
-40.5797 53.6232 2168.12
-40.5797 54.2029 2168.12
-35.0413 62.4793 2472.73
-40.292 55.7664 2183.94
-40.1465 56.5568 2191.94
-40.1465 57.1429 2191.94
-40.4364 57.3091 2176
-40.4364 57.8909 2176
-53.528 39.1241 1455.96
-40.5797 58.8406 2168.12
-40.5797 59.4203 2168.12
-40.5797 60 2168.12
-40.5797 60.5797 2168.12
-40.5797 61.1594 2168.12
-39.7037 63.1111 2216.3
-40.4364 62.5455 2176
-40.5797 62.8986 2168.12
-40.5797 63.4783 2168.12
-39.8524 65.2399 2208.12
-40.4364 64.8727 2176
-40.4364 65.4545 2176
-39.5539 67.5093 2224.54
-39.403 68.3582 2232.84
-37.8295 71.6279 2319.38
-34.8548 77.3444 2482.99
-34.8548 78.0083 2482.99
-40.8633 68.2014 2152.52
-40.8633 68.777 2152.52
-40.8633 69.3525 2152.52
-40.8633 69.9281 2152.52
-34.477 82.0084 2503.77
-32.6957 85.913 2601.74
-32.6957 86.6087 2601.74
-48.2799 58.5423 1744.61
-48.4638 58.6667 1734.49
-40.8633 73.3813 2152.52
-40.8633 73.9568 2152.52
-35.7724 84.2276 2432.52
-40.8633 75.1079 2152.52
-40.8633 75.6835 2152.52
-40.8633 76.259 2152.52
-36.129 86.129 2412.9
-36.129 86.7742 2412.9
-36.129 87.4194 2412.9
-40.5797 79.1304 2168.12
-40.5797 79.7101 2168.12
-40.5797 80.2899 2168.12
-40.5797 80.8696 2168.12
-40.5797 81.4493 2168.12
-41.0036 81.1469 2144.8
-41.0036 81.7204 2144.8
-40.5797 83.1884 2168.12
-39.403 86.2687 2232.84
-36.6534 92.749 2384.06
-40.8633 84.3165 2152.52
-36.48 94.4 2393.6
-40.1465 87.033 2191.94
-40.1465 87.619 2191.94
-40.1465 88.2051 2191.94
-41.4184 85.9574 2121.99
-50.2732 66.6667 1634.97
-40.722 88.6643 2160.29
-51.5183 64.712 1566.49
-51.4436 65.3018 1570.6
-41.0036 89.7491 2144.8
-41.0036 90.3226 2144.8
-41.0036 90.8961 2144.8
-41.0036 91.4695 2144.8
-41.0036 92.043 2144.8
-41.0036 92.6165 2144.8
-41.0036 93.19 2144.8
-40.5797 94.7826 2168.12
-40.5797 95.3623 2168.12
-40.5797 95.942 2168.12
-40.5797 96.5217 2168.12
-41.1429 95.7143 2137.14
-42.2222 93.6111 2077.78
-43.367 91.3131 2014.81
-41.1429 97.4286 2137.14
-41.1429 98 2137.14
-45.8934 86.5204 1875.86
-43.7333 92.5333 1994.67
-43.7333 93.0667 1994.67
-43.367 94.5455 2014.81
-44.0924 93.2013 1974.92
-44.5603 92.5081 1949.19
-41.2811 101.637 2129.54
-41.2811 102.206 2129.54
-34.6667 120.333 2493.33
-40.4364 105.6 2176
-39.7037 108.148 2216.3
-41.0036 105.233 2144.8
-39.0977 110.977 2249.62
-32.6957 129.043 2601.74
-32.6957 129.739 2601.74
-37.12 -120 2393.6
-37.12 -119.36 2393.6
-37.12 -118.72 2393.6
-37.12 -118.08 2393.6
-37.12 -117.44 2393.6
-37.12 -116.8 2393.6
-37.12 -116.16 2393.6
-37.12 -115.52 2393.6
-37.12 -114.88 2393.6
-37.12 -114.24 2393.6
-37.12 -113.6 2393.6
-37.12 -112.96 2393.6
-37.12 -112.32 2393.6
-37.12 -111.68 2393.6
-37.12 -111.04 2393.6
-37.12 -110.4 2393.6
-37.12 -109.76 2393.6
-37.2908 -108.685 2384.06
-37.12 -108.48 2393.6
-37.12 -107.84 2393.6
-37.12 -107.2 2393.6
-37.12 -106.56 2393.6
-37.12 -105.92 2393.6
-37.12 -105.28 2393.6
-37.2908 -104.223 2384.06
-37.2908 -103.586 2384.06
-37.2908 -102.948 2384.06
-37.2908 -102.311 2384.06
-37.2908 -101.673 2384.06
-37.2908 -101.036 2384.06
-37.2908 -100.398 2384.06
-37.2908 -99.761 2384.06
-37.2908 -99.1235 2384.06
-37.2908 -98.4861 2384.06
-37.2908 -97.8486 2384.06
-37.2908 -97.2112 2384.06
-37.2908 -96.5737 2384.06
-37.2908 -95.9363 2384.06
-37.2908 -95.2988 2384.06
-37.2908 -94.6614 2384.06
-37.2908 -94.0239 2384.06
-37.2908 -93.3865 2384.06
-37.2908 -92.749 2384.06
-37.2908 -92.1116 2384.06
-37.2908 -91.4741 2384.06
-37.2908 -90.8367 2384.06
-37.2908 -90.1992 2384.06
-37.2908 -89.5618 2384.06
-37.2908 -88.9243 2384.06
-37.2908 -88.2868 2384.06
-37.2908 -87.6494 2384.06
-37.2908 -87.012 2384.06
-37.2908 -86.3745 2384.06
-37.2908 -85.7371 2384.06
-37.2908 -85.0996 2384.06
-37.2908 -84.4622 2384.06
-51.4133 -56.1067 1595.73
-37.2908 -83.1872 2384.06
-37.2908 -82.5498 2384.06
-37.2908 -81.9124 2384.06
-37.2908 -81.2749 2384.06
-37.2908 -80.6375 2384.06
-37.2908 -80 2384.06
-37.2908 -79.3625 2384.06
-37.2908 -78.7251 2384.06
-37.2908 -78.0876 2384.06
-37.2908 -77.4502 2384.06
-37.2908 -76.8128 2384.06
-37.4603 -75.873 2374.6
-37.2908 -75.5378 2384.06
-37.2908 -74.9004 2384.06
-37.2908 -74.2629 2384.06
-37.2908 -73.6255 2384.06
-37.2908 -72.988 2384.06
-37.2908 -72.3506 2384.06
-46.5 -56.25 1870
-33.3913 -77.5652 2601.74
-33.3913 -76.8696 2601.74
-33.3913 -76.1739 2601.74
-50.0559 -48.4916 1671.51
-50.5494 -47.2527 1643.96
-51.1051 -45.9299 1612.94
-51.1051 -45.4987 1612.94
-51.1051 -45.0674 1612.94
-37.4603 -65.7143 2374.6
-37.4603 -65.0794 2374.6
-37.4603 -64.4444 2374.6
-37.4603 -63.8095 2374.6
-37.4603 -63.1746 2374.6
-37.4603 -62.5397 2374.6
-37.4603 -61.9048 2374.6
-37.4603 -61.2698 2374.6
-37.4603 -60.6349 2374.6
-37.4603 -60 2374.6
-37.4603 -59.3651 2374.6
-37.4603 -58.7302 2374.6
-37.4603 -58.0952 2374.6
-37.4603 -57.4603 2374.6
-37.4603 -56.8254 2374.6
-37.4603 -56.1905 2374.6
-37.4603 -55.5556 2374.6
-37.4603 -54.9206 2374.6
-37.4603 -54.2857 2374.6
-37.4603 -53.6508 2374.6
-37.4603 -53.0159 2374.6
-37.4603 -52.381 2374.6
-37.4603 -51.746 2374.6
-37.4603 -51.1111 2374.6
-37.4603 -50.4762 2374.6
-37.4603 -49.8413 2374.6
-37.4603 -49.2063 2374.6
-37.4603 -48.5714 2374.6
-37.4603 -47.9365 2374.6
-37.4603 -47.3016 2374.6
-37.4603 -46.6667 2374.6
-37.4603 -46.0317 2374.6
-37.4603 -45.3968 2374.6
-37.4603 -44.7619 2374.6
-37.4603 -44.127 2374.6
-37.4603 -43.4921 2374.6
-37.4603 -42.8571 2374.6
-37.4603 -42.2222 2374.6
-37.4603 -41.5873 2374.6
-37.4603 -40.9524 2374.6
-37.4603 -40.3175 2374.6
-53.2668 -24.9377 1492.27
-53.9806 -23.8835 1452.43
-53.9806 -23.4951 1452.43
-54.7765 -22.4 1408
-33.3913 -40.6957 2601.74
-38.4496 -35.6589 2319.38
-39.084 -34.5038 2283.97
-39.084 -33.8931 2283.97
-39.084 -33.2824 2283.97
-39.084 -32.6718 2283.97
-39.084 -32.0611 2283.97
-50.4683 -22.6997 1648.48
-39.5472 -30.4906 2258.11
-39.5472 -29.8868 2258.11
-39.5472 -29.283 2258.11
-39.5472 -28.6792 2258.11
-39.5472 -28.0755 2258.11
-39.5472 -27.4717 2258.11
-39.5472 -26.8679 2258.11
-39.5472 -26.2642 2258.11
-50.4683 -18.7328 1648.48
-39.5472 -25.0566 2258.11
-39.5472 -24.4528 2258.11
-39.6992 -23.7594 2249.62
-39.6992 -23.1579 2249.62
-39.8502 -22.4719 2241.2
-39.8502 -21.8727 2241.2
-39.8502 -21.2734 2241.2
-39.5472 -20.8302 2258.11
-39.5472 -20.2264 2258.11
-39.5472 -19.6226 2258.11
-50.4683 -13.8843 1648.48
-50.4683 -13.4435 1648.48
