-66.1093 -16.7203 1924.12
-66.1093 -16.2058 1924.12
-66.242 -15.5414 1905.73
-66.242 -15.0318 1905.73
-66.242 -14.5223 1905.73
-66.242 -14.0127 1905.73
-66.242 -13.5032 1905.73
-66.242 -12.9936 1905.73
-66.242 -12.4841 1905.73
-66.242 -11.9745 1905.73
-61.2174 -15.6522 2601.74
-61.2174 -14.9565 2601.74
-61.2174 -14.2609 2601.74
-61.2174 -13.5652 2601.74
-61.2174 -12.8696 2601.74
-66.1093 -9.00322 1924.12
-66.1093 -8.48875 1924.12
-66.1093 -7.97428 1924.12
-61.2174 -10.087 2601.74
-61.2174 -9.3913 2601.74
-66.1093 -6.43087 1924.12
-66.1093 -5.9164 1924.12
-66.1093 -5.40193 1924.12
-66.1093 -4.88746 1924.12
-66.5 -4.25 1870
-66.5 -3.75 1870
-66.5 -3.25 1870
-66.5 -2.75 1870
-66.5 -2.25 1870
-61.2174 -2.43478 2601.74
-61.2174 -1.73913 2601.74
-70.1144 -0.549199 1369.34
-66.5 -0.25 1870
-66.5 0.25 1870
-66.5 0.75 1870
-66.5 1.25 1870
-66.5 1.75 1870
-66.5 2.25 1870
-66.5 2.75 1870
-66.5 3.25 1870
-66.5 3.75 1870
-66.5 4.25 1870
-66.5 4.75 1870
-61.2174 7.30435 2601.74
-66.3722 5.80442 1887.7
-66.3722 6.30915 1887.7
-66.3722 6.81388 1887.7
-66.3722 7.31861 1887.7
-61.2174 10.7826 2601.74
-61.2174 11.4783 2601.74
-61.2174 12.1739 2601.74
-61.2174 12.8696 2601.74
-61.2174 13.5652 2601.74
-61.2174 14.2609 2601.74
-61.2174 14.9565 2601.74
-69.9065 8.41121 1398.13
-66.3722 11.8612 1887.7
-61.2174 17.0435 2601.74
-61.2174 17.7391 2601.74
-67.762 12.0113 1695.18
-67.762 12.4646 1695.18
-68.5411 12.0955 1587.27
-67.762 13.3711 1695.18
-67.762 13.8244 1695.18
-67.762 14.2776 1695.18
-67.762 14.7309 1695.18
-67.762 15.1841 1695.18
-67.762 15.6374 1695.18
-67.762 16.0907 1695.18
-67.762 16.5439 1695.18
-67.762 16.9972 1695.18
-67.762 17.4504 1695.18
-67.762 17.9037 1695.18
-67.762 18.3569 1695.18
-67.762 18.8102 1695.18
-67.762 19.2635 1695.18
-67.762 19.7167 1695.18
-67.762 20.17 1695.18
-67.762 20.6232 1695.18
-67.762 21.0765 1695.18
-67.762 21.5297 1695.18
-67.762 21.983 1695.18
-67.762 22.4363 1695.18
-67.762 22.8895 1695.18
-67.762 23.3428 1695.18
-67.762 23.796 1695.18
-67.762 24.2493 1695.18
-67.762 24.7025 1695.18
-67.762 25.1558 1695.18
-67.762 25.6091 1695.18
-67.762 26.0623 1695.18
-67.762 26.5156 1695.18
-67.762 26.9688 1695.18
-67.762 27.4221 1695.18
-67.762 27.8754 1695.18
-67.762 28.3286 1695.18
-67.762 28.7819 1695.18
-67.762 29.2351 1695.18
-67.762 29.6884 1695.18
-67.762 30.1416 1695.18
-67.762 30.5949 1695.18
-67.762 31.0482 1695.18
-67.762 31.5014 1695.18
-67.762 31.9547 1695.18
-70.5677 24.9782 1306.55
-70.5677 25.3275 1306.55
-70.5677 25.6769 1306.55
-61.2174 51.8261 2601.74
-61.2174 52.5217 2601.74
-61.2174 53.2174 2601.74
-70.5055 27.2527 1315.16
-70.4425 27.7876 1323.89
-70.5677 27.7729 1306.55
-70.5677 28.1223 1306.55
-70.5677 28.4716 1306.55
-70.4425 29.2035 1323.89
-70.4425 29.5575 1323.89
-70.3786 30.1114 1332.74
-67.3314 40.1173 1754.84
-68.1644 37.9178 1639.45
-68.1644 38.3562 1639.45
-68.1644 38.7945 1639.45
-68.1644 39.2329 1639.45
-68.0663 40 1653.04
-68.0663 40.442 1653.04
-61.2174 64.3478 2601.74
-68.0663 41.326 1653.04
-68.0663 41.768 1653.04
-68.0663 42.2099 1653.04
-68.0663 42.6519 1653.04
-68.0663 43.0939 1653.04
-68.0663 43.5359 1653.04
-68.0663 43.9779 1653.04
-68.0663 44.4199 1653.04
-68.0663 44.8619 1653.04
-68.0663 45.3039 1653.04
-68.0663 45.7459 1653.04
-68.0663 46.1878 1653.04
-68.1644 46.2466 1639.45
-68.1644 46.6849 1639.45
-68.1644 47.1233 1639.45
-68.1644 47.5616 1639.45
-68.1644 48 1639.45
-68.1644 48.4384 1639.45
-61.2174 77.5652 2601.74
-61.2174 78.2609 2601.74
-68.1644 49.7534 1639.45
-64.7887 64.507 2107.04
-69.9065 43.1776 1398.13
-69.9065 43.5514 1398.13
-69.9065 43.9252 1398.13
-65.974 61.5584 1942.86
-65.974 62.0779 1942.86
-61.2174 83.8261 2601.74
-68.2609 52.8261 1626.09
-68.2609 53.2609 1626.09
-68.2609 53.6957 1626.09
-68.2609 54.1304 1626.09
-68.2609 54.5652 1626.09
-68.2609 55 1626.09
-68.2609 55.4348 1626.09
-68.2609 55.8696 1626.09
-61.2174 90.087 2601.74
-68.2609 56.7391 1626.09
-67.6571 60.1143 1709.71
-61.2174 92.1739 2601.74
-68.3558 57.5741 1612.94
-68.3558 58.0054 1612.94
-68.3558 58.4367 1612.94
-68.3558 58.8679 1612.94
-68.3558 59.2992 1612.94
-68.3558 59.7305 1612.94
-68.3558 60.1617 1612.94
-61.2174 97.7391 2601.74
-68.6316 59.5789 1574.74
-64.6263 81.1388 2129.54
-61.2174 99.8261 2601.74
-67.2189 68.4024 1770.41
-64.4604 83.741 2152.52
-67.2189 69.3491 1770.41
-61.2174 102.609 2601.74
-68.3558 64.0431 1612.94
-61.2174 104 2601.74
-61.2174 104.696 2601.74
-61.2174 105.391 2601.74
-68.4492 65.2406 1600
-68.4492 65.6684 1600
-68.4492 66.0963 1600
-68.4492 66.5241 1600
-68.4492 66.9519 1600
-68.4492 67.3797 1600
-68.4492 67.8075 1600
-68.4492 68.2353 1600
-69.3857 63.0958 1470.27
-68.4492 69.0909 1600
-68.9796 66.3265 1526.53
-69.6897 62.4344 1428.16
-68.8946 67.6607 1538.3
-68.5411 70.2387 1587.27
-69.0633 67.443 1514.94
-69.0633 67.8481 1514.94
-68.5411 71.5119 1587.27
-68.5411 71.9363 1587.27
-68.6316 71.7895 1574.74
-68.6316 72.2105 1574.74
-68.6316 72.6316 1574.74
-68.6316 73.0526 1574.74
-68.6316 73.4737 1574.74
-68.6316 73.8947 1574.74
-68.6316 74.3158 1574.74
-68.6316 74.7368 1574.74
-68.6316 75.1579 1574.74
-68.7206 74.9869 1562.4
-68.7206 75.4047 1562.4
-68.7206 75.8225 1562.4
-68.7206 76.2402 1562.4
-61.2174 127.652 2601.74
-61.2174 128.348 2601.74
-61.2174 129.043 2601.74
-61.2174 129.739 2601.74
-64.3609 -112.782 2249.62
-64.3609 -112.18 2249.62
-66.4935 -96.3636 1942.86
-66.4935 -95.8442 1942.86
-66.4935 -95.3247 1942.86
-61.913 -126.957 2601.74
-61.913 -126.261 2601.74
-65.5052 -100.627 2085.02
-65.3521 -101.127 2107.04
-65.3521 -100.563 2107.04
-65.5052 -98.9547 2085.02
-65.5052 -98.3972 2085.02
-65.5052 -97.8397 2085.02
-65.5052 -97.2822 2085.02
-65.5052 -96.7247 2085.02
-61.913 -120 2601.74
-61.913 -119.304 2601.74
-65.6552 -94.069 2063.45
-65.6552 -93.5172 2063.45
-65.6552 -92.9655 2063.45
-65.802 -91.4676 2042.32
-65.6552 -91.8621 2063.45
-65.802 -90.3754 2042.32
-65.802 -89.8294 2042.32
-65.802 -89.2833 2042.32
-65.802 -88.7372 2042.32
-65.802 -88.1911 2042.32
-65.802 -87.6451 2042.32
-61.913 -110.957 2601.74
-65.802 -86.5529 2042.32
-65.802 -86.0068 2042.32
-65.802 -85.4608 2042.32
-65.802 -84.9147 2042.32
-65.802 -84.3686 2042.32
-65.802 -83.8225 2042.32
-65.802 -83.2765 2042.32
-65.802 -82.7304 2042.32
-65.802 -82.1843 2042.32
-65.802 -81.6382 2042.32
-65.802 -81.0921 2042.32
-65.802 -80.5461 2042.32
-65.802 -80 2042.32
-65.802 -79.4539 2042.32
-65.802 -78.9079 2042.32
-65.802 -78.3618 2042.32
-65.802 -77.8157 2042.32
-65.802 -77.2696 2042.32
-65.802 -76.7235 2042.32
-65.802 -76.1775 2042.32
-65.802 -75.6314 2042.32
-65.802 -75.0853 2042.32
-65.802 -74.5392 2042.32
-65.802 -73.9932 2042.32
-65.802 -73.4471 2042.32
-65.802 -72.901 2042.32
-65.802 -72.3549 2042.32
-65.802 -71.8089 2042.32
-65.802 -71.2628 2042.32
-65.802 -70.7167 2042.32
-65.802 -70.1706 2042.32
-65.802 -69.6246 2042.32
-65.802 -69.0785 2042.32
-65.802 -68.5324 2042.32
-65.802 -67.9864 2042.32
-66.6238 -63.537 1924.12
-64.8727 -71.2727 2176
-64.7059 -71.4706 2200
-64.7059 -70.8824 2200
-64.7059 -70.2941 2200
-64.7059 -69.7059 2200
-65.036 -67.6259 2152.52
-65.802 -63.6177 2042.32
-65.802 -63.0717 2042.32
-61.913 -79.6522 2601.74
-61.913 -78.9565 2601.74
-65.802 -61.4334 2042.32
-65.802 -60.8874 2042.32
-65.802 -60.3413 2042.32
-65.802 -59.7952 2042.32
-65.802 -59.2491 2042.32
-65.802 -58.7031 2042.32
-65.802 -58.157 2042.32
-65.802 -57.6109 2042.32
-65.802 -57.0648 2042.32
-65.802 -56.5188 2042.32
-65.802 -55.9727 2042.32
-65.802 -55.4266 2042.32
-65.9459 -54.3243 2021.62
-65.802 -54.3345 2042.32
-65.802 -53.7884 2042.32
-65.802 -53.2423 2042.32
-65.802 -52.6962 2042.32
-65.802 -52.1502 2042.32
-65.802 -51.6041 2042.32
-65.802 -51.058 2042.32
-65.802 -50.5119 2042.32
-65.9459 -49.4595 2021.62
-65.9459 -48.9189 2021.62
-65.9459 -48.3784 2021.62
-65.9459 -47.8378 2021.62
-65.9459 -47.2973 2021.62
-65.9459 -46.7568 2021.62
-65.9459 -46.2162 2021.62
-65.9459 -45.6757 2021.62
-61.913 -58.087 2601.74
-65.9459 -44.5946 2021.62
-65.9459 -44.0541 2021.62
-65.9459 -43.5135 2021.62
-61.913 -55.3043 2601.74
-61.913 -54.6087 2601.74
-61.913 -53.913 2601.74
-61.913 -53.2174 2601.74
-66.3607 -39.6066 1961.97
-66.3607 -39.082 1961.97
-66.3607 -38.5574 1961.97
-66.3607 -38.0328 1961.97
-66.3607 -37.5082 1961.97
-66.3607 -36.9836 1961.97
-66.3607 -36.459 1961.97
-66.3607 -35.9344 1961.97
-66.3607 -35.4098 1961.97
-66.3607 -34.8852 1961.97
-66.3607 -34.3607 1961.97
-66.3607 -33.8361 1961.97
-66.3607 -33.3115 1961.97
-66.3607 -32.7869 1961.97
-61.913 -42.7826 2601.74
-61.913 -42.087 2601.74
-61.913 -41.3913 2601.74
-66.3607 -30.6885 1961.97
-66.3607 -30.1639 1961.97
-66.3607 -29.6393 1961.97
-66.3607 -29.1148 1961.97
-66.3607 -28.5902 1961.97
-66.3607 -28.0656 1961.97
-66.3607 -27.541 1961.97
-66.3607 -27.0164 1961.97
-66.3607 -26.4918 1961.97
-66.3607 -25.9672 1961.97
-66.3607 -25.4426 1961.97
-66.3607 -24.918 1961.97
-66.4935 -24.1558 1942.86
-65.802 -24.8464 2042.32
-65.802 -24.3003 2042.32
-66.2252 -23.0464 1981.46
-66.3607 -22.2951 1961.97
-66.3607 -21.7705 1961.97
-66.4935 -21.039 1942.86
-66.4935 -20.5195 1942.86
-66.6238 -19.8071 1924.12
-66.6238 -19.2926 1924.12
-66.6238 -18.7781 1924.12
-66.6238 -18.2637 1924.12
-66.6238 -17.7492 1924.12
-66.6238 -17.2347 1924.12
-66.6238 -16.7203 1924.12
-66.7516 -16.051 1905.73
-66.7516 -15.5414 1905.73
-66.7516 -15.0318 1905.73
-66.7516 -14.5223 1905.73
-66.7516 -14.0127 1905.73
-66.7516 -13.5032 1905.73
-66.7516 -12.9936 1905.73
-61.913 -17.0435 2601.74
-61.913 -16.3478 2601.74
-61.913 -15.6522 2601.74
-61.913 -14.9565 2601.74
-61.913 -14.2609 2601.74
-61.913 -13.5652 2601.74
-61.913 -12.8696 2601.74
-61.913 -12.1739 2601.74
-61.913 -11.4783 2601.74
-61.913 -10.7826 2601.74
-61.913 -10.087 2601.74
-61.913 -9.3913 2601.74
-61.913 -8.69565 2601.74
-61.913 -8 2601.74
-61.913 -7.30435 2601.74
-61.913 -6.6087 2601.74
-66.6238 -4.37299 1924.12
-66.6238 -3.85852 1924.12
-66.6238 -3.34405 1924.12
-66.6238 -2.82958 1924.12
-66.6238 -2.31511 1924.12
-66.6238 -1.80064 1924.12
-66.6238 -1.28617 1924.12
-66.6238 -0.771704 1924.12
-66.6238 -0.257235 1924.12
-66.6238 0.257235 1924.12
-66.6238 0.771704 1924.12
-66.6238 1.28617 1924.12
-66.7516 1.78344 1905.73
-66.7516 2.29299 1905.73
-67 2.75 1870
-67 3.25 1870
-67 3.75 1870
-67 4.25 1870
-67 4.75 1870
-67 5.25 1870
-66.877 5.80442 1887.7
-66.877 6.30915 1887.7
-66.877 6.81388 1887.7
-66.877 7.31861 1887.7
-66.877 7.82334 1887.7
-61.913 11.4783 2601.74
-61.913 12.1739 2601.74
-70.8571 6.50549 1315.16
-70.8571 6.85714 1315.16
-70.8571 7.20879 1315.16
-70.2804 8.03738 1398.13
-66.877 11.3565 1887.7
-66.877 11.8612 1887.7
-66.877 12.3659 1887.7
-66.877 12.8707 1887.7
-66.877 13.3754 1887.7
-68.2153 12.4646 1695.18
-68.2153 12.9178 1695.18
-68.2153 13.3711 1695.18
-68.2153 13.8244 1695.18
-68.2153 14.2776 1695.18
-68.2153 14.7309 1695.18
-68.2153 15.1841 1695.18
-68.2153 15.6374 1695.18
-68.2153 16.0907 1695.18
-68.2153 16.5439 1695.18
-68.2153 16.9972 1695.18
-68.2153 17.4504 1695.18
-68.2153 17.9037 1695.18
-68.2153 18.3569 1695.18
-68.2153 18.8102 1695.18
-68.2153 19.2635 1695.18
-68.2153 19.7167 1695.18
-68.2153 20.17 1695.18
-68.2153 20.6232 1695.18
-68.2153 21.0765 1695.18
-68.2153 21.5297 1695.18
-68.2153 21.983 1695.18
-68.2153 22.4363 1695.18
-68.2153 22.8895 1695.18
-68.2153 23.3428 1695.18
-68.2153 23.796 1695.18
-68.2153 24.2493 1695.18
-68.2153 24.7025 1695.18
-68.2153 25.1558 1695.18
-68.2153 25.6091 1695.18
-68.2153 26.0623 1695.18
-68.2153 26.5156 1695.18
-68.2153 26.9688 1695.18
-68.2153 27.4221 1695.18
-68.2153 27.8754 1695.18
-68.2153 28.3286 1695.18
-68.2153 28.7819 1695.18
-68.2153 29.2351 1695.18
-68.2153 29.6884 1695.18
-68.2153 30.1416 1695.18
-68.2153 30.5949 1695.18
-68.2153 31.0482 1695.18
-68.2153 31.5014 1695.18
-68.5083 31.1602 1653.04
-68.5083 31.6022 1653.04
-68.2153 32.8612 1695.18
-68.2153 33.3144 1695.18
-68.2153 33.7677 1695.18
-68.2153 34.221 1695.18
-68.2153 34.6742 1695.18
-68.2153 35.1275 1695.18
-68.2153 35.5807 1695.18
-68.2153 36.034 1695.18
-68.2153 36.4873 1695.18
-68.2153 36.9405 1695.18
-68.2153 37.3938 1695.18
-70.8571 29.3626 1315.16
-61.913 58.7826 2601.74
-70.8571 30.0659 1315.16
-67.8006 40.5865 1754.84
-67.8006 41.0557 1754.84
-68.5083 39.116 1653.04
-68.5083 39.558 1653.04
-68.5083 40 1653.04
-68.5083 40.442 1653.04
-68.5083 40.884 1653.04
-68.5083 41.326 1653.04
-68.5083 41.768 1653.04
-68.5083 42.2099 1653.04
-68.5083 42.6519 1653.04
-68.5083 43.0939 1653.04
-68.5083 43.5359 1653.04
-68.5083 43.9779 1653.04
-68.5083 44.4199 1653.04
-68.5083 44.8619 1653.04
-68.5083 45.3039 1653.04
-68.5083 45.7459 1653.04
-68.5083 46.1878 1653.04
-68.5083 46.6298 1653.04
-62.1459 73.133 2568.24
-62.8099 71.0744 2472.73
-62.8099 71.7355 2472.73
-62.5941 73.3054 2503.77
-62.5941 73.9749 2503.77
-61.913 77.5652 2601.74
-61.913 78.2609 2601.74
-61.913 78.9565 2601.74
-61.913 79.6522 2601.74
-66.4935 60 1942.86
-66.4935 60.5195 1942.86
-61.913 81.7391 2601.74
-63.4263 75.5378 2384.06
-63.4263 76.1753 2384.06
-61.913 83.8261 2601.74
-68.6957 52.8261 1626.09
-68.6957 53.2609 1626.09
-68.6957 53.6957 1626.09
-68.6957 54.1304 1626.09
-68.6957 54.5652 1626.09
-68.6957 55 1626.09
-68.6957 55.4348 1626.09
-61.913 89.3913 2601.74
-68.6957 56.3043 1626.09
-68.7871 56.2803 1612.94
-68.7871 56.7116 1612.94
-68.7871 57.1429 1612.94
-68.7871 57.5741 1612.94
-68.7871 58.0054 1612.94
-68.7871 58.4367 1612.94
-68.7871 58.8679 1612.94
-68.7871 59.2992 1612.94
-68.7871 59.7305 1612.94
-68.7871 60.1617 1612.94
-61.913 97.7391 2601.74
-61.913 98.4348 2601.74
-68.0115 65.7061 1724.5
-68.877 61.3904 1600
-68.877 61.8182 1600
-68.877 62.246 1600
-68.877 62.6738 1600
-68.877 63.1016 1600
-68.877 63.5294 1600
-68.877 63.9572 1600
-68.877 64.385 1600
-68.877 64.8128 1600
-68.877 65.2406 1600
-68.877 65.6684 1600
-68.877 66.0963 1600
-68.877 66.5241 1600
-68.877 66.9519 1600
-68.877 67.3797 1600
-68.877 67.8075 1600
-68.877 68.2353 1600
-69.703 63.5644 1481.19
-62.8099 106.777 2472.73
-62.8099 107.438 2472.73
-69.4684 66.2279 1514.94
-69.3878 67.1429 1526.53
-69.3878 67.551 1526.53
-69.5477 66.9347 1503.52
-69.2228 69.4301 1550.26
-69.0526 70.9474 1574.74
-68.9655 71.9363 1587.27
-69.0526 71.7895 1574.74
-69.0526 72.2105 1574.74
-69.0526 72.6316 1574.74
-69.0526 73.0526 1574.74
-69.0526 73.4737 1574.74
-69.0526 73.8947 1574.74
-69.0526 74.3158 1574.74
-67.6923 84.0237 1770.41
-67.4699 86.0241 1802.41
-69.1384 74.9869 1562.4
-69.1384 75.4047 1562.4
-69.1384 75.8225 1562.4
-69.1384 76.2402 1562.4
-61.913 127.652 2601.74
-61.913 128.348 2601.74
-61.913 129.043 2601.74
-61.913 129.739 2601.74
-65.4545 -109.091 2176
-62.6087 -129.739 2601.74
-62.6087 -129.043 2601.74
-64.9624 -110.977 2249.62
-62.6087 -127.652 2601.74
-62.6087 -126.957 2601.74
-62.6087 -126.261 2601.74
-66.2069 -99.5862 2063.45
-66.2069 -99.0345 2063.45
-66.2069 -98.4828 2063.45
-66.0627 -98.9547 2085.02
-66.0627 -98.3972 2085.02
-66.0627 -97.8397 2085.02
-66.0627 -97.2822 2085.02
-66.2069 -95.7241 2063.45
-66.2069 -95.1724 2063.45
-62.6087 -119.304 2601.74
-62.6087 -118.609 2601.74
-66.3481 -92.5597 2042.32
-66.3481 -92.0136 2042.32
-66.3481 -91.4676 2042.32
-66.3481 -90.9215 2042.32
-66.3481 -90.3754 2042.32
-66.3481 -89.8294 2042.32
-66.3481 -89.2833 2042.32
-66.3481 -88.7372 2042.32
-66.3481 -88.1911 2042.32
-66.3481 -87.6451 2042.32
-62.6087 -110.957 2601.74
-62.6087 -110.261 2601.74
-62.6087 -109.565 2601.74
-66.3481 -85.4608 2042.32
-66.3481 -84.9147 2042.32
-66.3481 -84.3686 2042.32
-66.3481 -83.8225 2042.32
-66.3481 -83.2765 2042.32
-66.3481 -82.7304 2042.32
-66.3481 -82.1843 2042.32
-66.3481 -81.6382 2042.32
-66.3481 -81.0921 2042.32
-66.3481 -80.5461 2042.32
-66.3481 -80 2042.32
-66.3481 -79.4539 2042.32
-66.3481 -78.9079 2042.32
-66.3481 -78.3618 2042.32
-66.3481 -77.8157 2042.32
-66.3481 -77.2696 2042.32
-66.3481 -76.7235 2042.32
-66.3481 -76.1775 2042.32
-66.3481 -75.6314 2042.32
-66.3481 -75.0853 2042.32
-66.3481 -74.5392 2042.32
-66.3481 -73.9932 2042.32
-66.3481 -73.4471 2042.32
-66.3481 -72.901 2042.32
-66.3481 -72.3549 2042.32
-66.3481 -71.8089 2042.32
-66.3481 -71.2628 2042.32
-66.3481 -70.7167 2042.32
-66.3481 -70.1706 2042.32
-66.3481 -69.6246 2042.32
-66.3481 -69.0785 2042.32
-66.3481 -68.5324 2042.32
-66.3481 -67.9864 2042.32
-67.013 -64.1558 1942.86
-67.013 -63.6364 1942.86
-66.3481 -66.3481 2042.32
-66.3481 -65.802 2042.32
-66.3481 -65.256 2042.32
-65.4545 -68.9455 2176
-66.3481 -64.1638 2042.32
-66.3481 -63.6177 2042.32
-66.3481 -63.0717 2042.32
-62.6087 -79.6522 2601.74
-62.6087 -78.9565 2601.74
-66.3481 -61.4334 2042.32
-66.3481 -60.8874 2042.32
-66.3481 -60.3413 2042.32
-66.3481 -59.7952 2042.32
-66.3481 -59.2491 2042.32
-66.3481 -58.7031 2042.32
-66.3481 -58.157 2042.32
-66.3481 -57.6109 2042.32
-66.3481 -57.0648 2042.32
-66.3481 -56.5188 2042.32
-66.3481 -55.9727 2042.32
-66.3481 -55.4266 2042.32
-66.3481 -54.8805 2042.32
-66.3481 -54.3345 2042.32
-66.3481 -53.7884 2042.32
-66.3481 -53.2423 2042.32
-66.3481 -52.6962 2042.32
-66.3481 -52.1502 2042.32
-66.3481 -51.6041 2042.32
-66.3481 -51.058 2042.32
-66.3481 -50.5119 2042.32
-66.4865 -49.4595 2021.62
-66.4865 -48.9189 2021.62
-66.4865 -48.3784 2021.62
-66.4865 -47.8378 2021.62
-62.6087 -60.8696 2601.74
-62.6087 -60.1739 2601.74
-62.6087 -59.4783 2601.74
-62.6087 -58.7826 2601.74
-62.6087 -58.087 2601.74
-62.6087 -57.3913 2601.74
-62.6087 -56.6957 2601.74
-62.6087 -56 2601.74
-62.6087 -55.3043 2601.74
-62.6087 -54.6087 2601.74
-62.6087 -53.913 2601.74
-62.6087 -53.2174 2601.74
-66.8852 -39.6066 1961.97
-66.8852 -39.082 1961.97
-66.8852 -38.5574 1961.97
-66.8852 -38.0328 1961.97
-66.8852 -37.5082 1961.97
-66.8852 -36.9836 1961.97
-66.8852 -36.459 1961.97
-66.8852 -35.9344 1961.97
-66.8852 -35.4098 1961.97
-66.8852 -34.8852 1961.97
-66.8852 -34.3607 1961.97
-66.8852 -33.8361 1961.97
-66.8852 -33.3115 1961.97
-62.6087 -43.4783 2601.74
-62.6087 -42.7826 2601.74
-62.6087 -42.087 2601.74
-66.2069 -32.8276 2063.45
-66.8852 -30.6885 1961.97
-66.8852 -30.1639 1961.97
-66.8852 -29.6393 1961.97
-66.8852 -29.1148 1961.97
-66.8852 -28.5902 1961.97
-66.8852 -28.0656 1961.97
-66.8852 -27.541 1961.97
-66.8852 -27.0164 1961.97
-66.8852 -26.4918 1961.97
-66.8852 -25.9672 1961.97
-67.013 -25.1948 1942.86
-67.013 -24.6753 1942.86
-66.4865 -25.1351 2021.62
-66.4865 -24.5946 2021.62
-66.4865 -24.0541 2021.62
-66.755 -23.0464 1981.46
-66.8852 -22.2951 1961.97
-66.8852 -21.7705 1961.97
-67.013 -21.039 1942.86
-67.1383 -20.3215 1924.12
-67.1383 -19.8071 1924.12
-67.1383 -19.2926 1924.12
-67.1383 -18.7781 1924.12
-67.1383 -18.2637 1924.12
-67.1383 -17.7492 1924.12
-67.1383 -17.2347 1924.12
-67.2611 -16.5605 1905.73
-67.2611 -16.051 1905.73
-67.2611 -15.5414 1905.73
-67.2611 -15.0318 1905.73
-67.2611 -14.5223 1905.73
-67.2611 -14.0127 1905.73
-67.2611 -13.5032 1905.73
-67.2611 -12.9936 1905.73
-67.2611 -12.4841 1905.73
-67.2611 -11.9745 1905.73
-67.2611 -11.465 1905.73
-67.3817 -10.8517 1887.7
-67.3817 -10.347 1887.7
-67.3817 -9.84227 1887.7
-67.3817 -9.33754 1887.7
-62.6087 -12.1739 2601.74
-62.6087 -11.4783 2601.74
-62.6087 -10.7826 2601.74
-62.6087 -10.087 2601.74
-62.6087 -9.3913 2601.74
-62.6087 -8.69565 2601.74
-62.6087 -8 2601.74
-62.6087 -7.30435 2601.74
-62.6087 -6.6087 2601.74
-62.6087 -5.91304 2601.74
-62.6087 -5.21739 2601.74
-62.6087 -4.52174 2601.74
-67.1383 -2.82958 1924.12
-67.1383 -2.31511 1924.12
-67.1383 -1.80064 1924.12
-67.1383 -1.28617 1924.12
-67.1383 -0.771704 1924.12
-67.1383 -0.257235 1924.12
-67.1383 0.257235 1924.12
-67.1383 0.771704 1924.12
-67.1383 1.28617 1924.12
-67.1383 1.80064 1924.12
-67.2611 2.29299 1905.73
-67.3817 2.77603 1887.7
-67.3817 3.28076 1887.7
-67.3817 3.78549 1887.7
-67.3817 4.29022 1887.7
-67.3817 4.79495 1887.7
-67.3817 5.29968 1887.7
-67.3817 5.80442 1887.7
-67.3817 6.30915 1887.7
-67.3817 6.81388 1887.7
-67.3817 7.31861 1887.7
-67.3817 7.82334 1887.7
-67.3817 8.32808 1887.7
-67.3817 8.83281 1887.7
-71.2088 6.50549 1315.16
-71.2088 6.85714 1315.16
-67.3817 10.347 1887.7
-67.3817 10.8517 1887.7
-67.3817 11.3565 1887.7
-67.3817 11.8612 1887.7
-67.3817 12.3659 1887.7
-67.3817 12.8707 1887.7
-67.3817 13.3754 1887.7
-67.3817 13.8801 1887.7
-68.6686 12.9178 1695.18
-68.6686 13.3711 1695.18
-68.6686 13.8244 1695.18
-68.6686 14.2776 1695.18
-68.5714 14.8571 1709.71
-68.5714 15.3143 1709.71
-68.5714 15.7714 1709.71
-68.5714 16.2286 1709.71
-68.5714 16.6857 1709.71
-68.5714 17.1429 1709.71
-68.5714 17.6 1709.71
-68.5714 18.0571 1709.71
-68.5714 18.5143 1709.71
-68.5714 18.9714 1709.71
-68.5714 19.4286 1709.71
-68.5714 19.8857 1709.71
-68.5714 20.3429 1709.71
-68.6686 20.6232 1695.18
-68.6686 21.0765 1695.18
-68.6686 21.5297 1695.18
-68.6686 21.983 1695.18
-68.6686 22.4363 1695.18
-68.6686 22.8895 1695.18
-68.6686 23.3428 1695.18
-68.6686 23.796 1695.18
-68.6686 24.2493 1695.18
-68.6686 24.7025 1695.18
-68.6686 25.1558 1695.18
-68.6686 25.6091 1695.18
-68.6686 26.0623 1695.18
-68.6686 26.5156 1695.18
-68.6686 26.9688 1695.18
-68.6686 27.4221 1695.18
-68.6686 27.8754 1695.18
-68.6686 28.3286 1695.18
-68.6686 28.7819 1695.18
-68.6686 29.2351 1695.18
-68.6686 29.6884 1695.18
-68.6686 30.1416 1695.18
-68.6686 30.5949 1695.18
-68.6686 31.0482 1695.18
-68.6686 31.5014 1695.18
-68.6686 31.9547 1695.18
-68.6686 32.4079 1695.18
-68.6686 32.8612 1695.18
-68.6686 33.3144 1695.18
-68.6686 33.7677 1695.18
-68.6686 34.221 1695.18
-68.6686 34.6742 1695.18
-68.6686 35.1275 1695.18
-68.6686 35.5807 1695.18
-68.764 35.7303 1680.9
-68.764 36.1798 1680.9
-68.6686 36.9405 1695.18
-68.6686 37.3938 1695.18
-68.6686 37.847 1695.18
-68.6686 38.3003 1695.18
-68.6686 38.7535 1695.18
-68.6686 39.2068 1695.18
-68.6686 39.6601 1695.18
-68.6686 40.1133 1695.18
-68.6686 40.5666 1695.18
-68.6686 41.0198 1695.18
-68.6686 41.4731 1695.18
-68.6686 41.9263 1695.18
-68.6686 42.3796 1695.18
-68.6686 42.8329 1695.18
-68.6686 43.2861 1695.18
-68.6686 43.7394 1695.18
-68.6686 44.1926 1695.18
-68.6686 44.6459 1695.18
-68.9503 43.9779 1653.04
-68.9503 44.4199 1653.04
-68.9503 44.8619 1653.04
-68.9503 45.3039 1653.04
-68.6686 46.9122 1695.18
-68.6686 47.3654 1695.18
-68.6686 47.8187 1695.18
-62.6087 74.087 2601.74
-62.6087 74.7826 2601.74
-63.2636 72.636 2503.77
-63.2636 73.3054 2503.77
-63.0508 74.9153 2535.59
-62.6087 77.5652 2601.74
-62.6087 78.2609 2601.74
-62.6087 78.9565 2601.74
-62.6087 79.6522 2601.74
-62.6087 80.3478 2601.74
-64.6154 71.6923 2301.54
-62.6087 81.7391 2601.74
-62.6087 82.4348 2601.74
-63.0508 81.017 2535.59
-70.5882 45.3647 1408
-69.1304 52.8261 1626.09
-69.1304 53.2609 1626.09
-69.1304 53.6957 1626.09
-69.1304 54.1304 1626.09
-69.1304 54.5652 1626.09
-62.6087 88 2601.74
-62.6087 88.6957 2601.74
-69.1304 55.8696 1626.09
-69.2183 55.8491 1612.94
-69.3048 55.8289 1600
-69.2183 56.7116 1612.94
-69.2183 57.1429 1612.94
-69.2183 57.5741 1612.94
-69.2183 58.0054 1612.94
-69.2183 58.4367 1612.94
-69.2183 58.8679 1612.94
-69.2183 59.2992 1612.94
-69.2183 59.7305 1612.94
-69.2183 60.1617 1612.94
-68.4726 64.7839 1724.5
-68.4726 65.245 1724.5
-68.4726 65.7061 1724.5
-69.3048 61.3904 1600
-69.3048 61.8182 1600
-69.3048 62.246 1600
-69.3048 62.6738 1600
-69.3048 63.1016 1600
-69.3048 63.5294 1600
-69.3048 63.9572 1600
-69.3048 64.385 1600
-69.3048 64.8128 1600
-69.3048 65.2406 1600
-69.3048 65.6684 1600
-69.3048 66.0963 1600
-69.3048 66.5241 1600
-69.3048 66.9519 1600
-69.3048 67.3797 1600
-69.3048 67.8075 1600
-69.3048 68.2353 1600
-70.172 63.0958 1470.27
-70.6542 60.3738 1398.13
-70.6542 60.7477 1398.13
-69.8734 66.2279 1514.94
-69.8734 66.6329 1514.94
-69.6373 68.601 1550.26
-70.9707 60.1354 1350.79
-69.6373 69.4301 1550.26
-69.4737 70.9474 1574.74
-69.4737 71.3684 1574.74
-69.4737 71.7895 1574.74
-69.4737 72.2105 1574.74
-69.4737 72.6316 1574.74
-69.4737 73.0526 1574.74
-69.4737 73.4737 1574.74
-69.4737 73.8947 1574.74
-68.0597 84.2985 1786.27
-68.1657 84.0237 1770.41
-68.0597 85.2537 1786.27
-67.5 89.75 1870
-62.6087 125.565 2601.74
-69.5561 75.8225 1562.4
-69.5561 76.2402 1562.4
-62.6087 127.652 2601.74
-62.6087 128.348 2601.74
-62.6087 129.043 2601.74
-62.6087 129.739 2601.74
-66.7586 -103.448 2063.45
-65.8824 -109.706 2200
-65.8824 -109.118 2200
-63.3043 -128.348 2601.74
-65.5639 -110.376 2249.62
-65.3992 -111.027 2275.29
-65.3992 -110.418 2275.29
-63.3043 -125.565 2601.74
-63.3043 -124.87 2601.74
-63.3043 -124.174 2601.74
-63.3043 -123.478 2601.74
-65.5639 -106.165 2249.62
-65.3992 -106.768 2275.29
-65.3992 -106.16 2275.29
-63.3043 -120.696 2601.74
-63.3043 -120 2601.74
-66.8942 -93.6519 2042.32
-66.8942 -93.1058 2042.32
-66.8942 -92.5597 2042.32
-66.8942 -92.0136 2042.32
-66.8942 -91.4676 2042.32
-66.8942 -90.9215 2042.32
-66.8942 -90.3754 2042.32
-66.8942 -89.8294 2042.32
-66.8942 -89.2833 2042.32
-66.8942 -88.7372 2042.32
-66.8942 -88.1911 2042.32
-63.3043 -111.652 2601.74
-66.8942 -87.099 2042.32
-66.8942 -86.5529 2042.32
-66.8942 -86.0068 2042.32
-66.8942 -85.4608 2042.32
-66.8942 -84.9147 2042.32
-66.8942 -84.3686 2042.32
-66.8942 -83.8225 2042.32
-66.8942 -83.2765 2042.32
-66.8942 -82.7304 2042.32
-66.8942 -82.1843 2042.32
-66.8942 -81.6382 2042.32
-66.8942 -81.0921 2042.32
-66.8942 -80.5461 2042.32
-66.8942 -80 2042.32
-66.8942 -79.4539 2042.32
-66.8942 -78.9079 2042.32
-66.8942 -78.3618 2042.32
-66.8942 -77.8157 2042.32
-66.8942 -77.2696 2042.32
-67.027 -75.9459 2021.62
-66.8942 -76.1775 2042.32
-66.8942 -75.6314 2042.32
-66.8942 -75.0853 2042.32
-66.8942 -74.5392 2042.32
-66.8942 -73.9932 2042.32
-66.8942 -73.4471 2042.32
-66.8942 -72.901 2042.32
-66.8942 -72.3549 2042.32
-66.8942 -71.8089 2042.32
-66.8942 -71.2628 2042.32
-66.8942 -70.7167 2042.32
-66.8942 -70.1706 2042.32
-66.8942 -69.6246 2042.32
-66.8942 -69.0785 2042.32
-66.8942 -68.5324 2042.32
-66.8942 -67.9864 2042.32
-67.4098 -64.7869 1961.97
-67.4098 -64.2623 1961.97
-66.8942 -66.3481 2042.32
-66.8942 -65.802 2042.32
-66.8942 -65.256 2042.32
-66.187 -68.2014 2152.52
-66.8942 -64.1638 2042.32
-66.8942 -63.6177 2042.32
-66.8942 -63.0717 2042.32
-63.3043 -79.6522 2601.74
-63.3043 -78.9565 2601.74
-66.8942 -61.4334 2042.32
-66.8942 -60.8874 2042.32
-66.8942 -60.3413 2042.32
-66.8942 -59.7952 2042.32
-66.8942 -59.2491 2042.32
-66.8942 -58.7031 2042.32
-66.8942 -58.157 2042.32
-66.8942 -57.6109 2042.32
-66.8942 -57.0648 2042.32
-66.8942 -56.5188 2042.32
-66.8942 -55.9727 2042.32
-66.8942 -55.4266 2042.32
-66.8942 -54.8805 2042.32
-66.8942 -54.3345 2042.32
-66.8942 -53.7884 2042.32
-66.8942 -53.2423 2042.32
-66.8942 -52.6962 2042.32
-66.8942 -52.1502 2042.32
-66.8942 -51.6041 2042.32
-66.8942 -51.058 2042.32
-66.8942 -50.5119 2042.32
-67.027 -49.4595 2021.62
-67.027 -48.9189 2021.62
-67.027 -48.3784 2021.62
-71.5044 -31.3274 1323.89
-63.3043 -60.8696 2601.74
-63.3043 -60.1739 2601.74
-63.3043 -59.4783 2601.74
-63.3043 -58.7826 2601.74
-63.3043 -58.087 2601.74
-63.3043 -57.3913 2601.74
-70.7022 -31.5739 1448.91
-63.3043 -56 2601.74
-63.3043 -55.3043 2601.74
-63.3043 -54.6087 2601.74
-63.3043 -53.913 2601.74
-63.3043 -53.2174 2601.74
-67.4098 -39.6066 1961.97
-67.4098 -39.082 1961.97
-67.4098 -38.5574 1961.97
-67.4098 -38.0328 1961.97
-67.4098 -37.5082 1961.97
-67.4098 -36.9836 1961.97
-67.4098 -36.459 1961.97
-67.4098 -35.9344 1961.97
-67.4098 -35.4098 1961.97
-67.4098 -34.8852 1961.97
-67.4098 -34.3607 1961.97
-67.4098 -33.8361 1961.97
-67.4098 -33.3115 1961.97
-63.3043 -43.4783 2601.74
-63.3043 -42.7826 2601.74
-63.3043 -42.087 2601.74
-66.8942 -32.4915 2042.32
-66.8942 -31.9454 2042.32
-67.4098 -30.1639 1961.97
-63.3043 -39.3043 2601.74
-67.5325 -28.8312 1942.86
-67.5325 -28.3117 1942.86
-67.4098 -28.0656 1961.97
-67.5325 -27.2727 1942.86
-67.4098 -27.0164 1961.97
-66.8942 -27.5768 2042.32
-66.8942 -27.0307 2042.32
-67.5325 -25.1948 1942.86
-67.1572 -25.4181 2001.34
-67.1572 -24.8829 2001.34
-67.1572 -24.3478 2001.34
-67.1572 -23.8127 2001.34
-67.1572 -23.2776 2001.34
-67.4098 -22.2951 1961.97
-67.4098 -21.7705 1961.97
-67.5325 -21.039 1942.86
-67.5325 -20.5195 1942.86
-67.5325 -20 1942.86
-67.6527 -19.2926 1924.12
-67.6527 -18.7781 1924.12
-67.7707 -18.0892 1905.73
-67.7707 -17.5796 1905.73
-67.7707 -17.0701 1905.73
-67.7707 -16.5605 1905.73
-67.7707 -16.051 1905.73
-67.7707 -15.5414 1905.73
-67.7707 -15.0318 1905.73
-67.7707 -14.5223 1905.73
-67.7707 -14.0127 1905.73
-67.7707 -13.5032 1905.73
-67.7707 -12.9936 1905.73
-67.7707 -12.4841 1905.73
-67.8864 -11.8612 1887.7
-67.8864 -11.3565 1887.7
-67.8864 -10.8517 1887.7
-67.8864 -10.347 1887.7
-67.8864 -9.84227 1887.7
-67.8864 -9.33754 1887.7
-67.8864 -8.83281 1887.7
-63.3043 -11.4783 2601.74
-67.8864 -7.82334 1887.7
-67.8864 -7.31861 1887.7
-67.8864 -6.81388 1887.7
-63.3043 -8.69565 2601.74
-63.3043 -8 2601.74
-63.3043 -7.30435 2601.74
-63.3043 -6.6087 2601.74
-63.3043 -5.91304 2601.74
-63.3043 -5.21739 2601.74
-63.3043 -4.52174 2601.74
-63.3043 -3.82609 2601.74
-63.3043 -3.13043 2601.74
-63.3043 -2.43478 2601.74
-67.7707 -1.27389 1905.73
-67.7707 -0.764331 1905.73
-67.6527 -0.257235 1924.12
-67.6527 0.257235 1924.12
-67.6527 0.771704 1924.12
-67.6527 1.28617 1924.12
-67.7707 1.78344 1905.73
-67.8864 2.27129 1887.7
-67.8864 2.77603 1887.7
-67.8864 3.28076 1887.7
-67.8864 3.78549 1887.7
-67.6527 4.37299 1924.12
-67.6527 4.88746 1924.12
-67.6527 5.40193 1924.12
-67.6527 5.9164 1924.12
-67.6527 6.43087 1924.12
-67.4098 7.08197 1961.97
-67.4098 7.60656 1961.97
-67.4098 8.13115 1961.97
-63.3043 11.4783 2601.74
-63.3043 12.1739 2601.74
-67.8864 9.33754 1887.7
-67.8864 9.84227 1887.7
-67.8864 10.347 1887.7
-67.8864 10.8517 1887.7
-67.8864 11.3565 1887.7
-67.8864 11.8612 1887.7
-67.8864 12.3659 1887.7
-67.8864 12.8707 1887.7
-67.8864 13.3754 1887.7
-67.8864 13.8801 1887.7
-67.8864 14.3849 1887.7
-69.1218 13.3711 1695.18
-69.1218 13.8244 1695.18
-69.0286 14.4 1709.71
-69.0286 14.8571 1709.71
-69.0286 15.3143 1709.71
-69.0286 15.7714 1709.71
-69.0286 16.2286 1709.71
-69.0286 16.6857 1709.71
-69.0286 17.1429 1709.71
-69.0286 17.6 1709.71
-69.0286 18.0571 1709.71
-69.0286 18.5143 1709.71
-69.0286 18.9714 1709.71
-69.0286 19.4286 1709.71
-69.0286 19.8857 1709.71
-69.0286 20.3429 1709.71
-69.0286 20.8 1709.71
-69.0286 21.2571 1709.71
-69.0286 21.7143 1709.71
-69.0286 22.1714 1709.71
-69.0286 22.6286 1709.71
-69.0286 23.0857 1709.71
-69.1218 23.3428 1695.18
-69.1218 23.796 1695.18
-69.1218 24.2493 1695.18
-69.1218 24.7025 1695.18
-69.1218 25.1558 1695.18
-69.1218 25.6091 1695.18
-69.1218 26.0623 1695.18
-69.1218 26.5156 1695.18
-69.1218 26.9688 1695.18
-69.1218 27.4221 1695.18
-69.1218 27.8754 1695.18
-69.1218 28.3286 1695.18
-69.1218 28.7819 1695.18
-69.2135 28.9888 1680.9
-69.1218 29.6884 1695.18
-69.1218 30.1416 1695.18
-69.1218 30.5949 1695.18
-69.1218 31.0482 1695.18
-69.1218 31.5014 1695.18
-69.1218 31.9547 1695.18
-69.1218 32.4079 1695.18
-69.1218 32.8612 1695.18
-69.1218 33.3144 1695.18
-69.1218 33.7677 1695.18
-69.1218 34.221 1695.18
-69.1218 34.6742 1695.18
-69.1218 35.1275 1695.18
-69.1218 35.5807 1695.18
-69.1218 36.034 1695.18
-69.1218 36.4873 1695.18
-69.1218 36.9405 1695.18
-69.1218 37.3938 1695.18
-69.1218 37.847 1695.18
-69.1218 38.3003 1695.18
-69.1218 38.7535 1695.18
-69.1218 39.2068 1695.18
-69.1218 39.6601 1695.18
-69.1218 40.1133 1695.18
-69.1218 40.5666 1695.18
-69.1218 41.0198 1695.18
-69.1218 41.4731 1695.18
-69.1218 41.9263 1695.18
-69.1218 42.3796 1695.18
-69.1218 42.8329 1695.18
-69.1218 43.2861 1695.18
-69.1218 43.7394 1695.18
-69.1218 44.1926 1695.18
-69.1218 44.6459 1695.18
-69.1218 45.0992 1695.18
-69.1218 45.5524 1695.18
-69.1218 46.0057 1695.18
-69.1218 46.4589 1695.18
-69.1218 46.9122 1695.18
-69.1218 47.3654 1695.18
-69.1218 47.8187 1695.18
-69.2135 47.8652 1680.9
-69.2135 48.3146 1680.9
-69.2135 48.764 1680.9
-63.3043 76.1739 2601.74
-63.3043 76.8696 2601.74
-63.3043 77.5652 2601.74
-63.3043 78.2609 2601.74
-63.3043 78.9565 2601.74
-63.3043 79.6522 2601.74
-63.3043 80.3478 2601.74
-63.3043 81.0435 2601.74
-63.3043 81.7391 2601.74
-63.3043 82.4348 2601.74
-63.3043 83.1304 2601.74
-70.5651 47.371 1470.27
-70.8353 46.3962 1428.16
-63.3043 85.2174 2601.74
-68.5373 58.9851 1786.27
-68.5373 59.4627 1786.27
-68.6391 59.4083 1770.41
-63.3043 88 2601.74
-63.3043 88.6957 2601.74
-69.6496 55.4178 1612.94
-69.6496 55.8491 1612.94
-69.6496 56.2803 1612.94
-63.3043 91.4783 2601.74
-63.3043 92.1739 2601.74
-63.3043 92.8696 2601.74
-63.3043 93.5652 2601.74
-63.3043 94.2609 2601.74
-63.3043 94.9565 2601.74
-63.3043 95.6522 2601.74
-63.3043 96.3478 2601.74
-68.9337 64.3228 1724.5
-63.3043 97.7391 2601.74
-68.9337 65.245 1724.5
-68.9337 65.7061 1724.5
-69.7326 61.3904 1600
-69.7326 61.8182 1600
-69.7326 62.246 1600
-69.7326 62.6738 1600
-69.7326 63.1016 1600
-69.7326 63.5294 1600
-69.7326 63.9572 1600
-69.7326 64.385 1600
-69.7326 64.8128 1600
-69.7326 65.2406 1600
-69.7326 65.6684 1600
-69.7326 66.0963 1600
-69.7326 66.5241 1600
-69.7326 66.9519 1600
-69.7326 67.3797 1600
-69.7326 67.8075 1600
-69.7326 68.2353 1600
-69.7326 68.6631 1600
-71.028 60.3738 1398.13
-71.028 60.7477 1398.13
-71.028 61.1215 1398.13
-69.8143 69.8143 1587.27
-69.8143 70.2387 1587.27
-68.9337 76.7723 1724.5
-70.1285 68.8946 1538.3
-69.8143 71.5119 1587.27
-69.8947 71.3684 1574.74
-69.8947 71.7895 1574.74
-69.8947 72.2105 1574.74
-69.8947 72.6316 1574.74
-69.8947 73.0526 1574.74
-69.8947 73.4737 1574.74
-66.7586 96.8276 2063.45
-66.7586 97.3793 2063.45
-66.7586 97.931 2063.45
-68.4337 86.0241 1802.41
-68 89.75 1870
-69.9739 75.4047 1562.4
-69.9739 75.8225 1562.4
-69.9739 76.2402 1562.4
-63.3043 127.652 2601.74
-63.3043 128.348 2601.74
-63.3043 129.043 2601.74
-63.3043 129.739 2601.74
-67.3103 -103.448 2063.45
-67.3103 -102.897 2063.45
-67.3103 -102.345 2063.45
-67.3103 -101.793 2063.45
-67.3103 -101.241 2063.45
-66.6182 -106.182 2176
-66.6182 -105.6 2176
-67.3103 -99.5862 2063.45
-67.3103 -99.0345 2063.45
-67.3103 -98.4828 2063.45
-67.3103 -97.931 2063.45
-67.3103 -97.3793 2063.45
-67.3103 -96.8276 2063.45
-67.3103 -96.2759 2063.45
-67.3103 -95.7241 2063.45
-70.1604 -73.7968 1600
-64 -119.304 2601.74
-64 -118.609 2601.74
-66.0076 -103.118 2275.29
-66.0076 -102.51 2275.29
-66.0076 -101.901 2275.29
-67.4403 -90.9215 2042.32
-67.4403 -90.3754 2042.32
-67.4403 -89.8294 2042.32
-67.4403 -89.2833 2042.32
-67.4403 -88.7372 2042.32
-67.4403 -88.1911 2042.32
-67.4403 -87.6451 2042.32
-67.4403 -87.099 2042.32
-67.4403 -86.5529 2042.32
-67.4403 -86.0068 2042.32
-67.4403 -85.4608 2042.32
-67.4403 -84.9147 2042.32
-67.4403 -84.3686 2042.32
-67.4403 -83.8225 2042.32
-67.4403 -83.2765 2042.32
-67.4403 -82.7304 2042.32
-67.4403 -82.1843 2042.32
-67.4403 -81.6382 2042.32
-67.4403 -81.0921 2042.32
-67.4403 -80.5461 2042.32
-67.4403 -80 2042.32
-67.4403 -79.4539 2042.32
-67.4403 -78.9079 2042.32
-67.4403 -78.3618 2042.32
-67.4403 -77.8157 2042.32
-67.4403 -77.2696 2042.32
-67.4403 -76.7235 2042.32
-67.4403 -76.1775 2042.32
-67.4403 -75.6314 2042.32
-67.4403 -75.0853 2042.32
-67.4403 -74.5392 2042.32
-67.4403 -73.9932 2042.32
-67.4403 -73.4471 2042.32
-67.4403 -72.901 2042.32
-67.4403 -72.3549 2042.32
-67.4403 -71.8089 2042.32
-67.4403 -71.2628 2042.32
-67.4403 -70.7167 2042.32
-67.4403 -70.1706 2042.32
-67.4403 -69.6246 2042.32
-67.4403 -69.0785 2042.32
-67.4403 -68.5324 2042.32
-67.4403 -67.9864 2042.32
-67.8146 -65.4305 1981.46
-67.4403 -66.8942 2042.32
-67.4403 -66.3481 2042.32
-67.4403 -65.802 2042.32
-67.4403 -65.256 2042.32
-67.4403 -64.7099 2042.32
-67.4403 -64.1638 2042.32
-64 -81.0435 2601.74
-67.4403 -63.0717 2042.32
-67.4403 -62.5256 2042.32
-67.4403 -61.9795 2042.32
-67.4403 -61.4334 2042.32
-67.4403 -60.8874 2042.32
-67.4403 -60.3413 2042.32
-67.4403 -59.7952 2042.32
-67.4403 -59.2491 2042.32
-67.4403 -58.7031 2042.32
-67.4403 -58.157 2042.32
-67.4403 -57.6109 2042.32
-67.4403 -57.0648 2042.32
-67.4403 -56.5188 2042.32
-64 -71.3043 2601.74
-67.4403 -55.4266 2042.32
-67.4403 -54.8805 2042.32
-67.4403 -54.3345 2042.32
-67.4403 -53.7884 2042.32
-67.4403 -53.2423 2042.32
-67.4403 -52.6962 2042.32
-67.4403 -52.1502 2042.32
-67.4403 -51.6041 2042.32
-64 -65.0435 2601.74
-64 -64.3478 2601.74
-64 -63.6522 2601.74
-64 -62.9565 2601.74
-70.4663 -37.0984 1550.26
-64 -61.5652 2601.74
-70.1604 -37.4332 1600
-70.1604 -37.0053 1600
-64 -59.4783 2601.74
-64 -58.7826 2601.74
-64 -58.087 2601.74
-67.9344 -43.2787 1961.97
-67.9344 -42.7541 1961.97
-67.9344 -42.2295 1961.97
-67.9344 -41.7049 1961.97
-67.9344 -41.1803 1961.97
-67.9344 -40.6557 1961.97
-67.9344 -40.1311 1961.97
-67.9344 -39.6066 1961.97
-67.9344 -39.082 1961.97
-67.9344 -38.5574 1961.97
-67.9344 -38.0328 1961.97
-67.9344 -37.5082 1961.97
-67.9344 -36.9836 1961.97
-67.9344 -36.459 1961.97
-67.9344 -35.9344 1961.97
-67.9344 -35.4098 1961.97
-67.9344 -34.8852 1961.97
-67.9344 -34.3607 1961.97
-67.9344 -33.8361 1961.97
-67.9344 -33.3115 1961.97
-64 -43.4783 2601.74
-64 -42.7826 2601.74
-64 -42.087 2601.74
-67.5676 -32.1622 2021.62
-67.5676 -31.6216 2021.62
-67.5676 -31.0811 2021.62
-67.4403 -30.8532 2042.32
-67.4403 -30.3072 2042.32
-67.4403 -29.7611 2042.32
-67.4403 -29.215 2042.32
-67.4403 -28.6689 2042.32
-67.4403 -28.1229 2042.32
-67.5676 -27.2973 2021.62
-67.6923 -26.4883 2001.34
-67.6923 -25.9532 2001.34
-67.8146 -25.1656 1981.46
-67.8146 -24.6358 1981.46
-67.8146 -24.106 1981.46
-67.8146 -23.5762 1981.46
-67.8146 -23.0464 1981.46
-67.9344 -22.2951 1961.97
-67.9344 -21.7705 1961.97
-68.0519 -21.039 1942.86
-68.0519 -20.5195 1942.86
-68.0519 -20 1942.86
-68.1672 -19.2926 1924.12
-68.1672 -18.7781 1924.12
-68.2803 -18.0892 1905.73
-68.2803 -17.5796 1905.73
-68.2803 -17.0701 1905.73
-68.2803 -16.5605 1905.73
-68.2803 -16.051 1905.73
-68.2803 -15.5414 1905.73
-68.2803 -15.0318 1905.73
-68.2803 -14.5223 1905.73
-68.2803 -14.0127 1905.73
-68.2803 -13.5032 1905.73
-68.2803 -12.9936 1905.73
-68.2803 -12.4841 1905.73
-68.3912 -11.8612 1887.7
-68.3912 -11.3565 1887.7
-68.3912 -10.8517 1887.7
-68.3912 -10.347 1887.7
-68.3912 -9.84227 1887.7
-68.3912 -9.33754 1887.7
-68.3912 -8.83281 1887.7
-68.3912 -8.32808 1887.7
-68.3912 -7.82334 1887.7
-68.3912 -7.31861 1887.7
-68.3912 -6.81388 1887.7
-68.3912 -6.30915 1887.7
-68.3912 -5.80442 1887.7
-68.3912 -5.29968 1887.7
-68.3912 -4.79495 1887.7
-68.3912 -4.29022 1887.7
-68.3912 -3.78549 1887.7
-64 -4.52174 2601.74
-64 -3.82609 2601.74
-71.5207 -1.65899 1378.8
-71.5207 -1.29032 1378.8
-71.5207 -0.921659 1378.8
-68.2803 -0.764331 1905.73
-68.2803 -0.254777 1905.73
-68.2803 0.254777 1905.73
-68.1672 0.771704 1924.12
-68.1672 1.28617 1924.12
-68.2803 1.78344 1905.73
-68.3912 2.27129 1887.7
-68.3912 2.77603 1887.7
-68.3912 3.28076 1887.7
-68.2803 3.82166 1905.73
-68.2803 4.33121 1905.73
-68.1672 4.88746 1924.12
-68.1672 5.40193 1924.12
-68.1672 5.9164 1924.12
-68.1672 6.43087 1924.12
-68.2803 6.87898 1905.73
-68.2803 7.38854 1905.73
-68.2803 7.89809 1905.73
-68.2803 8.40764 1905.73
-68.2803 8.9172 1905.73
-68.2803 9.42675 1905.73
-68.2803 9.93631 1905.73
-68.2803 10.4459 1905.73
-68.2803 10.9554 1905.73
-68.2803 11.465 1905.73
-68.3912 11.8612 1887.7
-68.3912 12.3659 1887.7
-68.3912 12.8707 1887.7
-68.3912 13.3754 1887.7
-68.3912 13.8801 1887.7
-68.3912 14.3849 1887.7
-64 20.5217 2601.74
-69.5751 13.8244 1695.18
-69.4857 14.4 1709.71
-69.4857 14.8571 1709.71
-69.4857 15.3143 1709.71
-69.4857 15.7714 1709.71
-69.4857 16.2286 1709.71
-69.4857 16.6857 1709.71
-69.4857 17.1429 1709.71
-69.4857 17.6 1709.71
-69.4857 18.0571 1709.71
-69.4857 18.5143 1709.71
-69.4857 18.9714 1709.71
-69.4857 19.4286 1709.71
-69.4857 19.8857 1709.71
-69.4857 20.3429 1709.71
-69.4857 20.8 1709.71
-69.4857 21.2571 1709.71
-69.4857 21.7143 1709.71
-69.4857 22.1714 1709.71
-69.4857 22.6286 1709.71
-69.4857 23.0857 1709.71
-69.4857 23.5429 1709.71
-70.6835 21.2658 1514.94
-70.6835 21.6709 1514.94
-69.5751 24.7025 1695.18
-69.5751 25.1558 1695.18
-69.5751 25.6091 1695.18
-69.5751 26.0623 1695.18
-69.5751 26.5156 1695.18
-69.5751 26.9688 1695.18
-69.5751 27.4221 1695.18
-69.5751 27.8754 1695.18
-69.5751 28.3286 1695.18
-69.5751 28.7819 1695.18
-69.6629 28.9888 1680.9
-69.5751 29.6884 1695.18
-69.5751 30.1416 1695.18
-69.5751 30.5949 1695.18
-69.5751 31.0482 1695.18
-69.5751 31.5014 1695.18
-69.5751 31.9547 1695.18
-69.5751 32.4079 1695.18
-69.5751 32.8612 1695.18
-69.5751 33.3144 1695.18
-69.5751 33.7677 1695.18
-69.5751 34.221 1695.18
-69.5751 34.6742 1695.18
-69.5751 35.1275 1695.18
-69.5751 35.5807 1695.18
-69.5751 36.034 1695.18
-69.5751 36.4873 1695.18
-69.5751 36.9405 1695.18
-69.5751 37.3938 1695.18
-69.5751 37.847 1695.18
-69.5751 38.3003 1695.18
-69.5751 38.7535 1695.18
-69.5751 39.2068 1695.18
-69.5751 39.6601 1695.18
-69.5751 40.1133 1695.18
-69.5751 40.5666 1695.18
-69.5751 41.0198 1695.18
-69.5751 41.4731 1695.18
-69.5751 41.9263 1695.18
-69.5751 42.3796 1695.18
-69.5751 42.8329 1695.18
-69.5751 43.2861 1695.18
-69.5751 43.7394 1695.18
-69.5751 44.1926 1695.18
-69.5751 44.6459 1695.18
-69.5751 45.0992 1695.18
-69.5751 45.5524 1695.18
-69.5751 46.0057 1695.18
-69.5751 46.4589 1695.18
-69.5751 46.9122 1695.18
-69.5751 47.3654 1695.18
-69.6629 47.4157 1680.9
-69.6629 47.8652 1680.9
-64 74.7826 2601.74
-64 75.4783 2601.74
-64 76.1739 2601.74
-64 76.8696 2601.74
-64.4068 75.5932 2535.59
-64 78.2609 2601.74
-67.8146 60.1325 1981.46
-64.206 78.6266 2568.24
-64 80.3478 2601.74
-64 81.0435 2601.74
-64 81.7391 2601.74
-64 82.4348 2601.74
-64 83.1304 2601.74
-70.8911 47.7228 1481.19
-68.6068 60.1858 1852.63
-64 85.2174 2601.74
-69.0149 58.9851 1786.27
-69.2082 58.4164 1754.84
-69.1124 59.4083 1770.41
-69.1124 59.8817 1770.41
-64 88.6957 2601.74
-64 89.3913 2601.74
-70.1604 55.4011 1600
-70.3158 54.9474 1574.74
-70.0809 56.7116 1612.94
-70.0809 57.1429 1612.94
-70.0809 57.5741 1612.94
-70.0809 58.0054 1612.94
-64 94.2609 2601.74
-64 94.9565 2601.74
-64 95.6522 2601.74
-69.3948 63.8617 1724.5
-69.3948 64.3228 1724.5
-69.3948 64.7839 1724.5
-69.3948 65.245 1724.5
-66.4706 83.8235 2200
-70.1604 61.3904 1600
-70.1604 61.8182 1600
-70.1604 62.246 1600
-70.1604 62.6738 1600
-70.1604 63.1016 1600
-70.1604 63.5294 1600
-70.1604 63.9572 1600
-70.1604 64.385 1600
-70.1604 64.8128 1600
-70.1604 65.2406 1600
-70.1604 65.6684 1600
-70.1604 66.0963 1600
-70.1604 66.5241 1600
-70.1604 66.9519 1600
-70.1604 67.3797 1600
-70.1604 67.8075 1600
-70.1604 68.2353 1600
-70.1604 68.6631 1600
-64.206 110.901 2568.24
-64.206 111.588 2568.24
-70.8911 64.7525 1481.19
-70.2387 69.8143 1587.27
-70.5398 68.072 1538.3
-69.5751 75.4674 1695.18
-70.5398 68.8946 1538.3
-70.5398 69.3059 1538.3
-70.4663 70.2591 1550.26
-70.3158 71.7895 1574.74
-70.3158 72.2105 1574.74
-70.3158 72.6316 1574.74
-69.4857 79.3143 1709.71
-68.6068 86.4396 1852.63
-68.3912 88.5804 1887.7
-67.3103 97.3793 2063.45
-67.3103 97.931 2063.45
-67.6923 95.5184 2001.34
-69.6629 80.6742 1680.9
-70.3916 75.4047 1562.4
-70.3916 75.8225 1562.4
-70.3916 76.2402 1562.4
-64 127.652 2601.74
-64 128.348 2601.74
-64 129.043 2601.74
-64 129.739 2601.74
-67.8621 -103.448 2063.45
-67.8621 -102.897 2063.45
-67.8621 -102.345 2063.45
-67.8621 -101.793 2063.45
-67.8621 -101.241 2063.45
-67.8621 -100.69 2063.45
-67.2 -105.6 2176
-67.8621 -99.5862 2063.45
-67.8621 -99.0345 2063.45
-67.8621 -98.4828 2063.45
-67.8621 -97.931 2063.45
-67.8621 -97.3793 2063.45
-67.8621 -96.8276 2063.45
-64.6957 -121.391 2601.74
-70.5882 -74.2246 1600
-66.3035 -107.393 2328.4
-64.6957 -119.304 2601.74
-67.9864 -93.1058 2042.32
-67.9864 -92.5597 2042.32
-67.9864 -92.0136 2042.32
-67.9864 -91.4676 2042.32
-67.9864 -90.9215 2042.32
-67.9864 -90.3754 2042.32
-67.9864 -89.8294 2042.32
-67.9864 -89.2833 2042.32
-67.9864 -88.7372 2042.32
-67.9864 -88.1911 2042.32
-67.9864 -87.6451 2042.32
-67.9864 -87.099 2042.32
-67.9864 -86.5529 2042.32
-65.0847 -106.78 2535.59
-65.0847 -106.102 2535.59
-65.0847 -105.424 2535.59
-65.0847 -104.746 2535.59
-65.0847 -104.068 2535.59
-65.0847 -103.39 2535.59
-67.9864 -82.7304 2042.32
-67.9864 -82.1843 2042.32
-67.9864 -81.6382 2042.32
-67.9864 -81.0921 2042.32
-67.9864 -80.5461 2042.32
-67.9864 -80 2042.32
-67.9864 -79.4539 2042.32
-67.9864 -78.9079 2042.32
-67.9864 -78.3618 2042.32
-67.9864 -77.8157 2042.32
-67.9864 -77.2696 2042.32
-68.1081 -75.9459 2021.62
-68.3444 -73.9073 1981.46
-67.9864 -75.6314 2042.32
-67.9864 -75.0853 2042.32
-67.9864 -74.5392 2042.32
-67.9864 -73.9932 2042.32
-67.9864 -73.4471 2042.32
-67.9864 -72.901 2042.32
-67.9864 -72.3549 2042.32
-67.9864 -71.8089 2042.32
-67.9864 -71.2628 2042.32
-67.9864 -70.7167 2042.32
-67.9864 -70.1706 2042.32
-67.9864 -69.6246 2042.32
-67.9864 -69.0785 2042.32
-67.9864 -68.5324 2042.32
-67.9864 -67.9864 2042.32
-67.9864 -67.4403 2042.32
-67.9864 -66.8942 2042.32
-67.9864 -66.3481 2042.32
-67.9864 -65.802 2042.32
-67.9864 -65.256 2042.32
-67.9864 -64.7099 2042.32
-67.9864 -64.1638 2042.32
-64.6957 -81.0435 2601.74
-67.9864 -63.0717 2042.32
-67.9864 -62.5256 2042.32
-67.9864 -61.9795 2042.32
-67.9864 -61.4334 2042.32
-67.9864 -60.8874 2042.32
-67.9864 -60.3413 2042.32
-67.9864 -59.7952 2042.32
-67.9864 -59.2491 2042.32
-67.9864 -58.7031 2042.32
-67.9864 -58.157 2042.32
-67.9864 -57.6109 2042.32
-67.9864 -57.0648 2042.32
-67.9864 -56.5188 2042.32
-67.9864 -55.9727 2042.32
-67.9864 -55.4266 2042.32
-67.9864 -54.8805 2042.32
-67.9864 -54.3345 2042.32
-68.1081 -53.2432 2021.62
-64.6957 -67.8261 2601.74
-67.9864 -52.6962 2042.32
-67.9864 -52.1502 2042.32
-67.9864 -51.6041 2042.32
-64.6957 -65.0435 2601.74
-64.6957 -64.3478 2601.74
-64.6957 -63.6522 2601.74
-64.6957 -62.9565 2601.74
-70.8094 -37.389 1562.4
-64.6957 -61.5652 2601.74
-64.6957 -60.8696 2601.74
-64.6957 -60.1739 2601.74
-69.7674 -39.7674 1739.53
-68.459 -44.3279 1961.97
-68.459 -43.8033 1961.97
-68.459 -43.2787 1961.97
-68.459 -42.7541 1961.97
-68.459 -42.2295 1961.97
-68.459 -41.7049 1961.97
-68.459 -41.1803 1961.97
-68.459 -40.6557 1961.97
-68.459 -40.1311 1961.97
-68.459 -39.6066 1961.97
-68.459 -39.082 1961.97
-68.459 -38.5574 1961.97
-68.459 -38.0328 1961.97
-68.459 -37.5082 1961.97
-68.459 -36.9836 1961.97
-68.459 -36.459 1961.97
-68.459 -35.9344 1961.97
-68.459 -35.4098 1961.97
-68.459 -34.8852 1961.97
-68.459 -34.3607 1961.97
-68.459 -33.8361 1961.97
-68.459 -33.3115 1961.97
-68.459 -32.7869 1961.97
-64.6957 -42.7826 2601.74
-68.3444 -32.053 1981.46
-68.2274 -31.8395 2001.34
-68.2274 -31.3043 2001.34
-68.2274 -30.7692 2001.34
-68.1081 -30.5405 2021.62
-68.1081 -30 2021.62
-67.9864 -29.7611 2042.32
-67.9864 -29.215 2042.32
-67.9864 -28.6689 2042.32
-68.1081 -27.8378 2021.62
-68.2274 -27.0234 2001.34
-68.2274 -26.4883 2001.34
-68.2274 -25.9532 2001.34
-68.459 -24.918 1961.97
-68.459 -24.3934 1961.97
-68.459 -23.8689 1961.97
-68.459 -23.3443 1961.97
-68.459 -22.8197 1961.97
-68.459 -22.2951 1961.97
-68.459 -21.7705 1961.97
-68.5714 -21.039 1942.86
-68.5714 -20.5195 1942.86
-68.5714 -20 1942.86
-68.6817 -19.2926 1924.12
-68.6817 -18.7781 1924.12
-68.7898 -18.0892 1905.73
-68.7898 -17.5796 1905.73
-68.7898 -17.0701 1905.73
-68.7898 -16.5605 1905.73
-68.7898 -16.051 1905.73
-68.7898 -15.5414 1905.73
-68.7898 -15.0318 1905.73
-68.7898 -14.5223 1905.73
-68.7898 -14.0127 1905.73
-68.8959 -13.3754 1887.7
-68.8959 -12.8707 1887.7
-68.8959 -12.3659 1887.7
-68.8959 -11.8612 1887.7
-68.8959 -11.3565 1887.7
-68.8959 -10.8517 1887.7
-68.8959 -10.347 1887.7
-68.8959 -9.84227 1887.7
-68.8959 -9.33754 1887.7
-68.8959 -8.83281 1887.7
-68.8959 -8.32808 1887.7
-68.8959 -7.82334 1887.7
-68.8959 -7.31861 1887.7
-68.8959 -6.81388 1887.7
-68.8959 -6.30915 1887.7
-68.8959 -5.80442 1887.7
-68.8959 -5.29968 1887.7
-68.8959 -4.79495 1887.7
-68.8959 -4.29022 1887.7
-68.8959 -3.78549 1887.7
-68.8959 -3.28076 1887.7
-68.8959 -2.77603 1887.7
-68.8959 -2.27129 1887.7
-68.8959 -1.76656 1887.7
-68.7898 -1.27389 1905.73
-68.7898 -0.764331 1905.73
-68.7898 -0.254777 1905.73
-68.7898 0.254777 1905.73
-68.7898 0.764331 1905.73
-68.7898 1.27389 1905.73
-68.7898 1.78344 1905.73
-68.8959 2.27129 1887.7
-68.8959 2.77603 1887.7
-68.8959 3.28076 1887.7
-68.7898 3.82166 1905.73
-68.7898 4.33121 1905.73
-68.7898 4.84076 1905.73
-68.7898 5.35032 1905.73
-68.6817 5.9164 1924.12
-68.6817 6.43087 1924.12
-68.6817 6.94534 1924.12
-68.6817 7.45981 1924.12
-68.6817 7.97428 1924.12
-68.6817 8.48875 1924.12
-68.7898 8.9172 1905.73
-68.7898 9.42675 1905.73
-68.7898 9.93631 1905.73
-68.7898 10.4459 1905.73
-68.7898 10.9554 1905.73
-68.7898 11.465 1905.73
-68.7898 11.9745 1905.73
-68.8959 12.3659 1887.7
-68.8959 12.8707 1887.7
-68.8959 13.3754 1887.7
-68.8959 13.8801 1887.7
-68.8959 14.3849 1887.7
